5.000000000000000000e+00,5.000000000000000000e+00,5.000000000000000000e+00,5.000000000000000000e+00,5.000000000000000000e+00,5.000000000000000000e+00,5.000000000000000000e+00,5.000000000000000000e+00,5.000000000000000000e+00,5.000000000000000000e+00,5.000000000000000000e+00,5.000000000000000000e+00,5.000000000000000000e+00,5.000000000000000000e+00,5.000000000000000000e+00,5.000000000000000000e+00,5.000000000000000000e+00,5.000000000000000000e+00,5.000000000000000000e+00,5.000000000000000000e+00,5.000000000000000000e+00,5.000000000000000000e+00,5.000000000000000000e+00,5.000000000000000000e+00,5.000000000000000000e+00,5.000000000000000000e+00,5.000000000000000000e+00,5.000000000000000000e+00,5.000000000000000000e+00,5.000000000000000000e+00,5.000000000000000000e+00,5.000000000000000000e+00,5.000000000000000000e+00,5.000000000000000000e+00,5.000000000000000000e+00,5.000000000000000000e+00,5.000000000000000000e+00,5.000000000000000000e+00,5.000000000000000000e+00,4.852200031280517578e+00,4.662061691284179688e+00,4.486263751983642578e+00,4.323241710662841797e+00,4.171652317047119141e+00,4.030333042144775391e+00,3.898274898529052734e+00,3.774596214294433594e+00,3.658524274826049805e+00,3.549377679824829102e+00,3.446554899215698242e+00,3.349521636962890625e+00,3.257802724838256836e+00,3.170972824096679688e+00,3.088651418685913086e+00,3.010496139526367188e+00,2.936198472976684570e+00,2.865479469299316406e+00,2.798087120056152344e+00,2.733792066574096680e+00,2.672385215759277344e+00,2.613676548004150391e+00,2.557492017745971680e+00,2.503671884536743164e+00,2.452070236206054688e+00,2.402552843093872070e+00,2.354995965957641602e+00,2.309285163879394531e+00,2.265315055847167969e+00,2.222988128662109375e+00,2.182213544845581055e+00,2.142908334732055664e+00,2.104993581771850586e+00,2.068397283554077148e+00,2.033051967620849609e+00,1.998894095420837402e+00,1.965865135192871094e+00,1.933909773826599121e+00,1.902976870536804199e+00,1.873017907142639160e+00,1.843987584114074707e+00
5.000000000000000000e+00,5.000000000000000000e+00,5.000000000000000000e+00,5.000000000000000000e+00,5.000000000000000000e+00,5.000000000000000000e+00,5.000000000000000000e+00,5.000000000000000000e+00,5.000000000000000000e+00,5.000000000000000000e+00,5.000000000000000000e+00,5.000000000000000000e+00,5.000000000000000000e+00,5.000000000000000000e+00,5.000000000000000000e+00,5.000000000000000000e+00,5.000000000000000000e+00,5.000000000000000000e+00,5.000000000000000000e+00,5.000000000000000000e+00,5.000000000000000000e+00,5.000000000000000000e+00,5.000000000000000000e+00,5.000000000000000000e+00,5.000000000000000000e+00,5.000000000000000000e+00,5.000000000000000000e+00,5.000000000000000000e+00,5.000000000000000000e+00,5.000000000000000000e+00,5.000000000000000000e+00,5.000000000000000000e+00,5.000000000000000000e+00,5.000000000000000000e+00,5.000000000000000000e+00,5.000000000000000000e+00,5.000000000000000000e+00,5.000000000000000000e+00,5.000000000000000000e+00,4.852338790893554688e+00,4.662190437316894531e+00,4.486382484436035156e+00,4.323351860046386719e+00,4.171754837036132812e+00,4.030428886413574219e+00,3.898364543914794922e+00,3.774680376052856445e+00,3.658603191375732422e+00,3.549452066421508789e+00,3.446624994277954102e+00,3.349588155746459961e+00,3.257865428924560547e+00,3.171032190322875977e+00,3.088707685470581055e+00,3.010549545288085938e+00,2.936249256134033203e+00,2.865528106689453125e+00,2.798133373260498047e+00,2.733836174011230469e+00,2.672427415847778320e+00,2.613716840744018555e+00,2.557530641555786133e+00,2.503708839416503906e+00,2.452105760574340820e+00,2.402586936950683594e+00,2.355028629302978516e+00,2.309316635131835938e+00,2.265345335006713867e+00,2.223017215728759766e+00,2.182241916656494141e+00,2.142935276031494141e+00,2.105019807815551758e+00,2.068422555923461914e+00,2.033076286315917969e+00,1.998917698860168457e+00,1.965888023376464844e+00,1.933931946754455566e+00,1.902998208999633789e+00,1.873038530349731445e+00,1.844007611274719238e+00
5.000000000000000000e+00,5.000000000000000000e+00,5.000000000000000000e+00,5.000000000000000000e+00,5.000000000000000000e+00,5.000000000000000000e+00,5.000000000000000000e+00,5.000000000000000000e+00,5.000000000000000000e+00,5.000000000000000000e+00,5.000000000000000000e+00,5.000000000000000000e+00,5.000000000000000000e+00,5.000000000000000000e+00,5.000000000000000000e+00,5.000000000000000000e+00,5.000000000000000000e+00,5.000000000000000000e+00,5.000000000000000000e+00,5.000000000000000000e+00,5.000000000000000000e+00,5.000000000000000000e+00,5.000000000000000000e+00,5.000000000000000000e+00,5.000000000000000000e+00,3.917703866958618164e+00,3.940107583999633789e+00,5.000000000000000000e+00,5.000000000000000000e+00,5.000000000000000000e+00,5.000000000000000000e+00,5.000000000000000000e+00,5.000000000000000000e+00,5.000000000000000000e+00,5.000000000000000000e+00,5.000000000000000000e+00,5.000000000000000000e+00,5.000000000000000000e+00,5.000000000000000000e+00,4.852478027343750000e+00,4.662318706512451172e+00,4.486501693725585938e+00,4.323462009429931641e+00,4.171857357025146484e+00,4.030524730682373047e+00,3.898454189300537109e+00,3.774764299392700195e+00,3.658682107925415039e+00,3.549526453018188477e+00,3.446695089340209961e+00,3.349654197692871094e+00,3.257927894592285156e+00,3.171091556549072266e+00,3.088763952255249023e+00,3.010602951049804688e+00,2.936300277709960938e+00,2.865576505661010742e+00,2.798179864883422852e+00,2.733880281448364258e+00,2.672469615936279297e+00,2.613757133483886719e+00,2.557569265365600586e+00,2.503746032714843750e+00,2.452141523361206055e+00,2.402621030807495117e+00,2.355061531066894531e+00,2.309348106384277344e+00,2.265375614166259766e+00,2.223046302795410156e+00,2.182270050048828125e+00,2.142962455749511719e+00,2.105046033859252930e+00,2.068447828292846680e+00,2.033100843429565430e+00,1.998941183090209961e+00,1.965910792350769043e+00,1.933954000473022461e+00,1.903019666671752930e+00,1.873059272766113281e+00,1.844027638435363770e+00
5.000000000000000000e+00,5.000000000000000000e+00,5.000000000000000000e+00,5.000000000000000000e+00,5.000000000000000000e+00,5.000000000000000000e+00,5.000000000000000000e+00,5.000000000000000000e+00,5.000000000000000000e+00,5.000000000000000000e+00,5.000000000000000000e+00,5.000000000000000000e+00,5.000000000000000000e+00,5.000000000000000000e+00,5.000000000000000000e+00,5.000000000000000000e+00,5.000000000000000000e+00,5.000000000000000000e+00,5.000000000000000000e+00,5.000000000000000000e+00,5.000000000000000000e+00,5.000000000000000000e+00,5.000000000000000000e+00,5.000000000000000000e+00,5.000000000000000000e+00,3.932309627532958984e+00,3.947067975997924805e+00,5.000000000000000000e+00,5.000000000000000000e+00,5.000000000000000000e+00,5.000000000000000000e+00,5.000000000000000000e+00,5.000000000000000000e+00,5.000000000000000000e+00,5.000000000000000000e+00,5.000000000000000000e+00,5.000000000000000000e+00,5.000000000000000000e+00,5.000000000000000000e+00,4.852616786956787109e+00,4.662446975708007812e+00,4.486620426177978516e+00,4.323572635650634766e+00,4.171960353851318359e+00,4.030620574951171875e+00,3.898543834686279297e+00,3.774848461151123047e+00,3.658761024475097656e+00,3.549600839614868164e+00,3.446765184402465820e+00,3.349720478057861328e+00,3.257990837097167969e+00,3.171150922775268555e+00,3.088820219039916992e+00,3.010656595230102539e+00,2.936351060867309570e+00,2.865625143051147461e+00,2.798226118087768555e+00,2.733924388885498047e+00,2.672511816024780273e+00,2.613797664642333984e+00,2.557607650756835938e+00,2.503782987594604492e+00,2.452177047729492188e+00,2.402655363082885742e+00,2.355094194412231445e+00,2.309379577636718750e+00,2.265405893325805664e+00,2.223075389862060547e+00,2.182298183441162109e+00,2.142989635467529297e+00,2.105072021484375000e+00,2.068473100662231445e+00,2.033125162124633789e+00,1.998964786529541016e+00,1.965933561325073242e+00,1.933976054191589355e+00,1.903041005134582520e+00,1.873080015182495117e+00,1.844047784805297852e+00
5.000000000000000000e+00,5.000000000000000000e+00,5.000000000000000000e+00,5.000000000000000000e+00,5.000000000000000000e+00,5.000000000000000000e+00,5.000000000000000000e+00,5.000000000000000000e+00,5.000000000000000000e+00,5.000000000000000000e+00,5.000000000000000000e+00,5.000000000000000000e+00,5.000000000000000000e+00,5.000000000000000000e+00,5.000000000000000000e+00,5.000000000000000000e+00,5.000000000000000000e+00,5.000000000000000000e+00,5.000000000000000000e+00,5.000000000000000000e+00,5.000000000000000000e+00,5.000000000000000000e+00,5.000000000000000000e+00,5.000000000000000000e+00,5.000000000000000000e+00,3.965115070343017578e+00,3.972721815109252930e+00,5.000000000000000000e+00,5.000000000000000000e+00,5.000000000000000000e+00,5.000000000000000000e+00,5.000000000000000000e+00,5.000000000000000000e+00,5.000000000000000000e+00,5.000000000000000000e+00,5.000000000000000000e+00,5.000000000000000000e+00,5.000000000000000000e+00,5.000000000000000000e+00,4.852756023406982422e+00,4.662575244903564453e+00,4.486739158630371094e+00,4.323683261871337891e+00,4.172062873840332031e+00,4.030716419219970703e+00,3.898633956909179688e+00,3.774932622909545898e+00,3.658840179443359375e+00,3.549674987792968750e+00,3.446835279464721680e+00,3.349786758422851562e+00,3.258053541183471680e+00,3.171210050582885742e+00,3.088876485824584961e+00,3.010710000991821289e+00,2.936402082443237305e+00,2.865673542022705078e+00,2.798272371292114258e+00,2.733968734741210938e+00,2.672553777694702148e+00,2.613837957382202148e+00,2.557646274566650391e+00,2.503819942474365234e+00,2.452212333679199219e+00,2.402689456939697266e+00,2.355126857757568359e+00,2.309411048889160156e+00,2.265436172485351562e+00,2.223104715347290039e+00,2.182326316833496094e+00,2.143016815185546875e+00,2.105098485946655273e+00,2.068498373031616211e+00,2.033149480819702148e+00,1.998988389968872070e+00,1.965956449508666992e+00,1.933998107910156250e+00,1.903062343597412109e+00,1.873100638389587402e+00,1.844067811965942383e+00
5.000000000000000000e+00,5.000000000000000000e+00,5.000000000000000000e+00,5.000000000000000000e+00,5.000000000000000000e+00,5.000000000000000000e+00,5.000000000000000000e+00,5.000000000000000000e+00,5.000000000000000000e+00,5.000000000000000000e+00,5.000000000000000000e+00,5.000000000000000000e+00,5.000000000000000000e+00,5.000000000000000000e+00,5.000000000000000000e+00,5.000000000000000000e+00,5.000000000000000000e+00,5.000000000000000000e+00,5.000000000000000000e+00,5.000000000000000000e+00,5.000000000000000000e+00,5.000000000000000000e+00,5.000000000000000000e+00,5.000000000000000000e+00,3.980672836303710938e+00,4.020302295684814453e+00,3.955203771591186523e+00,4.020513057708740234e+00,4.020178318023681641e+00,5.000000000000000000e+00,5.000000000000000000e+00,5.000000000000000000e+00,5.000000000000000000e+00,5.000000000000000000e+00,5.000000000000000000e+00,5.000000000000000000e+00,5.000000000000000000e+00,5.000000000000000000e+00,5.000000000000000000e+00,4.852894783020019531e+00,4.662703514099121094e+00,4.486857891082763672e+00,4.323793411254882812e+00,4.172165870666503906e+00,4.030812263488769531e+00,3.898723840713500977e+00,3.775017023086547852e+00,3.658919095993041992e+00,3.549749374389648438e+00,3.446905374526977539e+00,3.349852800369262695e+00,3.258116245269775391e+00,3.171269893646240234e+00,3.088932752609252930e+00,3.010763406753540039e+00,2.936452865600585938e+00,2.865721940994262695e+00,2.798318386077880859e+00,2.734012842178344727e+00,2.672595977783203125e+00,2.613878250122070312e+00,2.557684898376464844e+00,2.503856897354125977e+00,2.452247858047485352e+00,2.402723550796508789e+00,2.355159759521484375e+00,2.309442520141601562e+00,2.265466451644897461e+00,2.223133802413940430e+00,2.182354211807250977e+00,2.143043756484985352e+00,2.105124473571777344e+00,2.068523645401000977e+00,2.033174037933349609e+00,1.999011993408203125e+00,1.965979218482971191e+00,1.934020161628723145e+00,1.903083682060241699e+00,1.873121380805969238e+00,1.844087839126586914e+00
5.000000000000000000e+00,5.000000000000000000e+00,5.000000000000000000e+00,5.000000000000000000e+00,5.000000000000000000e+00,5.000000000000000000e+00,5.000000000000000000e+00,5.000000000000000000e+00,5.000000000000000000e+00,5.000000000000000000e+00,5.000000000000000000e+00,5.000000000000000000e+00,5.000000000000000000e+00,5.000000000000000000e+00,5.000000000000000000e+00,5.000000000000000000e+00,5.000000000000000000e+00,5.000000000000000000e+00,5.000000000000000000e+00,5.000000000000000000e+00,5.000000000000000000e+00,5.000000000000000000e+00,3.977781057357788086e+00,3.959080696105957031e+00,3.940078258514404297e+00,3.933995485305786133e+00,3.941510438919067383e+00,3.954152107238769531e+00,4.009134769439697266e+00,4.024497509002685547e+00,5.000000000000000000e+00,5.000000000000000000e+00,5.000000000000000000e+00,5.000000000000000000e+00,5.000000000000000000e+00,5.000000000000000000e+00,5.000000000000000000e+00,5.000000000000000000e+00,5.000000000000000000e+00,4.853034019470214844e+00,4.662832260131835938e+00,4.486976623535156250e+00,4.323903560638427734e+00,4.172268867492675781e+00,4.030908107757568359e+00,3.898813486099243164e+00,3.775101184844970703e+00,3.658998012542724609e+00,3.549823760986328125e+00,3.446975469589233398e+00,3.349919080734252930e+00,3.258178710937500000e+00,3.171329021453857422e+00,3.088989496231079102e+00,3.010817050933837891e+00,2.936503648757934570e+00,2.865770339965820312e+00,2.798364639282226562e+00,2.734056949615478516e+00,2.672638416290283203e+00,2.613918542861938477e+00,2.557723522186279297e+00,2.503893852233886719e+00,2.452283382415771484e+00,2.402757406234741211e+00,2.355192661285400391e+00,2.309473991394042969e+00,2.265496492385864258e+00,2.223162889480590820e+00,2.182382345199584961e+00,2.143070936203002930e+00,2.105150699615478516e+00,2.068548917770385742e+00,2.033198356628417969e+00,1.999035596847534180e+00,1.966001987457275391e+00,1.934042215347290039e+00,1.903105139732360840e+00,1.873142123222351074e+00,1.844107985496520996e+00
5.000000000000000000e+00,5.000000000000000000e+00,5.000000000000000000e+00,5.000000000000000000e+00,5.000000000000000000e+00,5.000000000000000000e+00,5.000000000000000000e+00,5.000000000000000000e+00,5.000000000000000000e+00,5.000000000000000000e+00,5.000000000000000000e+00,5.000000000000000000e+00,5.000000000000000000e+00,5.000000000000000000e+00,5.000000000000000000e+00,5.000000000000000000e+00,5.000000000000000000e+00,5.000000000000000000e+00,5.000000000000000000e+00,5.000000000000000000e+00,5.000000000000000000e+00,5.000000000000000000e+00,4.022620201110839844e+00,3.978358030319213867e+00,3.914879083633422852e+00,3.912075757980346680e+00,3.922314882278442383e+00,3.947652578353881836e+00,4.022522926330566406e+00,4.030918121337890625e+00,5.000000000000000000e+00,5.000000000000000000e+00,5.000000000000000000e+00,5.000000000000000000e+00,5.000000000000000000e+00,5.000000000000000000e+00,5.000000000000000000e+00,5.000000000000000000e+00,5.000000000000000000e+00,4.853172779083251953e+00,4.662960529327392578e+00,4.487095832824707031e+00,4.324014186859130859e+00,4.172371387481689453e+00,4.031004428863525391e+00,3.898903131484985352e+00,3.775185346603393555e+00,3.659077405929565430e+00,3.549898147583007812e+00,3.447045564651489258e+00,3.349985361099243164e+00,3.258241415023803711e+00,3.171388387680053711e+00,3.089045763015747070e+00,3.010870456695556641e+00,2.936554670333862305e+00,2.865818977355957031e+00,2.798410892486572266e+00,2.734101057052612305e+00,2.672680616378784180e+00,2.613959074020385742e+00,2.557762145996093750e+00,2.503930807113647461e+00,2.452318906784057617e+00,2.402791500091552734e+00,2.355225324630737305e+00,2.309505462646484375e+00,2.265527009963989258e+00,2.223192214965820312e+00,2.182410478591918945e+00,2.143098115921020508e+00,2.105176925659179688e+00,2.068574190139770508e+00,2.033222913742065430e+00,1.999059081077575684e+00,1.966024875640869141e+00,1.934064269065856934e+00,1.903126478195190430e+00,1.873162746429443359e+00,1.844128012657165527e+00
5.000000000000000000e+00,5.000000000000000000e+00,5.000000000000000000e+00,5.000000000000000000e+00,5.000000000000000000e+00,5.000000000000000000e+00,5.000000000000000000e+00,5.000000000000000000e+00,5.000000000000000000e+00,5.000000000000000000e+00,5.000000000000000000e+00,5.000000000000000000e+00,5.000000000000000000e+00,5.000000000000000000e+00,5.000000000000000000e+00,5.000000000000000000e+00,5.000000000000000000e+00,5.000000000000000000e+00,5.000000000000000000e+00,5.000000000000000000e+00,5.000000000000000000e+00,5.000000000000000000e+00,5.000000000000000000e+00,4.003581523895263672e+00,3.927108287811279297e+00,3.901507854461669922e+00,3.913478612899780273e+00,3.962555885314941406e+00,5.000000000000000000e+00,4.024663925170898438e+00,5.000000000000000000e+00,5.000000000000000000e+00,5.000000000000000000e+00,5.000000000000000000e+00,5.000000000000000000e+00,5.000000000000000000e+00,5.000000000000000000e+00,5.000000000000000000e+00,5.000000000000000000e+00,4.853312015533447266e+00,4.663088798522949219e+00,4.487214565277099609e+00,4.324124336242675781e+00,4.172473907470703125e+00,4.031100273132324219e+00,3.898992776870727539e+00,3.775269269943237305e+00,3.659156560897827148e+00,3.549972772598266602e+00,3.447115659713745117e+00,3.350051641464233398e+00,3.258304119110107422e+00,3.171447753906250000e+00,3.089102029800415039e+00,3.010924339294433594e+00,2.936605453491210938e+00,2.865867376327514648e+00,2.798457145690917969e+00,2.734145164489746094e+00,2.672722816467285156e+00,2.613999366760253906e+00,2.557800769805908203e+00,2.503968000411987305e+00,2.452354431152343750e+00,2.402825593948364258e+00,2.355257987976074219e+00,2.309536933898925781e+00,2.265557289123535156e+00,2.223221302032470703e+00,2.182438611984252930e+00,2.143125057220458984e+00,2.105202913284301758e+00,2.068599462509155273e+00,2.033247232437133789e+00,1.999082684516906738e+00,1.966047644615173340e+00,1.934086441993713379e+00,1.903147816658020020e+00,1.873183488845825195e+00,1.844148039817810059e+00
5.000000000000000000e+00,5.000000000000000000e+00,5.000000000000000000e+00,5.000000000000000000e+00,5.000000000000000000e+00,5.000000000000000000e+00,5.000000000000000000e+00,5.000000000000000000e+00,5.000000000000000000e+00,5.000000000000000000e+00,5.000000000000000000e+00,5.000000000000000000e+00,5.000000000000000000e+00,5.000000000000000000e+00,5.000000000000000000e+00,5.000000000000000000e+00,5.000000000000000000e+00,5.000000000000000000e+00,5.000000000000000000e+00,5.000000000000000000e+00,5.000000000000000000e+00,5.000000000000000000e+00,5.000000000000000000e+00,4.008732795715332031e+00,3.922945022583007812e+00,3.905550956726074219e+00,3.918412923812866211e+00,3.959512948989868164e+00,5.000000000000000000e+00,4.023904800415039062e+00,5.000000000000000000e+00,5.000000000000000000e+00,5.000000000000000000e+00,5.000000000000000000e+00,5.000000000000000000e+00,5.000000000000000000e+00,5.000000000000000000e+00,5.000000000000000000e+00,5.000000000000000000e+00,4.853451251983642578e+00,4.663217067718505859e+00,4.487333297729492188e+00,4.324234962463378906e+00,4.172576904296875000e+00,4.031196117401123047e+00,3.899082660675048828e+00,3.775353431701660156e+00,3.659235477447509766e+00,3.550047159194946289e+00,3.447185993194580078e+00,3.350117921829223633e+00,3.258366823196411133e+00,3.171507120132446289e+00,3.089158296585083008e+00,3.010977745056152344e+00,2.936656713485717773e+00,2.865915775299072266e+00,2.798503398895263672e+00,2.734189271926879883e+00,2.672764778137207031e+00,2.614039659500122070e+00,2.557839632034301758e+00,2.504004955291748047e+00,2.452389955520629883e+00,2.402859687805175781e+00,2.355290651321411133e+00,2.309568405151367188e+00,2.265587568283081055e+00,2.223250389099121094e+00,2.182466745376586914e+00,2.143152236938476562e+00,2.105229139328002930e+00,2.068624734878540039e+00,2.033271551132202148e+00,1.999106526374816895e+00,1.966070413589477539e+00,1.934108495712280273e+00,1.903169274330139160e+00,1.873204231262207031e+00,1.844168186187744141e+00
5.000000000000000000e+00,5.000000000000000000e+00,5.000000000000000000e+00,5.000000000000000000e+00,5.000000000000000000e+00,5.000000000000000000e+00,5.000000000000000000e+00,5.000000000000000000e+00,5.000000000000000000e+00,5.000000000000000000e+00,5.000000000000000000e+00,5.000000000000000000e+00,5.000000000000000000e+00,5.000000000000000000e+00,5.000000000000000000e+00,5.000000000000000000e+00,5.000000000000000000e+00,5.000000000000000000e+00,5.000000000000000000e+00,5.000000000000000000e+00,5.000000000000000000e+00,5.000000000000000000e+00,5.000000000000000000e+00,4.029462337493896484e+00,3.906917810440063477e+00,3.897119522094726562e+00,3.911560297012329102e+00,3.950401782989501953e+00,5.000000000000000000e+00,4.019412517547607422e+00,5.000000000000000000e+00,5.000000000000000000e+00,5.000000000000000000e+00,5.000000000000000000e+00,5.000000000000000000e+00,5.000000000000000000e+00,5.000000000000000000e+00,5.000000000000000000e+00,5.000000000000000000e+00,4.853590488433837891e+00,4.663345336914062500e+00,4.487452030181884766e+00,4.324345588684082031e+00,4.172679424285888672e+00,4.031291961669921875e+00,3.899172306060791016e+00,3.775437593460083008e+00,3.659314632415771484e+00,3.550121545791625977e+00,3.447256326675415039e+00,3.350183963775634766e+00,3.258429288864135742e+00,3.171566486358642578e+00,3.089214563369750977e+00,3.011031150817871094e+00,2.936707496643066406e+00,2.865964412689208984e+00,2.798549413681030273e+00,2.734233379364013672e+00,2.672806978225708008e+00,2.614079952239990234e+00,2.557878255844116211e+00,2.504042148590087891e+00,2.452425479888916016e+00,2.402893781661987305e+00,2.355323553085327148e+00,2.309599876403808594e+00,2.265617847442626953e+00,2.223279714584350586e+00,2.182494878768920898e+00,2.143179416656494141e+00,2.105255365371704102e+00,2.068650007247924805e+00,2.033296108245849609e+00,1.999130129814147949e+00,1.966093301773071289e+00,1.934130549430847168e+00,1.903190612792968750e+00,1.873224854469299316e+00,1.844188213348388672e+00
5.000000000000000000e+00,5.000000000000000000e+00,5.000000000000000000e+00,5.000000000000000000e+00,5.000000000000000000e+00,5.000000000000000000e+00,5.000000000000000000e+00,5.000000000000000000e+00,5.000000000000000000e+00,5.000000000000000000e+00,5.000000000000000000e+00,5.000000000000000000e+00,5.000000000000000000e+00,5.000000000000000000e+00,5.000000000000000000e+00,5.000000000000000000e+00,5.000000000000000000e+00,5.000000000000000000e+00,5.000000000000000000e+00,5.000000000000000000e+00,5.000000000000000000e+00,5.000000000000000000e+00,5.000000000000000000e+00,4.042464256286621094e+00,3.925122499465942383e+00,3.908571720123291016e+00,3.920161962509155273e+00,3.957559585571289062e+00,5.000000000000000000e+00,3.971785783767700195e+00,5.000000000000000000e+00,5.000000000000000000e+00,5.000000000000000000e+00,5.000000000000000000e+00,5.000000000000000000e+00,5.000000000000000000e+00,5.000000000000000000e+00,5.000000000000000000e+00,5.000000000000000000e+00,4.853729248046875000e+00,4.663474082946777344e+00,4.487571239471435547e+00,4.324455738067626953e+00,4.172782421112060547e+00,4.031387805938720703e+00,3.899261951446533203e+00,3.775521755218505859e+00,3.659393548965454102e+00,3.550195932388305664e+00,3.447326421737670898e+00,3.350250244140625000e+00,3.258491992950439453e+00,3.171625852584838867e+00,3.089271068572998047e+00,3.011084794998168945e+00,2.936758518218994141e+00,2.866013050079345703e+00,2.798595666885375977e+00,2.734277486801147461e+00,2.672849178314208984e+00,2.614120244979858398e+00,2.557916879653930664e+00,2.504079103469848633e+00,2.452460765838623047e+00,2.402927875518798828e+00,2.355356216430664062e+00,2.309631347656250000e+00,2.265648126602172852e+00,2.223309040069580078e+00,2.182523012161254883e+00,2.143206357955932617e+00,2.105281352996826172e+00,2.068675279617309570e+00,2.033320426940917969e+00,1.999153733253479004e+00,1.966116309165954590e+00,1.934152603149414062e+00,1.903211951255798340e+00,1.873245596885681152e+00,1.844208240509033203e+00
5.000000000000000000e+00,5.000000000000000000e+00,5.000000000000000000e+00,5.000000000000000000e+00,5.000000000000000000e+00,5.000000000000000000e+00,5.000000000000000000e+00,5.000000000000000000e+00,5.000000000000000000e+00,5.000000000000000000e+00,5.000000000000000000e+00,5.000000000000000000e+00,5.000000000000000000e+00,5.000000000000000000e+00,5.000000000000000000e+00,5.000000000000000000e+00,5.000000000000000000e+00,5.000000000000000000e+00,5.000000000000000000e+00,5.000000000000000000e+00,5.000000000000000000e+00,5.000000000000000000e+00,5.000000000000000000e+00,4.025287151336669922e+00,3.898678541183471680e+00,3.937074899673461914e+00,3.945252418518066406e+00,3.959282636642456055e+00,5.000000000000000000e+00,5.000000000000000000e+00,3.942613840103149414e+00,5.000000000000000000e+00,5.000000000000000000e+00,5.000000000000000000e+00,5.000000000000000000e+00,5.000000000000000000e+00,5.000000000000000000e+00,5.000000000000000000e+00,5.000000000000000000e+00,4.853868484497070312e+00,4.663602352142333984e+00,4.487689971923828125e+00,4.324565887451171875e+00,4.172885417938232422e+00,4.031484127044677734e+00,3.899351596832275391e+00,3.775605678558349609e+00,3.659472465515136719e+00,3.550270318984985352e+00,3.447396516799926758e+00,3.350316762924194336e+00,3.258554697036743164e+00,3.171685218811035156e+00,3.089327335357666016e+00,3.011138200759887695e+00,2.936809301376342773e+00,2.866061449050903320e+00,2.798641920089721680e+00,2.734321594238281250e+00,2.672891378402709961e+00,2.614160537719726562e+00,2.557955503463745117e+00,2.504116058349609375e+00,2.452496528625488281e+00,2.402961969375610352e+00,2.355388879776000977e+00,2.309662818908691406e+00,2.265678405761718750e+00,2.223338127136230469e+00,2.182551145553588867e+00,2.143233537673950195e+00,2.105307579040527344e+00,2.068700551986694336e+00,2.033344745635986328e+00,1.999177217483520508e+00,1.966139078140258789e+00,1.934174895286560059e+00,1.903233289718627930e+00,1.873266339302062988e+00,1.844228386878967285e+00
5.000000000000000000e+00,5.000000000000000000e+00,5.000000000000000000e+00,5.000000000000000000e+00,5.000000000000000000e+00,5.000000000000000000e+00,5.000000000000000000e+00,5.000000000000000000e+00,5.000000000000000000e+00,5.000000000000000000e+00,5.000000000000000000e+00,5.000000000000000000e+00,5.000000000000000000e+00,5.000000000000000000e+00,5.000000000000000000e+00,5.000000000000000000e+00,5.000000000000000000e+00,5.000000000000000000e+00,5.000000000000000000e+00,5.000000000000000000e+00,5.000000000000000000e+00,5.000000000000000000e+00,5.000000000000000000e+00,4.006344795227050781e+00,3.839728116989135742e+00,3.866259574890136719e+00,3.973096370697021484e+00,3.967444896697998047e+00,4.054651737213134766e+00,3.848029851913452148e+00,3.871246576309204102e+00,5.000000000000000000e+00,5.000000000000000000e+00,5.000000000000000000e+00,5.000000000000000000e+00,5.000000000000000000e+00,5.000000000000000000e+00,5.000000000000000000e+00,5.000000000000000000e+00,4.854007244110107422e+00,4.663730621337890625e+00,4.487809181213378906e+00,4.324676513671875000e+00,4.172987937927246094e+00,4.031579971313476562e+00,3.899441480636596680e+00,3.775689840316772461e+00,3.659551620483398438e+00,3.550344705581665039e+00,3.447466850280761719e+00,3.350383043289184570e+00,3.258617639541625977e+00,3.171744585037231445e+00,3.089383602142333984e+00,3.011191844940185547e+00,2.936860322952270508e+00,2.866110086441040039e+00,2.798688411712646484e+00,2.734365701675415039e+00,2.672933578491210938e+00,2.614201068878173828e+00,2.557993888854980469e+00,2.504153013229370117e+00,2.452532052993774414e+00,2.402996063232421875e+00,2.355421781539916992e+00,2.309694290161132812e+00,2.265708684921264648e+00,2.223367214202880859e+00,2.182579278945922852e+00,2.143260717391967773e+00,2.105333805084228516e+00,2.068725585937500000e+00,2.033369302749633789e+00,1.999200820922851562e+00,1.966161966323852539e+00,1.934196949005126953e+00,1.903254747390747070e+00,1.873286962509155273e+00,1.844248414039611816e+00
5.000000000000000000e+00,5.000000000000000000e+00,5.000000000000000000e+00,5.000000000000000000e+00,5.000000000000000000e+00,5.000000000000000000e+00,5.000000000000000000e+00,5.000000000000000000e+00,5.000000000000000000e+00,5.000000000000000000e+00,5.000000000000000000e+00,5.000000000000000000e+00,5.000000000000000000e+00,5.000000000000000000e+00,5.000000000000000000e+00,5.000000000000000000e+00,5.000000000000000000e+00,5.000000000000000000e+00,5.000000000000000000e+00,5.000000000000000000e+00,5.000000000000000000e+00,5.000000000000000000e+00,5.000000000000000000e+00,4.013218879699707031e+00,3.809887647628784180e+00,3.837870359420776367e+00,3.980641365051269531e+00,3.977390766143798828e+00,4.057535171508789062e+00,5.000000000000000000e+00,3.824619770050048828e+00,5.000000000000000000e+00,5.000000000000000000e+00,5.000000000000000000e+00,5.000000000000000000e+00,5.000000000000000000e+00,5.000000000000000000e+00,5.000000000000000000e+00,5.000000000000000000e+00,4.854146480560302734e+00,4.663858890533447266e+00,4.487927913665771484e+00,4.324787139892578125e+00,4.173090934753417969e+00,4.031675815582275391e+00,3.899531602859497070e+00,3.775774002075195312e+00,3.659630537033081055e+00,3.550419092178344727e+00,3.447536945343017578e+00,3.350449323654174805e+00,3.258680343627929688e+00,3.171803951263427734e+00,3.089439868927001953e+00,3.011245250701904297e+00,2.936911106109619141e+00,2.866158485412597656e+00,2.798734664916992188e+00,2.734410047531127930e+00,2.672975540161132812e+00,2.614241361618041992e+00,2.558032512664794922e+00,2.504190206527709961e+00,2.452567577362060547e+00,2.403030157089233398e+00,2.355454444885253906e+00,2.309725761413574219e+00,2.265739202499389648e+00,2.223396539688110352e+00,2.182607412338256836e+00,2.143287897109985352e+00,2.105360031127929688e+00,2.068750858306884766e+00,2.033393621444702148e+00,1.999224424362182617e+00,1.966184735298156738e+00,1.934219121932983398e+00,1.903276324272155762e+00,1.873307704925537109e+00,1.844268441200256348e+00
5.000000000000000000e+00,5.000000000000000000e+00,5.000000000000000000e+00,5.000000000000000000e+00,5.000000000000000000e+00,5.000000000000000000e+00,5.000000000000000000e+00,5.000000000000000000e+00,5.000000000000000000e+00,5.000000000000000000e+00,5.000000000000000000e+00,5.000000000000000000e+00,5.000000000000000000e+00,5.000000000000000000e+00,5.000000000000000000e+00,5.000000000000000000e+00,5.000000000000000000e+00,5.000000000000000000e+00,5.000000000000000000e+00,5.000000000000000000e+00,5.000000000000000000e+00,5.000000000000000000e+00,5.000000000000000000e+00,3.995730876922607422e+00,3.777538537979125977e+00,3.808458089828491211e+00,4.002417087554931641e+00,3.999120712280273438e+00,5.000000000000000000e+00,5.000000000000000000e+00,5.000000000000000000e+00,5.000000000000000000e+00,5.000000000000000000e+00,5.000000000000000000e+00,5.000000000000000000e+00,5.000000000000000000e+00,5.000000000000000000e+00,5.000000000000000000e+00,5.000000000000000000e+00,4.854285717010498047e+00,4.663987159729003906e+00,4.488046646118164062e+00,4.324897289276123047e+00,4.173193454742431641e+00,4.031771659851074219e+00,3.899621248245239258e+00,3.775858640670776367e+00,3.659709692001342773e+00,3.550493478775024414e+00,3.447607040405273438e+00,3.350515604019165039e+00,3.258743047714233398e+00,3.171863555908203125e+00,3.089496135711669922e+00,3.011298656463623047e+00,2.936962127685546875e+00,2.866206884384155273e+00,2.798780918121337891e+00,2.734454154968261719e+00,2.673017740249633789e+00,2.614281654357910156e+00,2.558071136474609375e+00,2.504227161407470703e+00,2.452603101730346680e+00,2.403064250946044922e+00,2.355487346649169922e+00,2.309757471084594727e+00,2.265769481658935547e+00,2.223425626754760742e+00,2.182635545730590820e+00,2.143315076828002930e+00,2.105386257171630859e+00,2.068776130676269531e+00,2.033417940139770508e+00,1.999248027801513672e+00,1.966207504272460938e+00,1.934241175651550293e+00,1.903297662734985352e+00,1.873328685760498047e+00,1.844288587570190430e+00
5.000000000000000000e+00,5.000000000000000000e+00,5.000000000000000000e+00,5.000000000000000000e+00,5.000000000000000000e+00,5.000000000000000000e+00,5.000000000000000000e+00,5.000000000000000000e+00,5.000000000000000000e+00,5.000000000000000000e+00,5.000000000000000000e+00,5.000000000000000000e+00,5.000000000000000000e+00,5.000000000000000000e+00,5.000000000000000000e+00,5.000000000000000000e+00,5.000000000000000000e+00,5.000000000000000000e+00,5.000000000000000000e+00,5.000000000000000000e+00,5.000000000000000000e+00,5.000000000000000000e+00,5.000000000000000000e+00,5.000000000000000000e+00,3.741472005844116211e+00,3.779762268066406250e+00,4.023216247558593750e+00,4.024354457855224609e+00,5.000000000000000000e+00,5.000000000000000000e+00,5.000000000000000000e+00,5.000000000000000000e+00,5.000000000000000000e+00,5.000000000000000000e+00,5.000000000000000000e+00,5.000000000000000000e+00,5.000000000000000000e+00,5.000000000000000000e+00,5.000000000000000000e+00,4.854424953460693359e+00,4.664115905761718750e+00,4.488165378570556641e+00,4.325007915496826172e+00,4.173296451568603516e+00,4.031867980957031250e+00,3.899711132049560547e+00,3.775942802429199219e+00,3.659788608551025391e+00,3.550567865371704102e+00,3.447677135467529297e+00,3.350581884384155273e+00,3.258805751800537109e+00,3.171922922134399414e+00,3.089552879333496094e+00,3.011352300643920898e+00,2.937012910842895508e+00,2.866255283355712891e+00,2.798827171325683594e+00,2.734498262405395508e+00,2.673060178756713867e+00,2.614321947097778320e+00,2.558109760284423828e+00,2.504264116287231445e+00,2.452638626098632812e+00,2.403098344802856445e+00,2.355520009994506836e+00,2.309788942337036133e+00,2.265799760818481445e+00,2.223454713821411133e+00,2.182663679122924805e+00,2.143342256546020508e+00,2.105412483215332031e+00,2.068801641464233398e+00,2.033442497253417969e+00,1.999271631240844727e+00,1.966230392456054688e+00,1.934263229370117188e+00,1.903319001197814941e+00,1.873349308967590332e+00,1.844308614730834961e+00
5.000000000000000000e+00,5.000000000000000000e+00,5.000000000000000000e+00,5.000000000000000000e+00,5.000000000000000000e+00,5.000000000000000000e+00,5.000000000000000000e+00,5.000000000000000000e+00,5.000000000000000000e+00,5.000000000000000000e+00,5.000000000000000000e+00,5.000000000000000000e+00,5.000000000000000000e+00,5.000000000000000000e+00,5.000000000000000000e+00,5.000000000000000000e+00,5.000000000000000000e+00,5.000000000000000000e+00,5.000000000000000000e+00,5.000000000000000000e+00,5.000000000000000000e+00,5.000000000000000000e+00,5.000000000000000000e+00,5.000000000000000000e+00,3.726261854171752930e+00,3.764345169067382812e+00,4.042280673980712891e+00,4.043125152587890625e+00,5.000000000000000000e+00,5.000000000000000000e+00,5.000000000000000000e+00,5.000000000000000000e+00,5.000000000000000000e+00,5.000000000000000000e+00,5.000000000000000000e+00,5.000000000000000000e+00,5.000000000000000000e+00,5.000000000000000000e+00,5.000000000000000000e+00,4.854563713073730469e+00,4.664244174957275391e+00,4.488284587860107422e+00,4.325118064880371094e+00,4.173399448394775391e+00,4.031963825225830078e+00,3.899800777435302734e+00,3.776026964187622070e+00,3.659868240356445312e+00,3.550642251968383789e+00,3.447747230529785156e+00,3.350647926330566406e+00,3.258868217468261719e+00,3.171982288360595703e+00,3.089609146118164062e+00,3.011405706405639648e+00,2.937063932418823242e+00,2.866303920745849609e+00,2.798873186111450195e+00,2.734542369842529297e+00,2.673102378845214844e+00,2.614362478256225586e+00,2.558148384094238281e+00,2.504301071166992188e+00,2.452673912048339844e+00,2.403132438659667969e+00,2.355552911758422852e+00,2.309820413589477539e+00,2.265830039978027344e+00,2.223484039306640625e+00,2.182691812515258789e+00,2.143369197845458984e+00,2.105438470840454102e+00,2.068826913833618164e+00,2.033466815948486328e+00,1.999295234680175781e+00,1.966253161430358887e+00,1.934285283088684082e+00,1.903340458869934082e+00,1.873370051383972168e+00,1.844328880310058594e+00
5.000000000000000000e+00,5.000000000000000000e+00,5.000000000000000000e+00,5.000000000000000000e+00,5.000000000000000000e+00,5.000000000000000000e+00,5.000000000000000000e+00,5.000000000000000000e+00,5.000000000000000000e+00,5.000000000000000000e+00,5.000000000000000000e+00,5.000000000000000000e+00,5.000000000000000000e+00,5.000000000000000000e+00,5.000000000000000000e+00,5.000000000000000000e+00,5.000000000000000000e+00,5.000000000000000000e+00,5.000000000000000000e+00,5.000000000000000000e+00,5.000000000000000000e+00,5.000000000000000000e+00,5.000000000000000000e+00,5.000000000000000000e+00,3.743556022644042969e+00,3.773267507553100586e+00,4.064587116241455078e+00,4.068075180053710938e+00,5.000000000000000000e+00,5.000000000000000000e+00,5.000000000000000000e+00,5.000000000000000000e+00,5.000000000000000000e+00,5.000000000000000000e+00,5.000000000000000000e+00,5.000000000000000000e+00,5.000000000000000000e+00,5.000000000000000000e+00,5.000000000000000000e+00,4.854701042175292969e+00,4.664372920989990234e+00,4.488403797149658203e+00,4.325228691101074219e+00,4.173502445220947266e+00,4.032059669494628906e+00,3.899890661239624023e+00,3.776110887527465820e+00,3.659947156906127930e+00,3.550716638565063477e+00,3.447817325592041016e+00,3.350714206695556641e+00,3.258930921554565430e+00,3.172041654586791992e+00,3.089665412902832031e+00,3.011459589004516602e+00,2.937114715576171875e+00,2.866352319717407227e+00,2.798919439315795898e+00,2.734586477279663086e+00,2.673144578933715820e+00,2.614402770996093750e+00,2.558187007904052734e+00,2.504338026046752930e+00,2.452709436416625977e+00,2.403166532516479492e+00,2.355585575103759766e+00,2.309851884841918945e+00,2.265860319137573242e+00,2.223513126373291016e+00,2.182719945907592773e+00,2.143396377563476562e+00,2.105464696884155273e+00,2.068852186203002930e+00,2.033491373062133789e+00,1.999318838119506836e+00,1.966276049613952637e+00,1.934307336807250977e+00,1.903361797332763672e+00,1.873390793800354004e+00,1.844349026679992676e+00
5.000000000000000000e+00,5.000000000000000000e+00,5.000000000000000000e+00,5.000000000000000000e+00,5.000000000000000000e+00,5.000000000000000000e+00,5.000000000000000000e+00,5.000000000000000000e+00,5.000000000000000000e+00,5.000000000000000000e+00,5.000000000000000000e+00,5.000000000000000000e+00,5.000000000000000000e+00,5.000000000000000000e+00,5.000000000000000000e+00,5.000000000000000000e+00,5.000000000000000000e+00,5.000000000000000000e+00,5.000000000000000000e+00,5.000000000000000000e+00,5.000000000000000000e+00,5.000000000000000000e+00,5.000000000000000000e+00,5.000000000000000000e+00,3.755707502365112305e+00,3.782664537429809570e+00,4.144645214080810547e+00,4.148338794708251953e+00,5.000000000000000000e+00,5.000000000000000000e+00,5.000000000000000000e+00,5.000000000000000000e+00,5.000000000000000000e+00,5.000000000000000000e+00,5.000000000000000000e+00,5.000000000000000000e+00,5.000000000000000000e+00,5.000000000000000000e+00,5.000000000000000000e+00,4.854838371276855469e+00,4.664501190185546875e+00,4.488522529602050781e+00,4.325339317321777344e+00,4.173604965209960938e+00,4.032155990600585938e+00,3.899980306625366211e+00,3.776195049285888672e+00,3.660026311874389648e+00,3.550791501998901367e+00,3.447887659072875977e+00,3.350780487060546875e+00,3.258993625640869141e+00,3.172101259231567383e+00,3.089721918106079102e+00,3.011512994766235352e+00,2.937165737152099609e+00,2.866400957107543945e+00,2.798965692520141602e+00,2.734630584716796875e+00,2.673186779022216797e+00,2.614443063735961914e+00,2.558225870132446289e+00,2.504375219345092773e+00,2.452744960784912109e+00,2.403200626373291016e+00,2.355618238449096680e+00,2.309883356094360352e+00,2.265890598297119141e+00,2.223542451858520508e+00,2.182748079299926758e+00,2.143423557281494141e+00,2.105490922927856445e+00,2.068877458572387695e+00,2.033515691757202148e+00,1.999342322349548340e+00,1.966298818588256836e+00,1.934329509735107422e+00,1.903383135795593262e+00,1.873411417007446289e+00,1.844369053840637207e+00
5.000000000000000000e+00,5.000000000000000000e+00,5.000000000000000000e+00,5.000000000000000000e+00,5.000000000000000000e+00,5.000000000000000000e+00,5.000000000000000000e+00,5.000000000000000000e+00,5.000000000000000000e+00,5.000000000000000000e+00,5.000000000000000000e+00,5.000000000000000000e+00,5.000000000000000000e+00,5.000000000000000000e+00,5.000000000000000000e+00,5.000000000000000000e+00,5.000000000000000000e+00,5.000000000000000000e+00,5.000000000000000000e+00,5.000000000000000000e+00,5.000000000000000000e+00,5.000000000000000000e+00,5.000000000000000000e+00,5.000000000000000000e+00,3.744790792465209961e+00,3.769483089447021484e+00,4.201934337615966797e+00,4.205451965332031250e+00,5.000000000000000000e+00,5.000000000000000000e+00,5.000000000000000000e+00,5.000000000000000000e+00,5.000000000000000000e+00,5.000000000000000000e+00,5.000000000000000000e+00,5.000000000000000000e+00,5.000000000000000000e+00,5.000000000000000000e+00,5.000000000000000000e+00,4.854976177215576172e+00,4.664626598358154297e+00,4.488641262054443359e+00,4.325449943542480469e+00,4.173707962036132812e+00,4.032251834869384766e+00,3.900069952011108398e+00,3.776279211044311523e+00,3.660105228424072266e+00,3.550865888595581055e+00,3.447957992553710938e+00,3.350846767425537109e+00,3.259056329727172852e+00,3.172160625457763672e+00,3.089778184890747070e+00,3.011566638946533203e+00,2.937216758728027344e+00,2.866449356079101562e+00,2.799011945724487305e+00,2.734674692153930664e+00,2.673228740692138672e+00,2.614483594894409180e+00,2.558264493942260742e+00,2.504412174224853516e+00,2.452780485153198242e+00,2.403234720230102539e+00,2.355651140213012695e+00,2.309914827346801758e+00,2.265921115875244141e+00,2.223571777343750000e+00,2.182776212692260742e+00,2.143450498580932617e+00,2.105516910552978516e+00,2.068902492523193359e+00,2.033540010452270508e+00,1.999365925788879395e+00,1.966321587562561035e+00,1.934351563453674316e+00,1.903404593467712402e+00,1.873432159423828125e+00,1.844389081001281738e+00
5.000000000000000000e+00,5.000000000000000000e+00,5.000000000000000000e+00,5.000000000000000000e+00,5.000000000000000000e+00,5.000000000000000000e+00,5.000000000000000000e+00,5.000000000000000000e+00,5.000000000000000000e+00,5.000000000000000000e+00,5.000000000000000000e+00,5.000000000000000000e+00,5.000000000000000000e+00,5.000000000000000000e+00,5.000000000000000000e+00,5.000000000000000000e+00,5.000000000000000000e+00,5.000000000000000000e+00,5.000000000000000000e+00,5.000000000000000000e+00,5.000000000000000000e+00,5.000000000000000000e+00,5.000000000000000000e+00,5.000000000000000000e+00,3.741489410400390625e+00,3.757001161575317383e+00,4.238811016082763672e+00,4.268101215362548828e+00,5.000000000000000000e+00,5.000000000000000000e+00,5.000000000000000000e+00,5.000000000000000000e+00,5.000000000000000000e+00,5.000000000000000000e+00,5.000000000000000000e+00,5.000000000000000000e+00,5.000000000000000000e+00,5.000000000000000000e+00,5.000000000000000000e+00,4.855113506317138672e+00,4.664753437042236328e+00,4.488758087158203125e+00,4.325560092926025391e+00,4.173810958862304688e+00,4.032347679138183594e+00,3.900159835815429688e+00,3.776363372802734375e+00,3.660184383392333984e+00,3.550940275192260742e+00,3.448028326034545898e+00,3.350913047790527344e+00,3.259119033813476562e+00,3.172219991683959961e+00,3.089834451675415039e+00,3.011620044708251953e+00,2.937267780303955078e+00,2.866497993469238281e+00,2.799058198928833008e+00,2.734718799591064453e+00,2.673270940780639648e+00,2.614523887634277344e+00,2.558303117752075195e+00,2.504449367523193359e+00,2.452816009521484375e+00,2.403268814086914062e+00,2.355683803558349609e+00,2.309946537017822266e+00,2.265951395034790039e+00,2.223600864410400391e+00,2.182804107666015625e+00,2.143477678298950195e+00,2.105543136596679688e+00,2.068927764892578125e+00,2.033564567565917969e+00,1.999389529228210449e+00,1.966344475746154785e+00,1.934373617172241211e+00,1.903425931930541992e+00,1.873452901840209961e+00,1.844409227371215820e+00
5.000000000000000000e+00,5.000000000000000000e+00,5.000000000000000000e+00,5.000000000000000000e+00,5.000000000000000000e+00,5.000000000000000000e+00,5.000000000000000000e+00,5.000000000000000000e+00,5.000000000000000000e+00,5.000000000000000000e+00,5.000000000000000000e+00,5.000000000000000000e+00,5.000000000000000000e+00,5.000000000000000000e+00,5.000000000000000000e+00,5.000000000000000000e+00,5.000000000000000000e+00,5.000000000000000000e+00,5.000000000000000000e+00,5.000000000000000000e+00,5.000000000000000000e+00,5.000000000000000000e+00,5.000000000000000000e+00,5.000000000000000000e+00,3.749718904495239258e+00,3.748685598373413086e+00,4.281416893005371094e+00,4.346326351165771484e+00,5.000000000000000000e+00,5.000000000000000000e+00,5.000000000000000000e+00,5.000000000000000000e+00,5.000000000000000000e+00,5.000000000000000000e+00,5.000000000000000000e+00,5.000000000000000000e+00,5.000000000000000000e+00,5.000000000000000000e+00,5.000000000000000000e+00,4.855250835418701172e+00,4.664880752563476562e+00,4.488875865936279297e+00,4.325668811798095703e+00,4.173913478851318359e+00,4.032443523406982422e+00,3.900249481201171875e+00,3.776447534561157227e+00,3.660263299942016602e+00,3.551014661788940430e+00,3.448098421096801758e+00,3.350979566574096680e+00,3.259181737899780273e+00,3.172279357910156250e+00,3.089890956878662109e+00,3.011673688888549805e+00,2.937318563461303711e+00,2.866546630859375000e+00,2.799104452133178711e+00,2.734762907028198242e+00,2.673313140869140625e+00,2.614564180374145508e+00,2.558341741561889648e+00,2.504486322402954102e+00,2.452851772308349609e+00,2.403302907943725586e+00,2.355716466903686523e+00,2.309978008270263672e+00,2.265981674194335938e+00,2.223629951477050781e+00,2.182832479476928711e+00,2.143504858016967773e+00,2.105569362640380859e+00,2.068953037261962891e+00,2.033588886260986328e+00,1.999413132667541504e+00,1.966367244720458984e+00,1.934395670890808105e+00,1.903447270393371582e+00,1.873473644256591797e+00,1.844429254531860352e+00
5.000000000000000000e+00,5.000000000000000000e+00,5.000000000000000000e+00,5.000000000000000000e+00,5.000000000000000000e+00,5.000000000000000000e+00,5.000000000000000000e+00,5.000000000000000000e+00,5.000000000000000000e+00,5.000000000000000000e+00,5.000000000000000000e+00,5.000000000000000000e+00,5.000000000000000000e+00,5.000000000000000000e+00,5.000000000000000000e+00,5.000000000000000000e+00,5.000000000000000000e+00,5.000000000000000000e+00,5.000000000000000000e+00,5.000000000000000000e+00,5.000000000000000000e+00,5.000000000000000000e+00,5.000000000000000000e+00,5.000000000000000000e+00,3.761972427368164062e+00,3.764482736587524414e+00,4.324393749237060547e+00,5.000000000000000000e+00,5.000000000000000000e+00,5.000000000000000000e+00,5.000000000000000000e+00,5.000000000000000000e+00,5.000000000000000000e+00,5.000000000000000000e+00,5.000000000000000000e+00,5.000000000000000000e+00,5.000000000000000000e+00,5.000000000000000000e+00,5.000000000000000000e+00,4.855388641357421875e+00,4.665007591247558594e+00,4.488993167877197266e+00,4.325778007507324219e+00,4.174016475677490234e+00,4.032539844512939453e+00,3.900339365005493164e+00,3.776531696319580078e+00,3.660342454910278320e+00,3.551089048385620117e+00,3.448168516159057617e+00,3.351045846939086914e+00,3.259244680404663086e+00,3.172338724136352539e+00,3.089947223663330078e+00,3.011727094650268555e+00,2.937369585037231445e+00,2.866595029830932617e+00,2.799150943756103516e+00,2.734807014465332031e+00,2.673355340957641602e+00,2.614604473114013672e+00,2.558380365371704102e+00,2.504523277282714844e+00,2.452887296676635742e+00,2.403337001800537109e+00,2.355749368667602539e+00,2.310009479522705078e+00,2.266011953353881836e+00,2.223659276962280273e+00,2.182860612869262695e+00,2.143532037734985352e+00,2.105595588684082031e+00,2.068978309631347656e+00,2.033613443374633789e+00,1.999436736106872559e+00,1.966390013694763184e+00,1.934417724609375000e+00,1.903468728065490723e+00,1.873494267463684082e+00,1.844449400901794434e+00
4.875145912170410156e+00,4.873935222625732422e+00,4.872725486755371094e+00,4.871516227722167969e+00,4.870307445526123047e+00,4.869099140167236328e+00,4.867891311645507812e+00,4.866684436798095703e+00,4.865478038787841797e+00,4.864272117614746094e+00,4.863066673278808594e+00,4.861862182617187500e+00,4.860658168792724609e+00,4.859455108642578125e+00,4.858252048492431641e+00,4.857049942016601562e+00,4.855848312377929688e+00,4.854647636413574219e+00,4.853446960449218750e+00,4.852247238159179688e+00,4.851047992706298828e+00,4.849849700927734375e+00,4.848651409149169922e+00,4.847454071044921875e+00,4.846257209777832031e+00,3.656604766845703125e+00,4.237672328948974609e+00,4.842669963836669922e+00,4.841475486755371094e+00,4.840281963348388672e+00,4.839088439941406250e+00,4.837895870208740234e+00,4.836703777313232422e+00,4.835512161254882812e+00,4.834321022033691406e+00,4.833130836486816406e+00,4.831940650939941406e+00,4.830751419067382812e+00,4.829563140869140625e+00,4.828374862670898438e+00,4.665134429931640625e+00,4.489110946655273438e+00,4.325887203216552734e+00,4.174117088317871094e+00,4.032635688781738281e+00,3.900429487228393555e+00,3.776615858078002930e+00,3.660421371459960938e+00,3.551163434982299805e+00,3.448238849639892578e+00,3.351112127304077148e+00,3.259307384490966797e+00,3.172398090362548828e+00,3.090003490447998047e+00,3.011780738830566406e+00,2.937420368194580078e+00,2.866643428802490234e+00,2.799197196960449219e+00,2.734851598739624023e+00,2.673397541046142578e+00,2.614644765853881836e+00,2.558418989181518555e+00,2.504560470581054688e+00,2.452922582626342773e+00,2.403371334075927734e+00,2.355782032012939453e+00,2.310040950775146484e+00,2.266042232513427734e+00,2.223688364028930664e+00,2.182888746261596680e+00,2.143559217453002930e+00,2.105621576309204102e+00,2.069003582000732422e+00,2.033637762069702148e+00,1.999460339546203613e+00,1.966412901878356934e+00,1.934439897537231445e+00,1.903490066528320312e+00,1.873515009880065918e+00,1.844469428062438965e+00
3.777958869934082031e+00,3.777231454849243164e+00,3.776504993438720703e+00,3.775778293609619141e+00,3.775052309036254883e+00,3.774326086044311523e+00,3.773600816726684570e+00,3.772875070571899414e+00,3.772149801254272461e+00,3.771425247192382812e+00,3.770700693130493164e+00,3.769976615905761719e+00,3.769252300262451172e+00,3.768528938293457031e+00,3.767805337905883789e+00,3.767082452774047852e+00,3.766359329223632812e+00,3.765637159347534180e+00,3.764914512634277344e+00,3.764192581176757812e+00,3.763470649719238281e+00,3.762749433517456055e+00,3.762028217315673828e+00,3.761307477951049805e+00,3.760586500167846680e+00,3.759866476058959961e+00,3.759146213531494141e+00,3.758426666259765625e+00,3.757706880569458008e+00,3.756987810134887695e+00,3.756268501281738281e+00,3.755550146102905273e+00,3.754831552505493164e+00,3.754113435745239258e+00,3.753395318984985352e+00,3.752677917480468750e+00,3.751960515975952148e+00,3.751243591308593750e+00,3.750526666641235352e+00,3.749810218811035156e+00,3.749093770980834961e+00,3.748378038406372070e+00,3.747662305831909180e+00,3.746947050094604492e+00,3.746231555938720703e+00,3.745516538619995117e+00,3.744802236557006836e+00,3.660500526428222656e+00,3.551237821578979492e+00,3.448308944702148438e+00,3.351178407669067383e+00,3.259370088577270508e+00,3.172457695007324219e+00,3.090059757232666016e+00,3.011834144592285156e+00,2.937471389770507812e+00,2.866692066192626953e+00,2.799243450164794922e+00,2.734895706176757812e+00,2.673439741134643555e+00,2.614685297012329102e+00,2.558457612991333008e+00,2.504597425460815430e+00,2.452958106994628906e+00,2.403405189514160156e+00,2.355814933776855469e+00,2.310072422027587891e+00,2.266072511672973633e+00,2.223717451095581055e+00,2.182916879653930664e+00,2.143586158752441406e+00,2.105648040771484375e+00,2.069028854370117188e+00,2.033662080764770508e+00,1.999483942985534668e+00,1.966435670852661133e+00,1.934461951255798340e+00,1.903511524200439453e+00,1.873535752296447754e+00,1.844489455223083496e+00
3.083903551101684570e+00,3.083419084548950195e+00,3.082934856414794922e+00,3.082450628280639648e+00,3.081966876983642578e+00,3.081482887268066406e+00,3.080999135971069336e+00,3.080515623092651367e+00,3.080032110214233398e+00,3.079548835754394531e+00,3.079065799713134766e+00,3.078583002090454102e+00,3.078099966049194336e+00,3.077617406845092773e+00,3.077134847640991211e+00,3.076652765274047852e+00,3.076170444488525391e+00,3.075688362121582031e+00,3.075206518173217773e+00,3.074724912643432617e+00,3.074243068695068359e+00,3.073761940002441406e+00,3.073280334472656250e+00,3.072799444198608398e+00,3.072318315505981445e+00,3.071837663650512695e+00,3.071356773376464844e+00,3.070876359939575195e+00,3.070395946502685547e+00,3.069915771484375000e+00,3.069435596466064453e+00,3.068955898284912109e+00,3.068475961685180664e+00,3.067996501922607422e+00,3.067516803741455078e+00,3.067037582397460938e+00,3.066558361053466797e+00,3.066079378128051758e+00,3.065600633621215820e+00,3.065121889114379883e+00,3.064643383026123047e+00,3.064164876937866211e+00,3.063686609268188477e+00,3.063208580017089844e+00,3.062730550765991211e+00,3.062252521514892578e+00,3.061774969100952148e+00,3.061297416687011719e+00,3.060820102691650391e+00,3.060342788696289062e+00,3.059865713119506836e+00,3.059388637542724609e+00,3.058912038803100586e+00,3.058435201644897461e+00,3.011887788772583008e+00,2.937522172927856445e+00,2.866740465164184570e+00,2.799289703369140625e+00,2.734939813613891602e+00,2.673482179641723633e+00,2.614725589752197266e+00,2.558496236801147461e+00,2.504634380340576172e+00,2.452993631362915039e+00,2.403439283370971680e+00,2.355847597122192383e+00,2.310103893280029297e+00,2.266102790832519531e+00,2.223746776580810547e+00,2.182945013046264648e+00,2.143613338470458984e+00,2.105674028396606445e+00,2.069054365158081055e+00,2.033686637878417969e+00,1.999507546424865723e+00,1.966458559036254883e+00,1.934484004974365234e+00,1.903532862663269043e+00,1.873556494712829590e+00,1.844509601593017578e+00
2.605282783508300781e+00,2.604936838150024414e+00,2.604591369628906250e+00,2.604245662689208984e+00,2.603900194168090820e+00,2.603554725646972656e+00,2.603209495544433594e+00,2.602864265441894531e+00,2.602519035339355469e+00,2.602174043655395508e+00,2.601829051971435547e+00,2.601484298706054688e+00,2.601139545440673828e+00,2.600795030593872070e+00,2.600450277328491211e+00,2.600106000900268555e+00,2.599761486053466797e+00,2.599417209625244141e+00,2.599072933197021484e+00,2.598728895187377930e+00,2.598384857177734375e+00,2.598041057586669922e+00,2.597697019577026367e+00,2.597353458404541016e+00,2.597009658813476562e+00,2.596666097640991211e+00,2.596322536468505859e+00,2.595979213714599609e+00,2.595635890960693359e+00,2.595292806625366211e+00,2.594949483871459961e+00,2.594606637954711914e+00,2.594263553619384766e+00,2.593920946121215820e+00,2.593578100204467773e+00,2.593235492706298828e+00,2.592892885208129883e+00,2.592550516128540039e+00,2.592207908630371094e+00,2.591865777969360352e+00,2.591523408889770508e+00,2.591181516647338867e+00,2.590839385986328125e+00,2.590497493743896484e+00,2.590155601501464844e+00,2.589813709259033203e+00,2.589472055435180664e+00,2.589130401611328125e+00,2.588788986206054688e+00,2.588447570800781250e+00,2.588106393814086914e+00,2.587764978408813477e+00,2.587424039840698242e+00,2.587082862854003906e+00,2.586742162704467773e+00,2.586401224136352539e+00,2.586060523986816406e+00,2.585719823837280273e+00,2.585379123687744141e+00,2.585038661956787109e+00,2.584698438644409180e+00,2.558534860610961914e+00,2.504671335220336914e+00,2.453029155731201172e+00,2.403473377227783203e+00,2.355880498886108398e+00,2.310135602951049805e+00,2.266133069992065430e+00,2.223775863647460938e+00,2.182973146438598633e+00,2.143640518188476562e+00,2.105700254440307617e+00,2.069079637527465820e+00,2.033710956573486328e+00,1.999531149864196777e+00,1.966481328010559082e+00,1.934506058692932129e+00,1.903554201126098633e+00,1.873577117919921875e+00,1.844529628753662109e+00
2.255293607711791992e+00,2.255033254623413086e+00,2.254773139953613281e+00,2.254513025283813477e+00,2.254252910614013672e+00,2.253992795944213867e+00,2.253732681274414062e+00,2.253472805023193359e+00,2.253213167190551758e+00,2.252953290939331055e+00,2.252693414688110352e+00,2.252433776855468750e+00,2.252174139022827148e+00,2.251914501190185547e+00,2.251655101776123047e+00,2.251395702362060547e+00,2.251136302947998047e+00,2.250876903533935547e+00,2.250617742538452148e+00,2.250358343124389648e+00,2.250099420547485352e+00,2.249840259552001953e+00,2.249581098556518555e+00,2.249322175979614258e+00,2.249064207077026367e+00,2.248806476593017578e+00,2.248548746109008789e+00,2.248291254043579102e+00,2.248033761978149414e+00,2.247776508331298828e+00,2.247519016265869141e+00,2.247261762619018555e+00,2.247004270553588867e+00,2.246747255325317383e+00,2.246490001678466797e+00,2.246232986450195312e+00,2.245975971221923828e+00,2.245718955993652344e+00,2.245461940765380859e+00,2.245205163955688477e+00,2.244948387145996094e+00,2.244691610336303711e+00,2.244434833526611328e+00,2.244178295135498047e+00,2.243921756744384766e+00,2.243665218353271484e+00,2.243408918380737305e+00,2.243152379989624023e+00,2.242896080017089844e+00,2.242639780044555664e+00,2.242383718490600586e+00,2.242127418518066406e+00,2.241871356964111328e+00,2.241615295410156250e+00,2.241359472274780273e+00,2.241103410720825195e+00,2.240847587585449219e+00,2.240591764450073242e+00,2.240336179733276367e+00,2.240080356597900391e+00,2.239824771881103516e+00,2.239569187164306641e+00,2.239313840866088867e+00,2.239058256149291992e+00,2.238802909851074219e+00,2.238547563552856445e+00,2.238292217254638672e+00,2.238037109375000000e+00,2.223805189132690430e+00,2.183001279830932617e+00,2.143667697906494141e+00,2.105726480484008789e+00,2.069104909896850586e+00,2.033735513687133789e+00,1.999554634094238281e+00,1.966504096984863281e+00,1.934528231620788574e+00,1.903575658798217773e+00,1.873597860336303711e+00,1.844549775123596191e+00
1.988253593444824219e+00,1.988051176071166992e+00,1.987849116325378418e+00,1.987646818161010742e+00,1.987444519996643066e+00,1.987242579460144043e+00,1.987040400505065918e+00,1.986838459968566895e+00,1.986636400222778320e+00,1.986434340476989746e+00,1.986232519149780273e+00,1.986030578613281250e+00,1.985828638076782227e+00,1.985627055168151855e+00,1.985425233840942383e+00,1.985223412513732910e+00,1.985021829605102539e+00,1.984820127487182617e+00,1.984618425369262695e+00,1.984416961669921875e+00,1.984215378761291504e+00,1.984013915061950684e+00,1.983812570571899414e+00,1.983611106872558594e+00,1.983409881591796875e+00,1.983208537101745605e+00,1.983007192611694336e+00,1.982806086540222168e+00,1.982604861259460449e+00,1.982403635978698730e+00,1.982202649116516113e+00,1.982001423835754395e+00,1.981800317764282227e+00,1.981599569320678711e+00,1.981398463249206543e+00,1.981197476387023926e+00,1.980996727943420410e+00,1.980795860290527344e+00,1.980594992637634277e+00,1.980394363403320312e+00,1.980193614959716797e+00,1.979992866516113281e+00,1.979792356491088867e+00,1.979591727256774902e+00,1.979391336441040039e+00,1.979190826416015625e+00,1.978990197181701660e+00,1.978789925575256348e+00,1.978589534759521484e+00,1.978389024734497070e+00,1.978188872337341309e+00,1.977988600730895996e+00,1.977788329124450684e+00,1.977588295936584473e+00,1.977388024330139160e+00,1.977187871932983398e+00,1.976987957954406738e+00,1.976787805557250977e+00,1.976587772369384766e+00,1.976387977600097656e+00,1.976188063621520996e+00,1.975988388061523438e+00,1.975788474082946777e+00,1.975588560104370117e+00,1.975389003753662109e+00,1.975189208984375000e+00,1.974989533424377441e+00,1.974789977073669434e+00,1.974590420722961426e+00,1.974390745162963867e+00,1.974191427230834961e+00,1.973991870880126953e+00,1.973792433738708496e+00,1.973593235015869141e+00,1.973393797874450684e+00,1.966526985168457031e+00,1.934550285339355469e+00,1.903596997261047363e+00,1.873618602752685547e+00,1.844569802284240723e+00
1.777756690979003906e+00,1.777595043182373047e+00,1.777433276176452637e+00,1.777271509170532227e+00,1.777109980583190918e+00,1.776948332786560059e+00,1.776786684989929199e+00,1.776625275611877441e+00,1.776463627815246582e+00,1.776302337646484375e+00,1.776140809059143066e+00,1.775979280471801758e+00,1.775817990303039551e+00,1.775656580924987793e+00,1.775495171546936035e+00,1.775333881378173828e+00,1.775172591209411621e+00,1.775011181831359863e+00,1.774850130081176758e+00,1.774688839912414551e+00,1.774527549743652344e+00,1.774366617202758789e+00,1.774205446243286133e+00,1.774044275283813477e+00,1.773883342742919922e+00,1.773722171783447266e+00,1.773561358451843262e+00,1.773400306701660156e+00,1.773239254951477051e+00,1.773078441619873047e+00,1.772917509078979492e+00,1.772756576538085938e+00,1.772595882415771484e+00,1.772435069084167480e+00,1.772274255752563477e+00,1.772113561630249023e+00,1.771952867507934570e+00,1.771792054176330566e+00,1.771631479263305664e+00,1.771470904350280762e+00,1.771310210227966309e+00,1.771149754524230957e+00,1.770989179611206055e+00,1.770828723907470703e+00,1.770668268203735352e+00,1.770507693290710449e+00,1.770347356796264648e+00,1.770186901092529297e+00,1.770026564598083496e+00,1.769866347312927246e+00,1.769705891609191895e+00,1.769545555114746094e+00,1.769385457038879395e+00,1.769225239753723145e+00,1.769064903259277344e+00,1.768904924392700195e+00,1.768744707107543945e+00,1.768584489822387695e+00,1.768424630165100098e+00,1.768264532089233398e+00,1.768104434013366699e+00,1.767944574356079102e+00,1.767784476280212402e+00,1.767624735832214355e+00,1.767464756965637207e+00,1.767304778099060059e+00,1.767145156860351562e+00,1.766985177993774414e+00,1.766825437545776367e+00,1.766665697097778320e+00,1.766505956649780273e+00,1.766346216201782227e+00,1.766186714172363281e+00,1.766026973724365234e+00,1.765867352485656738e+00,1.765707850456237793e+00,1.765548229217529297e+00,1.765388727188110352e+00,1.765229344367980957e+00,1.765069842338562012e+00
1.607563734054565430e+00,1.607431411743164062e+00,1.607299089431762695e+00,1.607167005538940430e+00,1.607034802436828613e+00,1.606902480125427246e+00,1.606770515441894531e+00,1.606638312339782715e+00,1.606506347656250000e+00,1.606374144554138184e+00,1.606242060661315918e+00,1.606110095977783203e+00,1.605978131294250488e+00,1.605846047401428223e+00,1.605714201927185059e+00,1.605582237243652344e+00,1.605450153350830078e+00,1.605318427085876465e+00,1.605186462402343750e+00,1.605054497718811035e+00,1.604922771453857422e+00,1.604790925979614258e+00,1.604659080505371094e+00,1.604527473449707031e+00,1.604395627975463867e+00,1.604263782501220703e+00,1.604132175445556641e+00,1.604000449180603027e+00,1.603868961334228516e+00,1.603737235069274902e+00,1.603605508804321289e+00,1.603474020957946777e+00,1.603342413902282715e+00,1.603210806846618652e+00,1.603079319000244141e+00,1.602947831153869629e+00,1.602816224098205566e+00,1.602684855461120605e+00,1.602553367614746094e+00,1.602421879768371582e+00,1.602290630340576172e+00,1.602159142494201660e+00,1.602027773857116699e+00,1.601896524429321289e+00,1.601765155792236328e+00,1.601633906364440918e+00,1.601502656936645508e+00,1.601371288299560547e+00,1.601240158081054688e+00,1.601108908653259277e+00,1.600977659225463867e+00,1.600846529006958008e+00,1.600715398788452148e+00,1.600584268569946289e+00,1.600453257560729980e+00,1.600322127342224121e+00,1.600190997123718262e+00,1.600059986114501953e+00,1.599928855895996094e+00,1.599797844886779785e+00,1.599666953086853027e+00,1.599535942077636719e+00,1.599404931068420410e+00,1.599274158477783203e+00,1.599143266677856445e+00,1.599012494087219238e+00,1.598881602287292480e+00,1.598750710487365723e+00,1.598619937896728516e+00,1.598489165306091309e+00,1.598358392715454102e+00,1.598227739334106445e+00,1.598096966743469238e+00,1.597966194152832031e+00,1.597835540771484375e+00,1.597704887390136719e+00,1.597574234008789062e+00,1.597443699836730957e+00,1.597313046455383301e+00,1.597182393074035645e+00
1.467110157012939453e+00,1.467000007629394531e+00,1.466889977455139160e+00,1.466779828071594238e+00,1.466669678688049316e+00,1.466559648513793945e+00,1.466449499130249023e+00,1.466339468955993652e+00,1.466229438781738281e+00,1.466119408607482910e+00,1.466009497642517090e+00,1.465899467468261719e+00,1.465789437294006348e+00,1.465679526329040527e+00,1.465569615364074707e+00,1.465459585189819336e+00,1.465349793434143066e+00,1.465239882469177246e+00,1.465129971504211426e+00,1.465020179748535156e+00,1.464910268783569336e+00,1.464800357818603516e+00,1.464690685272216797e+00,1.464580893516540527e+00,1.464470982551574707e+00,1.464361310005187988e+00,1.464251637458801270e+00,1.464141964912414551e+00,1.464032173156738281e+00,1.463922500610351562e+00,1.463812828063964844e+00,1.463703155517578125e+00,1.463593482971191406e+00,1.463483929634094238e+00,1.463374257087707520e+00,1.463264584541320801e+00,1.463155150413513184e+00,1.463045597076416016e+00,1.462935924530029297e+00,1.462826490402221680e+00,1.462716937065124512e+00,1.462607383728027344e+00,1.462498068809509277e+00,1.462388515472412109e+00,1.462279081344604492e+00,1.462169766426086426e+00,1.462060213088989258e+00,1.461950898170471191e+00,1.461841583251953125e+00,1.461732149124145508e+00,1.461622834205627441e+00,1.461513519287109375e+00,1.461404085159301758e+00,1.461294889450073242e+00,1.461185574531555176e+00,1.461076259613037109e+00,1.460967183113098145e+00,1.460857868194580078e+00,1.460748553276062012e+00,1.460639476776123047e+00,1.460530281066894531e+00,1.460421085357666016e+00,1.460312008857727051e+00,1.460202813148498535e+00,1.460093617439270020e+00,1.459984660148620605e+00,1.459875464439392090e+00,1.459766507148742676e+00,1.459657430648803711e+00,1.459548354148864746e+00,1.459439396858215332e+00,1.459330320358276367e+00,1.459221363067626953e+00,1.459112405776977539e+00,1.459003448486328125e+00,1.458894491195678711e+00,1.458785653114318848e+00,1.458676695823669434e+00,1.458567738533020020e+00,1.458458900451660156e+00
1.349227547645568848e+00,1.349134445190429688e+00,1.349041342735290527e+00,1.348948121070861816e+00,1.348855018615722656e+00,1.348761916160583496e+00,1.348668813705444336e+00,1.348575830459594727e+00,1.348482608795166016e+00,1.348389625549316406e+00,1.348296642303466797e+00,1.348203539848327637e+00,1.348110556602478027e+00,1.348017573356628418e+00,1.347924470901489258e+00,1.347831606864929199e+00,1.347738623619079590e+00,1.347645640373229980e+00,1.347552776336669922e+00,1.347459793090820312e+00,1.347366809844970703e+00,1.347273945808410645e+00,1.347181081771850586e+00,1.347088098526000977e+00,1.346995353698730469e+00,1.346902489662170410e+00,1.346809625625610352e+00,1.346716880798339844e+00,1.346624016761779785e+00,1.346531271934509277e+00,1.346438407897949219e+00,1.346345663070678711e+00,1.346252918243408203e+00,1.346160173416137695e+00,1.346067309379577637e+00,1.345974683761596680e+00,1.345881938934326172e+00,1.345789194107055664e+00,1.345696568489074707e+00,1.345603823661804199e+00,1.345511198043823242e+00,1.345418572425842285e+00,1.345325946807861328e+00,1.345233321189880371e+00,1.345140695571899414e+00,1.345048069953918457e+00,1.344955444335937500e+00,1.344862937927246094e+00,1.344770312309265137e+00,1.344677925109863281e+00,1.344585299491882324e+00,1.344492793083190918e+00,1.344400286674499512e+00,1.344307780265808105e+00,1.344215273857116699e+00,1.344122886657714844e+00,1.344030380249023438e+00,1.343937873840332031e+00,1.343845486640930176e+00,1.343753099441528320e+00,1.343660593032836914e+00,1.343568325042724609e+00,1.343475818634033203e+00,1.343383431434631348e+00,1.343291163444519043e+00,1.343198776245117188e+00,1.343106508255004883e+00,1.343014121055603027e+00,1.342921853065490723e+00,1.342829585075378418e+00,1.342737317085266113e+00,1.342644929885864258e+00,1.342552781105041504e+00,1.342460513114929199e+00,1.342368245124816895e+00,1.342276096343994141e+00,1.342183828353881836e+00,1.342091560363769531e+00,1.341999530792236328e+00,1.341907262802124023e+00
1.248879909515380859e+00,1.248800039291381836e+00,1.248720288276672363e+00,1.248640537261962891e+00,1.248560667037963867e+00,1.248480916023254395e+00,1.248401165008544922e+00,1.248321413993835449e+00,1.248241662979125977e+00,1.248161911964416504e+00,1.248082160949707031e+00,1.248002529144287109e+00,1.247922778129577637e+00,1.247843027114868164e+00,1.247763395309448242e+00,1.247683763504028320e+00,1.247604012489318848e+00,1.247524380683898926e+00,1.247444748878479004e+00,1.247365117073059082e+00,1.247285485267639160e+00,1.247205853462219238e+00,1.247126221656799316e+00,1.247046709060668945e+00,1.246967077255249023e+00,1.246887445449829102e+00,1.246807932853698730e+00,1.246728301048278809e+00,1.246648788452148438e+00,1.246569275856018066e+00,1.246489763259887695e+00,1.246410250663757324e+00,1.246330738067626953e+00,1.246251225471496582e+00,1.246171832084655762e+00,1.246092319488525391e+00,1.246012806892395020e+00,1.245933413505554199e+00,1.245853900909423828e+00,1.245774507522583008e+00,1.245695114135742188e+00,1.245615601539611816e+00,1.245536208152770996e+00,1.245456933975219727e+00,1.245377421379089355e+00,1.245298027992248535e+00,1.245218753814697266e+00,1.245139360427856445e+00,1.245060086250305176e+00,1.244980692863464355e+00,1.244901418685913086e+00,1.244822144508361816e+00,1.244742751121520996e+00,1.244663476943969727e+00,1.244584202766418457e+00,1.244504928588867188e+00,1.244425654411315918e+00,1.244346499443054199e+00,1.244267225265502930e+00,1.244187951087951660e+00,1.244108796119689941e+00,1.244029521942138672e+00,1.243950247764587402e+00,1.243871212005615234e+00,1.243791937828063965e+00,1.243712782859802246e+00,1.243633627891540527e+00,1.243554472923278809e+00,1.243475437164306641e+00,1.243396162986755371e+00,1.243317127227783203e+00,1.243237972259521484e+00,1.243158936500549316e+00,1.243079781532287598e+00,1.243000745773315430e+00,1.242921590805053711e+00,1.242842555046081543e+00,1.242763519287109375e+00,1.242684483528137207e+00,1.242605447769165039e+00
1.162425518035888672e+00,1.162356376647949219e+00,1.162287235260009766e+00,1.162218093872070312e+00,1.162148952484130859e+00,1.162079811096191406e+00,1.162010669708251953e+00,1.161941528320312500e+00,1.161872506141662598e+00,1.161803483963012695e+00,1.161734342575073242e+00,1.161665320396423340e+00,1.161596179008483887e+00,1.161527156829833984e+00,1.161458134651184082e+00,1.161389112472534180e+00,1.161320090293884277e+00,1.161251068115234375e+00,1.161182045936584473e+00,1.161113023757934570e+00,1.161044001579284668e+00,1.160974979400634766e+00,1.160906076431274414e+00,1.160837054252624512e+00,1.160768151283264160e+00,1.160699248313903809e+00,1.160630226135253906e+00,1.160561203956604004e+00,1.160492420196533203e+00,1.160423398017883301e+00,1.160354495048522949e+00,1.160285592079162598e+00,1.160216689109802246e+00,1.160147905349731445e+00,1.160079002380371094e+00,1.160010099411010742e+00,1.159941196441650391e+00,1.159872293472290039e+00,1.159803509712219238e+00,1.159734725952148438e+00,1.159665822982788086e+00,1.159596920013427734e+00,1.159528255462646484e+00,1.159459352493286133e+00,1.159390568733215332e+00,1.159321784973144531e+00,1.159253001213073730e+00,1.159184217453002930e+00,1.159115433692932129e+00,1.159046649932861328e+00,1.158977985382080078e+00,1.158909201622009277e+00,1.158840417861938477e+00,1.158771753311157227e+00,1.158702969551086426e+00,1.158634305000305176e+00,1.158565640449523926e+00,1.158496856689453125e+00,1.158428192138671875e+00,1.158359646797180176e+00,1.158290863037109375e+00,1.158222198486328125e+00,1.158153653144836426e+00,1.158084988594055176e+00,1.158016324043273926e+00,1.157947659492492676e+00,1.157879114151000977e+00,1.157810449600219727e+00,1.157741904258728027e+00,1.157673239707946777e+00,1.157604694366455078e+00,1.157536149024963379e+00,1.157467484474182129e+00,1.157399058341979980e+00,1.157330393791198730e+00,1.157261848449707031e+00,1.157193303108215332e+00,1.157124757766723633e+00,1.157056212425231934e+00,1.156987786293029785e+00
1.087165713310241699e+00,1.087105274200439453e+00,1.087044835090637207e+00,1.086984276771545410e+00,1.086923956871032715e+00,1.086863398551940918e+00,1.086802959442138672e+00,1.086742520332336426e+00,1.086682081222534180e+00,1.086621642112731934e+00,1.086561203002929688e+00,1.086500763893127441e+00,1.086440324783325195e+00,1.086380004882812500e+00,1.086319565773010254e+00,1.086259245872497559e+00,1.086198806762695312e+00,1.086138367652893066e+00,1.086078047752380371e+00,1.086017727851867676e+00,1.085957288742065430e+00,1.085896968841552734e+00,1.085836648941040039e+00,1.085776209831237793e+00,1.085716009140014648e+00,1.085655689239501953e+00,1.085595250129699707e+00,1.085535049438476562e+00,1.085474729537963867e+00,1.085414409637451172e+00,1.085354089736938477e+00,1.085293769836425781e+00,1.085233569145202637e+00,1.085173249244689941e+00,1.085113048553466797e+00,1.085052847862243652e+00,1.084992527961730957e+00,1.084932208061218262e+00,1.084872007369995117e+00,1.084811806678771973e+00,1.084751605987548828e+00,1.084691405296325684e+00,1.084631085395812988e+00,1.084570884704589844e+00,1.084510684013366699e+00,1.084450483322143555e+00,1.084390282630920410e+00,1.084330201148986816e+00,1.084270000457763672e+00,1.084209799766540527e+00,1.084149718284606934e+00,1.084089517593383789e+00,1.084029436111450195e+00,1.083969235420227051e+00,1.083909034729003906e+00,1.083848953247070312e+00,1.083788871765136719e+00,1.083728790283203125e+00,1.083668708801269531e+00,1.083608508110046387e+00,1.083548426628112793e+00,1.083488345146179199e+00,1.083428263664245605e+00,1.083368182182312012e+00,1.083308219909667969e+00,1.083248138427734375e+00,1.083188056945800781e+00,1.083127975463867188e+00,1.083067893981933594e+00,1.083007931709289551e+00,1.082947969436645508e+00,1.082887887954711914e+00,1.082827925682067871e+00,1.082767844200134277e+00,1.082707881927490234e+00,1.082647919654846191e+00,1.082587838172912598e+00,1.082527875900268555e+00,1.082467913627624512e+00,1.082407951354980469e+00
1.021058678627014160e+00,1.021005392074584961e+00,1.020951986312866211e+00,1.020898699760437012e+00,1.020845293998718262e+00,1.020792007446289062e+00,1.020738720893859863e+00,1.020685315132141113e+00,1.020632028579711914e+00,1.020578742027282715e+00,1.020525336265563965e+00,1.020472049713134766e+00,1.020418763160705566e+00,1.020365476608276367e+00,1.020312190055847168e+00,1.020259022712707520e+00,1.020205736160278320e+00,1.020152449607849121e+00,1.020099163055419922e+00,1.020045876502990723e+00,1.019992709159851074e+00,1.019939422607421875e+00,1.019886136054992676e+00,1.019832968711853027e+00,1.019779682159423828e+00,1.019726514816284180e+00,1.019673347473144531e+00,1.019620060920715332e+00,1.019566893577575684e+00,1.019513726234436035e+00,1.019460439682006836e+00,1.019407272338867188e+00,1.019354104995727539e+00,1.019300937652587891e+00,1.019247770309448242e+00,1.019194602966308594e+00,1.019141435623168945e+00,1.019088268280029297e+00,1.019035100936889648e+00,1.018981933593750000e+00,1.018928885459899902e+00,1.018875718116760254e+00,1.018822550773620605e+00,1.018769502639770508e+00,1.018716335296630859e+00,1.018663287162780762e+00,1.018610119819641113e+00,1.018557071685791016e+00,1.018503904342651367e+00,1.018450856208801270e+00,1.018397808074951172e+00,1.018344759941101074e+00,1.018291592597961426e+00,1.018238544464111328e+00,1.018185496330261230e+00,1.018132448196411133e+00,1.018079400062561035e+00,1.018026351928710938e+00,1.017973303794860840e+00,1.017920255661010742e+00,1.017867326736450195e+00,1.017814278602600098e+00,1.017761230468750000e+00,1.017708182334899902e+00,1.017655253410339355e+00,1.017602205276489258e+00,1.017549276351928711e+00,1.017496228218078613e+00,1.017443180084228516e+00,1.017390251159667969e+00,1.017337322235107422e+00,1.017284393310546875e+00,1.017231345176696777e+00,1.017178416252136230e+00,1.017125487327575684e+00,1.017072558403015137e+00,1.017019510269165039e+00,1.016966700553894043e+00,1.016913771629333496e+00,1.016860723495483398e+00
9.625303745269775391e-01,9.624828696250915527e-01,9.624355435371398926e-01,9.623880982398986816e-01,9.623406529426574707e-01,9.622932672500610352e-01,9.622459411621093750e-01,9.621984958648681641e-01,9.621511697769165039e-01,9.621037840843200684e-01,9.620563387870788574e-01,9.620090126991271973e-01,9.619616866111755371e-01,9.619142413139343262e-01,9.618669748306274414e-01,9.618196487426757812e-01,9.617723226547241211e-01,9.617249369621276855e-01,9.616776108741760254e-01,9.616303443908691406e-01,9.615829586982727051e-01,9.615356326103210449e-01,9.614883661270141602e-01,9.614409804344177246e-01,9.613937139511108398e-01,9.613464474678039551e-01,9.612990617752075195e-01,9.612517952919006348e-01,9.612045884132385254e-01,9.611572027206420898e-01,9.611099958419799805e-01,9.610627293586730957e-01,9.610154032707214355e-01,9.609681367874145508e-01,9.609209299087524414e-01,9.608736038208007812e-01,9.608263969421386719e-01,9.607791900634765625e-01,9.607318639755249023e-01,9.606846570968627930e-01,9.606374502182006836e-01,9.605901837348937988e-01,9.605429768562316895e-01,9.604957699775695801e-01,9.604485034942626953e-01,9.604013562202453613e-01,9.603541493415832520e-01,9.603068828582763672e-01,9.602597355842590332e-01,9.602125883102416992e-01,9.601653218269348145e-01,9.601181745529174805e-01,9.600710272789001465e-01,9.600238800048828125e-01,9.599766731262207031e-01,9.599295258522033691e-01,9.598824381828308105e-01,9.598351716995239258e-01,9.597880840301513672e-01,9.597409367561340332e-01,9.596937298774719238e-01,9.596466422080993652e-01,9.595995545387268066e-01,9.595523476600646973e-01,9.595052599906921387e-01,9.594581723213195801e-01,9.594110250473022461e-01,9.593639373779296875e-01,9.593168497085571289e-01,9.592697024345397949e-01,9.592226147651672363e-01,9.591755867004394531e-01,9.591284394264221191e-01,9.590813517570495605e-01,9.590343236923217773e-01,9.589871764183044434e-01,9.589401483535766602e-01,9.588931202888488770e-01,9.588459730148315430e-01,9.587990045547485352e-01
9.103479981422424316e-01,9.103056192398071289e-01,9.102632403373718262e-01,9.102207422256469727e-01,9.101783633232116699e-01,9.101359844207763672e-01,9.100935459136962891e-01,9.100511670112609863e-01,9.100088477134704590e-01,9.099664092063903809e-01,9.099240303039550781e-01,9.098817110061645508e-01,9.098392724990844727e-01,9.097969532012939453e-01,9.097546339035034180e-01,9.097121953964233398e-01,9.096698760986328125e-01,9.096275568008422852e-01,9.095852375030517578e-01,9.095427989959716797e-01,9.095005393028259277e-01,9.094582200050354004e-01,9.094158411026000977e-01,9.093735218048095703e-01,9.093312621116638184e-01,9.092888832092285156e-01,9.092465639114379883e-01,9.092043042182922363e-01,9.091619253158569336e-01,9.091196656227111816e-01,9.090774059295654297e-01,9.090350270271301270e-01,9.089927673339843750e-01,9.089505076408386230e-01,9.089081883430480957e-01,9.088659286499023438e-01,9.088236689567565918e-01,9.087813496589660645e-01,9.087390899658203125e-01,9.086968898773193359e-01,9.086545705795288086e-01,9.086123108863830566e-01,9.085701107978820801e-01,9.085277915000915527e-01,9.084855914115905762e-01,9.084433913230895996e-01,9.084010720252990723e-01,9.083588719367980957e-01,9.083166718482971191e-01,9.082744121551513672e-01,9.082322120666503906e-01,9.081900119781494141e-01,9.081477522850036621e-01,9.081056118011474609e-01,9.080634117126464844e-01,9.080212712287902832e-01,9.079790115356445312e-01,9.079368114471435547e-01,9.078946709632873535e-01,9.078524112701416016e-01,9.078102707862854004e-01,9.077681303024291992e-01,9.077258706092834473e-01,9.076837301254272461e-01,9.076415896415710449e-01,9.075993895530700684e-01,9.075572490692138672e-01,9.075151681900024414e-01,9.074729084968566895e-01,9.074308276176452637e-01,9.073886871337890625e-01,9.073464870452880859e-01,9.073044061660766602e-01,9.072623252868652344e-01,9.072201251983642578e-01,9.071780443191528320e-01,9.071359634399414062e-01,9.070937633514404297e-01,9.070516824722290039e-01,9.070096015930175781e-01
8.635327219963073730e-01,8.634945750236511230e-01,8.634563684463500977e-01,8.634182214736938477e-01,8.633800745010375977e-01,8.633418679237365723e-01,8.633037805557250977e-01,8.632656931877136230e-01,8.632274866104125977e-01,8.631893396377563477e-01,8.631512522697448730e-01,8.631130456924438477e-01,8.630749583244323730e-01,8.630368709564208984e-01,8.629987239837646484e-01,8.629606366157531738e-01,8.629225492477416992e-01,8.628843426704406738e-01,8.628463149070739746e-01,8.628082275390625000e-01,8.627701401710510254e-01,8.627319931983947754e-01,8.626939058303833008e-01,8.626558780670166016e-01,8.626177310943603516e-01,8.625796437263488770e-01,8.625416159629821777e-01,8.625034689903259277e-01,8.624654412269592285e-01,8.624274134635925293e-01,8.623892664909362793e-01,8.623512387275695801e-01,8.623132109642028809e-01,8.622751235961914062e-01,8.622370958328247070e-01,8.621990680694580078e-01,8.621609807014465332e-01,8.621229529380798340e-01,8.620849251747131348e-01,8.620468378067016602e-01,8.620088100433349609e-01,8.619708418846130371e-01,8.619327545166015625e-01,8.618947863578796387e-01,8.618567585945129395e-01,8.618186712265014648e-01,8.617807030677795410e-01,8.617427349090576172e-01,8.617046475410461426e-01,8.616666793823242188e-01,8.616287112236022949e-01,8.615906834602355957e-01,8.615527153015136719e-01,8.615147471427917480e-01,8.614767193794250488e-01,8.614387512207031250e-01,8.614007830619812012e-01,8.613628745079040527e-01,8.613248467445373535e-01,8.612868785858154297e-01,8.612489700317382812e-01,8.612109422683715820e-01,8.611730337142944336e-01,8.611350655555725098e-01,8.610970973968505859e-01,8.610591292381286621e-01,8.610212206840515137e-01,8.609832525253295898e-01,8.609453439712524414e-01,8.609074354171752930e-01,8.608694076538085938e-01,8.608315587043762207e-01,8.607936501502990723e-01,8.607556819915771484e-01,8.607177734375000000e-01,8.606798648834228516e-01,8.606418967247009277e-01,8.606040477752685547e-01,8.605661392211914062e-01,8.605282306671142578e-01
8.212969303131103516e-01,8.212623596191406250e-01,8.212279081344604492e-01,8.211933970451354980e-01,8.211588263511657715e-01,8.211243748664855957e-01,8.210898637771606445e-01,8.210552930831909180e-01,8.210208415985107422e-01,8.209863901138305664e-01,8.209518194198608398e-01,8.209173679351806641e-01,8.208829164505004883e-01,8.208483457565307617e-01,8.208138942718505859e-01,8.207794427871704102e-01,8.207449316978454590e-01,8.207104802131652832e-01,8.206760287284851074e-01,8.206415772438049316e-01,8.206070661544799805e-01,8.205726146697998047e-01,8.205382227897644043e-01,8.205037117004394531e-01,8.204692602157592773e-01,8.204348087310791016e-01,8.204003572463989258e-01,8.203659057617187500e-01,8.203315138816833496e-01,8.202970027923583984e-01,8.202626109123229980e-01,8.202281594276428223e-01,8.201937079429626465e-01,8.201593160629272461e-01,8.201249241828918457e-01,8.200904130935668945e-01,8.200560212135314941e-01,8.200216293334960938e-01,8.199871778488159180e-01,8.199527859687805176e-01,8.199183940887451172e-01,8.198839426040649414e-01,8.198495507240295410e-01,8.198152184486389160e-01,8.197807669639587402e-01,8.197463750839233398e-01,8.197120428085327148e-01,8.196775913238525391e-01,8.196431994438171387e-01,8.196088671684265137e-01,8.195744156837463379e-01,8.195400834083557129e-01,8.195057511329650879e-01,8.194712996482849121e-01,8.194369673728942871e-01,8.194026350975036621e-01,8.193683028221130371e-01,8.193338513374328613e-01,8.192995190620422363e-01,8.192652463912963867e-01,8.192307949066162109e-01,8.191965222358703613e-01,8.191621899604797363e-01,8.191277980804443359e-01,8.190934658050537109e-01,8.190591335296630859e-01,8.190247416496276855e-01,8.189904689788818359e-01,8.189561367034912109e-01,8.189218044281005859e-01,8.188874721527099609e-01,8.188531994819641113e-01,8.188188076019287109e-01,8.187845349311828613e-01,8.187502622604370117e-01,8.187158703804016113e-01,8.186815977096557617e-01,8.186473250389099121e-01,8.186129927635192871e-01,8.185787200927734375e-01
7.830000519752502441e-01,7.829686999320983887e-01,7.829373478889465332e-01,7.829058766365051270e-01,7.828745841979980469e-01,7.828432321548461914e-01,7.828118205070495605e-01,7.827804684638977051e-01,7.827491164207458496e-01,7.827177047729492188e-01,7.826864123344421387e-01,7.826550602912902832e-01,7.826236486434936523e-01,7.825923562049865723e-01,7.825610041618347168e-01,7.825296521186828613e-01,7.824983000755310059e-01,7.824670076370239258e-01,7.824355959892272949e-01,7.824043035507202148e-01,7.823730111122131348e-01,7.823417186737060547e-01,7.823103070259094238e-01,7.822790145874023438e-01,7.822477221488952637e-01,7.822163701057434082e-01,7.821850776672363281e-01,7.821537852287292480e-01,7.821224331855773926e-01,7.820911407470703125e-01,7.820598483085632324e-01,7.820284962654113770e-01,7.819972634315490723e-01,7.819659709930419922e-01,7.819346189498901367e-01,7.819033861160278320e-01,7.818720936775207520e-01,7.818407416343688965e-01,7.818095088005065918e-01,7.817782163619995117e-01,7.817469239234924316e-01,7.817156910896301270e-01,7.816843986511230469e-01,7.816531062126159668e-01,7.816218733787536621e-01,7.815905809402465820e-01,7.815592885017395020e-01,7.815280556678771973e-01,7.814968228340148926e-01,7.814655303955078125e-01,7.814342975616455078e-01,7.814030647277832031e-01,7.813717722892761230e-01,7.813405394554138184e-01,7.813093066215515137e-01,7.812780141830444336e-01,7.812467813491821289e-01,7.812156081199645996e-01,7.811843752861022949e-01,7.811530828475952148e-01,7.811219096183776855e-01,7.810906767845153809e-01,7.810594439506530762e-01,7.810282111167907715e-01,7.809970378875732422e-01,7.809657454490661621e-01,7.809345722198486328e-01,7.809033989906311035e-01,7.808721065521240234e-01,7.808409333229064941e-01,7.808097600936889648e-01,7.807785272598266602e-01,7.807473540306091309e-01,7.807161808013916016e-01,7.806849479675292969e-01,7.806537747383117676e-01,7.806226015090942383e-01,7.805913686752319336e-01,7.805601954460144043e-01,7.805290222167968750e-01
7.481155991554260254e-01,7.480869889259338379e-01,7.480582594871520996e-01,7.480296492576599121e-01,7.480010390281677246e-01,7.479723691940307617e-01,7.479437589645385742e-01,7.479151487350463867e-01,7.478864789009094238e-01,7.478578686714172363e-01,7.478292584419250488e-01,7.478005886077880859e-01,7.477720379829406738e-01,7.477434277534484863e-01,7.477147579193115234e-01,7.476861476898193359e-01,7.476575970649719238e-01,7.476289272308349609e-01,7.476003170013427734e-01,7.475717663764953613e-01,7.475430965423583984e-01,7.475145459175109863e-01,7.474859356880187988e-01,7.474573850631713867e-01,7.474287748336791992e-01,7.474001646041870117e-01,7.473716139793395996e-01,7.473430037498474121e-01,7.473143935203552246e-01,7.472858428955078125e-01,7.472572326660156250e-01,7.472286820411682129e-01,7.472001314163208008e-01,7.471715211868286133e-01,7.471429705619812012e-01,7.471144199371337891e-01,7.470858097076416016e-01,7.470572590827941895e-01,7.470287084579467773e-01,7.470000982284545898e-01,7.469715476036071777e-01,7.469430565834045410e-01,7.469144463539123535e-01,7.468858957290649414e-01,7.468574047088623047e-01,7.468287944793701172e-01,7.468002438545227051e-01,7.467717528343200684e-01,7.467431426048278809e-01,7.467146515846252441e-01,7.466861605644226074e-01,7.466575503349304199e-01,7.466290593147277832e-01,7.466005086898803711e-01,7.465719580650329590e-01,7.465434670448303223e-01,7.465149760246276855e-01,7.464863657951354980e-01,7.464578747749328613e-01,7.464293837547302246e-01,7.464008927345275879e-01,7.463723421096801758e-01,7.463438510894775391e-01,7.463153600692749023e-01,7.462868094444274902e-01,7.462583184242248535e-01,7.462298870086669922e-01,7.462013363838195801e-01,7.461728453636169434e-01,7.461443543434143066e-01,7.461158633232116699e-01,7.460873723030090332e-01,7.460588812828063965e-01,7.460303902626037598e-01,7.460018992424011230e-01,7.459734678268432617e-01,7.459449172019958496e-01,7.459164857864379883e-01,7.458879947662353516e-01,7.458595037460327148e-01
7.162069082260131836e-01,7.161806225776672363e-01,7.161543965339660645e-01,7.161281704902648926e-01,7.161018848419189453e-01,7.160756587982177734e-01,7.160494327545166016e-01,7.160231471061706543e-01,7.159969210624694824e-01,7.159707546234130859e-01,7.159444689750671387e-01,7.159182429313659668e-01,7.158920168876647949e-01,7.158657312393188477e-01,7.158395648002624512e-01,7.158133387565612793e-01,7.157871127128601074e-01,7.157608866691589355e-01,7.157346606254577637e-01,7.157084345817565918e-01,7.156822085380554199e-01,7.156560420989990234e-01,7.156298160552978516e-01,7.156035900115966797e-01,7.155774235725402832e-01,7.155511975288391113e-01,7.155249714851379395e-01,7.154988050460815430e-01,7.154726386070251465e-01,7.154463529586791992e-01,7.154201865196228027e-01,7.153940200805664062e-01,7.153677940368652344e-01,7.153416275978088379e-01,7.153154611587524414e-01,7.152892351150512695e-01,7.152630686759948730e-01,7.152369022369384766e-01,7.152106761932373047e-01,7.151845097541809082e-01,7.151583433151245117e-01,7.151321768760681152e-01,7.151060104370117188e-01,7.150798439979553223e-01,7.150536179542541504e-01,7.150275111198425293e-01,7.150013446807861328e-01,7.149751186370849609e-01,7.149490118026733398e-01,7.149228453636169434e-01,7.148966789245605469e-01,7.148705124855041504e-01,7.148444056510925293e-01,7.148181796073913574e-01,7.147920727729797363e-01,7.147659659385681152e-01,7.147397398948669434e-01,7.147136330604553223e-01,7.146875262260437012e-01,7.146613597869873047e-01,7.146351933479309082e-01,7.146090865135192871e-01,7.145829796791076660e-01,7.145568132400512695e-01,7.145307064056396484e-01,7.145045995712280273e-01,7.144784331321716309e-01,7.144523262977600098e-01,7.144262194633483887e-01,7.144000530242919922e-01,7.143739461898803711e-01,7.143478393554687500e-01,7.143216729164123535e-01,7.142956256866455078e-01,7.142695188522338867e-01,7.142433524131774902e-01,7.142172455787658691e-01,7.141911983489990234e-01,7.141650319099426270e-01,7.141389250755310059e-01
6.869088411331176758e-01,6.868847012519836426e-01,6.868605613708496094e-01,6.868363618850708008e-01,6.868122816085815430e-01,6.867881417274475098e-01,6.867639422416687012e-01,6.867398619651794434e-01,6.867157220840454102e-01,6.866915225982666016e-01,6.866674423217773438e-01,6.866433024406433105e-01,6.866191625595092773e-01,6.865950226783752441e-01,6.865709424018859863e-01,6.865468025207519531e-01,6.865226626396179199e-01,6.864985823631286621e-01,6.864743828773498535e-01,6.864503026008605957e-01,6.864262223243713379e-01,6.864020824432373047e-01,6.863779425621032715e-01,6.863538622856140137e-01,6.863297820091247559e-01,6.863056421279907227e-01,6.862815618515014648e-01,6.862574815750122070e-01,6.862333416938781738e-01,6.862092614173889160e-01,6.861851811408996582e-01,6.861610412597656250e-01,6.861369609832763672e-01,6.861128807067871094e-01,6.860887408256530762e-01,6.860646605491638184e-01,6.860405802726745605e-01,6.860164999961853027e-01,6.859924197196960449e-01,6.859683394432067871e-01,6.859441995620727539e-01,6.859201788902282715e-01,6.858960986137390137e-01,6.858719587326049805e-01,6.858479380607604980e-01,6.858238577842712402e-01,6.857997775077819824e-01,6.857756972312927246e-01,6.857516765594482422e-01,6.857275366783142090e-01,6.857035160064697266e-01,6.856794953346252441e-01,6.856553554534912109e-01,6.856313347816467285e-01,6.856073141098022461e-01,6.855831742286682129e-01,6.855591535568237305e-01,6.855351328849792480e-01,6.855110526084899902e-01,6.854869723320007324e-01,6.854629516601562500e-01,6.854389309883117676e-01,6.854148507118225098e-01,6.853908300399780273e-01,6.853668093681335449e-01,6.853427290916442871e-01,6.853187084197998047e-01,6.852946877479553223e-01,6.852706074714660645e-01,6.852465867996215820e-01,6.852226257324218750e-01,6.851985454559326172e-01,6.851745247840881348e-01,6.851505041122436523e-01,6.851264238357543945e-01,6.851024627685546875e-01,6.850784420967102051e-01,6.850543618202209473e-01,6.850304007530212402e-01,6.850063800811767578e-01
6.599135398864746094e-01,6.598913073539733887e-01,6.598689556121826172e-01,6.598467230796813965e-01,6.598244309425354004e-01,6.598021388053894043e-01,6.597798466682434082e-01,6.597576141357421875e-01,6.597353219985961914e-01,6.597130298614501953e-01,6.596907973289489746e-01,6.596684455871582031e-01,6.596462130546569824e-01,6.596239805221557617e-01,6.596016883850097656e-01,6.595793962478637695e-01,6.595571637153625488e-01,6.595348715782165527e-01,6.595126390457153320e-01,6.594904065132141113e-01,6.594681143760681152e-01,6.594458818435668945e-01,6.594235897064208984e-01,6.594012975692749023e-01,6.593790650367736816e-01,6.593568325042724609e-01,6.593345999717712402e-01,6.593123674392700195e-01,6.592901349067687988e-01,6.592679023742675781e-01,6.592456102371215820e-01,6.592233777046203613e-01,6.592011451721191406e-01,6.591788530349731445e-01,6.591566801071166992e-01,6.591344475746154785e-01,6.591121554374694824e-01,6.590899825096130371e-01,6.590677499771118164e-01,6.590454578399658203e-01,6.590232849121093750e-01,6.590010523796081543e-01,6.589788198471069336e-01,6.589565873146057129e-01,6.589343547821044922e-01,6.589121222496032715e-01,6.588899493217468262e-01,6.588677167892456055e-01,6.588454842567443848e-01,6.588232517242431641e-01,6.588010787963867188e-01,6.587788462638854980e-01,6.587566137313842773e-01,6.587344408035278320e-01,6.587122082710266113e-01,6.586900353431701660e-01,6.586678028106689453e-01,6.586455702781677246e-01,6.586233973503112793e-01,6.586012244224548340e-01,6.585789918899536133e-01,6.585568189620971680e-01,6.585346460342407227e-01,6.585124135017395020e-01,6.584902405738830566e-01,6.584680676460266113e-01,6.584458947181701660e-01,6.584236621856689453e-01,6.584014892578125000e-01,6.583793163299560547e-01,6.583570837974548340e-01,6.583349108695983887e-01,6.583127379417419434e-01,6.582905650138854980e-01,6.582683920860290527e-01,6.582462191581726074e-01,6.582239866256713867e-01,6.582018733024597168e-01,6.581797003746032715e-01,6.581574678421020508e-01
