5.000000000000000000e+00,5.000000000000000000e+00,5.000000000000000000e+00,5.000000000000000000e+00,5.000000000000000000e+00,5.000000000000000000e+00,5.000000000000000000e+00,5.000000000000000000e+00,5.000000000000000000e+00,5.000000000000000000e+00,5.000000000000000000e+00,5.000000000000000000e+00,5.000000000000000000e+00,5.000000000000000000e+00,5.000000000000000000e+00,5.000000000000000000e+00,5.000000000000000000e+00,5.000000000000000000e+00,5.000000000000000000e+00,5.000000000000000000e+00,5.000000000000000000e+00,5.000000000000000000e+00,5.000000000000000000e+00,5.000000000000000000e+00,5.000000000000000000e+00,2.783854961395263672e+00,2.744955539703369141e+00,2.660659790039062500e+00,2.642149209976196289e+00,2.639393568038940430e+00,2.647321224212646484e+00,2.669079780578613281e+00,2.721641302108764648e+00,2.777831077575683594e+00,2.755400180816650391e+00,2.780686140060424805e+00,5.000000000000000000e+00,5.000000000000000000e+00,5.000000000000000000e+00,4.865650653839111328e+00,4.674390316009521484e+00,4.497598171234130859e+00,4.333691120147705078e+00,4.181310176849365234e+00,4.039281845092773438e+00,3.906585454940795898e+00,3.782329797744750977e+00,3.665734767913818359e+00,3.556113719940185547e+00,3.452857971191406250e+00,3.355429887771606445e+00,3.263348579406738281e+00,3.176186323165893555e+00,3.093559265136718750e+00,3.015121936798095703e+00,2.940563917160034180e+00,2.869604349136352539e+00,2.801988601684570312e+00,2.737486124038696289e+00,2.675886392593383789e+00,2.616997957229614258e+00,2.560645580291748047e+00,2.506669044494628906e+00,2.454921007156372070e+00,2.405266523361206055e+00,2.357580661773681641e+00,2.311748981475830078e+00,2.267665147781372070e+00,2.225231409072875977e+00,2.184356451034545898e+00,2.144955873489379883e+00,2.106951713562011719e+00,2.070270776748657227e+00,2.034845113754272461e+00,2.000611543655395508e+00,1.967510819435119629e+00,1.935487508773803711e+00,1.904489994049072266e+00,1.874469399452209473e+00,1.845380902290344238e+00
5.000000000000000000e+00,5.000000000000000000e+00,5.000000000000000000e+00,5.000000000000000000e+00,5.000000000000000000e+00,5.000000000000000000e+00,5.000000000000000000e+00,5.000000000000000000e+00,5.000000000000000000e+00,5.000000000000000000e+00,5.000000000000000000e+00,5.000000000000000000e+00,5.000000000000000000e+00,5.000000000000000000e+00,5.000000000000000000e+00,5.000000000000000000e+00,5.000000000000000000e+00,5.000000000000000000e+00,5.000000000000000000e+00,5.000000000000000000e+00,5.000000000000000000e+00,5.000000000000000000e+00,5.000000000000000000e+00,5.000000000000000000e+00,5.000000000000000000e+00,5.000000000000000000e+00,2.756256103515625000e+00,2.645756244659423828e+00,2.629943609237670898e+00,2.636903524398803711e+00,2.640060186386108398e+00,2.659518957138061523e+00,2.724408626556396484e+00,5.000000000000000000e+00,2.766887426376342773e+00,2.784054040908813477e+00,5.000000000000000000e+00,5.000000000000000000e+00,5.000000000000000000e+00,4.865790843963623047e+00,4.674520015716552734e+00,4.497717380523681641e+00,4.333801746368408203e+00,4.181413650512695312e+00,4.039378166198730469e+00,3.906675577163696289e+00,3.782414197921752930e+00,3.665814399719238281e+00,3.556188344955444336e+00,3.452928304672241211e+00,3.355496168136596680e+00,3.263411521911621094e+00,3.176246166229248047e+00,3.093615770339965820e+00,3.015175580978393555e+00,2.940615177154541016e+00,2.869652986526489258e+00,2.802034854888916016e+00,2.737530231475830078e+00,2.675928592681884766e+00,2.617038488388061523e+00,2.560684442520141602e+00,2.506706237792968750e+00,2.454956769943237305e+00,2.405300617218017578e+00,2.357613563537597656e+00,2.311780691146850586e+00,2.267695665359497070e+00,2.225260734558105469e+00,2.184384584426879883e+00,2.144983053207397461e+00,2.106978178024291992e+00,2.070296049118041992e+00,2.034869670867919922e+00,2.000635147094726562e+00,1.967533588409423828e+00,1.935509562492370605e+00,1.904511451721191406e+00,1.874490141868591309e+00,1.845400929450988770e+00
5.000000000000000000e+00,5.000000000000000000e+00,5.000000000000000000e+00,5.000000000000000000e+00,5.000000000000000000e+00,5.000000000000000000e+00,5.000000000000000000e+00,5.000000000000000000e+00,5.000000000000000000e+00,5.000000000000000000e+00,5.000000000000000000e+00,5.000000000000000000e+00,5.000000000000000000e+00,5.000000000000000000e+00,5.000000000000000000e+00,5.000000000000000000e+00,5.000000000000000000e+00,5.000000000000000000e+00,5.000000000000000000e+00,5.000000000000000000e+00,5.000000000000000000e+00,5.000000000000000000e+00,5.000000000000000000e+00,5.000000000000000000e+00,5.000000000000000000e+00,5.000000000000000000e+00,2.739036083221435547e+00,2.660577297210693359e+00,2.641421794891357422e+00,2.627303361892700195e+00,2.636063814163208008e+00,2.662023067474365234e+00,2.710427284240722656e+00,5.000000000000000000e+00,2.752997398376464844e+00,2.762809514999389648e+00,5.000000000000000000e+00,5.000000000000000000e+00,5.000000000000000000e+00,4.865930557250976562e+00,4.674648761749267578e+00,4.497837066650390625e+00,4.333912849426269531e+00,4.181517124176025391e+00,4.039474487304687500e+00,3.906765460968017578e+00,3.782498598098754883e+00,3.665893793106079102e+00,3.556262969970703125e+00,3.452999114990234375e+00,3.355562686920166016e+00,3.263474225997924805e+00,3.176305532455444336e+00,3.093672037124633789e+00,3.015229225158691406e+00,2.940666198730468750e+00,2.869701385498046875e+00,2.802081346511840820e+00,2.737574577331542969e+00,2.675970792770385742e+00,2.617079019546508789e+00,2.560723066329956055e+00,2.506743192672729492e+00,2.454992294311523438e+00,2.405334711074829102e+00,2.357646465301513672e+00,2.311812162399291992e+00,2.267725944519042969e+00,2.225289821624755859e+00,2.184412717819213867e+00,2.145010232925415039e+00,2.107004165649414062e+00,2.070321321487426758e+00,2.034894227981567383e+00,2.000658988952636719e+00,1.967556476593017578e+00,1.935531735420227051e+00,1.904532790184020996e+00,1.874510884284973145e+00,1.845421075820922852e+00
5.000000000000000000e+00,5.000000000000000000e+00,5.000000000000000000e+00,5.000000000000000000e+00,5.000000000000000000e+00,5.000000000000000000e+00,5.000000000000000000e+00,5.000000000000000000e+00,5.000000000000000000e+00,5.000000000000000000e+00,5.000000000000000000e+00,5.000000000000000000e+00,5.000000000000000000e+00,5.000000000000000000e+00,5.000000000000000000e+00,5.000000000000000000e+00,5.000000000000000000e+00,5.000000000000000000e+00,5.000000000000000000e+00,5.000000000000000000e+00,5.000000000000000000e+00,5.000000000000000000e+00,5.000000000000000000e+00,5.000000000000000000e+00,5.000000000000000000e+00,5.000000000000000000e+00,2.778233528137207031e+00,2.655296802520751953e+00,2.640896320343017578e+00,2.634402751922607422e+00,2.649375915527343750e+00,2.668698549270629883e+00,2.709881782531738281e+00,5.000000000000000000e+00,2.727511405944824219e+00,2.734643936157226562e+00,5.000000000000000000e+00,5.000000000000000000e+00,5.000000000000000000e+00,4.866070270538330078e+00,4.674777507781982422e+00,4.497956275939941406e+00,4.334023952484130859e+00,4.181620121002197266e+00,4.039570808410644531e+00,3.906855583190917969e+00,3.782583475112915039e+00,3.665973186492919922e+00,3.556337594985961914e+00,3.453069448471069336e+00,3.355629205703735352e+00,3.263537168502807617e+00,3.176365137100219727e+00,3.093728542327880859e+00,3.015283107757568359e+00,2.940717220306396484e+00,2.869750022888183594e+00,2.802127838134765625e+00,2.737618684768676758e+00,2.676013231277465820e+00,2.617119312286376953e+00,2.560761690139770508e+00,2.506780385971069336e+00,2.455027818679809570e+00,2.405368804931640625e+00,2.357679367065429688e+00,2.311843633651733398e+00,2.267756223678588867e+00,2.225319147109985352e+00,2.184440851211547852e+00,2.145037651062011719e+00,2.107030391693115234e+00,2.070346593856811523e+00,2.034918546676635742e+00,2.000682592391967773e+00,1.967579364776611328e+00,1.935553789138793945e+00,1.904554247856140137e+00,1.874531865119934082e+00,1.845441222190856934e+00
5.000000000000000000e+00,5.000000000000000000e+00,5.000000000000000000e+00,5.000000000000000000e+00,5.000000000000000000e+00,5.000000000000000000e+00,5.000000000000000000e+00,5.000000000000000000e+00,5.000000000000000000e+00,5.000000000000000000e+00,5.000000000000000000e+00,5.000000000000000000e+00,5.000000000000000000e+00,5.000000000000000000e+00,5.000000000000000000e+00,5.000000000000000000e+00,5.000000000000000000e+00,5.000000000000000000e+00,5.000000000000000000e+00,5.000000000000000000e+00,5.000000000000000000e+00,5.000000000000000000e+00,5.000000000000000000e+00,5.000000000000000000e+00,5.000000000000000000e+00,5.000000000000000000e+00,2.693593978881835938e+00,2.645996332168579102e+00,2.658420801162719727e+00,2.653128623962402344e+00,2.663106679916381836e+00,2.670969724655151367e+00,2.704890966415405273e+00,5.000000000000000000e+00,2.708850145339965820e+00,2.705469608306884766e+00,5.000000000000000000e+00,5.000000000000000000e+00,5.000000000000000000e+00,4.866210460662841797e+00,4.674907207489013672e+00,4.498075962066650391e+00,4.334134578704833984e+00,4.181723594665527344e+00,4.039667606353759766e+00,3.906945705413818359e+00,3.782667875289916992e+00,3.666052341461181641e+00,3.556412458419799805e+00,3.453139781951904297e+00,3.355695486068725586e+00,3.263600349426269531e+00,3.176424741744995117e+00,3.093785047531127930e+00,3.015336751937866211e+00,2.940768241882324219e+00,2.869798898696899414e+00,2.802174091339111328e+00,2.737663030624389648e+00,2.676055669784545898e+00,2.617159843444824219e+00,2.560800552368164062e+00,2.506817579269409180e+00,2.455063343048095703e+00,2.405403137207031250e+00,2.357712030410766602e+00,2.311875104904174805e+00,2.267786741256713867e+00,2.225348234176635742e+00,2.184469223022460938e+00,2.145064592361450195e+00,2.107056617736816406e+00,2.070372104644775391e+00,2.034943103790283203e+00,2.000706195831298828e+00,1.967602372169494629e+00,1.935575962066650391e+00,1.904575586318969727e+00,1.874552607536315918e+00,1.845461249351501465e+00
5.000000000000000000e+00,5.000000000000000000e+00,5.000000000000000000e+00,5.000000000000000000e+00,5.000000000000000000e+00,5.000000000000000000e+00,5.000000000000000000e+00,5.000000000000000000e+00,5.000000000000000000e+00,5.000000000000000000e+00,5.000000000000000000e+00,5.000000000000000000e+00,5.000000000000000000e+00,5.000000000000000000e+00,5.000000000000000000e+00,5.000000000000000000e+00,5.000000000000000000e+00,5.000000000000000000e+00,5.000000000000000000e+00,5.000000000000000000e+00,5.000000000000000000e+00,5.000000000000000000e+00,5.000000000000000000e+00,5.000000000000000000e+00,5.000000000000000000e+00,5.000000000000000000e+00,2.632245302200317383e+00,2.613692760467529297e+00,2.628958940505981445e+00,2.690959453582763672e+00,2.681409597396850586e+00,2.664937734603881836e+00,2.694915771484375000e+00,5.000000000000000000e+00,5.000000000000000000e+00,2.689708232879638672e+00,5.000000000000000000e+00,5.000000000000000000e+00,5.000000000000000000e+00,4.866350173950195312e+00,4.675035953521728516e+00,4.498195648193359375e+00,4.334245681762695312e+00,4.181826591491699219e+00,4.039763927459716797e+00,3.907036304473876953e+00,3.782752275466918945e+00,3.666131734848022461e+00,3.556487083435058594e+00,3.453210115432739258e+00,3.355762004852294922e+00,3.263663053512573242e+00,3.176484346389770508e+00,3.093841791152954102e+00,3.015390396118164062e+00,2.940819263458251953e+00,2.869847536087036133e+00,2.802220344543457031e+00,2.737707138061523438e+00,2.676097869873046875e+00,2.617200136184692383e+00,2.560839414596557617e+00,2.506854534149169922e+00,2.455099105834960938e+00,2.405437469482421875e+00,2.357744932174682617e+00,2.311906814575195312e+00,2.267817258834838867e+00,2.225377559661865234e+00,2.184497356414794922e+00,2.145091772079467773e+00,2.107082843780517578e+00,2.070397377014160156e+00,2.034967422485351562e+00,2.000729799270629883e+00,1.967625260353088379e+00,1.935598015785217285e+00,1.904597043991088867e+00,1.874573349952697754e+00,1.845481395721435547e+00
5.000000000000000000e+00,5.000000000000000000e+00,5.000000000000000000e+00,5.000000000000000000e+00,5.000000000000000000e+00,5.000000000000000000e+00,5.000000000000000000e+00,5.000000000000000000e+00,5.000000000000000000e+00,5.000000000000000000e+00,5.000000000000000000e+00,5.000000000000000000e+00,5.000000000000000000e+00,5.000000000000000000e+00,5.000000000000000000e+00,5.000000000000000000e+00,5.000000000000000000e+00,5.000000000000000000e+00,5.000000000000000000e+00,5.000000000000000000e+00,5.000000000000000000e+00,5.000000000000000000e+00,5.000000000000000000e+00,5.000000000000000000e+00,5.000000000000000000e+00,2.774111032485961914e+00,2.620090723037719727e+00,2.599761486053466797e+00,2.603947877883911133e+00,2.641883134841918945e+00,2.668899297714233398e+00,2.651419639587402344e+00,2.679553031921386719e+00,5.000000000000000000e+00,2.646746873855590820e+00,2.648552417755126953e+00,5.000000000000000000e+00,5.000000000000000000e+00,5.000000000000000000e+00,4.866489887237548828e+00,4.675164699554443359e+00,4.498314857482910156e+00,4.334356784820556641e+00,4.181930065155029297e+00,4.039860248565673828e+00,3.907126188278198242e+00,3.782836914062500000e+00,3.666211128234863281e+00,3.556561708450317383e+00,3.453280448913574219e+00,3.355828762054443359e+00,3.263725996017456055e+00,3.176543712615966797e+00,3.093898296356201172e+00,3.015444040298461914e+00,2.940870285034179688e+00,2.869896173477172852e+00,2.802266836166381836e+00,2.737751722335815430e+00,2.676140069961547852e+00,2.617240667343139648e+00,2.560878038406372070e+00,2.506891727447509766e+00,2.455134630203247070e+00,2.405471563339233398e+00,2.357777833938598633e+00,2.311938524246215820e+00,2.267847537994384766e+00,2.225406885147094727e+00,2.184525489807128906e+00,2.145118951797485352e+00,2.107109069824218750e+00,2.070422649383544922e+00,2.034991979598999023e+00,2.000753402709960938e+00,1.967648029327392578e+00,1.935620188713073730e+00,1.904618382453918457e+00,1.874594092369079590e+00,1.845501422882080078e+00
5.000000000000000000e+00,5.000000000000000000e+00,5.000000000000000000e+00,5.000000000000000000e+00,5.000000000000000000e+00,5.000000000000000000e+00,5.000000000000000000e+00,5.000000000000000000e+00,5.000000000000000000e+00,5.000000000000000000e+00,5.000000000000000000e+00,5.000000000000000000e+00,5.000000000000000000e+00,5.000000000000000000e+00,5.000000000000000000e+00,5.000000000000000000e+00,5.000000000000000000e+00,5.000000000000000000e+00,5.000000000000000000e+00,5.000000000000000000e+00,5.000000000000000000e+00,5.000000000000000000e+00,5.000000000000000000e+00,5.000000000000000000e+00,5.000000000000000000e+00,5.000000000000000000e+00,2.613013744354248047e+00,2.592078208923339844e+00,2.595045328140258789e+00,2.633054971694946289e+00,2.662147045135498047e+00,2.646390676498413086e+00,2.677270412445068359e+00,5.000000000000000000e+00,2.617685317993164062e+00,2.619727373123168945e+00,5.000000000000000000e+00,5.000000000000000000e+00,5.000000000000000000e+00,4.866629600524902344e+00,4.675294399261474609e+00,4.498434066772460938e+00,4.334467411041259766e+00,4.182033538818359375e+00,4.039956569671630859e+00,3.907216310501098633e+00,3.782921314239501953e+00,3.666290760040283203e+00,3.556636333465576172e+00,3.453350782394409180e+00,3.355895280838012695e+00,3.263788700103759766e+00,3.176603555679321289e+00,3.093954801559448242e+00,3.015497684478759766e+00,2.940921545028686523e+00,2.869944810867309570e+00,2.802313089370727539e+00,2.737795829772949219e+00,2.676182508468627930e+00,2.617281198501586914e+00,2.560916662216186523e+00,2.506928920745849609e+00,2.455170392990112305e+00,2.405505657196044922e+00,2.357810497283935547e+00,2.311969995498657227e+00,2.267877817153930664e+00,2.225436210632324219e+00,2.184553623199462891e+00,2.145146131515502930e+00,2.107135295867919922e+00,2.070447921752929688e+00,2.035016298294067383e+00,2.000777006149291992e+00,1.967670917510986328e+00,1.935642480850219727e+00,1.904639840126037598e+00,1.874614834785461426e+00,1.845521807670593262e+00
5.000000000000000000e+00,5.000000000000000000e+00,5.000000000000000000e+00,5.000000000000000000e+00,5.000000000000000000e+00,5.000000000000000000e+00,5.000000000000000000e+00,5.000000000000000000e+00,5.000000000000000000e+00,5.000000000000000000e+00,5.000000000000000000e+00,5.000000000000000000e+00,5.000000000000000000e+00,5.000000000000000000e+00,5.000000000000000000e+00,5.000000000000000000e+00,5.000000000000000000e+00,5.000000000000000000e+00,5.000000000000000000e+00,5.000000000000000000e+00,5.000000000000000000e+00,5.000000000000000000e+00,5.000000000000000000e+00,5.000000000000000000e+00,5.000000000000000000e+00,2.741588115692138672e+00,2.653362512588500977e+00,2.585139751434326172e+00,2.587306022644042969e+00,2.620811939239501953e+00,2.664888620376586914e+00,2.647128105163574219e+00,2.678418159484863281e+00,5.000000000000000000e+00,5.000000000000000000e+00,2.591511964797973633e+00,5.000000000000000000e+00,5.000000000000000000e+00,5.000000000000000000e+00,4.866769790649414062e+00,4.675423145294189453e+00,4.498553752899169922e+00,4.334578514099121094e+00,4.182136535644531250e+00,4.040052890777587891e+00,3.907306432723999023e+00,3.783005714416503906e+00,3.666370153427124023e+00,3.556711196899414062e+00,3.453421592712402344e+00,3.355961799621582031e+00,3.263851642608642578e+00,3.176663160324096680e+00,3.094011306762695312e+00,3.015551328659057617e+00,2.940972566604614258e+00,2.869993209838867188e+00,2.802359819412231445e+00,2.737840175628662109e+00,2.676224708557128906e+00,2.617321729660034180e+00,2.560955524444580078e+00,2.506965875625610352e+00,2.455205917358398438e+00,2.405539751052856445e+00,2.357843399047851562e+00,2.312001466751098633e+00,2.267908096313476562e+00,2.225465297698974609e+00,2.184581995010375977e+00,2.145173311233520508e+00,2.107161521911621094e+00,2.070473194122314453e+00,2.035040855407714844e+00,2.000800609588623047e+00,1.967693805694580078e+00,1.935664653778076172e+00,1.904661297798156738e+00,1.874635577201843262e+00,1.845541834831237793e+00
5.000000000000000000e+00,5.000000000000000000e+00,5.000000000000000000e+00,5.000000000000000000e+00,5.000000000000000000e+00,5.000000000000000000e+00,5.000000000000000000e+00,5.000000000000000000e+00,5.000000000000000000e+00,5.000000000000000000e+00,5.000000000000000000e+00,5.000000000000000000e+00,5.000000000000000000e+00,5.000000000000000000e+00,5.000000000000000000e+00,5.000000000000000000e+00,5.000000000000000000e+00,5.000000000000000000e+00,5.000000000000000000e+00,5.000000000000000000e+00,5.000000000000000000e+00,5.000000000000000000e+00,5.000000000000000000e+00,5.000000000000000000e+00,5.000000000000000000e+00,2.716854810714721680e+00,2.713845968246459961e+00,2.578899145126342773e+00,2.577463626861572266e+00,2.608486413955688477e+00,2.667159795761108398e+00,2.651858329772949219e+00,2.681451559066772461e+00,5.000000000000000000e+00,5.000000000000000000e+00,5.000000000000000000e+00,5.000000000000000000e+00,5.000000000000000000e+00,5.000000000000000000e+00,4.866909503936767578e+00,4.675552368164062500e+00,4.498673439025878906e+00,4.334689617156982422e+00,4.182240009307861328e+00,4.040149211883544922e+00,3.907396554946899414e+00,3.783090591430664062e+00,3.666449308395385742e+00,3.556785821914672852e+00,3.453491926193237305e+00,3.356028079986572266e+00,3.263914823532104492e+00,3.176722764968872070e+00,3.094067811965942383e+00,3.015605211257934570e+00,2.941023588180541992e+00,2.870041847229003906e+00,2.802406072616577148e+00,2.737884283065795898e+00,2.676267147064208984e+00,2.617362022399902344e+00,2.560994148254394531e+00,2.507003068923950195e+00,2.455241441726684570e+00,2.405573844909667969e+00,2.357876300811767578e+00,2.312033176422119141e+00,2.267938613891601562e+00,2.225494623184204102e+00,2.184610128402709961e+00,2.145200729370117188e+00,2.107187747955322266e+00,2.070498466491699219e+00,2.035065412521362305e+00,2.000824451446533203e+00,1.967716574668884277e+00,1.935686707496643066e+00,1.904682636260986328e+00,1.874656319618225098e+00,1.845561981201171875e+00
5.000000000000000000e+00,5.000000000000000000e+00,5.000000000000000000e+00,5.000000000000000000e+00,5.000000000000000000e+00,5.000000000000000000e+00,5.000000000000000000e+00,5.000000000000000000e+00,5.000000000000000000e+00,5.000000000000000000e+00,5.000000000000000000e+00,5.000000000000000000e+00,5.000000000000000000e+00,5.000000000000000000e+00,5.000000000000000000e+00,5.000000000000000000e+00,5.000000000000000000e+00,5.000000000000000000e+00,5.000000000000000000e+00,5.000000000000000000e+00,5.000000000000000000e+00,5.000000000000000000e+00,5.000000000000000000e+00,5.000000000000000000e+00,5.000000000000000000e+00,2.701641321182250977e+00,5.000000000000000000e+00,2.567519664764404297e+00,2.567788839340209961e+00,2.597896337509155273e+00,2.668786764144897461e+00,2.655879020690917969e+00,2.684483051300048828e+00,5.000000000000000000e+00,5.000000000000000000e+00,5.000000000000000000e+00,5.000000000000000000e+00,5.000000000000000000e+00,5.000000000000000000e+00,4.867049694061279297e+00,4.675681591033935547e+00,4.498792648315429688e+00,4.334800243377685547e+00,4.182343482971191406e+00,4.040246009826660156e+00,3.907486677169799805e+00,3.783174991607666016e+00,3.666528701782226562e+00,3.556860685348510742e+00,3.453562259674072266e+00,3.356094598770141602e+00,3.263977766036987305e+00,3.176782369613647461e+00,3.094124317169189453e+00,3.015658855438232422e+00,2.941074609756469727e+00,2.870090723037719727e+00,2.802452325820922852e+00,2.737928628921508789e+00,2.676309347152709961e+00,2.617402553558349609e+00,2.561032772064208984e+00,2.507040262222290039e+00,2.455276966094970703e+00,2.405608177185058594e+00,2.357909202575683594e+00,2.312064647674560547e+00,2.267969131469726562e+00,2.225523710250854492e+00,2.184638261795043945e+00,2.145227670669555664e+00,2.107213973999023438e+00,2.070523977279663086e+00,2.035089731216430664e+00,2.000848054885864258e+00,1.967739462852478027e+00,1.935708761215209961e+00,1.904704093933105469e+00,1.874677062034606934e+00,1.845582008361816406e+00
5.000000000000000000e+00,5.000000000000000000e+00,5.000000000000000000e+00,5.000000000000000000e+00,5.000000000000000000e+00,5.000000000000000000e+00,5.000000000000000000e+00,5.000000000000000000e+00,5.000000000000000000e+00,5.000000000000000000e+00,5.000000000000000000e+00,5.000000000000000000e+00,5.000000000000000000e+00,5.000000000000000000e+00,5.000000000000000000e+00,5.000000000000000000e+00,5.000000000000000000e+00,5.000000000000000000e+00,5.000000000000000000e+00,5.000000000000000000e+00,5.000000000000000000e+00,5.000000000000000000e+00,5.000000000000000000e+00,5.000000000000000000e+00,5.000000000000000000e+00,5.000000000000000000e+00,5.000000000000000000e+00,2.562022686004638672e+00,2.556643009185791016e+00,2.589692115783691406e+00,2.670224428176879883e+00,2.659996986389160156e+00,2.683529615402221680e+00,5.000000000000000000e+00,5.000000000000000000e+00,5.000000000000000000e+00,5.000000000000000000e+00,5.000000000000000000e+00,5.000000000000000000e+00,4.867189407348632812e+00,4.675810337066650391e+00,4.498912334442138672e+00,4.334911346435546875e+00,4.182446479797363281e+00,4.040342330932617188e+00,3.907577276229858398e+00,3.783259630203247070e+00,3.666608095169067383e+00,3.556935310363769531e+00,3.453632831573486328e+00,3.356161117553710938e+00,3.264040708541870117e+00,3.176841735839843750e+00,3.094181060791015625e+00,3.015712499618530273e+00,2.941125631332397461e+00,2.870139360427856445e+00,2.802498817443847656e+00,2.737972974777221680e+00,2.676351785659790039e+00,2.617442846298217773e+00,2.561071634292602539e+00,2.507077455520629883e+00,2.455312490463256836e+00,2.405642509460449219e+00,2.357941865921020508e+00,2.312096118927001953e+00,2.267999410629272461e+00,2.225553035736083984e+00,2.184666633605957031e+00,2.145254850387573242e+00,2.107240200042724609e+00,2.070549249649047852e+00,2.035114288330078125e+00,2.000871658325195312e+00,1.967762351036071777e+00,1.935730934143066406e+00,1.904725670814514160e+00,1.874697804450988770e+00,1.845602154731750488e+00
5.000000000000000000e+00,5.000000000000000000e+00,5.000000000000000000e+00,5.000000000000000000e+00,5.000000000000000000e+00,5.000000000000000000e+00,5.000000000000000000e+00,5.000000000000000000e+00,5.000000000000000000e+00,5.000000000000000000e+00,5.000000000000000000e+00,5.000000000000000000e+00,5.000000000000000000e+00,5.000000000000000000e+00,5.000000000000000000e+00,5.000000000000000000e+00,5.000000000000000000e+00,5.000000000000000000e+00,5.000000000000000000e+00,5.000000000000000000e+00,5.000000000000000000e+00,5.000000000000000000e+00,5.000000000000000000e+00,5.000000000000000000e+00,5.000000000000000000e+00,5.000000000000000000e+00,5.000000000000000000e+00,2.562545537948608398e+00,2.547780752182006836e+00,2.580041170120239258e+00,2.673467636108398438e+00,2.664128065109252930e+00,2.687784910202026367e+00,5.000000000000000000e+00,5.000000000000000000e+00,5.000000000000000000e+00,5.000000000000000000e+00,5.000000000000000000e+00,5.000000000000000000e+00,4.867329597473144531e+00,4.675939559936523438e+00,4.499032020568847656e+00,4.335022449493408203e+00,4.182549953460693359e+00,4.040438652038574219e+00,3.907667398452758789e+00,3.783344030380249023e+00,3.666687726974487305e+00,3.557010173797607422e+00,3.453703165054321289e+00,3.356227874755859375e+00,3.264103412628173828e+00,3.176901340484619141e+00,3.094237565994262695e+00,3.015766143798828125e+00,2.941176891326904297e+00,2.870187997817993164e+00,2.802545070648193359e+00,2.738017320632934570e+00,2.676393985748291016e+00,2.617483377456665039e+00,2.561110496520996094e+00,2.507114410400390625e+00,2.455348253250122070e+00,2.405676603317260742e+00,2.357974767684936523e+00,2.312127828598022461e+00,2.268029689788818359e+00,2.225582361221313477e+00,2.184694766998291016e+00,2.145282030105590820e+00,2.107266426086425781e+00,2.070574522018432617e+00,2.035138607025146484e+00,2.000895261764526367e+00,1.967785120010375977e+00,1.935752987861633301e+00,1.904747128486633301e+00,1.874718546867370605e+00,1.845622301101684570e+00
5.000000000000000000e+00,5.000000000000000000e+00,5.000000000000000000e+00,5.000000000000000000e+00,5.000000000000000000e+00,5.000000000000000000e+00,5.000000000000000000e+00,5.000000000000000000e+00,5.000000000000000000e+00,5.000000000000000000e+00,5.000000000000000000e+00,5.000000000000000000e+00,5.000000000000000000e+00,5.000000000000000000e+00,5.000000000000000000e+00,5.000000000000000000e+00,5.000000000000000000e+00,5.000000000000000000e+00,5.000000000000000000e+00,5.000000000000000000e+00,5.000000000000000000e+00,5.000000000000000000e+00,5.000000000000000000e+00,5.000000000000000000e+00,5.000000000000000000e+00,5.000000000000000000e+00,5.000000000000000000e+00,2.592663764953613281e+00,2.555819988250732422e+00,2.585840940475463867e+00,2.682560920715332031e+00,2.665750265121459961e+00,2.695326805114746094e+00,5.000000000000000000e+00,5.000000000000000000e+00,5.000000000000000000e+00,5.000000000000000000e+00,5.000000000000000000e+00,5.000000000000000000e+00,4.867469310760498047e+00,4.676068782806396484e+00,4.499151229858398438e+00,4.335133552551269531e+00,4.182653427124023438e+00,4.040534973144531250e+00,3.907757282257080078e+00,3.783428430557250977e+00,3.666767120361328125e+00,3.557084798812866211e+00,3.453773498535156250e+00,3.356294393539428711e+00,3.264166355133056641e+00,3.176961183547973633e+00,3.094294071197509766e+00,3.015820026397705078e+00,2.941228151321411133e+00,2.870236635208129883e+00,2.802591323852539062e+00,2.738061666488647461e+00,2.676436185836791992e+00,2.617523908615112305e+00,2.561149120330810547e+00,2.507151603698730469e+00,2.455384016036987305e+00,2.405710697174072266e+00,2.358007431030273438e+00,2.312159538269042969e+00,2.268060207366943359e+00,2.225611686706542969e+00,2.184722900390625000e+00,2.145309209823608398e+00,2.107292652130126953e+00,2.070599794387817383e+00,2.035163164138793945e+00,2.000918865203857422e+00,1.967808008193969727e+00,1.935775160789489746e+00,1.904768466949462891e+00,1.874739289283752441e+00,1.845642328262329102e+00
5.000000000000000000e+00,5.000000000000000000e+00,5.000000000000000000e+00,5.000000000000000000e+00,5.000000000000000000e+00,5.000000000000000000e+00,5.000000000000000000e+00,5.000000000000000000e+00,5.000000000000000000e+00,5.000000000000000000e+00,5.000000000000000000e+00,5.000000000000000000e+00,5.000000000000000000e+00,5.000000000000000000e+00,5.000000000000000000e+00,5.000000000000000000e+00,5.000000000000000000e+00,5.000000000000000000e+00,5.000000000000000000e+00,5.000000000000000000e+00,5.000000000000000000e+00,5.000000000000000000e+00,5.000000000000000000e+00,5.000000000000000000e+00,5.000000000000000000e+00,5.000000000000000000e+00,5.000000000000000000e+00,2.606629610061645508e+00,2.572299957275390625e+00,2.601715087890625000e+00,2.713052034378051758e+00,2.681946277618408203e+00,2.740079879760742188e+00,5.000000000000000000e+00,5.000000000000000000e+00,5.000000000000000000e+00,5.000000000000000000e+00,5.000000000000000000e+00,5.000000000000000000e+00,4.867609024047851562e+00,4.676198005676269531e+00,4.499271392822265625e+00,4.335244178771972656e+00,4.182756423950195312e+00,4.040631294250488281e+00,3.907847404479980469e+00,3.783512830734252930e+00,3.666846513748168945e+00,3.557159423828125000e+00,3.453844308853149414e+00,3.356360912322998047e+00,3.264229297637939453e+00,3.177020788192749023e+00,3.094350576400756836e+00,3.015873670578002930e+00,2.941279172897338867e+00,2.870285272598266602e+00,2.802638053894042969e+00,2.738105773925781250e+00,2.676478385925292969e+00,2.617564439773559570e+00,2.561187744140625000e+00,2.507188558578491211e+00,2.455419540405273438e+00,2.405744791030883789e+00,2.358040571212768555e+00,2.312191009521484375e+00,2.268090486526489258e+00,2.225640773773193359e+00,2.184751033782958984e+00,2.145336389541625977e+00,2.107318878173828125e+00,2.070625066757202148e+00,2.035187721252441406e+00,2.000942468643188477e+00,1.967830896377563477e+00,1.935797214508056641e+00,1.904789924621582031e+00,1.874760031700134277e+00,1.845662474632263184e+00
5.000000000000000000e+00,5.000000000000000000e+00,5.000000000000000000e+00,5.000000000000000000e+00,5.000000000000000000e+00,5.000000000000000000e+00,5.000000000000000000e+00,5.000000000000000000e+00,5.000000000000000000e+00,5.000000000000000000e+00,5.000000000000000000e+00,5.000000000000000000e+00,5.000000000000000000e+00,5.000000000000000000e+00,5.000000000000000000e+00,5.000000000000000000e+00,5.000000000000000000e+00,5.000000000000000000e+00,5.000000000000000000e+00,5.000000000000000000e+00,5.000000000000000000e+00,5.000000000000000000e+00,5.000000000000000000e+00,5.000000000000000000e+00,5.000000000000000000e+00,5.000000000000000000e+00,5.000000000000000000e+00,2.630489587783813477e+00,2.588993549346923828e+00,2.625180959701538086e+00,2.865052938461303711e+00,2.744222879409790039e+00,2.802721261978149414e+00,5.000000000000000000e+00,5.000000000000000000e+00,5.000000000000000000e+00,5.000000000000000000e+00,5.000000000000000000e+00,5.000000000000000000e+00,4.867747783660888672e+00,4.676326751708984375e+00,4.499390602111816406e+00,4.335355281829833984e+00,4.182859897613525391e+00,4.040727615356445312e+00,3.907937526702880859e+00,3.783597707748413086e+00,3.666925907135009766e+00,3.557234048843383789e+00,3.453914642333984375e+00,3.356427192687988281e+00,3.264292478561401367e+00,3.177080392837524414e+00,3.094407081604003906e+00,3.015927553176879883e+00,2.941330194473266602e+00,2.870333909988403320e+00,2.802684307098388672e+00,2.738150119781494141e+00,2.676521062850952148e+00,2.617604970932006836e+00,2.561226606369018555e+00,2.507225990295410156e+00,2.455455064773559570e+00,2.405779123306274414e+00,2.358073234558105469e+00,2.312222480773925781e+00,2.268121004104614258e+00,2.225670099258422852e+00,2.184779167175292969e+00,2.145363807678222656e+00,2.107345104217529297e+00,2.070650339126586914e+00,2.035212039947509766e+00,2.000966310501098633e+00,1.967853903770446777e+00,1.935819387435913086e+00,1.904811382293701172e+00,1.874780893325805664e+00,1.845682501792907715e+00
5.000000000000000000e+00,5.000000000000000000e+00,5.000000000000000000e+00,5.000000000000000000e+00,5.000000000000000000e+00,5.000000000000000000e+00,5.000000000000000000e+00,5.000000000000000000e+00,5.000000000000000000e+00,5.000000000000000000e+00,5.000000000000000000e+00,5.000000000000000000e+00,5.000000000000000000e+00,5.000000000000000000e+00,5.000000000000000000e+00,5.000000000000000000e+00,5.000000000000000000e+00,5.000000000000000000e+00,5.000000000000000000e+00,5.000000000000000000e+00,5.000000000000000000e+00,5.000000000000000000e+00,5.000000000000000000e+00,5.000000000000000000e+00,5.000000000000000000e+00,5.000000000000000000e+00,5.000000000000000000e+00,2.652901649475097656e+00,2.597480535507202148e+00,2.625499725341796875e+00,5.000000000000000000e+00,2.836082458496093750e+00,2.880132913589477539e+00,5.000000000000000000e+00,5.000000000000000000e+00,5.000000000000000000e+00,5.000000000000000000e+00,5.000000000000000000e+00,5.000000000000000000e+00,4.867886543273925781e+00,4.676455497741699219e+00,4.499510288238525391e+00,4.335466384887695312e+00,4.182963371276855469e+00,4.040824413299560547e+00,3.908027648925781250e+00,3.783682346343994141e+00,3.667005062103271484e+00,3.557309150695800781e+00,3.453984975814819336e+00,3.356493711471557617e+00,3.264355182647705078e+00,3.177139997482299805e+00,3.094463586807250977e+00,3.015981197357177734e+00,2.941381216049194336e+00,2.870382785797119141e+00,2.802730798721313477e+00,2.738194227218627930e+00,2.676563262939453125e+00,2.617645263671875000e+00,2.561265230178833008e+00,2.507262945175170898e+00,2.455490589141845703e+00,2.405813455581665039e+00,2.358106136322021484e+00,2.312253952026367188e+00,2.268151283264160156e+00,2.225699424743652344e+00,2.184807300567626953e+00,2.145390748977661133e+00,2.107371330261230469e+00,2.070675849914550781e+00,2.035236597061157227e+00,2.000989913940429688e+00,1.967876791954040527e+00,1.935841441154479980e+00,1.904832720756530762e+00,1.874801635742187500e+00,1.845702648162841797e+00
5.000000000000000000e+00,5.000000000000000000e+00,5.000000000000000000e+00,5.000000000000000000e+00,5.000000000000000000e+00,5.000000000000000000e+00,5.000000000000000000e+00,5.000000000000000000e+00,5.000000000000000000e+00,5.000000000000000000e+00,5.000000000000000000e+00,5.000000000000000000e+00,5.000000000000000000e+00,5.000000000000000000e+00,5.000000000000000000e+00,5.000000000000000000e+00,5.000000000000000000e+00,5.000000000000000000e+00,5.000000000000000000e+00,5.000000000000000000e+00,5.000000000000000000e+00,5.000000000000000000e+00,5.000000000000000000e+00,5.000000000000000000e+00,5.000000000000000000e+00,5.000000000000000000e+00,5.000000000000000000e+00,5.000000000000000000e+00,2.602113723754882812e+00,2.625384092330932617e+00,5.000000000000000000e+00,2.895407438278198242e+00,2.961997747421264648e+00,5.000000000000000000e+00,5.000000000000000000e+00,5.000000000000000000e+00,5.000000000000000000e+00,5.000000000000000000e+00,5.000000000000000000e+00,4.868024826049804688e+00,4.676583290100097656e+00,4.499629974365234375e+00,4.335577487945556641e+00,4.183066368103027344e+00,4.040920734405517578e+00,3.908118247985839844e+00,3.783766746520996094e+00,3.667084455490112305e+00,3.557383775711059570e+00,3.454055547714233398e+00,3.356560707092285156e+00,3.264418125152587891e+00,3.177199363708496094e+00,3.094520330429077148e+00,3.016034841537475586e+00,2.941432237625122070e+00,2.870431423187255859e+00,2.802777051925659180e+00,2.738238811492919922e+00,2.676605463027954102e+00,2.617685794830322266e+00,2.561304092407226562e+00,2.507300138473510742e+00,2.455526351928710938e+00,2.405847549438476562e+00,2.358139038085937500e+00,2.312285900115966797e+00,2.268181800842285156e+00,2.225728511810302734e+00,2.184835672378540039e+00,2.145417928695678711e+00,2.107397556304931641e+00,2.070701122283935547e+00,2.035260915756225586e+00,2.001013517379760742e+00,1.967899680137634277e+00,1.935863614082336426e+00,1.904854178428649902e+00,1.874822378158569336e+00,1.845722794532775879e+00
5.000000000000000000e+00,5.000000000000000000e+00,5.000000000000000000e+00,5.000000000000000000e+00,5.000000000000000000e+00,5.000000000000000000e+00,5.000000000000000000e+00,5.000000000000000000e+00,5.000000000000000000e+00,5.000000000000000000e+00,5.000000000000000000e+00,5.000000000000000000e+00,5.000000000000000000e+00,5.000000000000000000e+00,5.000000000000000000e+00,5.000000000000000000e+00,5.000000000000000000e+00,5.000000000000000000e+00,5.000000000000000000e+00,5.000000000000000000e+00,5.000000000000000000e+00,5.000000000000000000e+00,5.000000000000000000e+00,5.000000000000000000e+00,5.000000000000000000e+00,5.000000000000000000e+00,5.000000000000000000e+00,5.000000000000000000e+00,2.609185218811035156e+00,2.625400543212890625e+00,5.000000000000000000e+00,2.957079172134399414e+00,3.058762550354003906e+00,5.000000000000000000e+00,5.000000000000000000e+00,5.000000000000000000e+00,5.000000000000000000e+00,5.000000000000000000e+00,5.000000000000000000e+00,4.868163585662841797e+00,4.676711559295654297e+00,4.499748229980468750e+00,4.335688591003417969e+00,4.183169841766357422e+00,4.041017055511474609e+00,3.908208370208740234e+00,3.783851146697998047e+00,3.667164325714111328e+00,3.557458400726318359e+00,3.454125881195068359e+00,3.356626987457275391e+00,3.264481067657470703e+00,3.177258968353271484e+00,3.094576835632324219e+00,3.016088485717773438e+00,2.941483497619628906e+00,2.870479822158813477e+00,2.802823543548583984e+00,2.738282918930053711e+00,2.676647901535034180e+00,2.617726087570190430e+00,2.561342954635620117e+00,2.507337093353271484e+00,2.455562114715576172e+00,2.405881643295288086e+00,2.358171701431274414e+00,2.312317371368408203e+00,2.268212080001831055e+00,2.225757837295532227e+00,2.184863805770874023e+00,2.145445108413696289e+00,2.107423782348632812e+00,2.070726394653320312e+00,2.035285472869873047e+00,2.001037120819091797e+00,1.967922449111938477e+00,1.935885667800903320e+00,1.904875516891479492e+00,1.874843120574951172e+00,1.845743060111999512e+00
5.000000000000000000e+00,5.000000000000000000e+00,5.000000000000000000e+00,5.000000000000000000e+00,5.000000000000000000e+00,5.000000000000000000e+00,5.000000000000000000e+00,5.000000000000000000e+00,5.000000000000000000e+00,5.000000000000000000e+00,5.000000000000000000e+00,5.000000000000000000e+00,5.000000000000000000e+00,5.000000000000000000e+00,5.000000000000000000e+00,5.000000000000000000e+00,5.000000000000000000e+00,5.000000000000000000e+00,5.000000000000000000e+00,5.000000000000000000e+00,5.000000000000000000e+00,5.000000000000000000e+00,5.000000000000000000e+00,5.000000000000000000e+00,5.000000000000000000e+00,5.000000000000000000e+00,5.000000000000000000e+00,5.000000000000000000e+00,2.623394966125488281e+00,2.627018451690673828e+00,5.000000000000000000e+00,3.024786472320556641e+00,5.000000000000000000e+00,5.000000000000000000e+00,5.000000000000000000e+00,5.000000000000000000e+00,5.000000000000000000e+00,5.000000000000000000e+00,5.000000000000000000e+00,4.868302345275878906e+00,4.676839351654052734e+00,4.499866485595703125e+00,4.335798740386962891e+00,4.183273315429687500e+00,4.041113853454589844e+00,3.908298492431640625e+00,3.783935785293579102e+00,3.667243719100952148e+00,3.557533025741577148e+00,3.454196214675903320e+00,3.356693506240844727e+00,3.264544010162353516e+00,3.177318811416625977e+00,3.094633340835571289e+00,3.016142368316650391e+00,2.941534519195556641e+00,2.870528459548950195e+00,2.802869796752929688e+00,2.738327264785766602e+00,2.676690101623535156e+00,2.617766857147216797e+00,2.561381578445434570e+00,2.507374286651611328e+00,2.455597639083862305e+00,2.405915737152099609e+00,2.358204603195190430e+00,2.312348842620849609e+00,2.268242359161376953e+00,2.225787162780761719e+00,2.184891939163208008e+00,2.145472288131713867e+00,2.107450008392333984e+00,2.070751667022705078e+00,2.035310029983520508e+00,2.001060724258422852e+00,1.967945337295532227e+00,1.935908079147338867e+00,1.904896974563598633e+00,1.874863862991333008e+00,1.845763206481933594e+00
5.000000000000000000e+00,5.000000000000000000e+00,5.000000000000000000e+00,5.000000000000000000e+00,5.000000000000000000e+00,5.000000000000000000e+00,5.000000000000000000e+00,5.000000000000000000e+00,5.000000000000000000e+00,5.000000000000000000e+00,5.000000000000000000e+00,5.000000000000000000e+00,5.000000000000000000e+00,5.000000000000000000e+00,5.000000000000000000e+00,5.000000000000000000e+00,5.000000000000000000e+00,5.000000000000000000e+00,5.000000000000000000e+00,5.000000000000000000e+00,5.000000000000000000e+00,5.000000000000000000e+00,5.000000000000000000e+00,5.000000000000000000e+00,5.000000000000000000e+00,5.000000000000000000e+00,5.000000000000000000e+00,5.000000000000000000e+00,2.643245935440063477e+00,2.628638267517089844e+00,5.000000000000000000e+00,3.067177295684814453e+00,5.000000000000000000e+00,5.000000000000000000e+00,5.000000000000000000e+00,5.000000000000000000e+00,5.000000000000000000e+00,5.000000000000000000e+00,5.000000000000000000e+00,4.868441104888916016e+00,4.676967144012451172e+00,4.499985218048095703e+00,4.335908412933349609e+00,4.183375835418701172e+00,4.041210174560546875e+00,3.908388614654541016e+00,3.784020662307739258e+00,3.667322874069213867e+00,3.557607889175415039e+00,3.454267024993896484e+00,3.356760025024414062e+00,3.264606714248657227e+00,3.177378416061401367e+00,3.094689846038818359e+00,3.016196250915527344e+00,2.941585779190063477e+00,2.870577096939086914e+00,2.802916288375854492e+00,2.738371610641479492e+00,2.676732301712036133e+00,2.617807149887084961e+00,2.561420202255249023e+00,2.507411479949951172e+00,2.455633163452148438e+00,2.405950069427490234e+00,2.358237504959106445e+00,2.312380552291870117e+00,2.268272876739501953e+00,2.225816488265991211e+00,2.184920072555541992e+00,2.145499706268310547e+00,2.107476234436035156e+00,2.070777177810668945e+00,2.035334587097167969e+00,2.001084566116333008e+00,1.967968225479125977e+00,1.935930132865905762e+00,1.904918432235717773e+00,1.874884605407714844e+00,1.845783233642578125e+00
4.875113487243652344e+00,4.873902320861816406e+00,4.872691154479980469e+00,4.871480941772460938e+00,4.870271682739257812e+00,4.869062423706054688e+00,4.867854118347167969e+00,4.866646289825439453e+00,4.865438938140869141e+00,4.864232540130615234e+00,4.863026142120361328e+00,4.861821174621582031e+00,4.860616207122802734e+00,4.859412193298339844e+00,4.858208656311035156e+00,4.857005596160888672e+00,4.855803012847900391e+00,4.854601383209228516e+00,4.853400230407714844e+00,4.852199554443359375e+00,4.850999832153320312e+00,4.849800586700439453e+00,4.848601341247558594e+00,4.847403049468994141e+00,4.846205234527587891e+00,4.845008373260498047e+00,4.843811988830566406e+00,4.842616081237792969e+00,2.667736768722534180e+00,2.630260229110717773e+00,3.083700895309448242e+00,3.073682069778442383e+00,4.836645603179931641e+00,4.835453033447265625e+00,4.834261417388916016e+00,4.833070278167724609e+00,4.831879615783691406e+00,4.830689907073974609e+00,4.829500198364257812e+00,4.828311443328857422e+00,4.677094936370849609e+00,4.500103473663330078e+00,4.336018562316894531e+00,4.183478355407714844e+00,4.041306495666503906e+00,3.908478975296020508e+00,3.784105062484741211e+00,3.667402267456054688e+00,3.557682514190673828e+00,3.454337358474731445e+00,3.356826543807983398e+00,3.264670133590698242e+00,3.177438020706176758e+00,3.094746351242065430e+00,3.016249895095825195e+00,2.941636800765991211e+00,2.870625734329223633e+00,2.802962779998779297e+00,2.738415718078613281e+00,2.676774740219116211e+00,2.617847681045532227e+00,2.561459064483642578e+00,2.507448673248291016e+00,2.455668687820434570e+00,2.405984163284301758e+00,2.358270406723022461e+00,2.312412023544311523e+00,2.268303394317626953e+00,2.225845575332641602e+00,2.184948444366455078e+00,2.145526885986328125e+00,2.107502460479736328e+00,2.070802450180053711e+00,2.035358905792236328e+00,2.001108169555664062e+00,1.967991113662719727e+00,1.935952305793762207e+00,1.904939770698547363e+00,1.874905347824096680e+00,1.845803380012512207e+00
3.777893781661987305e+00,3.777166128158569336e+00,3.776438713073730469e+00,3.775712013244628906e+00,3.774985313415527344e+00,3.774258613586425781e+00,3.773532867431640625e+00,3.772806882858276367e+00,3.772081136703491211e+00,3.771356344223022461e+00,3.770631074905395508e+00,3.769906282424926758e+00,3.769181728363037109e+00,3.768457889556884766e+00,3.767733812332153320e+00,3.767010211944580078e+00,3.766287088394165039e+00,3.765563964843750000e+00,3.764841079711914062e+00,3.764118671417236328e+00,3.763396501541137695e+00,3.762674331665039062e+00,3.761953115463256836e+00,3.761231660842895508e+00,3.760510206222534180e+00,3.759789705276489258e+00,3.759069204330444336e+00,3.758348703384399414e+00,3.757628917694091797e+00,2.634491682052612305e+00,3.050158023834228516e+00,3.075716972351074219e+00,3.754751682281494141e+00,3.754032850265502930e+00,3.753314733505249023e+00,3.752596616744995117e+00,3.751878738403320312e+00,3.751161336898803711e+00,3.750444173812866211e+00,3.749727010726928711e+00,3.749010562896728516e+00,3.748293876647949219e+00,3.747577667236328125e+00,3.746862173080444336e+00,3.746146440505981445e+00,3.745430946350097656e+00,3.744715690612792969e+00,3.667481660842895508e+00,3.557757616043090820e+00,3.454407930374145508e+00,3.356893062591552734e+00,3.264732837677001953e+00,3.177497625350952148e+00,3.094802856445312500e+00,3.016303539276123047e+00,2.941687822341918945e+00,2.870674610137939453e+00,2.803009033203125000e+00,2.738460063934326172e+00,2.676817178726196289e+00,2.617888212203979492e+00,2.561497688293457031e+00,2.507485866546630859e+00,2.455704450607299805e+00,2.406018495559692383e+00,2.358303308486938477e+00,2.312443494796752930e+00,2.268333673477172852e+00,2.225874900817871094e+00,2.184976577758789062e+00,2.145554065704345703e+00,2.107528686523437500e+00,2.070827722549438477e+00,2.035383462905883789e+00,2.001131772994995117e+00,1.968013882637023926e+00,1.935974359512329102e+00,1.904961228370666504e+00,1.874926090240478516e+00,1.845823526382446289e+00
3.083829641342163086e+00,3.083345174789428711e+00,3.082860469818115234e+00,3.082375764846801758e+00,3.081891775131225586e+00,3.081407546997070312e+00,3.080923318862915039e+00,3.080439805984497070e+00,3.079956054687500000e+00,3.079472303390502930e+00,3.078989028930664062e+00,3.078505754470825195e+00,3.078022718429565430e+00,3.077539920806884766e+00,3.077056884765625000e+00,3.076574325561523438e+00,3.076092004776000977e+00,3.075609445571899414e+00,3.075127124786376953e+00,3.074645280838012695e+00,3.074163436889648438e+00,3.073681592941284180e+00,3.073200225830078125e+00,3.072718620300292969e+00,3.072237253189086914e+00,3.071756362915039062e+00,3.071275234222412109e+00,3.070794343948364258e+00,3.070313930511474609e+00,2.582026481628417969e+00,3.069352865219116211e+00,3.068872690200805664e+00,3.068392515182495117e+00,3.067912578582763672e+00,3.067432641983032227e+00,3.066953182220458984e+00,3.066473722457885742e+00,3.065994262695312500e+00,3.065515518188476562e+00,3.065036296844482422e+00,3.064557313919067383e+00,3.064078807830810547e+00,3.063600063323974609e+00,3.063121557235717773e+00,3.062643527984619141e+00,3.062165260314941406e+00,3.061687231063842773e+00,3.061209678649902344e+00,3.060731887817382812e+00,3.060254096984863281e+00,3.059777021408081055e+00,3.059299707412719727e+00,3.058822631835937500e+00,3.058345794677734375e+00,3.016357183456420898e+00,2.941738843917846680e+00,2.870723247528076172e+00,2.803055524826049805e+00,2.738504409790039062e+00,2.676859378814697266e+00,2.617928504943847656e+00,2.561536550521850586e+00,2.507522821426391602e+00,2.455739974975585938e+00,2.406052589416503906e+00,2.358335971832275391e+00,2.312475204467773438e+00,2.268363952636718750e+00,2.225904226303100586e+00,2.185004711151123047e+00,2.145581007003784180e+00,2.107554912567138672e+00,2.070853233337402344e+00,2.035407781600952148e+00,2.001155376434326172e+00,1.968036770820617676e+00,1.935996532440185547e+00,1.904982805252075195e+00,1.874946832656860352e+00,1.845843553543090820e+00
2.605208396911621094e+00,2.604862451553344727e+00,2.604516506195068359e+00,2.604170799255371094e+00,2.603825092315673828e+00,2.603479385375976562e+00,2.603133916854858398e+00,2.602788686752319336e+00,2.602443218231201172e+00,2.602097988128662109e+00,2.601752758026123047e+00,2.601407766342163086e+00,2.601062774658203125e+00,2.600718021392822266e+00,2.600373029708862305e+00,2.600028276443481445e+00,2.599684000015258789e+00,2.599339246749877930e+00,2.598994731903076172e+00,2.598650693893432617e+00,2.598306417465209961e+00,2.597962141036987305e+00,2.597618103027343750e+00,2.597274065017700195e+00,2.596930265426635742e+00,2.596586465835571289e+00,2.596242904663085938e+00,2.595899105072021484e+00,2.595555543899536133e+00,2.525765180587768555e+00,2.519454717636108398e+00,2.594525575637817383e+00,2.594182491302490234e+00,2.593839406967163086e+00,2.593496561050415039e+00,2.593153715133666992e+00,2.592810869216918945e+00,2.592468023300170898e+00,2.592125654220581055e+00,2.591783046722412109e+00,2.591440677642822266e+00,2.591098308563232422e+00,2.590756177902221680e+00,2.590413808822631836e+00,2.590071916580200195e+00,2.589730024337768555e+00,2.589387893676757812e+00,2.589046239852905273e+00,2.588704586029052734e+00,2.588362932205200195e+00,2.588021516799926758e+00,2.587680101394653320e+00,2.587338685989379883e+00,2.586997509002685547e+00,2.586656332015991211e+00,2.586315155029296875e+00,2.585974216461181641e+00,2.585633516311645508e+00,2.585292577743530273e+00,2.584951877593994141e+00,2.584611415863037109e+00,2.561575412750244141e+00,2.507560014724731445e+00,2.455775737762451172e+00,2.406086683273315430e+00,2.358368873596191406e+00,2.312506914138793945e+00,2.268394470214843750e+00,2.225933313369750977e+00,2.185033082962036133e+00,2.145608186721801758e+00,2.107581138610839844e+00,2.070878505706787109e+00,2.035432338714599609e+00,2.001178979873657227e+00,1.968059659004211426e+00,1.936018586158752441e+00,1.905004262924194336e+00,1.874967575073242188e+00,1.845863699913024902e+00
2.255226612091064453e+00,2.254966020584106445e+00,2.254705190658569336e+00,2.254444599151611328e+00,2.254184007644653320e+00,2.253923654556274414e+00,2.253663063049316406e+00,2.253402948379516602e+00,2.253142595291137695e+00,2.252882480621337891e+00,2.252622365951538086e+00,2.252362012863159180e+00,2.252101898193359375e+00,2.251842021942138672e+00,2.251582145690917969e+00,2.251322269439697266e+00,2.251062393188476562e+00,2.250802755355834961e+00,2.250543117523193359e+00,2.250283479690551758e+00,2.250023841857910156e+00,2.249764204025268555e+00,2.249504804611206055e+00,2.249246358871459961e+00,2.248988389968872070e+00,2.248730659484863281e+00,2.248472929000854492e+00,2.248215198516845703e+00,2.247957468032836914e+00,2.247699975967407227e+00,2.247442245483398438e+00,2.247184753417968750e+00,2.246927499771118164e+00,2.246670007705688477e+00,2.246412754058837891e+00,2.246155500411987305e+00,2.245898246765136719e+00,2.245641231536865234e+00,2.245384216308593750e+00,2.245127201080322266e+00,2.244870185852050781e+00,2.244613409042358398e+00,2.244356393814086914e+00,2.244099617004394531e+00,2.243842840194702148e+00,2.243586301803588867e+00,2.243329524993896484e+00,2.243072986602783203e+00,2.242816686630249023e+00,2.242560148239135742e+00,2.242303848266601562e+00,2.242047548294067383e+00,2.241791248321533203e+00,2.241534948348999023e+00,2.241279125213623047e+00,2.241022825241088867e+00,2.240766763687133789e+00,2.240510940551757812e+00,2.240255117416381836e+00,2.239999055862426758e+00,2.239743471145629883e+00,2.239487648010253906e+00,2.239232063293457031e+00,2.238976478576660156e+00,2.238720893859863281e+00,2.238465309143066406e+00,2.238209962844848633e+00,2.237954616546630859e+00,2.225962638854980469e+00,2.185061216354370117e+00,2.145635366439819336e+00,2.107607364654541016e+00,2.070903778076171875e+00,2.035456895828247070e+00,2.001202821731567383e+00,1.968082427978515625e+00,1.936040759086608887e+00,1.905025720596313477e+00,1.874988317489624023e+00,1.845883846282958984e+00
1.988205075263977051e+00,1.988002419471740723e+00,1.987799882888793945e+00,1.987597346305847168e+00,1.987394809722900391e+00,1.987192392349243164e+00,1.986989974975585938e+00,1.986787676811218262e+00,1.986585378646850586e+00,1.986382842063903809e+00,1.986180543899536133e+00,1.985978364944458008e+00,1.985776305198669434e+00,1.985574126243591309e+00,1.985372066497802734e+00,1.985170125961303711e+00,1.984968066215515137e+00,1.984766125679016113e+00,1.984563946723937988e+00,1.984362125396728516e+00,1.984160304069519043e+00,1.983958482742309570e+00,1.983756780624389648e+00,1.983555078506469727e+00,1.983353376388549805e+00,1.983151793479919434e+00,1.982950210571289062e+00,1.982748389244079590e+00,1.982546925544738770e+00,1.982345461845397949e+00,1.982144117355346680e+00,1.981942653656005859e+00,1.981741309165954590e+00,1.981540083885192871e+00,1.981338858604431152e+00,1.981137633323669434e+00,1.980936169624328613e+00,1.980735063552856445e+00,1.980533957481384277e+00,1.980332970619201660e+00,1.980131983757019043e+00,1.979930996894836426e+00,1.979730010032653809e+00,1.979529142379760742e+00,1.979328036308288574e+00,1.979127287864685059e+00,1.978926539421081543e+00,1.978725790977478027e+00,1.978525042533874512e+00,1.978324413299560547e+00,1.978123903274536133e+00,1.977923274040222168e+00,1.977722764015197754e+00,1.977522015571594238e+00,1.977321624755859375e+00,1.977121233940124512e+00,1.976920843124389648e+00,1.976720571517944336e+00,1.976520299911499023e+00,1.976320028305053711e+00,1.976119875907897949e+00,1.975919723510742188e+00,1.975719332695007324e+00,1.975519299507141113e+00,1.975319266319274902e+00,1.975119233131408691e+00,1.974919319152832031e+00,1.974719405174255371e+00,1.974519491195678711e+00,1.974319696426391602e+00,1.974119901657104492e+00,1.973919868469238281e+00,1.973720192909240723e+00,1.973520517349243164e+00,1.973320841789245605e+00,1.968105316162109375e+00,1.936062812805175781e+00,1.905047059059143066e+00,1.875009298324584961e+00,1.845903873443603516e+00
1.777720928192138672e+00,1.777558922767639160e+00,1.777396917343139648e+00,1.777235031127929688e+00,1.777073144912719727e+00,1.776911258697509766e+00,1.776749491691589355e+00,1.776587486267089844e+00,1.776425719261169434e+00,1.776263952255249023e+00,1.776102185249328613e+00,1.775940537452697754e+00,1.775778889656066895e+00,1.775617241859436035e+00,1.775455713272094727e+00,1.775294065475463867e+00,1.775132417678833008e+00,1.774970889091491699e+00,1.774809360504150391e+00,1.774647951126098633e+00,1.774486541748046875e+00,1.774325132369995117e+00,1.774163722991943359e+00,1.774002432823181152e+00,1.773841142654418945e+00,1.773679614067077637e+00,1.773518443107604980e+00,1.773357152938842773e+00,1.773195981979370117e+00,1.773034811019897461e+00,1.772873640060424805e+00,1.772712588310241699e+00,1.772551536560058594e+00,1.772390484809875488e+00,1.772229313850402832e+00,1.772068262100219727e+00,1.771907329559326172e+00,1.771746397018432617e+00,1.771585464477539062e+00,1.771424651145935059e+00,1.771263837814331055e+00,1.771103024482727051e+00,1.770942211151123047e+00,1.770781278610229492e+00,1.770620584487915039e+00,1.770459890365600586e+00,1.770299196243286133e+00,1.770138621330261230e+00,1.769977927207946777e+00,1.769817352294921875e+00,1.769656896591186523e+00,1.769496321678161621e+00,1.769335627555847168e+00,1.769175171852111816e+00,1.769014716148376465e+00,1.768854379653930664e+00,1.768693923950195312e+00,1.768533587455749512e+00,1.768373370170593262e+00,1.768213033676147461e+00,1.768052577972412109e+00,1.767892360687255859e+00,1.767732143402099609e+00,1.767572045326232910e+00,1.767411828041076660e+00,1.767251729965209961e+00,1.767091631889343262e+00,1.766931653022766113e+00,1.766771554946899414e+00,1.766611456871032715e+00,1.766451478004455566e+00,1.766291499137878418e+00,1.766131639480590820e+00,1.765971779823303223e+00,1.765811920166015625e+00,1.765652060508728027e+00,1.765492320060729980e+00,1.765332579612731934e+00,1.765172719955444336e+00,1.765012979507446289e+00
1.607536673545837402e+00,1.607404232025146484e+00,1.607271790504455566e+00,1.607139468193054199e+00,1.607007026672363281e+00,1.606874704360961914e+00,1.606742143630981445e+00,1.606609821319580078e+00,1.606477618217468262e+00,1.606345295906066895e+00,1.606212973594665527e+00,1.606080770492553711e+00,1.605948567390441895e+00,1.605816364288330078e+00,1.605684161186218262e+00,1.605551958084106445e+00,1.605419754981994629e+00,1.605287671089172363e+00,1.605155587196350098e+00,1.605023503303527832e+00,1.604891538619995117e+00,1.604759454727172852e+00,1.604627490043640137e+00,1.604495286941528320e+00,1.604363441467285156e+00,1.604231476783752441e+00,1.604099512100219727e+00,1.603967666625976562e+00,1.603835821151733398e+00,1.603703975677490234e+00,1.603572130203247070e+00,1.603440284729003906e+00,1.603308439254760742e+00,1.603176593780517578e+00,1.603044867515563965e+00,1.602913141250610352e+00,1.602781534194946289e+00,1.602649807929992676e+00,1.602518200874328613e+00,1.602386593818664551e+00,1.602254986763000488e+00,1.602123141288757324e+00,1.601991653442382812e+00,1.601860046386718750e+00,1.601728558540344238e+00,1.601597070693969727e+00,1.601465582847595215e+00,1.601334095001220703e+00,1.601202726364135742e+00,1.601071357727050781e+00,1.600939750671386719e+00,1.600808382034301758e+00,1.600677013397216797e+00,1.600545763969421387e+00,1.600414395332336426e+00,1.600283145904541016e+00,1.600151896476745605e+00,1.600020647048950195e+00,1.599889397621154785e+00,1.599758028984069824e+00,1.599626898765563965e+00,1.599495768547058105e+00,1.599364638328552246e+00,1.599233508110046387e+00,1.599102377891540527e+00,1.598971366882324219e+00,1.598840236663818359e+00,1.598709225654602051e+00,1.598578095436096191e+00,1.598447084426879883e+00,1.598316192626953125e+00,1.598185181617736816e+00,1.598054289817810059e+00,1.597923398017883301e+00,1.597792506217956543e+00,1.597661733627319336e+00,1.597530722618103027e+00,1.597399950027465820e+00,1.597269058227539062e+00,1.597138285636901855e+00
1.467089772224426270e+00,1.466979503631591797e+00,1.466869115829467773e+00,1.466758847236633301e+00,1.466648459434509277e+00,1.466538190841674805e+00,1.466427922248840332e+00,1.466317772865295410e+00,1.466207504272460938e+00,1.466097354888916016e+00,1.465987205505371094e+00,1.465877056121826172e+00,1.465766906738281250e+00,1.465656638145446777e+00,1.465546488761901855e+00,1.465436458587646484e+00,1.465326309204101562e+00,1.465216279029846191e+00,1.465106248855590820e+00,1.464996218681335449e+00,1.464886188507080078e+00,1.464776277542114258e+00,1.464666128158569336e+00,1.464556217193603516e+00,1.464446187019348145e+00,1.464336276054382324e+00,1.464226365089416504e+00,1.464116454124450684e+00,1.464006662368774414e+00,1.463896751403808594e+00,1.463786959648132324e+00,1.463676929473876953e+00,1.463567137718200684e+00,1.463457345962524414e+00,1.463347554206848145e+00,1.463237881660461426e+00,1.463128089904785156e+00,1.463018417358398438e+00,1.462908625602722168e+00,1.462798833847045898e+00,1.462689161300659180e+00,1.462579488754272461e+00,1.462469816207885742e+00,1.462360262870788574e+00,1.462250590324401855e+00,1.462141036987304688e+00,1.462031483650207520e+00,1.461921930313110352e+00,1.461812257766723633e+00,1.461702704429626465e+00,1.461593151092529297e+00,1.461483716964721680e+00,1.461374282836914062e+00,1.461264729499816895e+00,1.461155295372009277e+00,1.461045861244201660e+00,1.460936427116394043e+00,1.460826992988586426e+00,1.460717558860778809e+00,1.460608243942260742e+00,1.460498809814453125e+00,1.460389494895935059e+00,1.460280179977416992e+00,1.460170865058898926e+00,1.460061669349670410e+00,1.459952354431152344e+00,1.459843039512634277e+00,1.459733724594116211e+00,1.459624528884887695e+00,1.459515333175659180e+00,1.459406137466430664e+00,1.459296941757202148e+00,1.459187865257263184e+00,1.459078669548034668e+00,1.458969593048095703e+00,1.458860278129577637e+00,1.458751201629638672e+00,1.458642125129699707e+00,1.458533167839050293e+00,1.458424091339111328e+00
1.349212050437927246e+00,1.349118709564208984e+00,1.349025368690490723e+00,1.348932027816772461e+00,1.348838806152343750e+00,1.348745584487915039e+00,1.348652362823486328e+00,1.348559141159057617e+00,1.348465919494628906e+00,1.348372697830200195e+00,1.348279476165771484e+00,1.348186135292053223e+00,1.348093032836914062e+00,1.347999930381774902e+00,1.347906708717346191e+00,1.347813606262207031e+00,1.347720503807067871e+00,1.347627401351928711e+00,1.347534298896789551e+00,1.347441196441650391e+00,1.347348093986511230e+00,1.347255110740661621e+00,1.347162008285522461e+00,1.347069025039672852e+00,1.346976041793823242e+00,1.346883058547973633e+00,1.346790075302124023e+00,1.346697092056274414e+00,1.346604108810424805e+00,1.346511006355285645e+00,1.346418142318725586e+00,1.346325159072875977e+00,1.346232295036315918e+00,1.346139430999755859e+00,1.346046566963195801e+00,1.345953583717346191e+00,1.345860838890075684e+00,1.345767974853515625e+00,1.345674991607666016e+00,1.345582246780395508e+00,1.345489382743835449e+00,1.345396637916564941e+00,1.345303773880004883e+00,1.345211029052734375e+00,1.345118284225463867e+00,1.345025539398193359e+00,1.344932794570922852e+00,1.344840049743652344e+00,1.344747304916381836e+00,1.344654560089111328e+00,1.344561934471130371e+00,1.344469308853149414e+00,1.344376564025878906e+00,1.344283938407897949e+00,1.344191312789916992e+00,1.344098567962646484e+00,1.344006061553955078e+00,1.343913435935974121e+00,1.343820810317993164e+00,1.343728303909301758e+00,1.343635797500610352e+00,1.343543171882629395e+00,1.343450665473937988e+00,1.343358159065246582e+00,1.343265533447265625e+00,1.343173027038574219e+00,1.343080639839172363e+00,1.342988133430480957e+00,1.342895746231079102e+00,1.342803239822387695e+00,1.342710852622985840e+00,1.342618465423583984e+00,1.342526078224182129e+00,1.342433571815490723e+00,1.342341184616088867e+00,1.342248797416687012e+00,1.342156410217285156e+00,1.342064142227172852e+00,1.341971755027770996e+00,1.341879487037658691e+00
1.248867988586425781e+00,1.248787999153137207e+00,1.248708128929138184e+00,1.248628139495849609e+00,1.248548269271850586e+00,1.248468399047851562e+00,1.248388409614562988e+00,1.248308539390563965e+00,1.248228669166564941e+00,1.248148798942565918e+00,1.248068928718566895e+00,1.247989058494567871e+00,1.247909188270568848e+00,1.247829437255859375e+00,1.247749567031860352e+00,1.247669816017150879e+00,1.247589945793151855e+00,1.247510194778442383e+00,1.247430324554443359e+00,1.247350573539733887e+00,1.247270822525024414e+00,1.247191071510314941e+00,1.247111320495605469e+00,1.247031688690185547e+00,1.246951937675476074e+00,1.246872305870056152e+00,1.246792554855346680e+00,1.246712803840637207e+00,1.246633172035217285e+00,1.246553421020507812e+00,1.246473789215087891e+00,1.246394157409667969e+00,1.246314525604248047e+00,1.246234893798828125e+00,1.246155381202697754e+00,1.246075749397277832e+00,1.245995998382568359e+00,1.245916485786437988e+00,1.245836853981018066e+00,1.245757341384887695e+00,1.245677828788757324e+00,1.245598316192626953e+00,1.245518684387207031e+00,1.245439171791076660e+00,1.245359778404235840e+00,1.245280146598815918e+00,1.245200634002685547e+00,1.245121121406555176e+00,1.245041728019714355e+00,1.244962215423583984e+00,1.244882822036743164e+00,1.244803428649902344e+00,1.244723916053771973e+00,1.244644522666931152e+00,1.244565010070800781e+00,1.244485616683959961e+00,1.244406223297119141e+00,1.244326949119567871e+00,1.244247555732727051e+00,1.244168162345886230e+00,1.244088888168334961e+00,1.244009494781494141e+00,1.243930220603942871e+00,1.243850827217102051e+00,1.243771433830261230e+00,1.243692159652709961e+00,1.243612885475158691e+00,1.243533611297607422e+00,1.243454337120056152e+00,1.243375062942504883e+00,1.243295907974243164e+00,1.243216514587402344e+00,1.243137359619140625e+00,1.243058085441589355e+00,1.242978930473327637e+00,1.242899775505065918e+00,1.242820501327514648e+00,1.242741346359252930e+00,1.242662191390991211e+00,1.242583036422729492e+00
1.162416458129882812e+00,1.162347197532653809e+00,1.162277936935424805e+00,1.162208676338195801e+00,1.162139415740966797e+00,1.162070155143737793e+00,1.162001013755798340e+00,1.161931753158569336e+00,1.161862492561340332e+00,1.161793231964111328e+00,1.161724090576171875e+00,1.161654949188232422e+00,1.161585807800292969e+00,1.161516547203063965e+00,1.161447405815124512e+00,1.161378264427185059e+00,1.161309123039245605e+00,1.161239981651306152e+00,1.161170840263366699e+00,1.161101698875427246e+00,1.161032676696777344e+00,1.160963535308837891e+00,1.160894393920898438e+00,1.160825371742248535e+00,1.160756349563598633e+00,1.160687208175659180e+00,1.160618066787719727e+00,1.160549044609069824e+00,1.160480022430419922e+00,1.160411000251770020e+00,1.160341978073120117e+00,1.160272955894470215e+00,1.160203933715820312e+00,1.160134911537170410e+00,1.160065889358520508e+00,1.159996867179870605e+00,1.159927964210510254e+00,1.159858942031860352e+00,1.159790039062500000e+00,1.159721016883850098e+00,1.159652113914489746e+00,1.159583210945129395e+00,1.159514307975769043e+00,1.159445285797119141e+00,1.159376382827758789e+00,1.159307479858398438e+00,1.159238576889038086e+00,1.159169673919677734e+00,1.159100770950317383e+00,1.159031987190246582e+00,1.158963084220886230e+00,1.158894181251525879e+00,1.158825278282165527e+00,1.158756494522094727e+00,1.158687710762023926e+00,1.158618807792663574e+00,1.158550024032592773e+00,1.158481240272521973e+00,1.158412456512451172e+00,1.158343672752380371e+00,1.158274888992309570e+00,1.158206105232238770e+00,1.158137321472167969e+00,1.158068537712097168e+00,1.157999873161315918e+00,1.157931089401245117e+00,1.157862305641174316e+00,1.157793641090393066e+00,1.157724976539611816e+00,1.157656192779541016e+00,1.157587409019470215e+00,1.157518744468688965e+00,1.157450079917907715e+00,1.157381415367126465e+00,1.157312750816345215e+00,1.157244086265563965e+00,1.157175421714782715e+00,1.157106876373291016e+00,1.157038211822509766e+00,1.156969547271728516e+00
1.087158918380737305e+00,1.087098360061645508e+00,1.087037801742553711e+00,1.086977243423461914e+00,1.086916685104370117e+00,1.086856126785278320e+00,1.086795449256896973e+00,1.086734890937805176e+00,1.086674451828002930e+00,1.086613893508911133e+00,1.086553335189819336e+00,1.086492896080017090e+00,1.086432337760925293e+00,1.086371779441833496e+00,1.086311340332031250e+00,1.086250782012939453e+00,1.086190342903137207e+00,1.086129784584045410e+00,1.086069345474243164e+00,1.086008906364440918e+00,1.085948467254638672e+00,1.085888028144836426e+00,1.085827589035034180e+00,1.085767149925231934e+00,1.085706591606140137e+00,1.085646271705627441e+00,1.085585832595825195e+00,1.085525393486022949e+00,1.085464954376220703e+00,1.085404634475708008e+00,1.085344195365905762e+00,1.085283875465393066e+00,1.085223436355590820e+00,1.085162997245788574e+00,1.085102677345275879e+00,1.085042357444763184e+00,1.084982037544250488e+00,1.084921598434448242e+00,1.084861278533935547e+00,1.084800958633422852e+00,1.084740638732910156e+00,1.084680318832397461e+00,1.084619998931884766e+00,1.084559679031372070e+00,1.084499359130859375e+00,1.084439039230346680e+00,1.084378838539123535e+00,1.084318518638610840e+00,1.084258317947387695e+00,1.084197998046875000e+00,1.084137678146362305e+00,1.084077477455139160e+00,1.084017276763916016e+00,1.083956956863403320e+00,1.083896756172180176e+00,1.083836555480957031e+00,1.083776354789733887e+00,1.083716154098510742e+00,1.083655953407287598e+00,1.083595633506774902e+00,1.083535432815551758e+00,1.083475351333618164e+00,1.083415150642395020e+00,1.083354949951171875e+00,1.083294868469238281e+00,1.083234667778015137e+00,1.083174467086791992e+00,1.083114385604858398e+00,1.083054184913635254e+00,1.082994103431701660e+00,1.082933902740478516e+00,1.082873821258544922e+00,1.082813739776611328e+00,1.082753658294677734e+00,1.082693576812744141e+00,1.082633495330810547e+00,1.082573413848876953e+00,1.082513213157653809e+00,1.082453131675720215e+00,1.082393050193786621e+00
1.021053671836853027e+00,1.021000146865844727e+00,1.020946741104125977e+00,1.020893335342407227e+00,1.020839929580688477e+00,1.020786404609680176e+00,1.020732998847961426e+00,1.020679593086242676e+00,1.020626187324523926e+00,1.020572781562805176e+00,1.020519375801086426e+00,1.020466089248657227e+00,1.020412683486938477e+00,1.020359277725219727e+00,1.020305871963500977e+00,1.020252466201782227e+00,1.020199179649353027e+00,1.020145773887634277e+00,1.020092487335205078e+00,1.020039081573486328e+00,1.019985795021057129e+00,1.019932508468627930e+00,1.019879102706909180e+00,1.019825816154479980e+00,1.019772529602050781e+00,1.019719123840332031e+00,1.019665837287902832e+00,1.019612550735473633e+00,1.019559264183044434e+00,1.019505977630615234e+00,1.019452691078186035e+00,1.019399404525756836e+00,1.019346117973327637e+00,1.019292831420898438e+00,1.019239664077758789e+00,1.019186377525329590e+00,1.019133090972900391e+00,1.019079923629760742e+00,1.019026637077331543e+00,1.018973469734191895e+00,1.018920183181762695e+00,1.018866896629333496e+00,1.018813729286193848e+00,1.018760561943054199e+00,1.018707275390625000e+00,1.018654108047485352e+00,1.018600940704345703e+00,1.018547773361206055e+00,1.018494606018066406e+00,1.018441319465637207e+00,1.018388152122497559e+00,1.018334984779357910e+00,1.018281936645507812e+00,1.018228769302368164e+00,1.018175601959228516e+00,1.018122434616088867e+00,1.018069267272949219e+00,1.018016219139099121e+00,1.017963051795959473e+00,1.017909884452819824e+00,1.017856836318969727e+00,1.017803668975830078e+00,1.017750620841979980e+00,1.017697453498840332e+00,1.017644405364990234e+00,1.017591357231140137e+00,1.017538189888000488e+00,1.017485141754150391e+00,1.017432093620300293e+00,1.017379045486450195e+00,1.017325878143310547e+00,1.017272830009460449e+00,1.017219781875610352e+00,1.017166852951049805e+00,1.017113804817199707e+00,1.017060637474060059e+00,1.017007708549499512e+00,1.016954660415649414e+00,1.016901612281799316e+00,1.016848683357238770e+00
9.625267386436462402e-01,9.624792337417602539e-01,9.624317884445190430e-01,9.623841643333435059e-01,9.623366594314575195e-01,9.622892141342163086e-01,9.622417688369750977e-01,9.621942639350891113e-01,9.621468186378479004e-01,9.620993733406066895e-01,9.620519280433654785e-01,9.620044827461242676e-01,9.619570374488830566e-01,9.619096517562866211e-01,9.618622064590454102e-01,9.618147611618041992e-01,9.617673754692077637e-01,9.617199897766113281e-01,9.616725444793701172e-01,9.616251587867736816e-01,9.615777730941772461e-01,9.615302681922912598e-01,9.614828824996948242e-01,9.614354968070983887e-01,9.613881111145019531e-01,9.613407254219055176e-01,9.612933397293090820e-01,9.612459540367126465e-01,9.611986279487609863e-01,9.611512422561645508e-01,9.611039161682128906e-01,9.610565900802612305e-01,9.610092043876647949e-01,9.609618782997131348e-01,9.609145522117614746e-01,9.608672261238098145e-01,9.608199000358581543e-01,9.607725739479064941e-01,9.607251286506652832e-01,9.606778621673583984e-01,9.606305360794067383e-01,9.605832695960998535e-01,9.605359435081481934e-01,9.604886770248413086e-01,9.604413509368896484e-01,9.603940844535827637e-01,9.603468179702758789e-01,9.602995514869689941e-01,9.602522850036621094e-01,9.602050185203552246e-01,9.601577520370483398e-01,9.601104855537414551e-01,9.600632190704345703e-01,9.600160121917724609e-01,9.599687457084655762e-01,9.599215388298034668e-01,9.598741531372070312e-01,9.598269462585449219e-01,9.597797393798828125e-01,9.597324728965759277e-01,9.596852660179138184e-01,9.596380591392517090e-01,9.595908522605895996e-01,9.595437049865722656e-01,9.594964981079101562e-01,9.594492912292480469e-01,9.594020843505859375e-01,9.593549370765686035e-01,9.593077301979064941e-01,9.592605829238891602e-01,9.592134356498718262e-01,9.591662287712097168e-01,9.591190814971923828e-01,9.590719342231750488e-01,9.590246677398681641e-01,9.589775204658508301e-01,9.589304327964782715e-01,9.588832855224609375e-01,9.588361382484436035e-01,9.587889909744262695e-01
9.103454947471618652e-01,9.103029966354370117e-01,9.102605581283569336e-01,9.102180600166320801e-01,9.101756215095520020e-01,9.101331233978271484e-01,9.100906848907470703e-01,9.100482463836669922e-01,9.100058078765869141e-01,9.099633097648620605e-01,9.099208116531372070e-01,9.098783731460571289e-01,9.098359346389770508e-01,9.097934961318969727e-01,9.097510576248168945e-01,9.097086191177368164e-01,9.096662402153015137e-01,9.096238017082214355e-01,9.095813632011413574e-01,9.095389842987060547e-01,9.094966053962707520e-01,9.094541668891906738e-01,9.094117879867553711e-01,9.093694090843200684e-01,9.093270301818847656e-01,9.092845916748046875e-01,9.092422127723693848e-01,9.091998934745788574e-01,9.091573953628540039e-01,9.091150164604187012e-01,9.090726375579833984e-01,9.090303182601928711e-01,9.089879393577575684e-01,9.089456200599670410e-01,9.089032411575317383e-01,9.088609218597412109e-01,9.088185429573059082e-01,9.087762236595153809e-01,9.087339043617248535e-01,9.086915850639343262e-01,9.086492657661437988e-01,9.086069464683532715e-01,9.085646271705627441e-01,9.085223078727722168e-01,9.084799885749816895e-01,9.084376096725463867e-01,9.083952903747558594e-01,9.083529710769653320e-01,9.083107113838195801e-01,9.082683920860290527e-01,9.082261323928833008e-01,9.081838130950927734e-01,9.081415534019470215e-01,9.080992937088012695e-01,9.080570340156555176e-01,9.080147743225097656e-01,9.079725146293640137e-01,9.079302549362182617e-01,9.078879952430725098e-01,9.078457355499267578e-01,9.078034758567810059e-01,9.077612161636352539e-01,9.077190160751342773e-01,9.076766967773437500e-01,9.076344370841979980e-01,9.075922369956970215e-01,9.075499773025512695e-01,9.075077772140502930e-01,9.074655771255493164e-01,9.074233770370483398e-01,9.073811769485473633e-01,9.073389768600463867e-01,9.072967767715454102e-01,9.072545766830444336e-01,9.072123765945434570e-01,9.071701765060424805e-01,9.071279764175415039e-01,9.070858359336853027e-01,9.070436358451843262e-01,9.070014953613281250e-01
8.635311126708984375e-01,8.634929060935974121e-01,8.634546399116516113e-01,8.634164333343505859e-01,8.633782267570495605e-01,8.633400201797485352e-01,8.633018136024475098e-01,8.632636070251464844e-01,8.632254004478454590e-01,8.631872534751892090e-01,8.631490468978881836e-01,8.631108403205871582e-01,8.630726337432861328e-01,8.630344867706298828e-01,8.629962801933288574e-01,8.629581332206726074e-01,8.629199266433715820e-01,8.628817200660705566e-01,8.628435134887695312e-01,8.628053665161132812e-01,8.627672195434570312e-01,8.627290725708007812e-01,8.626909255981445312e-01,8.626527786254882812e-01,8.626146316528320312e-01,8.625764846801757812e-01,8.625383377075195312e-01,8.625001907348632812e-01,8.624620437622070312e-01,8.624239563941955566e-01,8.623858094215393066e-01,8.623477220535278320e-01,8.623095750808715820e-01,8.622714877128601074e-01,8.622333407402038574e-01,8.621951341629028320e-01,8.621570467948913574e-01,8.621189594268798828e-01,8.620808720588684082e-01,8.620427846908569336e-01,8.620046973228454590e-01,8.619666099548339844e-01,8.619285225868225098e-01,8.618904352188110352e-01,8.618523478507995605e-01,8.618142604827880859e-01,8.617761731147766113e-01,8.617381453514099121e-01,8.617000579833984375e-01,8.616620302200317383e-01,8.616239428520202637e-01,8.615859150886535645e-01,8.615478277206420898e-01,8.615097403526306152e-01,8.614716529846191406e-01,8.614336252212524414e-01,8.613955974578857422e-01,8.613575696945190430e-01,8.613195419311523438e-01,8.612815141677856445e-01,8.612434864044189453e-01,8.612054586410522461e-01,8.611674308776855469e-01,8.611294031143188477e-01,8.610914349555969238e-01,8.610534071922302246e-01,8.610153794288635254e-01,8.609774112701416016e-01,8.609394431114196777e-01,8.609014153480529785e-01,8.608633279800415039e-01,8.608253598213195801e-01,8.607873916625976562e-01,8.607493638992309570e-01,8.607113957405090332e-01,8.606734275817871094e-01,8.606354594230651855e-01,8.605974912643432617e-01,8.605595231056213379e-01,8.605215549468994141e-01
8.212961554527282715e-01,8.212615847587585449e-01,8.212270140647888184e-01,8.211924433708190918e-01,8.211578726768493652e-01,8.211233019828796387e-01,8.210887312889099121e-01,8.210541009902954102e-01,8.210195302963256836e-01,8.209850192070007324e-01,8.209504485130310059e-01,8.209159374237060547e-01,8.208813667297363281e-01,8.208468556404113770e-01,8.208122849464416504e-01,8.207777738571166992e-01,8.207432031631469727e-01,8.207086920738220215e-01,8.206741809844970703e-01,8.206396698951721191e-01,8.206051588058471680e-01,8.205706477165222168e-01,8.205360770225524902e-01,8.205016255378723145e-01,8.204671144485473633e-01,8.204324841499328613e-01,8.203980326652526855e-01,8.203635215759277344e-01,8.203290104866027832e-01,8.202944993972778320e-01,8.202600479125976562e-01,8.202255368232727051e-01,8.201910257339477539e-01,8.201565742492675781e-01,8.201221227645874023e-01,8.200876116752624512e-01,8.200531601905822754e-01,8.200186491012573242e-01,8.199841976165771484e-01,8.199497461318969727e-01,8.199152946472167969e-01,8.198808431625366211e-01,8.198462724685668945e-01,8.198118209838867188e-01,8.197773694992065430e-01,8.197429180145263672e-01,8.197084665298461914e-01,8.196740746498107910e-01,8.196396231651306152e-01,8.196051716804504395e-01,8.195707201957702637e-01,8.195363283157348633e-01,8.195018768310546875e-01,8.194674849510192871e-01,8.194330334663391113e-01,8.193986415863037109e-01,8.193641901016235352e-01,8.193297982215881348e-01,8.192954063415527344e-01,8.192609548568725586e-01,8.192265033721923828e-01,8.191921114921569824e-01,8.191577196121215820e-01,8.191233277320861816e-01,8.190889358520507812e-01,8.190545439720153809e-01,8.190201520919799805e-01,8.189857602119445801e-01,8.189513683319091797e-01,8.189169764518737793e-01,8.188826441764831543e-01,8.188482522964477539e-01,8.188138604164123535e-01,8.187795281410217285e-01,8.187451362609863281e-01,8.187108039855957031e-01,8.186764121055603027e-01,8.186420202255249023e-01,8.186076283454895020e-01,8.185732960700988770e-01
7.829998731613159180e-01,7.829684615135192871e-01,7.829370498657226562e-01,7.829056382179260254e-01,7.828741669654846191e-01,7.828427553176879883e-01,7.828113436698913574e-01,7.827799320220947266e-01,7.827485203742980957e-01,7.827171683311462402e-01,7.826857566833496094e-01,7.826543450355529785e-01,7.826229333877563477e-01,7.825915217399597168e-01,7.825600504875183105e-01,7.825286984443664551e-01,7.824972867965698242e-01,7.824659347534179688e-01,7.824345231056213379e-01,7.824031710624694824e-01,7.823717594146728516e-01,7.823404073715209961e-01,7.823089957237243652e-01,7.822776436805725098e-01,7.822462916374206543e-01,7.822149395942687988e-01,7.821835279464721680e-01,7.821521759033203125e-01,7.821208238601684570e-01,7.820894718170166016e-01,7.820581197738647461e-01,7.820267677307128906e-01,7.819953560829162598e-01,7.819640040397644043e-01,7.819326519966125488e-01,7.819012999534606934e-01,7.818700075149536133e-01,7.818386554718017578e-01,7.818073034286499023e-01,7.817760109901428223e-01,7.817446589469909668e-01,7.817133069038391113e-01,7.816820144653320312e-01,7.816506624221801758e-01,7.816193699836730957e-01,7.815880775451660156e-01,7.815567255020141602e-01,7.815254330635070801e-01,7.814941406250000000e-01,7.814627289772033691e-01,7.814314365386962891e-01,7.814001441001892090e-01,7.813688516616821289e-01,7.813375592231750488e-01,7.813062667846679688e-01,7.812749743461608887e-01,7.812436819076538086e-01,7.812123894691467285e-01,7.811810970306396484e-01,7.811498045921325684e-01,7.811185717582702637e-01,7.810872793197631836e-01,7.810559868812561035e-01,7.810247540473937988e-01,7.809934616088867188e-01,7.809622287750244141e-01,7.809309363365173340e-01,7.808995842933654785e-01,7.808683514595031738e-01,7.808371186256408691e-01,7.808058261871337891e-01,7.807745933532714844e-01,7.807433605194091797e-01,7.807121276855468750e-01,7.806808352470397949e-01,7.806496024131774902e-01,7.806183695793151855e-01,7.805871367454528809e-01,7.805559039115905762e-01,7.805246710777282715e-01
7.481160163879394531e-01,7.480872869491577148e-01,7.480586171150207520e-01,7.480299472808837891e-01,7.480011582374572754e-01,7.479724884033203125e-01,7.479438185691833496e-01,7.479151487350463867e-01,7.478864789009094238e-01,7.478578090667724609e-01,7.478291392326354980e-01,7.478004693984985352e-01,7.477717995643615723e-01,7.477431297302246094e-01,7.477145195007324219e-01,7.476858496665954590e-01,7.476571798324584961e-01,7.476285099983215332e-01,7.475998997688293457e-01,7.475712299346923828e-01,7.475425601005554199e-01,7.475138902664184570e-01,7.474852204322814941e-01,7.474566102027893066e-01,7.474279403686523438e-01,7.473993301391601562e-01,7.473706603050231934e-01,7.473420500755310059e-01,7.473134398460388184e-01,7.472847700119018555e-01,7.472561597824096680e-01,7.472275495529174805e-01,7.471989393234252930e-01,7.471703290939331055e-01,7.471417188644409180e-01,7.471131086349487305e-01,7.470844984054565430e-01,7.470558881759643555e-01,7.470272779464721680e-01,7.469986081123352051e-01,7.469699978828430176e-01,7.469413876533508301e-01,7.469127774238586426e-01,7.468841671943664551e-01,7.468556165695190430e-01,7.468270063400268555e-01,7.467983961105346680e-01,7.467698454856872559e-01,7.467412352561950684e-01,7.467126250267028809e-01,7.466840744018554688e-01,7.466554641723632812e-01,7.466269135475158691e-01,7.465983629226684570e-01,7.465697526931762695e-01,7.465412020683288574e-01,7.465125918388366699e-01,7.464839816093444824e-01,7.464554309844970703e-01,7.464268803596496582e-01,7.463983297348022461e-01,7.463697791099548340e-01,7.463412284851074219e-01,7.463126778602600098e-01,7.462841272354125977e-01,7.462555766105651855e-01,7.462270259857177734e-01,7.461984753608703613e-01,7.461699247360229492e-01,7.461413741111755371e-01,7.461128234863281250e-01,7.460843324661254883e-01,7.460557818412780762e-01,7.460272312164306641e-01,7.459986805915832520e-01,7.459701299667358398e-01,7.459415793418884277e-01,7.459130883216857910e-01,7.458845376968383789e-01,7.458560466766357422e-01
7.162077426910400391e-01,7.161814570426940918e-01,7.161551117897033691e-01,7.161288261413574219e-01,7.161025404930114746e-01,7.160762548446655273e-01,7.160499691963195801e-01,7.160237431526184082e-01,7.159974575042724609e-01,7.159711718559265137e-01,7.159448862075805664e-01,7.159185409545898438e-01,7.158922553062438965e-01,7.158660292625427246e-01,7.158397436141967773e-01,7.158134579658508301e-01,7.157872319221496582e-01,7.157609462738037109e-01,7.157346606254577637e-01,7.157084345817565918e-01,7.156821489334106445e-01,7.156559228897094727e-01,7.156296372413635254e-01,7.156034111976623535e-01,7.155771851539611816e-01,7.155508995056152344e-01,7.155246734619140625e-01,7.154984474182128906e-01,7.154721021652221680e-01,7.154458761215209961e-01,7.154196500778198242e-01,7.153934240341186523e-01,7.153671979904174805e-01,7.153409719467163086e-01,7.153147459030151367e-01,7.152885198593139648e-01,7.152622938156127930e-01,7.152360677719116211e-01,7.152098417282104492e-01,7.151836156845092773e-01,7.151573896408081055e-01,7.151311635971069336e-01,7.151049375534057617e-01,7.150787711143493652e-01,7.150525450706481934e-01,7.150263190269470215e-01,7.150000929832458496e-01,7.149738669395446777e-01,7.149476408958435059e-01,7.149214744567871094e-01,7.148952484130859375e-01,7.148690819740295410e-01,7.148428559303283691e-01,7.148166894912719727e-01,7.147904634475708008e-01,7.147642970085144043e-01,7.147381305694580078e-01,7.147119045257568359e-01,7.146857380867004395e-01,7.146595716476440430e-01,7.146334052085876465e-01,7.146071791648864746e-01,7.145810127258300781e-01,7.145548462867736816e-01,7.145286202430725098e-01,7.145024538040161133e-01,7.144762873649597168e-01,7.144501209259033203e-01,7.144239544868469238e-01,7.143977880477905273e-01,7.143716216087341309e-01,7.143454551696777344e-01,7.143192887306213379e-01,7.142931818962097168e-01,7.142670154571533203e-01,7.142408490180969238e-01,7.142146825790405273e-01,7.141885757446289062e-01,7.141624093055725098e-01,7.141363024711608887e-01
6.869099736213684082e-01,6.868858337402343750e-01,6.868616342544555664e-01,6.868374347686767578e-01,6.868132948875427246e-01,6.867890954017639160e-01,6.867648959159851074e-01,6.867407560348510742e-01,6.867165565490722656e-01,6.866924166679382324e-01,6.866682171821594238e-01,6.866440773010253906e-01,6.866198778152465820e-01,6.865957379341125488e-01,6.865715384483337402e-01,6.865473985671997070e-01,6.865232586860656738e-01,6.864990592002868652e-01,6.864748597145080566e-01,6.864507198333740234e-01,6.864265203475952148e-01,6.864023804664611816e-01,6.863782405853271484e-01,6.863541007041931152e-01,6.863299608230590820e-01,6.863058209419250488e-01,6.862816810607910156e-01,6.862575411796569824e-01,6.862334012985229492e-01,6.862092614173889160e-01,6.861851215362548828e-01,6.861609816551208496e-01,6.861368417739868164e-01,6.861127018928527832e-01,6.860885620117187500e-01,6.860644221305847168e-01,6.860402822494506836e-01,6.860161423683166504e-01,6.859920024871826172e-01,6.859679222106933594e-01,6.859437823295593262e-01,6.859196424484252930e-01,6.858955621719360352e-01,6.858714222908020020e-01,6.858473420143127441e-01,6.858232021331787109e-01,6.857991218566894531e-01,6.857749819755554199e-01,6.857509016990661621e-01,6.857267618179321289e-01,6.857026815414428711e-01,6.856786012649536133e-01,6.856544613838195801e-01,6.856303215026855469e-01,6.856062412261962891e-01,6.855821013450622559e-01,6.855580210685729980e-01,6.855339407920837402e-01,6.855098605155944824e-01,6.854857802391052246e-01,6.854616999626159668e-01,6.854376196861267090e-01,6.854135394096374512e-01,6.853894591331481934e-01,6.853653788566589355e-01,6.853412985801696777e-01,6.853172183036804199e-01,6.852931380271911621e-01,6.852690577507019043e-01,6.852449774742126465e-01,6.852208971977233887e-01,6.851968169212341309e-01,6.851727366447448730e-01,6.851486563682556152e-01,6.851245760917663574e-01,6.851005554199218750e-01,6.850764751434326172e-01,6.850524544715881348e-01,6.850283741950988770e-01,6.850042939186096191e-01
6.599150896072387695e-01,6.598927378654479980e-01,6.598704457283020020e-01,6.598480939865112305e-01,6.598258018493652344e-01,6.598034501075744629e-01,6.597811579704284668e-01,6.597588062286376953e-01,6.597365140914916992e-01,6.597141623497009277e-01,6.596918702125549316e-01,6.596695780754089355e-01,6.596472859382629395e-01,6.596249341964721680e-01,6.596026420593261719e-01,6.595803499221801758e-01,6.595580577850341797e-01,6.595357656478881836e-01,6.595134735107421875e-01,6.594911813735961914e-01,6.594688892364501953e-01,6.594465970993041992e-01,6.594243049621582031e-01,6.594020128250122070e-01,6.593797206878662109e-01,6.593573689460754395e-01,6.593350768089294434e-01,6.593127846717834473e-01,6.592905521392822266e-01,6.592682600021362305e-01,6.592459678649902344e-01,6.592236757278442383e-01,6.592014431953430176e-01,6.591791510581970215e-01,6.591568589210510254e-01,6.591345667839050293e-01,6.591123342514038086e-01,6.590900421142578125e-01,6.590678095817565918e-01,6.590455174446105957e-01,6.590232849121093750e-01,6.590009927749633789e-01,6.589787602424621582e-01,6.589564085006713867e-01,6.589341759681701660e-01,6.589119434356689453e-01,6.588896512985229492e-01,6.588674187660217285e-01,6.588451862335205078e-01,6.588228940963745117e-01,6.588006615638732910e-01,6.587784290313720703e-01,6.587561368942260742e-01,6.587339043617248535e-01,6.587116718292236328e-01,6.586894392967224121e-01,6.586672067642211914e-01,6.586449742317199707e-01,6.586227416992187500e-01,6.586005091667175293e-01,6.585782170295715332e-01,6.585559844970703125e-01,6.585337519645690918e-01,6.585115194320678711e-01,6.584892868995666504e-01,6.584670543670654297e-01,6.584448218345642090e-01,6.584225893020629883e-01,6.584004163742065430e-01,6.583781838417053223e-01,6.583559513092041016e-01,6.583337187767028809e-01,6.583114862442016602e-01,6.582893133163452148e-01,6.582670807838439941e-01,6.582448482513427734e-01,6.582226753234863281e-01,6.582004427909851074e-01,6.581782102584838867e-01,6.581559777259826660e-01
6.349616050720214844e-01,6.349409222602844238e-01,6.349202990531921387e-01,6.348996162414550781e-01,6.348789334297180176e-01,6.348583102226257324e-01,6.348376274108886719e-01,6.348169445991516113e-01,6.347963213920593262e-01,6.347756385803222656e-01,6.347550153732299805e-01,6.347343325614929199e-01,6.347137093544006348e-01,6.346930265426635742e-01,6.346724033355712891e-01,6.346517205238342285e-01,6.346310377120971680e-01,6.346104145050048828e-01,6.345897912979125977e-01,6.345691084861755371e-01,6.345484852790832520e-01,6.345278620719909668e-01,6.345072388648986816e-01,6.344865560531616211e-01,6.344659328460693359e-01,6.344453096389770508e-01,6.344246864318847656e-01,6.344040632247924805e-01,6.343834400177001953e-01,6.343628168106079102e-01,6.343421339988708496e-01,6.343215107917785645e-01,6.343008875846862793e-01,6.342802643775939941e-01,6.342596411705017090e-01,6.342390179634094238e-01,6.342183947563171387e-01,6.341977715492248535e-01,6.341771483421325684e-01,6.341565251350402832e-01,6.341359019279479980e-01,6.341152787208557129e-01,6.340947151184082031e-01,6.340740919113159180e-01,6.340534687042236328e-01,6.340328454971313477e-01,6.340122818946838379e-01,6.339916586875915527e-01,6.339710354804992676e-01,6.339504718780517578e-01,6.339297890663146973e-01,6.339092254638671875e-01,6.338886022567749023e-01,6.338680386543273926e-01,6.338474154472351074e-01,6.338268518447875977e-01,6.338062286376953125e-01,6.337856650352478027e-01,6.337650418281555176e-01,6.337444782257080078e-01,6.337238550186157227e-01,6.337032914161682129e-01,6.336827278137207031e-01,6.336621046066284180e-01,6.336415410041809082e-01,6.336209774017333984e-01,6.336003541946411133e-01,6.335797905921936035e-01,6.335591673851013184e-01,6.335386037826538086e-01,6.335180401802062988e-01,6.334974765777587891e-01,6.334769129753112793e-01,6.334562897682189941e-01,6.334357261657714844e-01,6.334151625633239746e-01,6.333945989608764648e-01,6.333740353584289551e-01,6.333534717559814453e-01,6.333329081535339355e-01
6.118265986442565918e-01,6.118074059486389160e-01,6.117882132530212402e-01,6.117690205574035645e-01,6.117498278617858887e-01,6.117306351661682129e-01,6.117114424705505371e-01,6.116922497749328613e-01,6.116730570793151855e-01,6.116539239883422852e-01,6.116347312927246094e-01,6.116155385971069336e-01,6.115964055061340332e-01,6.115772128105163574e-01,6.115580201148986816e-01,6.115388870239257812e-01,6.115196943283081055e-01,6.115005016326904297e-01,6.114813685417175293e-01,6.114621758460998535e-01,6.114430427551269531e-01,6.114238500595092773e-01,6.114046573638916016e-01,6.113854646682739258e-01,6.113663315773010254e-01,6.113471984863281250e-01,6.113280057907104492e-01,6.113088726997375488e-01,6.112896800041198730e-01,6.112705469131469727e-01,6.112514138221740723e-01,6.112322211265563965e-01,6.112130880355834961e-01,6.111939549446105957e-01,6.111748218536376953e-01,6.111556291580200195e-01,6.111364960670471191e-01,6.111173629760742188e-01,6.110982298851013184e-01,6.110790371894836426e-01,6.110599040985107422e-01,6.110407710075378418e-01,6.110216379165649414e-01,6.110024452209472656e-01,6.109833121299743652e-01,6.109641790390014648e-01,6.109450459480285645e-01,6.109259128570556641e-01,6.109067797660827637e-01,6.108876466751098633e-01,6.108685731887817383e-01,6.108494400978088379e-01,6.108303070068359375e-01,6.108111739158630371e-01,6.107920408248901367e-01,6.107729077339172363e-01,6.107537746429443359e-01,6.107346415519714355e-01,6.107155084609985352e-01,6.106963753700256348e-01,6.106773018836975098e-01,6.106581687927246094e-01,6.106390357017517090e-01,6.106199026107788086e-01,6.106008291244506836e-01,6.105816960334777832e-01,6.105626225471496582e-01,6.105434894561767578e-01,6.105243563652038574e-01,6.105052828788757324e-01,6.104861497879028320e-01,6.104670763015747070e-01,6.104479432106018066e-01,6.104288697242736816e-01,6.104097366333007812e-01,6.103906035423278809e-01,6.103715300559997559e-01,6.103523969650268555e-01,6.103333234786987305e-01,6.103142499923706055e-01
5.903180837631225586e-01,5.903002619743347168e-01,5.902823805809020996e-01,5.902644991874694824e-01,5.902466773986816406e-01,5.902287960052490234e-01,5.902109742164611816e-01,5.901930928230285645e-01,5.901752114295959473e-01,5.901573896408081055e-01,5.901395082473754883e-01,5.901216268539428711e-01,5.901038050651550293e-01,5.900859236717224121e-01,5.900681018829345703e-01,5.900502204895019531e-01,5.900323987007141113e-01,5.900145769119262695e-01,5.899966955184936523e-01,5.899788737297058105e-01,5.899610519409179688e-01,5.899431705474853516e-01,5.899253487586975098e-01,5.899075269699096680e-01,5.898896455764770508e-01,5.898718237876892090e-01,5.898540019989013672e-01,5.898361802101135254e-01,5.898183584213256836e-01,5.898004770278930664e-01,5.897826552391052246e-01,5.897648334503173828e-01,5.897470116615295410e-01,5.897291302680969238e-01,5.897113084793090820e-01,5.896934866905212402e-01,5.896756649017333984e-01,5.896578431129455566e-01,5.896400213241577148e-01,5.896221995353698730e-01,5.896043777465820312e-01,5.895865559577941895e-01,5.895687341690063477e-01,5.895509123802185059e-01,5.895331501960754395e-01,5.895153284072875977e-01,5.894975066184997559e-01,5.894796252250671387e-01,5.894618034362792969e-01,5.894440412521362305e-01,5.894262194633483887e-01,5.894083976745605469e-01,5.893905758857727051e-01,5.893728137016296387e-01,5.893549919128417969e-01,5.893371701240539551e-01,5.893193483352661133e-01,5.893015861511230469e-01,5.892837643623352051e-01,5.892660021781921387e-01,5.892481803894042969e-01,5.892303586006164551e-01,5.892125964164733887e-01,5.891947746276855469e-01,5.891769528388977051e-01,5.891591310501098633e-01,5.891413688659667969e-01,5.891235470771789551e-01,5.891057848930358887e-01,5.890880227088928223e-01,5.890702009201049805e-01,5.890524387359619141e-01,5.890346169471740723e-01,5.890168547630310059e-01,5.889990925788879395e-01,5.889812707901000977e-01,5.889635086059570312e-01,5.889457464218139648e-01,5.889279246330261230e-01,5.889101624488830566e-01
