5.000000000000000000e+00,5.000000000000000000e+00,5.000000000000000000e+00,5.000000000000000000e+00,5.000000000000000000e+00,5.000000000000000000e+00,5.000000000000000000e+00,5.000000000000000000e+00,5.000000000000000000e+00,5.000000000000000000e+00,5.000000000000000000e+00,5.000000000000000000e+00,5.000000000000000000e+00,5.000000000000000000e+00,5.000000000000000000e+00,5.000000000000000000e+00,5.000000000000000000e+00,1.690502643585205078e+00,1.671029210090637207e+00,1.685928702354431152e+00,1.603334784507751465e+00,1.564063429832458496e+00,1.566149830818176270e+00,1.568265318870544434e+00,1.570386528968811035e+00,1.603964567184448242e+00,1.715462803840637207e+00,1.719643473625183105e+00,1.724674820899963379e+00,1.755114674568176270e+00,5.000000000000000000e+00,5.000000000000000000e+00,5.000000000000000000e+00,1.806361913681030273e+00,1.801812767982482910e+00,5.000000000000000000e+00,5.000000000000000000e+00,5.000000000000000000e+00,5.000000000000000000e+00,4.854620456695556641e+00,4.664281845092773438e+00,4.488305568695068359e+00,4.325124740600585938e+00,4.173393249511718750e+00,4.031947135925292969e+00,3.899775028228759766e+00,3.775992393493652344e+00,3.659826517105102539e+00,3.550595045089721680e+00,3.447694540023803711e+00,3.350590467453002930e+00,3.258806705474853516e+00,3.171916961669921875e+00,3.089540719985961914e+00,3.011334419250488281e+00,2.936990022659301758e+00,2.866227865219116211e+00,2.798795461654663086e+00,2.734462976455688477e+00,2.673021554946899414e+00,2.614280700683593750e+00,2.558065652847290039e+00,2.504217386245727539e+00,2.452589511871337891e+00,2.403047561645507812e+00,2.355467081069946289e+00,2.309734344482421875e+00,2.265743732452392578e+00,2.223397493362426758e+00,2.182605266571044922e+00,2.143282413482666016e+00,2.105351686477661133e+00,2.068740129470825195e+00,2.033380270004272461e+00,1.999208807945251465e+00,1.966167092323303223e+00,1.934199452400207520e+00,1.903254985809326172e+00,1.873284697532653809e+00,1.844243764877319336e+00
5.000000000000000000e+00,5.000000000000000000e+00,5.000000000000000000e+00,5.000000000000000000e+00,5.000000000000000000e+00,5.000000000000000000e+00,5.000000000000000000e+00,5.000000000000000000e+00,5.000000000000000000e+00,5.000000000000000000e+00,5.000000000000000000e+00,5.000000000000000000e+00,5.000000000000000000e+00,5.000000000000000000e+00,5.000000000000000000e+00,5.000000000000000000e+00,5.000000000000000000e+00,1.685148358345031738e+00,1.664366960525512695e+00,1.685734987258911133e+00,1.599698066711425781e+00,1.562072277069091797e+00,1.559326529502868652e+00,1.561420679092407227e+00,1.563523292541503906e+00,1.591072201728820801e+00,1.713327884674072266e+00,1.716733813285827637e+00,1.721262216567993164e+00,1.752082824707031250e+00,5.000000000000000000e+00,5.000000000000000000e+00,5.000000000000000000e+00,5.000000000000000000e+00,1.760469198226928711e+00,5.000000000000000000e+00,5.000000000000000000e+00,5.000000000000000000e+00,5.000000000000000000e+00,4.854758262634277344e+00,4.664409160614013672e+00,4.488423347473144531e+00,4.325234413146972656e+00,4.173495292663574219e+00,4.032042503356933594e+00,3.899863719940185547e+00,3.776076078414916992e+00,3.659905195236206055e+00,3.550668954849243164e+00,3.447764396667480469e+00,3.350656509399414062e+00,3.258868694305419922e+00,3.171975851058959961e+00,3.089596271514892578e+00,3.011387586593627930e+00,2.937040805816650391e+00,2.866276264190673828e+00,2.798841476440429688e+00,2.734506845474243164e+00,2.673063278198242188e+00,2.614320516586303711e+00,2.558104038238525391e+00,2.504254102706909180e+00,2.452624797821044922e+00,2.403081178665161133e+00,2.355499744415283203e+00,2.309765815734863281e+00,2.265773773193359375e+00,2.223426342010498047e+00,2.182632923126220703e+00,2.143309354782104492e+00,2.105377674102783203e+00,2.068765163421630859e+00,2.033404588699340820e+00,1.999232411384582520e+00,1.966189742088317871e+00,1.934221267700195312e+00,1.903276085853576660e+00,1.873305201530456543e+00,1.844263792037963867e+00
5.000000000000000000e+00,5.000000000000000000e+00,5.000000000000000000e+00,5.000000000000000000e+00,5.000000000000000000e+00,5.000000000000000000e+00,5.000000000000000000e+00,5.000000000000000000e+00,5.000000000000000000e+00,5.000000000000000000e+00,5.000000000000000000e+00,5.000000000000000000e+00,5.000000000000000000e+00,5.000000000000000000e+00,5.000000000000000000e+00,5.000000000000000000e+00,5.000000000000000000e+00,5.000000000000000000e+00,1.676234126091003418e+00,1.698209404945373535e+00,1.618090033531188965e+00,1.570055246353149414e+00,1.553863883018493652e+00,1.554635524749755859e+00,1.556720137596130371e+00,1.579637527465820312e+00,1.618718743324279785e+00,1.715328335762023926e+00,1.718258261680603027e+00,1.748932003974914551e+00,5.000000000000000000e+00,5.000000000000000000e+00,5.000000000000000000e+00,5.000000000000000000e+00,1.731445193290710449e+00,1.752944350242614746e+00,5.000000000000000000e+00,5.000000000000000000e+00,5.000000000000000000e+00,4.854897022247314453e+00,4.664536476135253906e+00,4.488541603088378906e+00,4.325344085693359375e+00,4.173597812652587891e+00,4.032137393951416016e+00,3.899953126907348633e+00,3.776159763336181641e+00,3.659983873367309570e+00,3.550742626190185547e+00,3.447833776473999023e+00,3.350722074508666992e+00,3.258930921554565430e+00,3.172034978866577148e+00,3.089652538299560547e+00,3.011440992355346680e+00,2.937091350555419922e+00,2.866324186325073242e+00,2.798887252807617188e+00,2.734550714492797852e+00,2.673105239868164062e+00,2.614360570907592773e+00,2.558142423629760742e+00,2.504291057586669922e+00,2.452659845352172852e+00,2.403114795684814453e+00,2.355532169342041016e+00,2.309796810150146484e+00,2.265803813934326172e+00,2.223455429077148438e+00,2.182661056518554688e+00,2.143336534500122070e+00,2.105403900146484375e+00,2.068790197372436523e+00,2.033428668975830078e+00,1.999255776405334473e+00,1.966212272644042969e+00,1.934243321418762207e+00,1.903297305107116699e+00,1.873325943946838379e+00,1.844283699989318848e+00
5.000000000000000000e+00,5.000000000000000000e+00,5.000000000000000000e+00,5.000000000000000000e+00,5.000000000000000000e+00,5.000000000000000000e+00,5.000000000000000000e+00,5.000000000000000000e+00,5.000000000000000000e+00,5.000000000000000000e+00,5.000000000000000000e+00,5.000000000000000000e+00,5.000000000000000000e+00,5.000000000000000000e+00,5.000000000000000000e+00,5.000000000000000000e+00,5.000000000000000000e+00,1.689208030700683594e+00,1.666165232658386230e+00,1.674288630485534668e+00,1.642536997795104980e+00,1.578064918518066406e+00,1.548439383506774902e+00,1.549188256263732910e+00,1.549975752830505371e+00,1.568300247192382812e+00,1.604885458946228027e+00,1.717178940773010254e+00,1.720517396926879883e+00,1.753910779953002930e+00,1.796458959579467773e+00,5.000000000000000000e+00,5.000000000000000000e+00,5.000000000000000000e+00,1.727998137474060059e+00,1.781093955039978027e+00,5.000000000000000000e+00,5.000000000000000000e+00,5.000000000000000000e+00,4.855034828186035156e+00,4.664664268493652344e+00,4.488659858703613281e+00,4.325453758239746094e+00,4.173699855804443359e+00,4.032233238220214844e+00,3.900042295455932617e+00,3.776243209838867188e+00,3.660062074661254883e+00,3.550816535949707031e+00,3.447903633117675781e+00,3.350787878036499023e+00,3.258993387222290039e+00,3.172093868255615234e+00,3.089708566665649414e+00,3.011493921279907227e+00,2.937141656875610352e+00,2.866372346878051758e+00,2.798933267593383789e+00,2.734594583511352539e+00,2.673147201538085938e+00,2.614400863647460938e+00,2.558180809020996094e+00,2.504327535629272461e+00,2.452695131301879883e+00,2.403148651123046875e+00,2.355564594268798828e+00,2.309828281402587891e+00,2.265834093093872070e+00,2.223484516143798828e+00,2.182688951492309570e+00,2.143363237380981445e+00,2.105429649353027344e+00,2.068815469741821289e+00,2.033452987670898438e+00,1.999279141426086426e+00,1.966235041618347168e+00,1.934265255928039551e+00,1.903318643569946289e+00,1.873346447944641113e+00,1.844303607940673828e+00
5.000000000000000000e+00,5.000000000000000000e+00,5.000000000000000000e+00,5.000000000000000000e+00,5.000000000000000000e+00,5.000000000000000000e+00,5.000000000000000000e+00,5.000000000000000000e+00,5.000000000000000000e+00,5.000000000000000000e+00,5.000000000000000000e+00,5.000000000000000000e+00,5.000000000000000000e+00,5.000000000000000000e+00,5.000000000000000000e+00,5.000000000000000000e+00,5.000000000000000000e+00,1.673894047737121582e+00,1.652641415596008301e+00,1.655944705009460449e+00,5.000000000000000000e+00,1.585544705390930176e+00,1.544714093208312988e+00,1.543095946311950684e+00,1.543558478355407715e+00,1.555353283882141113e+00,1.591286540031433105e+00,1.721928954124450684e+00,1.724498987197875977e+00,1.760986566543579102e+00,5.000000000000000000e+00,5.000000000000000000e+00,5.000000000000000000e+00,5.000000000000000000e+00,5.000000000000000000e+00,5.000000000000000000e+00,1.716726541519165039e+00,5.000000000000000000e+00,5.000000000000000000e+00,4.855172634124755859e+00,4.664791584014892578e+00,4.488777637481689453e+00,4.325563430786132812e+00,4.173801898956298828e+00,4.032328128814697266e+00,3.900131225585937500e+00,3.776326894760131836e+00,3.660140752792358398e+00,3.550890684127807617e+00,3.447973251342773438e+00,3.350853919982910156e+00,3.259055376052856445e+00,3.172152757644653320e+00,3.089764118194580078e+00,3.011547088623046875e+00,2.937192440032958984e+00,2.866420745849609375e+00,2.798979282379150391e+00,2.734638452529907227e+00,2.673188924789428711e+00,2.614440679550170898e+00,2.558218955993652344e+00,2.504364252090454102e+00,2.452730417251586914e+00,2.403182744979858398e+00,2.355597257614135742e+00,2.309859514236450195e+00,2.265863895416259766e+00,2.223513364791870117e+00,2.182716846466064453e+00,2.143390178680419922e+00,2.105455636978149414e+00,2.068840503692626953e+00,2.033477306365966797e+00,1.999302744865417480e+00,1.966257691383361816e+00,1.934287071228027344e+00,1.903339743614196777e+00,1.873366951942443848e+00,1.844323635101318359e+00
5.000000000000000000e+00,5.000000000000000000e+00,5.000000000000000000e+00,5.000000000000000000e+00,5.000000000000000000e+00,5.000000000000000000e+00,5.000000000000000000e+00,5.000000000000000000e+00,5.000000000000000000e+00,5.000000000000000000e+00,5.000000000000000000e+00,5.000000000000000000e+00,5.000000000000000000e+00,5.000000000000000000e+00,5.000000000000000000e+00,5.000000000000000000e+00,5.000000000000000000e+00,1.658826112747192383e+00,1.647421717643737793e+00,1.648545980453491211e+00,5.000000000000000000e+00,1.602457761764526367e+00,1.553578972816467285e+00,1.534201622009277344e+00,1.534659147262573242e+00,1.542866945266723633e+00,1.578108906745910645e+00,1.728145480155944824e+00,1.730734467506408691e+00,1.769856691360473633e+00,5.000000000000000000e+00,5.000000000000000000e+00,5.000000000000000000e+00,5.000000000000000000e+00,5.000000000000000000e+00,5.000000000000000000e+00,1.810150146484375000e+00,5.000000000000000000e+00,5.000000000000000000e+00,4.855311393737792969e+00,4.664918899536132812e+00,4.488895893096923828e+00,4.325673103332519531e+00,4.173903942108154297e+00,4.032423496246337891e+00,3.900220632553100586e+00,3.776410579681396484e+00,3.660219430923461914e+00,3.550964355468750000e+00,3.448042869567871094e+00,3.350919485092163086e+00,3.259117841720581055e+00,3.172211885452270508e+00,3.089820384979248047e+00,3.011600255966186523e+00,2.937242984771728516e+00,2.866468667984008789e+00,2.799025058746337891e+00,2.734682083129882812e+00,2.673230886459350586e+00,2.614480495452880859e+00,2.558257341384887695e+00,2.504400968551635742e+00,2.452765703201293945e+00,2.403216361999511719e+00,2.355629682540893555e+00,2.309890747070312500e+00,2.265894174575805664e+00,2.223542451858520508e+00,2.182744741439819336e+00,2.143417119979858398e+00,2.105481863021850586e+00,2.068865537643432617e+00,2.033501386642456055e+00,1.999326109886169434e+00,1.966280221939086914e+00,1.934309124946594238e+00,1.903360962867736816e+00,1.873387575149536133e+00,1.844343543052673340e+00
5.000000000000000000e+00,5.000000000000000000e+00,5.000000000000000000e+00,5.000000000000000000e+00,5.000000000000000000e+00,5.000000000000000000e+00,5.000000000000000000e+00,5.000000000000000000e+00,5.000000000000000000e+00,5.000000000000000000e+00,5.000000000000000000e+00,5.000000000000000000e+00,5.000000000000000000e+00,5.000000000000000000e+00,5.000000000000000000e+00,5.000000000000000000e+00,5.000000000000000000e+00,1.655307769775390625e+00,1.638129234313964844e+00,1.645286202430725098e+00,5.000000000000000000e+00,1.622533917427062988e+00,1.562546133995056152e+00,1.529930949211120605e+00,1.525861620903015137e+00,1.530579686164855957e+00,1.564532995223999023e+00,1.734407544136047363e+00,1.737015247344970703e+00,1.779853701591491699e+00,5.000000000000000000e+00,5.000000000000000000e+00,5.000000000000000000e+00,5.000000000000000000e+00,5.000000000000000000e+00,5.000000000000000000e+00,5.000000000000000000e+00,5.000000000000000000e+00,5.000000000000000000e+00,4.855449199676513672e+00,4.665046691894531250e+00,4.489014148712158203e+00,4.325782775878906250e+00,4.174005985260009766e+00,4.032518863677978516e+00,3.900309801101684570e+00,3.776494026184082031e+00,3.660297632217407227e+00,3.551038265228271484e+00,3.448112487792968750e+00,3.350985288619995117e+00,3.259180068969726562e+00,3.172270774841308594e+00,3.089876413345336914e+00,3.011653423309326172e+00,2.937293529510498047e+00,2.866516828536987305e+00,2.799071073532104492e+00,2.734725952148437500e+00,2.673272848129272461e+00,2.614520788192749023e+00,2.558295726776123047e+00,2.504437685012817383e+00,2.452800989151000977e+00,2.403250217437744141e+00,2.355662345886230469e+00,2.309921979904174805e+00,2.265924215316772461e+00,2.223571538925170898e+00,2.182772636413574219e+00,2.143444061279296875e+00,2.105507612228393555e+00,2.068890571594238281e+00,2.033525705337524414e+00,1.999349355697631836e+00,1.966303110122680664e+00,1.934331059455871582e+00,1.903382301330566406e+00,1.873408079147338867e+00,1.844363331794738770e+00
5.000000000000000000e+00,5.000000000000000000e+00,5.000000000000000000e+00,5.000000000000000000e+00,5.000000000000000000e+00,5.000000000000000000e+00,5.000000000000000000e+00,5.000000000000000000e+00,5.000000000000000000e+00,5.000000000000000000e+00,5.000000000000000000e+00,5.000000000000000000e+00,5.000000000000000000e+00,5.000000000000000000e+00,5.000000000000000000e+00,5.000000000000000000e+00,5.000000000000000000e+00,1.650322556495666504e+00,1.630510687828063965e+00,5.000000000000000000e+00,5.000000000000000000e+00,5.000000000000000000e+00,1.573289632797241211e+00,1.528478264808654785e+00,1.519870400428771973e+00,1.518486261367797852e+00,1.549521565437316895e+00,1.739349365234375000e+00,1.745612621307373047e+00,1.791645765304565430e+00,5.000000000000000000e+00,5.000000000000000000e+00,5.000000000000000000e+00,5.000000000000000000e+00,5.000000000000000000e+00,5.000000000000000000e+00,5.000000000000000000e+00,5.000000000000000000e+00,5.000000000000000000e+00,4.855587482452392578e+00,4.665174484252929688e+00,4.489131927490234375e+00,4.325892448425292969e+00,4.174108028411865234e+00,4.032614231109619141e+00,3.900398731231689453e+00,3.776577711105346680e+00,3.660376310348510742e+00,3.551112413406372070e+00,3.448182344436645508e+00,3.351051330566406250e+00,3.259242057800292969e+00,3.172329664230346680e+00,3.089932203292846680e+00,3.011706590652465820e+00,2.937344074249267578e+00,2.866565227508544922e+00,2.799117088317871094e+00,2.734769582748413086e+00,2.673314332962036133e+00,2.614560604095458984e+00,2.558333873748779297e+00,2.504474639892578125e+00,2.452836275100708008e+00,2.403284311294555664e+00,2.355694770812988281e+00,2.309953451156616211e+00,2.265954256057739258e+00,2.223600387573242188e+00,2.182800531387329102e+00,2.143471002578735352e+00,2.105533599853515625e+00,2.068915843963623047e+00,2.033550024032592773e+00,1.999372959136962891e+00,1.966325640678405762e+00,1.934352874755859375e+00,1.903403520584106445e+00,1.873428583145141602e+00,1.844383478164672852e+00
5.000000000000000000e+00,5.000000000000000000e+00,5.000000000000000000e+00,5.000000000000000000e+00,5.000000000000000000e+00,5.000000000000000000e+00,5.000000000000000000e+00,5.000000000000000000e+00,5.000000000000000000e+00,5.000000000000000000e+00,5.000000000000000000e+00,5.000000000000000000e+00,5.000000000000000000e+00,5.000000000000000000e+00,5.000000000000000000e+00,5.000000000000000000e+00,5.000000000000000000e+00,1.643166303634643555e+00,5.000000000000000000e+00,5.000000000000000000e+00,5.000000000000000000e+00,5.000000000000000000e+00,1.591698408126831055e+00,1.538827180862426758e+00,1.516783833503723145e+00,1.509853959083557129e+00,1.534795522689819336e+00,1.744503498077392578e+00,1.754039406776428223e+00,1.801703572273254395e+00,5.000000000000000000e+00,5.000000000000000000e+00,5.000000000000000000e+00,5.000000000000000000e+00,5.000000000000000000e+00,5.000000000000000000e+00,5.000000000000000000e+00,5.000000000000000000e+00,5.000000000000000000e+00,4.855725765228271484e+00,4.665301799774169922e+00,4.489250183105468750e+00,4.326002120971679688e+00,4.174210548400878906e+00,4.032709598541259766e+00,3.900488138198852539e+00,3.776661396026611328e+00,3.660454988479614258e+00,3.551186084747314453e+00,3.448251962661743164e+00,3.351116895675659180e+00,3.259304523468017578e+00,3.172388792037963867e+00,3.089988231658935547e+00,3.011759757995605469e+00,2.937394618988037109e+00,2.866613149642944336e+00,2.799162864685058594e+00,2.734813451766967773e+00,2.673356294631958008e+00,2.614600896835327148e+00,2.558372259140014648e+00,2.504511356353759766e+00,2.452871561050415039e+00,2.403317928314208984e+00,2.355727195739746094e+00,2.309984445571899414e+00,2.265984535217285156e+00,2.223629236221313477e+00,2.182828426361083984e+00,2.143497943878173828e+00,2.105559825897216797e+00,2.068940877914428711e+00,2.033574104309082031e+00,1.999396324157714844e+00,1.966348290443420410e+00,1.934374928474426270e+00,1.903424620628356934e+00,1.873449325561523438e+00,1.844403266906738281e+00
5.000000000000000000e+00,5.000000000000000000e+00,5.000000000000000000e+00,5.000000000000000000e+00,5.000000000000000000e+00,5.000000000000000000e+00,5.000000000000000000e+00,5.000000000000000000e+00,5.000000000000000000e+00,5.000000000000000000e+00,5.000000000000000000e+00,5.000000000000000000e+00,5.000000000000000000e+00,5.000000000000000000e+00,5.000000000000000000e+00,5.000000000000000000e+00,5.000000000000000000e+00,5.000000000000000000e+00,5.000000000000000000e+00,5.000000000000000000e+00,5.000000000000000000e+00,5.000000000000000000e+00,1.602741241455078125e+00,1.549317240715026855e+00,1.515174031257629395e+00,1.505455493927001953e+00,1.526324391365051270e+00,1.571055293083190918e+00,1.760112881660461426e+00,5.000000000000000000e+00,5.000000000000000000e+00,5.000000000000000000e+00,5.000000000000000000e+00,5.000000000000000000e+00,5.000000000000000000e+00,5.000000000000000000e+00,5.000000000000000000e+00,5.000000000000000000e+00,5.000000000000000000e+00,4.855864048004150391e+00,4.665429592132568359e+00,4.489368438720703125e+00,4.326111793518066406e+00,4.174312591552734375e+00,4.032804965972900391e+00,3.900577306747436523e+00,3.776744604110717773e+00,3.660533189773559570e+00,3.551259994506835938e+00,3.448321580886840820e+00,3.351182699203491211e+00,3.259366989135742188e+00,3.172447919845581055e+00,3.090044260025024414e+00,3.011812925338745117e+00,2.937445163726806641e+00,2.866661310195922852e+00,2.799208641052246094e+00,2.734857320785522461e+00,2.673398256301879883e+00,2.614640951156616211e+00,2.558410644531250000e+00,2.504548072814941406e+00,2.452906608581542969e+00,2.403351783752441406e+00,2.355759859085083008e+00,2.310015916824340820e+00,2.266014575958251953e+00,2.223658323287963867e+00,2.182856559753417969e+00,2.143524885177612305e+00,2.105585575103759766e+00,2.068965911865234375e+00,2.033598423004150391e+00,1.999419689178466797e+00,1.966371059417724609e+00,1.934396862983703613e+00,1.903446078300476074e+00,1.873469829559326172e+00,1.844423174858093262e+00
5.000000000000000000e+00,5.000000000000000000e+00,5.000000000000000000e+00,5.000000000000000000e+00,5.000000000000000000e+00,5.000000000000000000e+00,5.000000000000000000e+00,5.000000000000000000e+00,5.000000000000000000e+00,5.000000000000000000e+00,5.000000000000000000e+00,5.000000000000000000e+00,5.000000000000000000e+00,5.000000000000000000e+00,5.000000000000000000e+00,5.000000000000000000e+00,5.000000000000000000e+00,5.000000000000000000e+00,5.000000000000000000e+00,5.000000000000000000e+00,5.000000000000000000e+00,5.000000000000000000e+00,5.000000000000000000e+00,1.561308383941650391e+00,1.518419265747070312e+00,1.507351279258728027e+00,1.526081562042236328e+00,1.550881266593933105e+00,1.766228556632995605e+00,5.000000000000000000e+00,5.000000000000000000e+00,5.000000000000000000e+00,5.000000000000000000e+00,5.000000000000000000e+00,5.000000000000000000e+00,5.000000000000000000e+00,5.000000000000000000e+00,5.000000000000000000e+00,5.000000000000000000e+00,4.856001853942871094e+00,4.665556907653808594e+00,4.489486217498779297e+00,4.326221466064453125e+00,4.174414634704589844e+00,4.032900333404541016e+00,3.900666236877441406e+00,3.776828527450561523e+00,3.660611867904663086e+00,3.551334142684936523e+00,3.448391437530517578e+00,3.351248741149902344e+00,3.259428977966308594e+00,3.172506570816040039e+00,3.090100049972534180e+00,3.011866092681884766e+00,2.937495708465576172e+00,2.866709470748901367e+00,2.799254655838012695e+00,2.734901189804077148e+00,2.673440217971801758e+00,2.614680767059326172e+00,2.558449029922485352e+00,2.504584789276123047e+00,2.452941894531250000e+00,2.403385877609252930e+00,2.355792284011840820e+00,2.310047149658203125e+00,2.266044616699218750e+00,2.223687171936035156e+00,2.182884454727172852e+00,2.143551826477050781e+00,2.105611562728881836e+00,2.068990945816040039e+00,2.033622741699218750e+00,1.999443292617797852e+00,1.966393589973449707e+00,1.934418678283691406e+00,1.903467178344726562e+00,1.873490333557128906e+00,1.844443321228027344e+00
5.000000000000000000e+00,5.000000000000000000e+00,5.000000000000000000e+00,5.000000000000000000e+00,5.000000000000000000e+00,5.000000000000000000e+00,5.000000000000000000e+00,5.000000000000000000e+00,5.000000000000000000e+00,5.000000000000000000e+00,5.000000000000000000e+00,5.000000000000000000e+00,5.000000000000000000e+00,5.000000000000000000e+00,5.000000000000000000e+00,5.000000000000000000e+00,5.000000000000000000e+00,5.000000000000000000e+00,5.000000000000000000e+00,5.000000000000000000e+00,5.000000000000000000e+00,5.000000000000000000e+00,5.000000000000000000e+00,1.560513854026794434e+00,1.526342749595642090e+00,1.514669537544250488e+00,1.534029722213745117e+00,1.585556864738464355e+00,1.772387027740478516e+00,5.000000000000000000e+00,5.000000000000000000e+00,5.000000000000000000e+00,5.000000000000000000e+00,5.000000000000000000e+00,5.000000000000000000e+00,5.000000000000000000e+00,5.000000000000000000e+00,5.000000000000000000e+00,5.000000000000000000e+00,4.856140613555908203e+00,4.665684700012207031e+00,4.489604473114013672e+00,4.326331138610839844e+00,4.174516677856445312e+00,4.032995700836181641e+00,3.900755643844604492e+00,3.776912212371826172e+00,3.660690546035766602e+00,3.551408052444458008e+00,3.448460817337036133e+00,3.351314306259155273e+00,3.259491205215454102e+00,3.172565698623657227e+00,3.090156078338623047e+00,3.011919260025024414e+00,2.937546253204345703e+00,2.866757631301879883e+00,2.799300432205200195e+00,2.734944820404052734e+00,2.673482179641723633e+00,2.614721059799194336e+00,2.558487415313720703e+00,2.504621744155883789e+00,2.452977418899536133e+00,2.403419733047485352e+00,2.355824708938598633e+00,2.310078382492065430e+00,2.266074657440185547e+00,2.223716259002685547e+00,2.182912349700927734e+00,2.143578767776489258e+00,2.105637788772583008e+00,2.069016218185424805e+00,2.033646821975708008e+00,1.999466657638549805e+00,1.966416239738464355e+00,1.934440732002258301e+00,1.903488397598266602e+00,1.873511075973510742e+00,1.844463109970092773e+00
5.000000000000000000e+00,5.000000000000000000e+00,5.000000000000000000e+00,5.000000000000000000e+00,5.000000000000000000e+00,5.000000000000000000e+00,5.000000000000000000e+00,5.000000000000000000e+00,5.000000000000000000e+00,5.000000000000000000e+00,5.000000000000000000e+00,5.000000000000000000e+00,5.000000000000000000e+00,5.000000000000000000e+00,5.000000000000000000e+00,5.000000000000000000e+00,5.000000000000000000e+00,5.000000000000000000e+00,5.000000000000000000e+00,5.000000000000000000e+00,5.000000000000000000e+00,5.000000000000000000e+00,5.000000000000000000e+00,1.554952144622802734e+00,1.533436059951782227e+00,1.525734663009643555e+00,1.544014334678649902e+00,1.764851093292236328e+00,1.781803965568542480e+00,5.000000000000000000e+00,5.000000000000000000e+00,5.000000000000000000e+00,5.000000000000000000e+00,5.000000000000000000e+00,5.000000000000000000e+00,5.000000000000000000e+00,5.000000000000000000e+00,5.000000000000000000e+00,5.000000000000000000e+00,4.856278419494628906e+00,4.665812492370605469e+00,4.489722728729248047e+00,4.326440811157226562e+00,4.174618721008300781e+00,4.033091068267822266e+00,3.900845050811767578e+00,3.776995420455932617e+00,3.660768985748291016e+00,3.551481962203979492e+00,3.448530673980712891e+00,3.351380348205566406e+00,3.259553670883178711e+00,3.172624826431274414e+00,3.090212106704711914e+00,3.011972188949584961e+00,2.937596559524536133e+00,2.866805553436279297e+00,2.799346446990966797e+00,2.734988689422607422e+00,2.673524141311645508e+00,2.614761114120483398e+00,2.558525800704956055e+00,2.504658222198486328e+00,2.453012466430664062e+00,2.403453350067138672e+00,2.355857372283935547e+00,2.310109615325927734e+00,2.266104936599731445e+00,2.223745346069335938e+00,2.182940244674682617e+00,2.143605709075927734e+00,2.105663537979125977e+00,2.069041252136230469e+00,2.033671140670776367e+00,1.999490022659301758e+00,1.966439008712768555e+00,1.934462666511535645e+00,1.903509736061096191e+00,1.873531579971313477e+00,1.844483017921447754e+00
5.000000000000000000e+00,5.000000000000000000e+00,5.000000000000000000e+00,5.000000000000000000e+00,5.000000000000000000e+00,5.000000000000000000e+00,5.000000000000000000e+00,5.000000000000000000e+00,5.000000000000000000e+00,5.000000000000000000e+00,5.000000000000000000e+00,5.000000000000000000e+00,5.000000000000000000e+00,5.000000000000000000e+00,5.000000000000000000e+00,5.000000000000000000e+00,5.000000000000000000e+00,5.000000000000000000e+00,5.000000000000000000e+00,5.000000000000000000e+00,5.000000000000000000e+00,5.000000000000000000e+00,5.000000000000000000e+00,1.554303765296936035e+00,1.540436267852783203e+00,1.536962509155273438e+00,1.554786443710327148e+00,1.775574207305908203e+00,1.816365003585815430e+00,5.000000000000000000e+00,5.000000000000000000e+00,5.000000000000000000e+00,5.000000000000000000e+00,5.000000000000000000e+00,5.000000000000000000e+00,5.000000000000000000e+00,5.000000000000000000e+00,5.000000000000000000e+00,5.000000000000000000e+00,4.856416702270507812e+00,4.665939807891845703e+00,4.489840984344482422e+00,4.326550483703613281e+00,4.174720764160156250e+00,4.033185958862304688e+00,3.900933742523193359e+00,3.777079343795776367e+00,3.660847663879394531e+00,3.551555871963500977e+00,3.448600530624389648e+00,3.351446151733398438e+00,3.259615659713745117e+00,3.172683715820312500e+00,3.090267658233642578e+00,3.012025356292724609e+00,2.937647342681884766e+00,2.866853952407836914e+00,2.799392461776733398e+00,2.735032796859741211e+00,2.673565864562988281e+00,2.614801168441772461e+00,2.558564186096191406e+00,2.504695177078247070e+00,2.453047752380371094e+00,2.403487443923950195e+00,2.355890035629272461e+00,2.310141086578369141e+00,2.266134977340698242e+00,2.223774194717407227e+00,2.182968139648437500e+00,2.143632650375366211e+00,2.105689525604248047e+00,2.069066286087036133e+00,2.033695459365844727e+00,1.999513626098632812e+00,1.966461658477783203e+00,1.934484481811523438e+00,1.903530955314636230e+00,1.873552083969116211e+00,1.844503045082092285e+00
5.000000000000000000e+00,5.000000000000000000e+00,5.000000000000000000e+00,5.000000000000000000e+00,5.000000000000000000e+00,5.000000000000000000e+00,5.000000000000000000e+00,5.000000000000000000e+00,5.000000000000000000e+00,5.000000000000000000e+00,5.000000000000000000e+00,5.000000000000000000e+00,5.000000000000000000e+00,5.000000000000000000e+00,5.000000000000000000e+00,5.000000000000000000e+00,5.000000000000000000e+00,5.000000000000000000e+00,5.000000000000000000e+00,5.000000000000000000e+00,5.000000000000000000e+00,5.000000000000000000e+00,5.000000000000000000e+00,1.559803009033203125e+00,1.547500491142272949e+00,1.547705054283142090e+00,1.573039889335632324e+00,1.795191764831542969e+00,5.000000000000000000e+00,5.000000000000000000e+00,5.000000000000000000e+00,5.000000000000000000e+00,5.000000000000000000e+00,5.000000000000000000e+00,5.000000000000000000e+00,5.000000000000000000e+00,5.000000000000000000e+00,5.000000000000000000e+00,5.000000000000000000e+00,4.856554985046386719e+00,4.666067600250244141e+00,4.489958763122558594e+00,4.326660156250000000e+00,4.174823284149169922e+00,4.033281803131103516e+00,3.901023149490356445e+00,3.777163028717041016e+00,3.660926342010498047e+00,3.551630020141601562e+00,3.448670148849487305e+00,3.351511955261230469e+00,3.259678125381469727e+00,3.172742366790771484e+00,3.090323686599731445e+00,3.012078523635864258e+00,2.937697887420654297e+00,2.866902112960815430e+00,2.799438238143920898e+00,2.735076427459716797e+00,2.673607826232910156e+00,2.614841222763061523e+00,2.558602571487426758e+00,2.504731893539428711e+00,2.453083038330078125e+00,2.403521299362182617e+00,2.355922460556030273e+00,2.310172080993652344e+00,2.266165018081665039e+00,2.223803281784057617e+00,2.182996034622192383e+00,2.143659591674804688e+00,2.105715751647949219e+00,2.069091320037841797e+00,2.033719539642333984e+00,1.999536991119384766e+00,1.966484189033508301e+00,1.934506535530090332e+00,1.903552055358886719e+00,1.873572826385498047e+00,1.844522953033447266e+00
5.000000000000000000e+00,5.000000000000000000e+00,5.000000000000000000e+00,5.000000000000000000e+00,5.000000000000000000e+00,5.000000000000000000e+00,5.000000000000000000e+00,5.000000000000000000e+00,5.000000000000000000e+00,5.000000000000000000e+00,5.000000000000000000e+00,5.000000000000000000e+00,5.000000000000000000e+00,5.000000000000000000e+00,5.000000000000000000e+00,5.000000000000000000e+00,5.000000000000000000e+00,5.000000000000000000e+00,5.000000000000000000e+00,5.000000000000000000e+00,5.000000000000000000e+00,5.000000000000000000e+00,5.000000000000000000e+00,1.565584778785705566e+00,1.552721023559570312e+00,1.552500247955322266e+00,1.580924630165100098e+00,5.000000000000000000e+00,5.000000000000000000e+00,5.000000000000000000e+00,5.000000000000000000e+00,5.000000000000000000e+00,5.000000000000000000e+00,5.000000000000000000e+00,5.000000000000000000e+00,5.000000000000000000e+00,5.000000000000000000e+00,5.000000000000000000e+00,5.000000000000000000e+00,4.856693267822265625e+00,4.666194915771484375e+00,4.490077018737792969e+00,4.326769828796386719e+00,4.174925327301025391e+00,4.033377170562744141e+00,3.901112556457519531e+00,3.777246475219726562e+00,3.661004543304443359e+00,3.551703691482543945e+00,3.448739767074584961e+00,3.351577758789062500e+00,3.259740352630615234e+00,3.172801494598388672e+00,3.090379714965820312e+00,3.012131690979003906e+00,2.937748432159423828e+00,2.866950273513793945e+00,2.799484252929687500e+00,2.735120296478271484e+00,2.673649787902832031e+00,2.614881277084350586e+00,2.558640956878662109e+00,2.504768610000610352e+00,2.453118324279785156e+00,2.403554916381835938e+00,2.355954885482788086e+00,2.310203552246093750e+00,2.266195058822631836e+00,2.223832368850708008e+00,2.183024168014526367e+00,2.143686294555664062e+00,2.105741500854492188e+00,2.069116353988647461e+00,2.033743858337402344e+00,1.999560236930847168e+00,1.966507077217102051e+00,1.934528470039367676e+00,1.903573393821716309e+00,1.873593330383300781e+00,1.844542860984802246e+00
5.000000000000000000e+00,5.000000000000000000e+00,5.000000000000000000e+00,5.000000000000000000e+00,5.000000000000000000e+00,5.000000000000000000e+00,5.000000000000000000e+00,5.000000000000000000e+00,5.000000000000000000e+00,5.000000000000000000e+00,5.000000000000000000e+00,5.000000000000000000e+00,5.000000000000000000e+00,5.000000000000000000e+00,5.000000000000000000e+00,5.000000000000000000e+00,5.000000000000000000e+00,5.000000000000000000e+00,5.000000000000000000e+00,5.000000000000000000e+00,5.000000000000000000e+00,5.000000000000000000e+00,5.000000000000000000e+00,1.570678472518920898e+00,1.554141044616699219e+00,1.553377866744995117e+00,1.579969644546508789e+00,5.000000000000000000e+00,5.000000000000000000e+00,5.000000000000000000e+00,5.000000000000000000e+00,5.000000000000000000e+00,5.000000000000000000e+00,5.000000000000000000e+00,5.000000000000000000e+00,5.000000000000000000e+00,5.000000000000000000e+00,5.000000000000000000e+00,5.000000000000000000e+00,4.856829643249511719e+00,4.666322708129882812e+00,4.490195274353027344e+00,4.326879978179931641e+00,4.175027370452880859e+00,4.033472061157226562e+00,3.901201486587524414e+00,3.777330160140991211e+00,3.661083221435546875e+00,3.551777601242065430e+00,3.448809623718261719e+00,3.351643562316894531e+00,3.259802341461181641e+00,3.172860383987426758e+00,3.090435504913330078e+00,3.012184858322143555e+00,2.937798976898193359e+00,2.866998434066772461e+00,2.799530267715454102e+00,2.735164165496826172e+00,2.673691511154174805e+00,2.614921331405639648e+00,2.558679103851318359e+00,2.504805564880371094e+00,2.453153610229492188e+00,2.403589010238647461e+00,2.355987548828125000e+00,2.310234785079956055e+00,2.266225099563598633e+00,2.223861217498779297e+00,2.183051824569702148e+00,2.143713474273681641e+00,2.105767488479614258e+00,2.069141626358032227e+00,2.033768177032470703e+00,1.999583840370178223e+00,1.966529607772827148e+00,1.934550285339355469e+00,1.903594613075256348e+00,1.873613834381103516e+00,1.844562888145446777e+00
5.000000000000000000e+00,5.000000000000000000e+00,5.000000000000000000e+00,5.000000000000000000e+00,5.000000000000000000e+00,5.000000000000000000e+00,5.000000000000000000e+00,5.000000000000000000e+00,5.000000000000000000e+00,5.000000000000000000e+00,5.000000000000000000e+00,5.000000000000000000e+00,5.000000000000000000e+00,5.000000000000000000e+00,5.000000000000000000e+00,5.000000000000000000e+00,5.000000000000000000e+00,5.000000000000000000e+00,5.000000000000000000e+00,5.000000000000000000e+00,5.000000000000000000e+00,5.000000000000000000e+00,5.000000000000000000e+00,1.575805306434631348e+00,1.557127118110656738e+00,1.554256916046142578e+00,1.579015851020812988e+00,5.000000000000000000e+00,5.000000000000000000e+00,5.000000000000000000e+00,5.000000000000000000e+00,5.000000000000000000e+00,5.000000000000000000e+00,5.000000000000000000e+00,5.000000000000000000e+00,5.000000000000000000e+00,5.000000000000000000e+00,5.000000000000000000e+00,5.000000000000000000e+00,4.856967449188232422e+00,4.666450500488281250e+00,4.490313529968261719e+00,4.326989650726318359e+00,4.175129890441894531e+00,4.033567905426025391e+00,3.901290655136108398e+00,3.777413845062255859e+00,3.661161899566650391e+00,3.551851749420166016e+00,3.448879003524780273e+00,3.351709127426147461e+00,3.259864807128906250e+00,3.172919511795043945e+00,3.090491771697998047e+00,3.012238264083862305e+00,2.937849760055541992e+00,2.867046594619750977e+00,2.799576044082641602e+00,2.735208034515380859e+00,2.673733472824096680e+00,2.614961385726928711e+00,2.558717727661132812e+00,2.504842281341552734e+00,2.453188896179199219e+00,2.403622865676879883e+00,2.356019973754882812e+00,2.310266017913818359e+00,2.266255378723144531e+00,2.223890066146850586e+00,2.183079957962036133e+00,2.143740415573120117e+00,2.105793714523315430e+00,2.069166660308837891e+00,2.033792257308959961e+00,1.999607205390930176e+00,1.966552257537841797e+00,1.934572339057922363e+00,1.903615832328796387e+00,1.873634457588195801e+00,1.844582796096801758e+00
5.000000000000000000e+00,5.000000000000000000e+00,5.000000000000000000e+00,5.000000000000000000e+00,5.000000000000000000e+00,5.000000000000000000e+00,5.000000000000000000e+00,5.000000000000000000e+00,5.000000000000000000e+00,5.000000000000000000e+00,5.000000000000000000e+00,5.000000000000000000e+00,5.000000000000000000e+00,5.000000000000000000e+00,5.000000000000000000e+00,5.000000000000000000e+00,5.000000000000000000e+00,5.000000000000000000e+00,5.000000000000000000e+00,5.000000000000000000e+00,5.000000000000000000e+00,5.000000000000000000e+00,5.000000000000000000e+00,1.580965638160705566e+00,1.562292337417602539e+00,1.555136561393737793e+00,1.577437639236450195e+00,5.000000000000000000e+00,5.000000000000000000e+00,5.000000000000000000e+00,5.000000000000000000e+00,5.000000000000000000e+00,5.000000000000000000e+00,5.000000000000000000e+00,5.000000000000000000e+00,5.000000000000000000e+00,5.000000000000000000e+00,5.000000000000000000e+00,5.000000000000000000e+00,4.857105731964111328e+00,4.666575908660888672e+00,4.490431785583496094e+00,4.327099323272705078e+00,4.175231933593750000e+00,4.033662796020507812e+00,3.901380062103271484e+00,3.777497291564941406e+00,3.661240339279174805e+00,3.551925182342529297e+00,3.448948860168457031e+00,3.351775169372558594e+00,3.259927034378051758e+00,3.172978639602661133e+00,3.090547800064086914e+00,3.012291193008422852e+00,2.937900066375732422e+00,2.867094755172729492e+00,2.799622058868408203e+00,2.735251903533935547e+00,2.673775434494018555e+00,2.615001678466796875e+00,2.558756113052368164e+00,2.504878997802734375e+00,2.453224182128906250e+00,2.403656721115112305e+00,2.356052637100219727e+00,2.310297250747680664e+00,2.266285419464111328e+00,2.223919153213500977e+00,2.183107852935791016e+00,2.143767118453979492e+00,2.105819463729858398e+00,2.069191694259643555e+00,2.033816576004028320e+00,1.999630570411682129e+00,1.966575026512145996e+00,1.934594273567199707e+00,1.903637170791625977e+00,1.873654961585998535e+00,1.844602704048156738e+00
5.000000000000000000e+00,5.000000000000000000e+00,5.000000000000000000e+00,5.000000000000000000e+00,5.000000000000000000e+00,5.000000000000000000e+00,5.000000000000000000e+00,5.000000000000000000e+00,5.000000000000000000e+00,5.000000000000000000e+00,5.000000000000000000e+00,5.000000000000000000e+00,5.000000000000000000e+00,5.000000000000000000e+00,5.000000000000000000e+00,5.000000000000000000e+00,5.000000000000000000e+00,5.000000000000000000e+00,5.000000000000000000e+00,5.000000000000000000e+00,5.000000000000000000e+00,5.000000000000000000e+00,5.000000000000000000e+00,1.586160182952880859e+00,1.567492127418518066e+00,1.557476997375488281e+00,1.575801730155944824e+00,5.000000000000000000e+00,5.000000000000000000e+00,5.000000000000000000e+00,5.000000000000000000e+00,5.000000000000000000e+00,5.000000000000000000e+00,5.000000000000000000e+00,5.000000000000000000e+00,5.000000000000000000e+00,5.000000000000000000e+00,5.000000000000000000e+00,5.000000000000000000e+00,4.857243537902832031e+00,4.666703224182128906e+00,4.490548133850097656e+00,4.327208995819091797e+00,4.175333976745605469e+00,4.033758163452148438e+00,3.901468992233276367e+00,3.777580976486206055e+00,3.661318778991699219e+00,3.551999330520629883e+00,3.449018716812133789e+00,3.351840972900390625e+00,3.259989261627197266e+00,3.173037528991699219e+00,3.090603590011596680e+00,3.012344360351562500e+00,2.937950849533081055e+00,2.867142915725708008e+00,2.799668073654174805e+00,2.735295772552490234e+00,2.673817157745361328e+00,2.615041494369506836e+00,2.558794260025024414e+00,2.504915714263916016e+00,2.453259468078613281e+00,2.403690576553344727e+00,2.356085300445556641e+00,2.310328722000122070e+00,2.266315460205078125e+00,2.223948001861572266e+00,2.183135747909545898e+00,2.143794298171997070e+00,2.105845451354980469e+00,2.069216966629028320e+00,2.033840894699096680e+00,1.999654173851013184e+00,1.966597676277160645e+00,1.934616088867187500e+00,1.903658390045166016e+00,1.873675465583801270e+00,1.844622731208801270e+00
5.000000000000000000e+00,5.000000000000000000e+00,5.000000000000000000e+00,5.000000000000000000e+00,5.000000000000000000e+00,5.000000000000000000e+00,5.000000000000000000e+00,5.000000000000000000e+00,5.000000000000000000e+00,5.000000000000000000e+00,5.000000000000000000e+00,5.000000000000000000e+00,5.000000000000000000e+00,5.000000000000000000e+00,5.000000000000000000e+00,5.000000000000000000e+00,5.000000000000000000e+00,5.000000000000000000e+00,5.000000000000000000e+00,5.000000000000000000e+00,5.000000000000000000e+00,5.000000000000000000e+00,2.035267114639282227e+00,1.591431021690368652e+00,1.573053359985351562e+00,1.562465310096740723e+00,1.575141668319702148e+00,5.000000000000000000e+00,5.000000000000000000e+00,5.000000000000000000e+00,5.000000000000000000e+00,5.000000000000000000e+00,5.000000000000000000e+00,5.000000000000000000e+00,5.000000000000000000e+00,5.000000000000000000e+00,5.000000000000000000e+00,5.000000000000000000e+00,5.000000000000000000e+00,4.857381820678710938e+00,4.666831016540527344e+00,4.490665912628173828e+00,4.327317237854003906e+00,4.175436019897460938e+00,4.033854007720947266e+00,3.901558399200439453e+00,3.777664661407470703e+00,3.661397457122802734e+00,3.552073478698730469e+00,3.449088096618652344e+00,3.351906538009643555e+00,3.260051488876342773e+00,3.173096418380737305e+00,3.090659618377685547e+00,3.012397766113281250e+00,2.938001394271850586e+00,2.867191314697265625e+00,2.799713850021362305e+00,2.735339403152465820e+00,2.673859119415283203e+00,2.615081787109375000e+00,2.558832645416259766e+00,2.504952669143676758e+00,2.453294754028320312e+00,2.403724431991577148e+00,2.356117725372314453e+00,2.310359954833984375e+00,2.266345739364624023e+00,2.223977088928222656e+00,2.183163642883300781e+00,2.143821239471435547e+00,2.105871677398681641e+00,2.069242000579833984e+00,2.033864974975585938e+00,1.999677538871765137e+00,1.966620206832885742e+00,1.934638142585754395e+00,1.903679490089416504e+00,1.873696208000183105e+00,1.844642639160156250e+00
5.000000000000000000e+00,5.000000000000000000e+00,5.000000000000000000e+00,5.000000000000000000e+00,5.000000000000000000e+00,5.000000000000000000e+00,5.000000000000000000e+00,5.000000000000000000e+00,5.000000000000000000e+00,5.000000000000000000e+00,5.000000000000000000e+00,5.000000000000000000e+00,5.000000000000000000e+00,5.000000000000000000e+00,5.000000000000000000e+00,5.000000000000000000e+00,5.000000000000000000e+00,5.000000000000000000e+00,5.000000000000000000e+00,5.000000000000000000e+00,5.000000000000000000e+00,5.000000000000000000e+00,2.066416501998901367e+00,2.024239063262939453e+00,1.579432606697082520e+00,1.569445729255676270e+00,1.574930071830749512e+00,5.000000000000000000e+00,5.000000000000000000e+00,5.000000000000000000e+00,5.000000000000000000e+00,5.000000000000000000e+00,5.000000000000000000e+00,5.000000000000000000e+00,5.000000000000000000e+00,5.000000000000000000e+00,5.000000000000000000e+00,5.000000000000000000e+00,5.000000000000000000e+00,4.857519626617431641e+00,4.666958332061767578e+00,4.490784168243408203e+00,4.327426910400390625e+00,4.175538539886474609e+00,4.033948898315429688e+00,3.901647567749023438e+00,3.777747869491577148e+00,3.661475658416748047e+00,3.552147150039672852e+00,3.449157953262329102e+00,3.351972579956054688e+00,3.260113954544067383e+00,3.173155546188354492e+00,3.090715646743774414e+00,3.012450695037841797e+00,2.938051939010620117e+00,2.867239236831665039e+00,2.799759864807128906e+00,2.735383510589599609e+00,2.673901081085205078e+00,2.615121841430664062e+00,2.558871269226074219e+00,2.504989385604858398e+00,2.453330039978027344e+00,2.403758287429809570e+00,2.356150150299072266e+00,2.310391187667846680e+00,2.266375780105590820e+00,2.224006175994873047e+00,2.183191776275634766e+00,2.143847942352294922e+00,2.105897426605224609e+00,2.069267034530639648e+00,2.033889293670654297e+00,1.999700903892517090e+00,1.966642975807189941e+00,1.934660077095031738e+00,1.903700947761535645e+00,1.873716711997985840e+00,1.844662547111511230e+00
4.875516414642333984e+00,4.874305725097656250e+00,4.873095512390136719e+00,4.871886253356933594e+00,4.870677471160888672e+00,4.869469165802001953e+00,4.868261814117431641e+00,4.867054939270019531e+00,4.865848064422607422e+00,4.864642620086669922e+00,4.863437175750732422e+00,4.862232685089111328e+00,4.861028671264648438e+00,4.859825611114501953e+00,4.858622550964355469e+00,4.857420444488525391e+00,4.856218814849853516e+00,4.855018138885498047e+00,4.853817462921142578e+00,4.852617740631103516e+00,4.851418495178222656e+00,4.850220203399658203e+00,2.067472457885742188e+00,2.078223943710327148e+00,1.585863709449768066e+00,1.571278572082519531e+00,1.574718594551086426e+00,4.843040466308593750e+00,4.841845989227294922e+00,4.840651988983154297e+00,4.839458465576171875e+00,4.838265895843505859e+00,4.837073802947998047e+00,4.835882186889648438e+00,4.834691047668457031e+00,4.833500862121582031e+00,4.832311153411865234e+00,4.831121444702148438e+00,4.829933166503906250e+00,4.828744888305664062e+00,4.667085647583007812e+00,4.490901947021484375e+00,4.327536106109619141e+00,4.175639152526855469e+00,4.034044265747070312e+00,3.901736497879028320e+00,3.777831792831420898e+00,3.661554336547851562e+00,3.552221059799194336e+00,3.449227809906005859e+00,3.352038621902465820e+00,3.260176420211791992e+00,3.173214435577392578e+00,3.090771436691284180e+00,3.012504100799560547e+00,2.938102483749389648e+00,2.867287635803222656e+00,2.799805879592895508e+00,2.735427379608154297e+00,2.673943042755126953e+00,2.615161895751953125e+00,2.558909416198730469e+00,2.505026102066040039e+00,2.453365325927734375e+00,2.403792142868041992e+00,2.356182813644409180e+00,2.310422658920288086e+00,2.266406059265136719e+00,2.224035024642944336e+00,2.183219432830810547e+00,2.143875122070312500e+00,2.105923414230346680e+00,2.069292068481445312e+00,2.033913612365722656e+00,1.999724507331848145e+00,1.966665625572204590e+00,1.934681892395019531e+00,1.903722047805786133e+00,1.873737215995788574e+00,1.844682574272155762e+00
3.778358697891235352e+00,3.777631759643554688e+00,3.776904582977294922e+00,3.776178121566772461e+00,3.775451898574829102e+00,3.774725675582885742e+00,3.774000167846679688e+00,3.773274898529052734e+00,3.772549867630004883e+00,3.771824598312377930e+00,3.771100282669067383e+00,3.770375967025756836e+00,3.769652128219604492e+00,3.768928050994873047e+00,3.768204689025878906e+00,3.767481803894042969e+00,3.766758918762207031e+00,3.766036033630371094e+00,3.765313863754272461e+00,3.764591693878173828e+00,3.763870000839233398e+00,3.763148307800292969e+00,2.055921077728271484e+00,2.083875179290771484e+00,1.592370867729187012e+00,1.574798703193664551e+00,1.579859018325805664e+00,3.758825302124023438e+00,3.758105278015136719e+00,3.757386207580566406e+00,3.756667375564575195e+00,3.755948543548583984e+00,3.755229711532592773e+00,3.754511833190917969e+00,3.753793954849243164e+00,3.753076314926147461e+00,3.752358675003051758e+00,3.751641750335693359e+00,3.750924825668334961e+00,3.750208377838134766e+00,3.749491930007934570e+00,3.748775959014892578e+00,3.748060226440429688e+00,3.747344970703125000e+00,3.746629476547241211e+00,3.745914697647094727e+00,3.745200157165527344e+00,3.661633253097534180e+00,3.552295207977294922e+00,3.449297189712524414e+00,3.352104187011718750e+00,3.260238409042358398e+00,3.173273563385009766e+00,3.090827703475952148e+00,3.012557268142700195e+00,2.938153266906738281e+00,2.867335796356201172e+00,2.799851655960083008e+00,2.735471010208129883e+00,2.673984766006469727e+00,2.615201950073242188e+00,2.558947801589965820e+00,2.505063056945800781e+00,2.453400611877441406e+00,2.403825998306274414e+00,2.356215238571166992e+00,2.310453653335571289e+00,2.266435861587524414e+00,2.224064111709594727e+00,2.183247566223144531e+00,2.143902063369750977e+00,2.105949640274047852e+00,2.069317340850830078e+00,2.033937692642211914e+00,1.999747872352600098e+00,1.966688275337219238e+00,1.934703946113586426e+00,1.903743267059326172e+00,1.873757958412170410e+00,1.844702482223510742e+00
3.084288358688354492e+00,3.083803892135620117e+00,3.083319425582885742e+00,3.082835197448730469e+00,3.082351207733154297e+00,3.081867456436157227e+00,3.081383466720581055e+00,3.080899953842163086e+00,3.080416679382324219e+00,3.079933404922485352e+00,3.079450130462646484e+00,3.078967094421386719e+00,3.078484296798706055e+00,3.078001737594604492e+00,3.077518939971923828e+00,3.077036619186401367e+00,3.076554536819458008e+00,3.076072454452514648e+00,3.075590372085571289e+00,3.075108528137207031e+00,3.074627161026000977e+00,2.052736043930053711e+00,2.049786567687988281e+00,2.082284450531005859e+00,1.599028229713439941e+00,1.581309795379638672e+00,1.584565043449401855e+00,3.071259737014770508e+00,3.070779561996459961e+00,3.070298910140991211e+00,3.069818973541259766e+00,3.069339036941528320e+00,3.068859338760375977e+00,3.068379402160644531e+00,3.067899942398071289e+00,3.067420721054077148e+00,3.066941499710083008e+00,3.066462278366088867e+00,3.065983295440673828e+00,3.065504789352416992e+00,3.065026283264160156e+00,3.064547538757324219e+00,3.064069271087646484e+00,3.063591241836547852e+00,3.063112974166870117e+00,3.062635183334350586e+00,3.062157392501831055e+00,3.061680078506469727e+00,3.061202287673950195e+00,3.060725212097167969e+00,3.060248136520385742e+00,3.059771060943603516e+00,3.059293985366821289e+00,3.058817386627197266e+00,3.012610197067260742e+00,2.938203573226928711e+00,2.867383718490600586e+00,2.799897670745849609e+00,2.735514879226684570e+00,2.674026966094970703e+00,2.615242004394531250e+00,2.558986425399780273e+00,2.505099534988403320e+00,2.453435659408569336e+00,2.403859853744506836e+00,2.356247901916503906e+00,2.310485124588012695e+00,2.266466140747070312e+00,2.224093198776245117e+00,2.183275461196899414e+00,2.143928766250610352e+00,2.105975389480590820e+00,2.069342374801635742e+00,2.033962011337280273e+00,1.999771237373352051e+00,1.966711044311523438e+00,1.934725880622863770e+00,1.903764605522155762e+00,1.873778462409973145e+00,1.844722270965576172e+00
2.605641603469848633e+00,2.605295896530151367e+00,2.604950189590454102e+00,2.604604482650756836e+00,2.604259014129638672e+00,2.603913545608520508e+00,2.603568315505981445e+00,2.603222846984863281e+00,2.602877855300903320e+00,2.602532863616943359e+00,2.602187871932983398e+00,2.601842880249023438e+00,2.601498126983642578e+00,2.601153373718261719e+00,2.600808858871459961e+00,2.600464105606079102e+00,2.600119829177856445e+00,2.599775552749633789e+00,2.599431276321411133e+00,2.599086999893188477e+00,2.598742961883544922e+00,2.033077239990234375e+00,2.045911788940429688e+00,2.077646970748901367e+00,2.597367763519287109e+00,1.599755644798278809e+00,1.597299218177795410e+00,2.596337080001831055e+00,2.595993757247924805e+00,2.595650672912597656e+00,2.595307350158691406e+00,2.594964265823364258e+00,2.594621419906616211e+00,2.594278573989868164e+00,2.593935489654541016e+00,2.593592882156372070e+00,2.593250274658203125e+00,2.592907905578613281e+00,2.592565298080444336e+00,2.592222929000854492e+00,2.591880798339843750e+00,2.591538667678833008e+00,2.591196537017822266e+00,2.590854644775390625e+00,2.590512752532958984e+00,2.590170621871948242e+00,2.589828968048095703e+00,2.589487552642822266e+00,2.589146137237548828e+00,2.588804483413696289e+00,2.588463068008422852e+00,2.588121891021728516e+00,2.587780714035034180e+00,2.587439537048339844e+00,2.587098598480224609e+00,2.586757898330688477e+00,2.586417198181152344e+00,2.586076259613037109e+00,2.585735559463500977e+00,2.585395097732543945e+00,2.585054874420166016e+00,2.559024572372436523e+00,2.505136489868164062e+00,2.453471183776855469e+00,2.403893709182739258e+00,2.356280326843261719e+00,2.310516357421875000e+00,2.266496181488037109e+00,2.224122047424316406e+00,2.183303356170654297e+00,2.143955707550048828e+00,2.106001615524291992e+00,2.069367408752441406e+00,2.033986330032348633e+00,1.999794840812683105e+00,1.966733694076538086e+00,1.934747695922851562e+00,1.903785824775695801e+00,1.873798966407775879e+00,1.844742417335510254e+00
2.255606412887573242e+00,2.255347013473510742e+00,2.255087375640869141e+00,2.254828214645385742e+00,2.254568815231323242e+00,2.254309654235839844e+00,2.254050493240356445e+00,2.253791332244873047e+00,2.253532171249389648e+00,2.253273248672485352e+00,2.253014326095581055e+00,2.252755403518676758e+00,2.252496480941772461e+00,2.252237796783447266e+00,2.251979112625122070e+00,2.251720428466796875e+00,2.251461982727050781e+00,2.251203298568725586e+00,2.250944852828979492e+00,2.250686407089233398e+00,2.250428199768066406e+00,1.999080419540405273e+00,2.018875598907470703e+00,2.062729120254516602e+00,2.249395608901977539e+00,1.597970008850097656e+00,1.587024569511413574e+00,2.248622417449951172e+00,2.248364925384521484e+00,2.248107671737670898e+00,2.247850179672241211e+00,2.247592687606811523e+00,2.247335433959960938e+00,2.247078180313110352e+00,2.246821165084838867e+00,2.246563911437988281e+00,2.246306896209716797e+00,2.246049880981445312e+00,2.245792865753173828e+00,2.245535850524902344e+00,2.245279073715209961e+00,2.245022296905517578e+00,2.244765758514404297e+00,2.244508981704711914e+00,2.244252443313598633e+00,2.243995904922485352e+00,2.243739366531372070e+00,2.243482828140258789e+00,2.243226528167724609e+00,2.242970466613769531e+00,2.242713928222656250e+00,2.242457866668701172e+00,2.242201805114746094e+00,2.241945743560791016e+00,2.241689682006835938e+00,2.241433620452880859e+00,2.241177797317504883e+00,2.240921974182128906e+00,2.240666151046752930e+00,2.240410566329956055e+00,2.240154743194580078e+00,2.239899158477783203e+00,2.239643573760986328e+00,2.239388227462768555e+00,2.239132881164550781e+00,2.238877534866333008e+00,2.238621950149536133e+00,2.238366842269897461e+00,2.224151134490966797e+00,2.183331251144409180e+00,2.143982887268066406e+00,2.106027603149414062e+00,2.069392681121826172e+00,2.034010410308837891e+00,1.999818205833435059e+00,1.966756224632263184e+00,1.934769749641418457e+00,1.903806924819946289e+00,1.873819708824157715e+00,1.844762325286865234e+00
1.988494157791137695e+00,1.988292455673217773e+00,1.988090991973876953e+00,1.987889409065246582e+00,1.987687706947326660e+00,1.987486243247985840e+00,1.987284898757934570e+00,1.987083435058593750e+00,1.986881971359252930e+00,1.986680626869201660e+00,1.986479282379150391e+00,1.986278176307678223e+00,1.986076951026916504e+00,1.985875725746154785e+00,1.985674500465393066e+00,1.985473632812500000e+00,1.985272526741027832e+00,1.985071420669555664e+00,1.984870433807373047e+00,1.984669685363769531e+00,1.984468698501586914e+00,1.984267711639404297e+00,1.984066843986511230e+00,1.983866333961486816e+00,1.983665466308593750e+00,1.587078452110290527e+00,1.566617131233215332e+00,1.564753293991088867e+00,1.982863068580627441e+00,1.982662439346313477e+00,1.982461929321289062e+00,1.982261419296264648e+00,1.982061147689819336e+00,1.981860756874084473e+00,1.981660366058349609e+00,1.981460094451904297e+00,1.981259942054748535e+00,1.981059670448303223e+00,1.980859518051147461e+00,1.980659246444702148e+00,1.980459451675415039e+00,1.980259299278259277e+00,1.980059266090393066e+00,1.979859232902526855e+00,1.979659318923950195e+00,1.979459524154663086e+00,1.979259610176086426e+00,1.979059815406799316e+00,1.978860020637512207e+00,1.978660464286804199e+00,1.978460669517517090e+00,1.978260993957519531e+00,1.978061318397521973e+00,1.977862000465393066e+00,1.977662444114685059e+00,1.977462887763977051e+00,1.977263331413269043e+00,1.977064132690429688e+00,1.976864695549011230e+00,1.976665377616882324e+00,1.976466059684753418e+00,1.976266741752624512e+00,1.976067662239074707e+00,1.975868463516235352e+00,1.975669264793395996e+00,1.975470185279846191e+00,1.975271344184875488e+00,1.975072264671325684e+00,1.974873304367065430e+00,1.974674224853515625e+00,1.974475622177124023e+00,1.974276661872863770e+00,1.974077820777893066e+00,1.973878979682922363e+00,1.973680496215820312e+00,1.966779112815856934e+00,1.934791684150695801e+00,1.903828382492065430e+00,1.873840212821960449e+00,1.844782114028930664e+00
1.777947187423706055e+00,1.777785897254943848e+00,1.777624607086181641e+00,1.777463555335998535e+00,1.777302384376525879e+00,1.777141332626342773e+00,1.776980161666870117e+00,1.776819229125976562e+00,1.776658177375793457e+00,1.776497125625610352e+00,1.776336193084716797e+00,1.776175141334533691e+00,1.776014447212219238e+00,1.775853514671325684e+00,1.775692582130432129e+00,1.775531768798828125e+00,1.775371074676513672e+00,1.775210261344909668e+00,1.775049567222595215e+00,1.774888753890991211e+00,1.774728298187255859e+00,1.774567604064941406e+00,1.774406909942626953e+00,1.774246335029602051e+00,1.774085879325866699e+00,1.564236640930175781e+00,1.543683528900146484e+00,1.536828637123107910e+00,1.539812326431274414e+00,1.773283481597900391e+00,1.773123145103454590e+00,1.772962689399719238e+00,1.772802352905273438e+00,1.772642135620117188e+00,1.772481799125671387e+00,1.772321581840515137e+00,1.772161364555358887e+00,1.772001266479492188e+00,1.771841049194335938e+00,1.771680951118469238e+00,1.771520733833312988e+00,1.771360874176025391e+00,1.771200776100158691e+00,1.771040678024291992e+00,1.770880699157714844e+00,1.770720720291137695e+00,1.770560979843139648e+00,1.770401000976562500e+00,1.770241141319274902e+00,1.770081281661987305e+00,1.769921541213989258e+00,1.769761800765991211e+00,1.769601941108703613e+00,1.769442200660705566e+00,1.769282698631286621e+00,1.769122958183288574e+00,1.768963217735290527e+00,1.768803596496582031e+00,1.768643975257873535e+00,1.768484592437744141e+00,1.768325090408325195e+00,1.768165469169616699e+00,1.768005967140197754e+00,1.767846703529357910e+00,1.767687320709228516e+00,1.767527937889099121e+00,1.767368435859680176e+00,1.767209291458129883e+00,1.767050027847290039e+00,1.766890645027160645e+00,1.766731381416320801e+00,1.766572356224060059e+00,1.766413211822509766e+00,1.766253948211669922e+00,1.766094803810119629e+00,1.765935897827148438e+00,1.765776753425598145e+00,1.765617728233337402e+00,1.765458703041076660e+00,1.765299677848815918e+00
1.607717752456665039e+00,1.607585906982421875e+00,1.607454061508178711e+00,1.607322216033935547e+00,1.607190608978271484e+00,1.607058763504028320e+00,1.606927037239074707e+00,1.606795310974121094e+00,1.606663584709167480e+00,1.606531977653503418e+00,1.606400370597839355e+00,1.606268644332885742e+00,1.606137037277221680e+00,1.606005549430847168e+00,1.605874061584472656e+00,1.605742454528808594e+00,1.605610966682434082e+00,1.605479598045349121e+00,1.605347990989685059e+00,1.605216503143310547e+00,1.605085134506225586e+00,1.604953765869140625e+00,1.604822397232055664e+00,1.604691028594970703e+00,1.604559659957885742e+00,1.604428410530090332e+00,1.509509801864624023e+00,1.500240087509155273e+00,1.500111341476440430e+00,1.502992749214172363e+00,1.603772163391113281e+00,1.603640913963317871e+00,1.603509783744812012e+00,1.603378534317016602e+00,1.603247523307800293e+00,1.603116393089294434e+00,1.602985262870788574e+00,1.602854251861572266e+00,1.602723360061645508e+00,1.602592229843139648e+00,1.602461218833923340e+00,1.602330207824707031e+00,1.602199196815490723e+00,1.602068424224853516e+00,1.601937532424926758e+00,1.601806521415710449e+00,1.601675629615783691e+00,1.601544976234436035e+00,1.601414084434509277e+00,1.601283311843872070e+00,1.601152420043945312e+00,1.601021766662597656e+00,1.600890994071960449e+00,1.600760340690612793e+00,1.600629568099975586e+00,1.600499033927917480e+00,1.600368380546569824e+00,1.600237607955932617e+00,1.600107073783874512e+00,1.599976301193237305e+00,1.599845886230468750e+00,1.599715352058410645e+00,1.599584817886352539e+00,1.599454283714294434e+00,1.599323868751525879e+00,1.599193334579467773e+00,1.599062919616699219e+00,1.598932504653930664e+00,1.598802208900451660e+00,1.598671793937683105e+00,1.598541378974914551e+00,1.598411083221435547e+00,1.598280787467956543e+00,1.598150491714477539e+00,1.598020195960998535e+00,1.597889900207519531e+00,1.597759723663330078e+00,1.597629547119140625e+00,1.597499370574951172e+00,1.597369194030761719e+00
1.467237114906311035e+00,1.467127323150634766e+00,1.467017531394958496e+00,1.466907739639282227e+00,1.466797947883605957e+00,1.466688394546508789e+00,1.466578602790832520e+00,1.466468811035156250e+00,1.466359138488769531e+00,1.466249465942382812e+00,1.466139912605285645e+00,1.466030240058898926e+00,1.465920567512512207e+00,1.465810894966125488e+00,1.465701460838317871e+00,1.465591907501220703e+00,1.465482234954833984e+00,1.465372681617736816e+00,1.465263247489929199e+00,1.465153694152832031e+00,1.465044260025024414e+00,1.464934706687927246e+00,1.464825391769409180e+00,1.464715838432312012e+00,1.464606404304504395e+00,1.464496970176696777e+00,1.464387536048889160e+00,1.464278340339660645e+00,1.464168906211853027e+00,1.464059472084045410e+00,1.463950157165527344e+00,1.463840961456298828e+00,1.463731646537780762e+00,1.463622331619262695e+00,1.463513016700744629e+00,1.463403940200805664e+00,1.463294625282287598e+00,1.463185429573059082e+00,1.463076114654541016e+00,1.462967038154602051e+00,1.462857842445373535e+00,1.462748765945434570e+00,1.462639570236206055e+00,1.462530374526977539e+00,1.462421417236328125e+00,1.462312340736389160e+00,1.462203264236450195e+00,1.462094187736511230e+00,1.461985230445861816e+00,1.461876153945922852e+00,1.461767196655273438e+00,1.461658120155334473e+00,1.461549282073974609e+00,1.461440324783325195e+00,1.461331367492675781e+00,1.461222410202026367e+00,1.461113572120666504e+00,1.461004614830017090e+00,1.460895776748657227e+00,1.460786938667297363e+00,1.460677981376647949e+00,1.460569262504577637e+00,1.460460424423217773e+00,1.460351586341857910e+00,1.460242867469787598e+00,1.460134148597717285e+00,1.460025429725646973e+00,1.459916710853576660e+00,1.459807872772216797e+00,1.459699392318725586e+00,1.459590673446655273e+00,1.459481954574584961e+00,1.459373235702514648e+00,1.459264755249023438e+00,1.459156155586242676e+00,1.459047436714172363e+00,1.458938837051391602e+00,1.458830237388610840e+00,1.458721876144409180e+00,1.458613276481628418e+00
1.349333763122558594e+00,1.349240899085998535e+00,1.349148154258728027e+00,1.349055290222167969e+00,1.348962426185607910e+00,1.348869562149047852e+00,1.348776936531066895e+00,1.348684072494506836e+00,1.348591327667236328e+00,1.348498463630676270e+00,1.348405718803405762e+00,1.348313093185424805e+00,1.348220348358154297e+00,1.348127603530883789e+00,1.348034858703613281e+00,1.347942233085632324e+00,1.347849607467651367e+00,1.347756862640380859e+00,1.347664237022399902e+00,1.347571611404418945e+00,1.347478985786437988e+00,1.347386360168457031e+00,1.347293853759765625e+00,1.347201347351074219e+00,1.347108721733093262e+00,1.347016096115112305e+00,1.346923589706420898e+00,1.346830964088439941e+00,1.346738576889038086e+00,1.346646070480346680e+00,1.346553564071655273e+00,1.346461057662963867e+00,1.346368670463562012e+00,1.346276164054870605e+00,1.346183657646179199e+00,1.346091270446777344e+00,1.345998883247375488e+00,1.345906496047973633e+00,1.345813989639282227e+00,1.345721602439880371e+00,1.345629334449768066e+00,1.345536947250366211e+00,1.345444560050964355e+00,1.345352292060852051e+00,1.345259904861450195e+00,1.345167636871337891e+00,1.345075368881225586e+00,1.344983100891113281e+00,1.344890713691711426e+00,1.344798564910888672e+00,1.344706296920776367e+00,1.344614028930664062e+00,1.344521880149841309e+00,1.344429731369018555e+00,1.344337463378906250e+00,1.344245314598083496e+00,1.344153165817260742e+00,1.344061017036437988e+00,1.343968868255615234e+00,1.343876719474792480e+00,1.343784570693969727e+00,1.343692421913146973e+00,1.343600392341613770e+00,1.343508362770080566e+00,1.343416213989257812e+00,1.343324184417724609e+00,1.343232274055480957e+00,1.343140125274658203e+00,1.343048095703125000e+00,1.342956066131591797e+00,1.342864155769348145e+00,1.342772245407104492e+00,1.342680215835571289e+00,1.342588186264038086e+00,1.342496395111083984e+00,1.342404365539550781e+00,1.342312455177307129e+00,1.342220544815063477e+00,1.342128634452819824e+00,1.342036843299865723e+00
1.248969912528991699e+00,1.248890399932861328e+00,1.248810768127441406e+00,1.248731374740600586e+00,1.248651742935180664e+00,1.248572230339050293e+00,1.248492717742919922e+00,1.248413205146789551e+00,1.248333692550659180e+00,1.248254299163818359e+00,1.248174786567687988e+00,1.248095273971557617e+00,1.248015880584716797e+00,1.247936367988586426e+00,1.247856974601745605e+00,1.247777581214904785e+00,1.247698187828063965e+00,1.247618794441223145e+00,1.247539401054382324e+00,1.247459888458251953e+00,1.247380614280700684e+00,1.247301220893859863e+00,1.247221946716308594e+00,1.247142553329467773e+00,1.247063279151916504e+00,1.246983885765075684e+00,1.246904611587524414e+00,1.246825218200683594e+00,1.246745944023132324e+00,1.246666789054870605e+00,1.246587514877319336e+00,1.246508121490478516e+00,1.246428847312927246e+00,1.246349692344665527e+00,1.246270537376403809e+00,1.246191263198852539e+00,1.246111989021301270e+00,1.246032834053039551e+00,1.245953679084777832e+00,1.245874524116516113e+00,1.245795249938964844e+00,1.245716214179992676e+00,1.245637059211730957e+00,1.245557904243469238e+00,1.245478749275207520e+00,1.245399594306945801e+00,1.245320558547973633e+00,1.245241403579711914e+00,1.245162248611450195e+00,1.245083212852478027e+00,1.245004177093505859e+00,1.244925141334533691e+00,1.244846105575561523e+00,1.244766950607299805e+00,1.244688034057617188e+00,1.244608998298645020e+00,1.244529962539672852e+00,1.244450926780700684e+00,1.244371891021728516e+00,1.244292974472045898e+00,1.244214057922363281e+00,1.244135022163391113e+00,1.244056105613708496e+00,1.243977189064025879e+00,1.243898272514343262e+00,1.243819355964660645e+00,1.243740439414978027e+00,1.243661522865295410e+00,1.243582606315612793e+00,1.243503808975219727e+00,1.243424892425537109e+00,1.243346095085144043e+00,1.243267178535461426e+00,1.243188381195068359e+00,1.243109464645385742e+00,1.243030786514282227e+00,1.242951989173889160e+00,1.242873072624206543e+00,1.242794275283813477e+00,1.242715477943420410e+00
1.162502646446228027e+00,1.162433743476867676e+00,1.162364721298217773e+00,1.162295818328857422e+00,1.162227034568786621e+00,1.162158131599426270e+00,1.162089228630065918e+00,1.162020325660705566e+00,1.161951422691345215e+00,1.161882638931274414e+00,1.161813735961914062e+00,1.161744832992553711e+00,1.161676049232482910e+00,1.161607265472412109e+00,1.161538362503051758e+00,1.161469578742980957e+00,1.161400675773620605e+00,1.161332011222839355e+00,1.161263227462768555e+00,1.161194443702697754e+00,1.161125540733337402e+00,1.161056876182556152e+00,1.160988092422485352e+00,1.160919308662414551e+00,1.160850644111633301e+00,1.160781860351562500e+00,1.160713195800781250e+00,1.160644412040710449e+00,1.160575747489929199e+00,1.160506963729858398e+00,1.160438299179077148e+00,1.160369634628295898e+00,1.160300970077514648e+00,1.160232305526733398e+00,1.160163640975952148e+00,1.160094976425170898e+00,1.160026311874389648e+00,1.159957647323608398e+00,1.159889101982116699e+00,1.159820437431335449e+00,1.159751892089843750e+00,1.159683227539062500e+00,1.159614562988281250e+00,1.159546136856079102e+00,1.159477472305297852e+00,1.159408926963806152e+00,1.159340262413024902e+00,1.159271836280822754e+00,1.159203290939331055e+00,1.159134745597839355e+00,1.159066081047058105e+00,1.158997654914855957e+00,1.158929109573364258e+00,1.158860564231872559e+00,1.158792138099670410e+00,1.158723711967468262e+00,1.158655166625976562e+00,1.158586621284484863e+00,1.158518195152282715e+00,1.158449769020080566e+00,1.158381342887878418e+00,1.158312916755676270e+00,1.158244490623474121e+00,1.158176064491271973e+00,1.158107638359069824e+00,1.158039212226867676e+00,1.157970786094665527e+00,1.157902359962463379e+00,1.157834053039550781e+00,1.157765626907348633e+00,1.157697319984436035e+00,1.157628893852233887e+00,1.157560586929321289e+00,1.157492280006408691e+00,1.157423973083496094e+00,1.157355546951293945e+00,1.157287240028381348e+00,1.157218933105468750e+00,1.157150626182556152e+00,1.157082319259643555e+00
1.087232470512390137e+00,1.087172269821166992e+00,1.087111949920654297e+00,1.087051630020141602e+00,1.086991310119628906e+00,1.086931109428405762e+00,1.086870908737182617e+00,1.086810588836669922e+00,1.086750388145446777e+00,1.086690068244934082e+00,1.086629867553710938e+00,1.086569666862487793e+00,1.086509466171264648e+00,1.086449265480041504e+00,1.086389064788818359e+00,1.086328864097595215e+00,1.086268663406372070e+00,1.086208462715148926e+00,1.086148381233215332e+00,1.086088180541992188e+00,1.086027979850769043e+00,1.085967779159545898e+00,1.085907697677612305e+00,1.085847496986389160e+00,1.085787415504455566e+00,1.085727214813232422e+00,1.085667133331298828e+00,1.085607051849365234e+00,1.085546851158142090e+00,1.085486769676208496e+00,1.085426688194274902e+00,1.085366606712341309e+00,1.085306525230407715e+00,1.085246443748474121e+00,1.085186362266540527e+00,1.085126280784606934e+00,1.085066318511962891e+00,1.085006237030029297e+00,1.084946155548095703e+00,1.084886193275451660e+00,1.084826111793518066e+00,1.084766030311584473e+00,1.084705948829650879e+00,1.084645986557006836e+00,1.084586024284362793e+00,1.084526062011718750e+00,1.084465980529785156e+00,1.084406018257141113e+00,1.084346055984497070e+00,1.084286093711853027e+00,1.084226131439208984e+00,1.084166169166564941e+00,1.084106206893920898e+00,1.084046244621276855e+00,1.083986282348632812e+00,1.083926439285278320e+00,1.083866477012634277e+00,1.083806633949279785e+00,1.083746671676635742e+00,1.083686709403991699e+00,1.083626866340637207e+00,1.083567023277282715e+00,1.083507061004638672e+00,1.083447217941284180e+00,1.083387255668640137e+00,1.083327531814575195e+00,1.083267569541931152e+00,1.083207726478576660e+00,1.083147883415222168e+00,1.083088040351867676e+00,1.083028197288513184e+00,1.082968354225158691e+00,1.082908511161804199e+00,1.082848787307739258e+00,1.082788944244384766e+00,1.082729101181030273e+00,1.082669377326965332e+00,1.082609534263610840e+00,1.082549810409545898e+00,1.082489967346191406e+00
1.021116852760314941e+00,1.021063685417175293e+00,1.021010518074035645e+00,1.020957350730895996e+00,1.020904183387756348e+00,1.020851016044616699e+00,1.020797967910766602e+00,1.020744800567626953e+00,1.020691633224487305e+00,1.020638465881347656e+00,1.020585298538208008e+00,1.020532250404357910e+00,1.020479083061218262e+00,1.020425915718078613e+00,1.020372867584228516e+00,1.020319819450378418e+00,1.020266652107238770e+00,1.020213603973388672e+00,1.020160436630249023e+00,1.020107388496398926e+00,1.020054340362548828e+00,1.020001292228698730e+00,1.019948124885559082e+00,1.019895195960998535e+00,1.019842028617858887e+00,1.019788980484008789e+00,1.019735932350158691e+00,1.019682884216308594e+00,1.019629955291748047e+00,1.019576907157897949e+00,1.019523859024047852e+00,1.019470810890197754e+00,1.019417881965637207e+00,1.019364833831787109e+00,1.019311785697937012e+00,1.019258856773376465e+00,1.019205927848815918e+00,1.019152879714965820e+00,1.019099831581115723e+00,1.019046902656555176e+00,1.018993973731994629e+00,1.018941044807434082e+00,1.018887996673583984e+00,1.018835067749023438e+00,1.018782138824462891e+00,1.018729209899902344e+00,1.018676280975341797e+00,1.018623352050781250e+00,1.018570423126220703e+00,1.018517494201660156e+00,1.018464565277099609e+00,1.018411636352539062e+00,1.018358826637268066e+00,1.018305897712707520e+00,1.018252968788146973e+00,1.018200159072875977e+00,1.018147230148315430e+00,1.018094420433044434e+00,1.018041491508483887e+00,1.017988681793212891e+00,1.017935752868652344e+00,1.017882943153381348e+00,1.017830133438110352e+00,1.017777204513549805e+00,1.017724394798278809e+00,1.017671585083007812e+00,1.017618775367736816e+00,1.017565965652465820e+00,1.017513155937194824e+00,1.017460346221923828e+00,1.017407536506652832e+00,1.017354726791381836e+00,1.017301917076110840e+00,1.017249107360839844e+00,1.017196416854858398e+00,1.017143607139587402e+00,1.017090797424316406e+00,1.017038106918334961e+00,1.016985297203063965e+00,1.016932606697082520e+00
9.625815153121948242e-01,9.625342488288879395e-01,9.624869823455810547e-01,9.624397158622741699e-01,9.623924493789672852e-01,9.623451828956604004e-01,9.622979164123535156e-01,9.622507691383361816e-01,9.622035622596740723e-01,9.621563553810119629e-01,9.621090888977050781e-01,9.620618820190429688e-01,9.620146751403808594e-01,9.619674086570739746e-01,9.619202017784118652e-01,9.618729948997497559e-01,9.618259072303771973e-01,9.617787003517150879e-01,9.617315530776977539e-01,9.616843461990356445e-01,9.616371393203735352e-01,9.615899920463562012e-01,9.615427851676940918e-01,9.614956378936767578e-01,9.614486098289489746e-01,9.614014029502868652e-01,9.613542556762695312e-01,9.613071084022521973e-01,9.612599611282348633e-01,9.612128138542175293e-01,9.611656665802001953e-01,9.611185789108276367e-01,9.610714316368103027e-01,9.610244035720825195e-01,9.609773159027099609e-01,9.609301686286926270e-01,9.608830809593200684e-01,9.608359932899475098e-01,9.607888460159301758e-01,9.607417583465576172e-01,9.606946706771850586e-01,9.606477022171020508e-01,9.606006145477294922e-01,9.605535268783569336e-01,9.605064392089843750e-01,9.604594111442565918e-01,9.604123234748840332e-01,9.603652954101562500e-01,9.603182077407836914e-01,9.602711796760559082e-01,9.602242112159729004e-01,9.601771831512451172e-01,9.601301550865173340e-01,9.600831270217895508e-01,9.600360989570617676e-01,9.599890708923339844e-01,9.599420428276062012e-01,9.598950147628784180e-01,9.598480463027954102e-01,9.598011374473571777e-01,9.597541093826293945e-01,9.597071409225463867e-01,9.596601724624633789e-01,9.596131443977355957e-01,9.595661759376525879e-01,9.595192074775695801e-01,9.594722390174865723e-01,9.594253897666931152e-01,9.593784213066101074e-01,9.593314528465270996e-01,9.592844843864440918e-01,9.592375755310058594e-01,9.591906070709228516e-01,9.591436386108398438e-01,9.590967297554016113e-01,9.590498805046081543e-01,9.590029716491699219e-01,9.589560627937316895e-01,9.589091539382934570e-01,9.588622450828552246e-01
9.103932380676269531e-01,9.103509187698364258e-01,9.103086590766906738e-01,9.102663993835449219e-01,9.102241992950439453e-01,9.101819396018981934e-01,9.101396799087524414e-01,9.100974202156066895e-01,9.100551605224609375e-01,9.100129008293151855e-01,9.099706411361694336e-01,9.099283814430236816e-01,9.098861217498779297e-01,9.098439812660217285e-01,9.098017811775207520e-01,9.097595214843750000e-01,9.097173213958740234e-01,9.096750617027282715e-01,9.096328616142272949e-01,9.095906615257263184e-01,9.095484614372253418e-01,9.095063209533691406e-01,9.094641208648681641e-01,9.094219207763671875e-01,9.093797206878662109e-01,9.093375802040100098e-01,9.092953801155090332e-01,9.092531800270080566e-01,9.092109799385070801e-01,9.091688394546508789e-01,9.091267585754394531e-01,9.090845584869384766e-01,9.090424180030822754e-01,9.090002775192260742e-01,9.089580774307250977e-01,9.089159369468688965e-01,9.088737964630126953e-01,9.088316559791564941e-01,9.087896347045898438e-01,9.087474942207336426e-01,9.087053537368774414e-01,9.086632132530212402e-01,9.086210727691650391e-01,9.085789918899536133e-01,9.085368514060974121e-01,9.084947705268859863e-01,9.084526300430297852e-01,9.084106087684631348e-01,9.083685278892517090e-01,9.083264470100402832e-01,9.082843661308288574e-01,9.082422256469726562e-01,9.082001447677612305e-01,9.081580638885498047e-01,9.081159830093383789e-01,9.080740213394165039e-01,9.080319404602050781e-01,9.079899191856384277e-01,9.079478383064270020e-01,9.079057574272155762e-01,9.078637361526489258e-01,9.078216552734375000e-01,9.077796339988708496e-01,9.077375531196594238e-01,9.076956510543823242e-01,9.076535701751708984e-01,9.076115489006042480e-01,9.075695276260375977e-01,9.075275063514709473e-01,9.074854850769042969e-01,9.074434638023376465e-01,9.074014425277709961e-01,9.073595404624938965e-01,9.073175787925720215e-01,9.072755575180053711e-01,9.072335362434387207e-01,9.071915745735168457e-01,9.071495532989501953e-01,9.071075916290283203e-01,9.070656299591064453e-01
8.635728955268859863e-01,8.635349273681640625e-01,8.634968996047973633e-01,8.634588122367858887e-01,8.634207844734191895e-01,8.633827567100524902e-01,8.633447289466857910e-01,8.633067011833190918e-01,8.632686734199523926e-01,8.632306456565856934e-01,8.631927371025085449e-01,8.631547093391418457e-01,8.631166815757751465e-01,8.630787134170532227e-01,8.630406856536865234e-01,8.630027174949645996e-01,8.629646897315979004e-01,8.629267215728759766e-01,8.628888130187988281e-01,8.628507852554321289e-01,8.628128170967102051e-01,8.627748489379882812e-01,8.627368807792663574e-01,8.626989126205444336e-01,8.626609444618225098e-01,8.626229763031005859e-01,8.625850081443786621e-01,8.625470995903015137e-01,8.625091314315795898e-01,8.624712228775024414e-01,8.624332547187805176e-01,8.623952865600585938e-01,8.623573780059814453e-01,8.623194098472595215e-01,8.622815012931823730e-01,8.622436523437500000e-01,8.622056841850280762e-01,8.621677756309509277e-01,8.621298670768737793e-01,8.620919585227966309e-01,8.620539903640747070e-01,8.620160818099975586e-01,8.619781732559204102e-01,8.619402647018432617e-01,8.619024753570556641e-01,8.618645668029785156e-01,8.618266582489013672e-01,8.617887496948242188e-01,8.617509007453918457e-01,8.617129921913146973e-01,8.616750836372375488e-01,8.616372346878051758e-01,8.615994453430175781e-01,8.615615367889404297e-01,8.615236878395080566e-01,8.614858388900756836e-01,8.614479899406433105e-01,8.614100813865661621e-01,8.613722324371337891e-01,8.613343834877014160e-01,8.612965345382690430e-01,8.612588047981262207e-01,8.612209558486938477e-01,8.611831068992614746e-01,8.611452579498291016e-01,8.611074090003967285e-01,8.610695600509643555e-01,8.610317707061767578e-01,8.609939217567443848e-01,8.609561920166015625e-01,8.609184026718139648e-01,8.608805537223815918e-01,8.608427643775939941e-01,8.608049750328063965e-01,8.607671260833740234e-01,8.607293367385864258e-01,8.606915473937988281e-01,8.606537580490112305e-01,8.606160283088684082e-01,8.605782389640808105e-01
8.213328719139099121e-01,8.212984800338745117e-01,8.212640881538391113e-01,8.212296366691589355e-01,8.211952447891235352e-01,8.211608529090881348e-01,8.211265206336975098e-01,8.210921287536621094e-01,8.210577368736267090e-01,8.210233449935913086e-01,8.209889531135559082e-01,8.209545612335205078e-01,8.209201693534851074e-01,8.208857774734497070e-01,8.208513855934143066e-01,8.208171129226684570e-01,8.207827210426330566e-01,8.207483887672424316e-01,8.207139968872070312e-01,8.206796050071716309e-01,8.206452727317810059e-01,8.206109404563903809e-01,8.205765485763549805e-01,8.205422759056091309e-01,8.205079436302185059e-01,8.204736113548278809e-01,8.204392194747924805e-01,8.204048871994018555e-01,8.203705549240112305e-01,8.203362226486206055e-01,8.203018903732299805e-01,8.202675580978393555e-01,8.202333450317382812e-01,8.201990127563476562e-01,8.201646804809570312e-01,8.201303482055664062e-01,8.200960159301757812e-01,8.200617432594299316e-01,8.200274109840393066e-01,8.199930787086486816e-01,8.199588656425476074e-01,8.199245929718017578e-01,8.198902606964111328e-01,8.198559880256652832e-01,8.198217153549194336e-01,8.197873830795288086e-01,8.197531104087829590e-01,8.197188377380371094e-01,8.196845650672912598e-01,8.196503520011901855e-01,8.196160793304443359e-01,8.195818066596984863e-01,8.195475339889526367e-01,8.195132613182067871e-01,8.194789886474609375e-01,8.194447159767150879e-01,8.194104433059692383e-01,8.193762898445129395e-01,8.193420171737670898e-01,8.193078041076660156e-01,8.192735314369201660e-01,8.192393183708190918e-01,8.192050457000732422e-01,8.191708326339721680e-01,8.191365599632263184e-01,8.191023468971252441e-01,8.190681934356689453e-01,8.190339803695678711e-01,8.189997673034667969e-01,8.189654946327209473e-01,8.189312815666198730e-01,8.188970685005187988e-01,8.188628554344177246e-01,8.188286423683166504e-01,8.187945485115051270e-01,8.187603354454040527e-01,8.187261223793029785e-01,8.186919093132019043e-01,8.186577558517456055e-01,8.186235427856445312e-01
7.830323576927185059e-01,7.830010652542114258e-01,7.829697728157043457e-01,7.829385399818420410e-01,7.829073071479797363e-01,7.828760147094726562e-01,7.828447222709655762e-01,7.828134894371032715e-01,7.827821969985961914e-01,7.827509641647338867e-01,7.827196717262268066e-01,7.826884388923645020e-01,7.826572656631469727e-01,7.826259732246398926e-01,7.825947403907775879e-01,7.825635075569152832e-01,7.825322747230529785e-01,7.825010418891906738e-01,7.824697494506835938e-01,7.824385166168212891e-01,7.824074029922485352e-01,7.823761701583862305e-01,7.823449373245239258e-01,7.823137044906616211e-01,7.822824716567993164e-01,7.822512388229370117e-01,7.822200059890747070e-01,7.821887731552124023e-01,7.821575999259948730e-01,7.821264266967773438e-01,7.820952534675598145e-01,7.820640206336975098e-01,7.820328474044799805e-01,7.820016145706176758e-01,7.819704413414001465e-01,7.819392085075378418e-01,7.819080352783203125e-01,7.818769216537475586e-01,7.818456888198852539e-01,7.818145155906677246e-01,7.817833423614501953e-01,7.817521691322326660e-01,7.817209959030151367e-01,7.816898226737976074e-01,7.816586494445800781e-01,7.816274762153625488e-01,7.815963625907897949e-01,7.815651893615722656e-01,7.815340161323547363e-01,7.815028429031372070e-01,7.814717292785644531e-01,7.814405560493469238e-01,7.814093828201293945e-01,7.813782095909118652e-01,7.813471555709838867e-01,7.813159823417663574e-01,7.812848687171936035e-01,7.812536954879760742e-01,7.812225818634033203e-01,7.811914682388305664e-01,7.811602950096130371e-01,7.811291813850402832e-01,7.810980677604675293e-01,7.810670137405395508e-01,7.810358405113220215e-01,7.810047268867492676e-01,7.809736132621765137e-01,7.809424996376037598e-01,7.809113860130310059e-01,7.808802723884582520e-01,7.808491587638854980e-01,7.808181047439575195e-01,7.807869911193847656e-01,7.807559370994567871e-01,7.807248234748840332e-01,7.806937098503112793e-01,7.806625962257385254e-01,7.806315422058105469e-01,7.806004285812377930e-01,7.805693745613098145e-01
7.481447458267211914e-01,7.481161952018737793e-01,7.480876445770263672e-01,7.480590939521789551e-01,7.480305433273315430e-01,7.480019927024841309e-01,7.479734420776367188e-01,7.479448914527893066e-01,7.479163408279418945e-01,7.478879094123840332e-01,7.478593587875366211e-01,7.478308081626892090e-01,7.478022575378417969e-01,7.477737665176391602e-01,7.477452158927917480e-01,7.477166652679443359e-01,7.476881742477416992e-01,7.476596832275390625e-01,7.476311922073364258e-01,7.476027011871337891e-01,7.475741505622863770e-01,7.475456595420837402e-01,7.475171089172363281e-01,7.474886178970336914e-01,7.474601268768310547e-01,7.474316954612731934e-01,7.474032044410705566e-01,7.473746538162231445e-01,7.473461627960205078e-01,7.473176717758178711e-01,7.472891807556152344e-01,7.472606897354125977e-01,7.472321987152099609e-01,7.472037076950073242e-01,7.471752762794494629e-01,7.471468448638916016e-01,7.471183538436889648e-01,7.470898628234863281e-01,7.470613718032836914e-01,7.470328807830810547e-01,7.470044493675231934e-01,7.469759583473205566e-01,7.469474673271179199e-01,7.469190955162048340e-01,7.468906641006469727e-01,7.468621730804443359e-01,7.468337416648864746e-01,7.468052506446838379e-01,7.467768192291259766e-01,7.467483282089233398e-01,7.467198967933654785e-01,7.466915249824523926e-01,7.466630935668945312e-01,7.466346025466918945e-01,7.466061711311340332e-01,7.465777397155761719e-01,7.465493083000183105e-01,7.465208768844604492e-01,7.464924454689025879e-01,7.464640140533447266e-01,7.464356422424316406e-01,7.464072108268737793e-01,7.463787794113159180e-01,7.463503479957580566e-01,7.463219761848449707e-01,7.462935447692871094e-01,7.462651133537292480e-01,7.462366819381713867e-01,7.462083697319030762e-01,7.461799383163452148e-01,7.461515665054321289e-01,7.461231350898742676e-01,7.460947632789611816e-01,7.460663318634033203e-01,7.460379600524902344e-01,7.460095286369323730e-01,7.459811568260192871e-01,7.459528446197509766e-01,7.459244132041931152e-01,7.458960413932800293e-01
7.162333130836486816e-01,7.162070870399475098e-01,7.161809206008911133e-01,7.161547541618347168e-01,7.161285877227783203e-01,7.161024808883666992e-01,7.160763144493103027e-01,7.160502076148986816e-01,7.160240411758422852e-01,7.159978747367858887e-01,7.159717082977294922e-01,7.159455418586730957e-01,7.159193754196166992e-01,7.158932685852050781e-01,7.158671617507934570e-01,7.158409953117370605e-01,7.158148884773254395e-01,7.157887220382690430e-01,7.157626152038574219e-01,7.157364487648010254e-01,7.157103419303894043e-01,7.156841754913330078e-01,7.156581282615661621e-01,7.156319618225097656e-01,7.156058549880981445e-01,7.155797481536865234e-01,7.155535817146301270e-01,7.155274748802185059e-01,7.155013680458068848e-01,7.154752612113952637e-01,7.154491543769836426e-01,7.154230475425720215e-01,7.153969407081604004e-01,7.153708338737487793e-01,7.153447270393371582e-01,7.153186202049255371e-01,7.152925133705139160e-01,7.152664065361022949e-01,7.152402997016906738e-01,7.152142524719238281e-01,7.151882052421569824e-01,7.151620984077453613e-01,7.151359915733337402e-01,7.151098847389221191e-01,7.150838375091552734e-01,7.150577306747436523e-01,7.150316238403320312e-01,7.150055766105651855e-01,7.149795293807983398e-01,7.149534225463867188e-01,7.149273753166198730e-01,7.149012684822082520e-01,7.148752212524414062e-01,7.148491740226745605e-01,7.148230671882629395e-01,7.147970199584960938e-01,7.147709727287292480e-01,7.147449254989624023e-01,7.147188782691955566e-01,7.146928310394287109e-01,7.146667242050170898e-01,7.146406769752502441e-01,7.146146297454833984e-01,7.145885825157165527e-01,7.145625352859497070e-01,7.145365476608276367e-01,7.145105004310607910e-01,7.144844532012939453e-01,7.144584059715270996e-01,7.144323587417602539e-01,7.144063115119934082e-01,7.143802642822265625e-01,7.143542170524597168e-01,7.143282890319824219e-01,7.143022418022155762e-01,7.142761945724487305e-01,7.142501473426818848e-01,7.142241597175598145e-01,7.141981124877929688e-01,7.141720652580261230e-01
6.869328022003173828e-01,6.869087219238281250e-01,6.868847012519836426e-01,6.868606209754943848e-01,6.868365406990051270e-01,6.868124604225158691e-01,6.867884397506713867e-01,6.867643594741821289e-01,6.867402791976928711e-01,6.867161989212036133e-01,6.866921782493591309e-01,6.866681575775146484e-01,6.866440773010253906e-01,6.866200566291809082e-01,6.865959763526916504e-01,6.865719556808471680e-01,6.865478754043579102e-01,6.865238547325134277e-01,6.864997744560241699e-01,6.864758133888244629e-01,6.864517927169799805e-01,6.864277124404907227e-01,6.864036917686462402e-01,6.863796710968017578e-01,6.863555908203125000e-01,6.863315701484680176e-01,6.863075494766235352e-01,6.862835288047790527e-01,6.862595677375793457e-01,6.862354874610900879e-01,6.862114667892456055e-01,6.861874461174011230e-01,6.861634254455566406e-01,6.861394047737121582e-01,6.861153841018676758e-01,6.860913634300231934e-01,6.860674023628234863e-01,6.860433816909790039e-01,6.860194206237792969e-01,6.859953999519348145e-01,6.859713792800903320e-01,6.859473586082458496e-01,6.859233379364013672e-01,6.858993768692016602e-01,6.858753561973571777e-01,6.858513951301574707e-01,6.858274340629577637e-01,6.858034133911132812e-01,6.857793927192687988e-01,6.857554316520690918e-01,6.857314109802246094e-01,6.857074499130249023e-01,6.856834292411804199e-01,6.856595277786254883e-01,6.856355071067810059e-01,6.856115460395812988e-01,6.855875849723815918e-01,6.855635643005371094e-01,6.855396032333374023e-01,6.855156421661376953e-01,6.854916214942932129e-01,6.854676604270935059e-01,6.854437589645385742e-01,6.854197978973388672e-01,6.853958368301391602e-01,6.853718757629394531e-01,6.853479146957397461e-01,6.853238940238952637e-01,6.852999329566955566e-01,6.852759718894958496e-01,6.852520704269409180e-01,6.852281689643859863e-01,6.852042078971862793e-01,6.851802468299865723e-01,6.851562857627868652e-01,6.851323246955871582e-01,6.851083636283874512e-01,6.850844025611877441e-01,6.850605010986328125e-01,6.850365996360778809e-01
6.599354147911071777e-01,6.599131822586059570e-01,6.598910093307495117e-01,6.598687767982482910e-01,6.598465442657470703e-01,6.598243117332458496e-01,6.598021388053894043e-01,6.597799658775329590e-01,6.597577333450317383e-01,6.597355604171752930e-01,6.597133278846740723e-01,6.596911549568176270e-01,6.596689224243164062e-01,6.596467494964599609e-01,6.596245169639587402e-01,6.596023440361022949e-01,6.595801711082458496e-01,6.595579981803894043e-01,6.595358252525329590e-01,6.595135927200317383e-01,6.594914197921752930e-01,6.594692468643188477e-01,6.594470739364624023e-01,6.594248414039611816e-01,6.594027280807495117e-01,6.593805551528930664e-01,6.593583822250366211e-01,6.593361496925354004e-01,6.593139767646789551e-01,6.592918038368225098e-01,6.592696309089660645e-01,6.592474579811096191e-01,6.592252850532531738e-01,6.592031717300415039e-01,6.591809988021850586e-01,6.591588258743286133e-01,6.591366529464721680e-01,6.591144800186157227e-01,6.590923666954040527e-01,6.590701937675476074e-01,6.590480208396911621e-01,6.590259075164794922e-01,6.590037345886230469e-01,6.589815616607666016e-01,6.589594483375549316e-01,6.589372754096984863e-01,6.589151024818420410e-01,6.588929891586303711e-01,6.588708162307739258e-01,6.588487029075622559e-01,6.588265895843505859e-01,6.588044166564941406e-01,6.587823033332824707e-01,6.587601304054260254e-01,6.587380170822143555e-01,6.587158441543579102e-01,6.586937308311462402e-01,6.586716175079345703e-01,6.586494445800781250e-01,6.586273908615112305e-01,6.586052179336547852e-01,6.585831046104431152e-01,6.585609912872314453e-01,6.585388779640197754e-01,6.585167050361633301e-01,6.584945917129516602e-01,6.584724783897399902e-01,6.584504246711730957e-01,6.584283113479614258e-01,6.584061980247497559e-01,6.583840847015380859e-01,6.583619713783264160e-01,6.583398580551147461e-01,6.583177447319030762e-01,6.582956314086914062e-01,6.582735180854797363e-01,6.582514643669128418e-01,6.582293510437011719e-01,6.582072377204895020e-01,6.581851243972778320e-01
6.349798440933227539e-01,6.349592804908752441e-01,6.349386572837829590e-01,6.349180936813354492e-01,6.348975896835327148e-01,6.348770260810852051e-01,6.348564624786376953e-01,6.348358988761901855e-01,6.348153352737426758e-01,6.347947716712951660e-01,6.347742080688476562e-01,6.347536444664001465e-01,6.347330808639526367e-01,6.347125768661499023e-01,6.346920728683471680e-01,6.346715092658996582e-01,6.346509456634521484e-01,6.346303820610046387e-01,6.346098184585571289e-01,6.345893144607543945e-01,6.345687508583068848e-01,6.345482468605041504e-01,6.345276832580566406e-01,6.345071792602539062e-01,6.344866156578063965e-01,6.344661116600036621e-01,6.344455480575561523e-01,6.344249844551086426e-01,6.344044804573059082e-01,6.343839168548583984e-01,6.343634724617004395e-01,6.343429088592529297e-01,6.343224048614501953e-01,6.343018412590026855e-01,6.342813372611999512e-01,6.342608332633972168e-01,6.342402696609497070e-01,6.342197656631469727e-01,6.341993212699890137e-01,6.341787576675415039e-01,6.341582536697387695e-01,6.341377496719360352e-01,6.341172456741333008e-01,6.340966820716857910e-01,6.340761780738830566e-01,6.340556740760803223e-01,6.340351700782775879e-01,6.340147256851196289e-01,6.339942216873168945e-01,6.339737176895141602e-01,6.339532136917114258e-01,6.339327096939086914e-01,6.339122056961059570e-01,6.338917016983032227e-01,6.338711977005004883e-01,6.338507533073425293e-01,6.338302493095397949e-01,6.338097453117370605e-01,6.337892413139343262e-01,6.337687373161315918e-01,6.337482333183288574e-01,6.337277293205261230e-01,6.337072849273681641e-01,6.336867809295654297e-01,6.336663365364074707e-01,6.336458325386047363e-01,6.336253285408020020e-01,6.336048841476440430e-01,6.335843801498413086e-01,6.335639357566833496e-01,6.335434317588806152e-01,6.335229277610778809e-01,6.335025429725646973e-01,6.334820389747619629e-01,6.334615945816040039e-01,6.334410905838012695e-01,6.334206461906433105e-01,6.334001421928405762e-01,6.333796977996826172e-01,6.333592534065246582e-01
6.118428707122802734e-01,6.118238568305969238e-01,6.118047237396240234e-01,6.117856502532958984e-01,6.117665171623229980e-01,6.117474436759948730e-01,6.117283701896667480e-01,6.117092370986938477e-01,6.116901636123657227e-01,6.116710901260375977e-01,6.116520166397094727e-01,6.116329431533813477e-01,6.116138696670532227e-01,6.115947961807250977e-01,6.115756630897521973e-01,6.115565896034240723e-01,6.115375161170959473e-01,6.115184426307678223e-01,6.114994287490844727e-01,6.114803552627563477e-01,6.114612817764282227e-01,6.114421486854553223e-01,6.114230751991271973e-01,6.114040017127990723e-01,6.113849878311157227e-01,6.113659143447875977e-01,6.113468408584594727e-01,6.113277673721313477e-01,6.113087534904479980e-01,6.112896800041198730e-01,6.112706065177917480e-01,6.112515330314636230e-01,6.112324595451354980e-01,6.112133860588073730e-01,6.111943721771240234e-01,6.111753582954406738e-01,6.111562848091125488e-01,6.111372113227844238e-01,6.111181378364562988e-01,6.110991239547729492e-01,6.110800504684448242e-01,6.110609769821166992e-01,6.110419631004333496e-01,6.110228896141052246e-01,6.110038757324218750e-01,6.109848618507385254e-01,6.109657883644104004e-01,6.109467744827270508e-01,6.109277009963989258e-01,6.109086871147155762e-01,6.108896136283874512e-01,6.108705997467041016e-01,6.108515858650207520e-01,6.108325719833374023e-01,6.108134984970092773e-01,6.107944846153259277e-01,6.107754707336425781e-01,6.107563972473144531e-01,6.107373833656311035e-01,6.107183694839477539e-01,6.106993556022644043e-01,6.106803417205810547e-01,6.106613278388977051e-01,6.106423139572143555e-01,6.106232404708862305e-01,6.106042265892028809e-01,6.105852127075195312e-01,6.105661988258361816e-01,6.105471849441528320e-01,6.105282306671142578e-01,6.105092167854309082e-01,6.104901432991027832e-01,6.104711294174194336e-01,6.104521155357360840e-01,6.104331016540527344e-01,6.104140877723693848e-01,6.103951334953308105e-01,6.103761196136474609e-01,6.103571057319641113e-01,6.103381514549255371e-01
