5.000000000000000000e+00,5.000000000000000000e+00,5.000000000000000000e+00,5.000000000000000000e+00,5.000000000000000000e+00,5.000000000000000000e+00,5.000000000000000000e+00,5.000000000000000000e+00,5.000000000000000000e+00,5.000000000000000000e+00,5.000000000000000000e+00,5.000000000000000000e+00,5.000000000000000000e+00,5.000000000000000000e+00,5.000000000000000000e+00,5.000000000000000000e+00,5.000000000000000000e+00,5.000000000000000000e+00,5.000000000000000000e+00,5.000000000000000000e+00,5.000000000000000000e+00,5.000000000000000000e+00,5.000000000000000000e+00,5.000000000000000000e+00,5.000000000000000000e+00,5.000000000000000000e+00,5.000000000000000000e+00,3.078401088714599609e+00,3.039956331253051758e+00,3.061338663101196289e+00,5.000000000000000000e+00,5.000000000000000000e+00,5.000000000000000000e+00,5.000000000000000000e+00,5.000000000000000000e+00,5.000000000000000000e+00,5.000000000000000000e+00,5.000000000000000000e+00,5.000000000000000000e+00,4.851612091064453125e+00,4.661520481109619141e+00,4.485763549804687500e+00,4.322778701782226562e+00,4.171222209930419922e+00,4.029932975769042969e+00,3.897901773452758789e+00,3.774247169494628906e+00,3.658197164535522461e+00,3.549070596694946289e+00,3.446266174316406250e+00,3.349249601364135742e+00,3.257546186447143555e+00,3.170730352401733398e+00,3.088421821594238281e+00,3.010278701782226562e+00,2.935992479324340820e+00,2.865283966064453125e+00,2.797901391983032227e+00,2.733614921569824219e+00,2.672216653823852539e+00,2.613515615463256836e+00,2.557338237762451172e+00,2.503525018692016602e+00,2.451929807662963867e+00,2.402418375015258789e+00,2.354867219924926758e+00,2.309161663055419922e+00,2.265196561813354492e+00,2.222874164581298828e+00,2.182104349136352539e+00,2.142803192138671875e+00,2.104892253875732422e+00,2.068299770355224609e+00,2.032957792282104492e+00,1.998803496360778809e+00,1.965777754783630371e+00,1.933825850486755371e+00,1.902895689010620117e+00,1.872939467430114746e+00,1.843911767005920410e+00
5.000000000000000000e+00,5.000000000000000000e+00,5.000000000000000000e+00,5.000000000000000000e+00,5.000000000000000000e+00,5.000000000000000000e+00,5.000000000000000000e+00,5.000000000000000000e+00,5.000000000000000000e+00,5.000000000000000000e+00,5.000000000000000000e+00,5.000000000000000000e+00,5.000000000000000000e+00,5.000000000000000000e+00,5.000000000000000000e+00,5.000000000000000000e+00,5.000000000000000000e+00,5.000000000000000000e+00,5.000000000000000000e+00,5.000000000000000000e+00,5.000000000000000000e+00,5.000000000000000000e+00,5.000000000000000000e+00,5.000000000000000000e+00,5.000000000000000000e+00,5.000000000000000000e+00,5.000000000000000000e+00,3.101028442382812500e+00,3.051703929901123047e+00,3.067516088485717773e+00,5.000000000000000000e+00,5.000000000000000000e+00,5.000000000000000000e+00,5.000000000000000000e+00,5.000000000000000000e+00,5.000000000000000000e+00,5.000000000000000000e+00,5.000000000000000000e+00,5.000000000000000000e+00,4.851751327514648438e+00,4.661649227142333984e+00,4.485882759094238281e+00,4.322888851165771484e+00,4.171324729919433594e+00,4.030028820037841797e+00,3.897991418838500977e+00,3.774331331253051758e+00,3.658276081085205078e+00,3.549144983291625977e+00,3.446336507797241211e+00,3.349316358566284180e+00,3.257609128952026367e+00,3.170789957046508789e+00,3.088478565216064453e+00,3.010332345962524414e+00,2.936043262481689453e+00,2.865332365036010742e+00,2.797947406768798828e+00,2.733659029006958008e+00,2.672258615493774414e+00,2.613556146621704102e+00,2.557376861572265625e+00,2.503562211990356445e+00,2.451965570449829102e+00,2.402452707290649414e+00,2.354899883270263672e+00,2.309193134307861328e+00,2.265226840972900391e+00,2.222903251647949219e+00,2.182132482528686523e+00,2.142830133438110352e+00,2.104918479919433594e+00,2.068325042724609375e+00,2.032982349395751953e+00,1.998827338218688965e+00,1.965800762176513672e+00,1.933847904205322266e+00,1.902917027473449707e+00,1.872960090637207031e+00,1.843931794166564941e+00
5.000000000000000000e+00,5.000000000000000000e+00,5.000000000000000000e+00,5.000000000000000000e+00,5.000000000000000000e+00,5.000000000000000000e+00,5.000000000000000000e+00,5.000000000000000000e+00,5.000000000000000000e+00,5.000000000000000000e+00,5.000000000000000000e+00,5.000000000000000000e+00,5.000000000000000000e+00,5.000000000000000000e+00,5.000000000000000000e+00,5.000000000000000000e+00,5.000000000000000000e+00,5.000000000000000000e+00,5.000000000000000000e+00,5.000000000000000000e+00,5.000000000000000000e+00,5.000000000000000000e+00,5.000000000000000000e+00,5.000000000000000000e+00,5.000000000000000000e+00,5.000000000000000000e+00,5.000000000000000000e+00,5.000000000000000000e+00,3.053964853286743164e+00,3.078416824340820312e+00,5.000000000000000000e+00,5.000000000000000000e+00,5.000000000000000000e+00,5.000000000000000000e+00,5.000000000000000000e+00,5.000000000000000000e+00,5.000000000000000000e+00,5.000000000000000000e+00,5.000000000000000000e+00,4.851890563964843750e+00,4.661777973175048828e+00,4.486001968383789062e+00,4.322999477386474609e+00,4.171428203582763672e+00,4.030125141143798828e+00,3.898081541061401367e+00,3.774415731430053711e+00,3.658355474472045898e+00,3.549219608306884766e+00,3.446406602859497070e+00,3.349382400512695312e+00,3.257671833038330078e+00,3.170849323272705078e+00,3.088534832000732422e+00,3.010386228561401367e+00,2.936094522476196289e+00,2.865381002426147461e+00,2.797993898391723633e+00,2.733703374862670898e+00,2.672301054000854492e+00,2.613596439361572266e+00,2.557415485382080078e+00,2.503599166870117188e+00,2.452001094818115234e+00,2.402486801147460938e+00,2.354932785034179688e+00,2.309224605560302734e+00,2.265257120132446289e+00,2.222932577133178711e+00,2.182160377502441406e+00,2.142857313156127930e+00,2.104944705963134766e+00,2.068350315093994141e+00,2.033006668090820312e+00,1.998850822448730469e+00,1.965823650360107422e+00,1.933869957923889160e+00,1.902938485145568848e+00,1.872980833053588867e+00,1.843951940536499023e+00
5.000000000000000000e+00,5.000000000000000000e+00,5.000000000000000000e+00,5.000000000000000000e+00,5.000000000000000000e+00,5.000000000000000000e+00,5.000000000000000000e+00,5.000000000000000000e+00,5.000000000000000000e+00,5.000000000000000000e+00,5.000000000000000000e+00,5.000000000000000000e+00,5.000000000000000000e+00,5.000000000000000000e+00,5.000000000000000000e+00,5.000000000000000000e+00,5.000000000000000000e+00,5.000000000000000000e+00,5.000000000000000000e+00,5.000000000000000000e+00,5.000000000000000000e+00,5.000000000000000000e+00,5.000000000000000000e+00,5.000000000000000000e+00,5.000000000000000000e+00,5.000000000000000000e+00,5.000000000000000000e+00,5.000000000000000000e+00,3.091981649398803711e+00,3.140378475189208984e+00,5.000000000000000000e+00,5.000000000000000000e+00,5.000000000000000000e+00,5.000000000000000000e+00,5.000000000000000000e+00,5.000000000000000000e+00,5.000000000000000000e+00,5.000000000000000000e+00,5.000000000000000000e+00,4.852029800415039062e+00,4.661906242370605469e+00,4.486120700836181641e+00,4.323110103607177734e+00,4.171531200408935547e+00,4.030220985412597656e+00,3.898171186447143555e+00,3.774499893188476562e+00,3.658434391021728516e+00,3.549294471740722656e+00,3.446476936340332031e+00,3.349448919296264648e+00,3.257734775543212891e+00,3.170908927917480469e+00,3.088591337203979492e+00,3.010439634323120117e+00,2.936145305633544922e+00,2.865429639816284180e+00,2.798040151596069336e+00,2.733747482299804688e+00,2.672343492507934570e+00,2.613636970520019531e+00,2.557454347610473633e+00,2.503636360168457031e+00,2.452036619186401367e+00,2.402520895004272461e+00,2.354965686798095703e+00,2.309256076812744141e+00,2.265287399291992188e+00,2.222961664199829102e+00,2.182188749313354492e+00,2.142884492874145508e+00,2.104970932006835938e+00,2.068375587463378906e+00,2.033031225204467773e+00,1.998874425888061523e+00,1.965846419334411621e+00,1.933892011642456055e+00,1.902959823608398438e+00,1.873001575469970703e+00,1.843971967697143555e+00
5.000000000000000000e+00,5.000000000000000000e+00,5.000000000000000000e+00,5.000000000000000000e+00,5.000000000000000000e+00,5.000000000000000000e+00,5.000000000000000000e+00,5.000000000000000000e+00,5.000000000000000000e+00,5.000000000000000000e+00,5.000000000000000000e+00,5.000000000000000000e+00,5.000000000000000000e+00,5.000000000000000000e+00,5.000000000000000000e+00,5.000000000000000000e+00,5.000000000000000000e+00,5.000000000000000000e+00,5.000000000000000000e+00,5.000000000000000000e+00,5.000000000000000000e+00,5.000000000000000000e+00,5.000000000000000000e+00,5.000000000000000000e+00,5.000000000000000000e+00,5.000000000000000000e+00,3.092858552932739258e+00,3.061609029769897461e+00,3.135743141174316406e+00,3.075507640838623047e+00,3.120533943176269531e+00,3.155966281890869141e+00,5.000000000000000000e+00,5.000000000000000000e+00,5.000000000000000000e+00,5.000000000000000000e+00,5.000000000000000000e+00,5.000000000000000000e+00,5.000000000000000000e+00,4.852169036865234375e+00,4.662034988403320312e+00,4.486239910125732422e+00,4.323221206665039062e+00,4.171634197235107422e+00,4.030317306518554688e+00,3.898261308670043945e+00,3.774584293365478516e+00,3.658513784408569336e+00,3.549368619918823242e+00,3.446547031402587891e+00,3.349515199661254883e+00,3.257797241210937500e+00,3.170968294143676758e+00,3.088647842407226562e+00,3.010493278503417969e+00,2.936196327209472656e+00,2.865478277206420898e+00,2.798086404800415039e+00,2.733791828155517578e+00,2.672385454177856445e+00,2.613677263259887695e+00,2.557492971420288086e+00,2.503673315048217773e+00,2.452072381973266602e+00,2.402555227279663086e+00,2.354998588562011719e+00,2.309287786483764648e+00,2.265317678451538086e+00,2.222990989685058594e+00,2.182216882705688477e+00,2.142911672592163086e+00,2.104997158050537109e+00,2.068400859832763672e+00,2.033055782318115234e+00,1.998898267745971680e+00,1.965869426727294922e+00,1.933914303779602051e+00,1.902981400489807129e+00,1.873022437095642090e+00,1.843992233276367188e+00
5.000000000000000000e+00,5.000000000000000000e+00,5.000000000000000000e+00,5.000000000000000000e+00,5.000000000000000000e+00,5.000000000000000000e+00,5.000000000000000000e+00,5.000000000000000000e+00,5.000000000000000000e+00,5.000000000000000000e+00,5.000000000000000000e+00,5.000000000000000000e+00,5.000000000000000000e+00,5.000000000000000000e+00,5.000000000000000000e+00,5.000000000000000000e+00,5.000000000000000000e+00,5.000000000000000000e+00,5.000000000000000000e+00,5.000000000000000000e+00,5.000000000000000000e+00,5.000000000000000000e+00,5.000000000000000000e+00,5.000000000000000000e+00,3.060783386230468750e+00,3.068027257919311523e+00,3.053233146667480469e+00,3.053657531738281250e+00,3.055799007415771484e+00,3.068682193756103516e+00,3.085899114608764648e+00,3.112200975418090820e+00,3.144460916519165039e+00,5.000000000000000000e+00,5.000000000000000000e+00,5.000000000000000000e+00,5.000000000000000000e+00,5.000000000000000000e+00,5.000000000000000000e+00,4.852308273315429688e+00,4.662163257598876953e+00,4.486359119415283203e+00,4.323331356048583984e+00,4.171737194061279297e+00,4.030413150787353516e+00,3.898350954055786133e+00,3.774668455123901367e+00,3.658593177795410156e+00,3.549443483352661133e+00,3.446617603302001953e+00,3.349581718444824219e+00,3.257860183715820312e+00,3.171027898788452148e+00,3.088704109191894531e+00,3.010546922683715820e+00,2.936247348785400391e+00,2.865526676177978516e+00,2.798132658004760742e+00,2.733836174011230469e+00,2.672427892684936523e+00,2.613717794418334961e+00,2.557531833648681641e+00,2.503710508346557617e+00,2.452107906341552734e+00,2.402589321136474609e+00,2.355031251907348633e+00,2.309319019317626953e+00,2.265347957611083984e+00,2.223020076751708984e+00,2.182245016098022461e+00,2.142938852310180664e+00,2.105023384094238281e+00,2.068426370620727539e+00,2.033080101013183594e+00,1.998921871185302734e+00,1.965892195701599121e+00,1.933936357498168945e+00,1.903002738952636719e+00,1.873043179512023926e+00,1.844012260437011719e+00
5.000000000000000000e+00,5.000000000000000000e+00,5.000000000000000000e+00,5.000000000000000000e+00,5.000000000000000000e+00,5.000000000000000000e+00,5.000000000000000000e+00,5.000000000000000000e+00,5.000000000000000000e+00,5.000000000000000000e+00,5.000000000000000000e+00,5.000000000000000000e+00,5.000000000000000000e+00,5.000000000000000000e+00,5.000000000000000000e+00,5.000000000000000000e+00,5.000000000000000000e+00,5.000000000000000000e+00,5.000000000000000000e+00,5.000000000000000000e+00,5.000000000000000000e+00,5.000000000000000000e+00,5.000000000000000000e+00,5.000000000000000000e+00,3.075645923614501953e+00,3.076778888702392578e+00,3.032802343368530273e+00,3.018784999847412109e+00,3.024439811706542969e+00,3.038851737976074219e+00,3.060669898986816406e+00,3.115187168121337891e+00,3.166194677352905273e+00,3.198860406875610352e+00,5.000000000000000000e+00,5.000000000000000000e+00,5.000000000000000000e+00,5.000000000000000000e+00,5.000000000000000000e+00,4.852447509765625000e+00,4.662292003631591797e+00,4.486478328704833984e+00,4.323441982269287109e+00,4.171839714050292969e+00,4.030509471893310547e+00,3.898441076278686523e+00,3.774752855300903320e+00,3.658672094345092773e+00,3.549517631530761719e+00,3.446687698364257812e+00,3.349647998809814453e+00,3.257922887802124023e+00,3.171087503433227539e+00,3.088760852813720703e+00,3.010600566864013672e+00,2.936298370361328125e+00,2.865575313568115234e+00,2.798179149627685547e+00,2.733880281448364258e+00,2.672470092773437500e+00,2.613758087158203125e+00,2.557570219039916992e+00,2.503747463226318359e+00,2.452143430709838867e+00,2.402623414993286133e+00,2.355063915252685547e+00,2.309350728988647461e+00,2.265378475189208984e+00,2.223049402236938477e+00,2.182273149490356445e+00,2.142965793609619141e+00,2.105049610137939453e+00,2.068451642990112305e+00,2.033104658126831055e+00,1.998945355415344238e+00,1.965915083885192871e+00,1.933958411216735840e+00,1.903024196624755859e+00,1.873063802719116211e+00,1.844032287597656250e+00
5.000000000000000000e+00,5.000000000000000000e+00,5.000000000000000000e+00,5.000000000000000000e+00,5.000000000000000000e+00,5.000000000000000000e+00,5.000000000000000000e+00,5.000000000000000000e+00,5.000000000000000000e+00,5.000000000000000000e+00,5.000000000000000000e+00,5.000000000000000000e+00,5.000000000000000000e+00,5.000000000000000000e+00,5.000000000000000000e+00,5.000000000000000000e+00,5.000000000000000000e+00,5.000000000000000000e+00,5.000000000000000000e+00,5.000000000000000000e+00,5.000000000000000000e+00,5.000000000000000000e+00,5.000000000000000000e+00,5.000000000000000000e+00,3.104267358779907227e+00,3.090412378311157227e+00,3.039016485214233398e+00,3.025421142578125000e+00,3.026228189468383789e+00,3.033237218856811523e+00,3.063764095306396484e+00,3.118024349212646484e+00,3.171554565429687500e+00,3.212769985198974609e+00,5.000000000000000000e+00,5.000000000000000000e+00,5.000000000000000000e+00,5.000000000000000000e+00,5.000000000000000000e+00,4.852586746215820312e+00,4.662420749664306641e+00,4.486597537994384766e+00,4.323552608489990234e+00,4.171942710876464844e+00,4.030605316162109375e+00,3.898530721664428711e+00,3.774837493896484375e+00,3.658751487731933594e+00,3.549592494964599609e+00,3.446758031845092773e+00,3.349714517593383789e+00,3.257985830307006836e+00,3.171146869659423828e+00,3.088817119598388672e+00,3.010654211044311523e+00,2.936349391937255859e+00,2.865623950958251953e+00,2.798225641250610352e+00,2.733924627304077148e+00,2.672512292861938477e+00,2.613798618316650391e+00,2.557609081268310547e+00,2.503784656524658203e+00,2.452178955078125000e+00,2.402657270431518555e+00,2.355096578598022461e+00,2.309382200241088867e+00,2.265408754348754883e+00,2.223078727722167969e+00,2.182301521301269531e+00,2.142993211746215820e+00,2.105075836181640625e+00,2.068476915359497070e+00,2.033128976821899414e+00,1.998968958854675293e+00,1.965937852859497070e+00,1.933980464935302734e+00,1.903045535087585449e+00,1.873084783554077148e+00,1.844052553176879883e+00
5.000000000000000000e+00,5.000000000000000000e+00,5.000000000000000000e+00,5.000000000000000000e+00,5.000000000000000000e+00,5.000000000000000000e+00,5.000000000000000000e+00,5.000000000000000000e+00,5.000000000000000000e+00,5.000000000000000000e+00,5.000000000000000000e+00,5.000000000000000000e+00,5.000000000000000000e+00,5.000000000000000000e+00,5.000000000000000000e+00,5.000000000000000000e+00,5.000000000000000000e+00,5.000000000000000000e+00,5.000000000000000000e+00,5.000000000000000000e+00,5.000000000000000000e+00,5.000000000000000000e+00,5.000000000000000000e+00,5.000000000000000000e+00,3.118559837341308594e+00,3.091043710708618164e+00,3.052233219146728516e+00,3.023378372192382812e+00,3.019098281860351562e+00,3.030732870101928711e+00,3.066915273666381836e+00,3.145965576171875000e+00,3.176051139831542969e+00,3.220520734786987305e+00,5.000000000000000000e+00,5.000000000000000000e+00,5.000000000000000000e+00,5.000000000000000000e+00,5.000000000000000000e+00,4.852725982666015625e+00,4.662549495697021484e+00,4.486716747283935547e+00,4.323663234710693359e+00,4.172045707702636719e+00,4.030701637268066406e+00,3.898620843887329102e+00,3.774921417236328125e+00,3.658830642700195312e+00,3.549666881561279297e+00,3.446828365325927734e+00,3.349780797958374023e+00,3.258048772811889648e+00,3.171206474304199219e+00,3.088873624801635742e+00,3.010707855224609375e+00,2.936400413513183594e+00,2.865672588348388672e+00,2.798271894454956055e+00,2.733968734741210938e+00,2.672554492950439453e+00,2.613838911056518555e+00,2.557647705078125000e+00,2.503821849822998047e+00,2.452214479446411133e+00,2.402691602706909180e+00,2.355129480361938477e+00,2.309413671493530273e+00,2.265439033508300781e+00,2.223107814788818359e+00,2.182329416275024414e+00,2.143020153045654297e+00,2.105102062225341797e+00,2.068502187728881836e+00,2.033153533935546875e+00,1.998992800712585449e+00,1.965960860252380371e+00,1.934002757072448730e+00,1.903067111968994141e+00,1.873105525970458984e+00,1.844072699546813965e+00
5.000000000000000000e+00,5.000000000000000000e+00,5.000000000000000000e+00,5.000000000000000000e+00,5.000000000000000000e+00,5.000000000000000000e+00,5.000000000000000000e+00,5.000000000000000000e+00,5.000000000000000000e+00,5.000000000000000000e+00,5.000000000000000000e+00,5.000000000000000000e+00,5.000000000000000000e+00,5.000000000000000000e+00,5.000000000000000000e+00,5.000000000000000000e+00,5.000000000000000000e+00,5.000000000000000000e+00,5.000000000000000000e+00,5.000000000000000000e+00,5.000000000000000000e+00,5.000000000000000000e+00,5.000000000000000000e+00,5.000000000000000000e+00,5.000000000000000000e+00,3.086959600448608398e+00,3.066626787185668945e+00,3.024794101715087891e+00,3.021449565887451172e+00,3.032759904861450195e+00,3.063790082931518555e+00,3.171367406845092773e+00,3.177999973297119141e+00,3.227326393127441406e+00,5.000000000000000000e+00,5.000000000000000000e+00,5.000000000000000000e+00,5.000000000000000000e+00,5.000000000000000000e+00,4.852865695953369141e+00,4.662678241729736328e+00,4.486835479736328125e+00,4.323773860931396484e+00,4.172148704528808594e+00,4.030797481536865234e+00,3.898710966110229492e+00,3.775006055831909180e+00,3.658910036087036133e+00,3.549741506576538086e+00,3.446898698806762695e+00,3.349847316741943359e+00,3.258111476898193359e+00,3.171265840530395508e+00,3.088929891586303711e+00,3.010761260986328125e+00,2.936451435089111328e+00,2.865721225738525391e+00,2.798318147659301758e+00,2.734013080596923828e+00,2.672596931457519531e+00,2.613879442214965820e+00,2.557686567306518555e+00,2.503858566284179688e+00,2.452249765396118164e+00,2.402725696563720703e+00,2.355162143707275391e+00,2.309445381164550781e+00,2.265469551086425781e+00,2.223137140274047852e+00,2.182357788085937500e+00,2.143047571182250977e+00,2.105128288269042969e+00,2.068527460098266602e+00,2.033178091049194336e+00,1.999016404151916504e+00,1.965983748435974121e+00,1.934024810791015625e+00,1.903088450431823730e+00,1.873126149177551270e+00,1.844092726707458496e+00
5.000000000000000000e+00,5.000000000000000000e+00,5.000000000000000000e+00,5.000000000000000000e+00,5.000000000000000000e+00,5.000000000000000000e+00,5.000000000000000000e+00,5.000000000000000000e+00,5.000000000000000000e+00,5.000000000000000000e+00,5.000000000000000000e+00,5.000000000000000000e+00,5.000000000000000000e+00,5.000000000000000000e+00,5.000000000000000000e+00,5.000000000000000000e+00,5.000000000000000000e+00,5.000000000000000000e+00,5.000000000000000000e+00,5.000000000000000000e+00,5.000000000000000000e+00,5.000000000000000000e+00,5.000000000000000000e+00,5.000000000000000000e+00,5.000000000000000000e+00,3.096691131591796875e+00,3.045346498489379883e+00,3.013176202774047852e+00,3.019432306289672852e+00,3.023851633071899414e+00,3.051651239395141602e+00,5.000000000000000000e+00,3.196391344070434570e+00,5.000000000000000000e+00,5.000000000000000000e+00,5.000000000000000000e+00,5.000000000000000000e+00,5.000000000000000000e+00,5.000000000000000000e+00,4.853005409240722656e+00,4.662806987762451172e+00,4.486954689025878906e+00,4.323884487152099609e+00,4.172251701354980469e+00,4.030893802642822266e+00,3.898800849914550781e+00,3.775090217590332031e+00,3.658988952636718750e+00,3.549815893173217773e+00,3.446968793869018555e+00,3.349913835525512695e+00,3.258174419403076172e+00,3.171325445175170898e+00,3.088986635208129883e+00,3.010815143585205078e+00,2.936502456665039062e+00,2.865769624710083008e+00,2.798364400863647461e+00,2.734057188034057617e+00,2.672639131546020508e+00,2.613919734954833984e+00,2.557725191116333008e+00,2.503895759582519531e+00,2.452285528182983398e+00,2.402759790420532227e+00,2.355195045471191406e+00,2.309476852416992188e+00,2.265499830245971680e+00,2.223166227340698242e+00,2.182385921478271484e+00,2.143074512481689453e+00,2.105154514312744141e+00,2.068552970886230469e+00,2.033202409744262695e+00,1.999040007591247559e+00,1.966006517410278320e+00,1.934046983718872070e+00,1.903109908103942871e+00,1.873146891593933105e+00,1.844112753868103027e+00
5.000000000000000000e+00,5.000000000000000000e+00,5.000000000000000000e+00,5.000000000000000000e+00,5.000000000000000000e+00,5.000000000000000000e+00,5.000000000000000000e+00,5.000000000000000000e+00,5.000000000000000000e+00,5.000000000000000000e+00,5.000000000000000000e+00,5.000000000000000000e+00,5.000000000000000000e+00,5.000000000000000000e+00,5.000000000000000000e+00,5.000000000000000000e+00,5.000000000000000000e+00,5.000000000000000000e+00,5.000000000000000000e+00,5.000000000000000000e+00,5.000000000000000000e+00,5.000000000000000000e+00,5.000000000000000000e+00,5.000000000000000000e+00,5.000000000000000000e+00,3.106974601745605469e+00,3.039179563522338867e+00,3.023487091064453125e+00,3.015977621078491211e+00,3.029667139053344727e+00,3.061600685119628906e+00,3.125868082046508789e+00,3.210051536560058594e+00,3.251604318618774414e+00,5.000000000000000000e+00,5.000000000000000000e+00,5.000000000000000000e+00,5.000000000000000000e+00,5.000000000000000000e+00,4.853144645690917969e+00,4.662935256958007812e+00,4.487073898315429688e+00,4.323995113372802734e+00,4.172354698181152344e+00,4.030990123748779297e+00,3.898890972137451172e+00,3.775174617767333984e+00,3.659068346023559570e+00,3.549890518188476562e+00,3.447039365768432617e+00,3.349980115890502930e+00,3.258237123489379883e+00,3.171384811401367188e+00,3.089042901992797852e+00,3.010868549346923828e+00,2.936553716659545898e+00,2.865818500518798828e+00,2.798410892486572266e+00,2.734101295471191406e+00,2.672681331634521484e+00,2.613960027694702148e+00,2.557763576507568359e+00,2.503932714462280273e+00,2.452321052551269531e+00,2.402793884277343750e+00,2.355227947235107422e+00,2.309508562088012695e+00,2.265530109405517578e+00,2.223195552825927734e+00,2.182414054870605469e+00,2.143101692199707031e+00,2.105180740356445312e+00,2.068578243255615234e+00,2.033226966857910156e+00,1.999063491821289062e+00,1.966029286384582520e+00,1.934069275856018066e+00,1.903131484985351562e+00,1.873167753219604492e+00,1.844133138656616211e+00
5.000000000000000000e+00,5.000000000000000000e+00,5.000000000000000000e+00,5.000000000000000000e+00,5.000000000000000000e+00,5.000000000000000000e+00,5.000000000000000000e+00,5.000000000000000000e+00,5.000000000000000000e+00,5.000000000000000000e+00,5.000000000000000000e+00,5.000000000000000000e+00,5.000000000000000000e+00,5.000000000000000000e+00,5.000000000000000000e+00,5.000000000000000000e+00,5.000000000000000000e+00,5.000000000000000000e+00,5.000000000000000000e+00,5.000000000000000000e+00,5.000000000000000000e+00,5.000000000000000000e+00,5.000000000000000000e+00,5.000000000000000000e+00,5.000000000000000000e+00,3.069685220718383789e+00,3.048705577850341797e+00,3.023410081863403320e+00,3.019031524658203125e+00,3.030005216598510742e+00,3.053308010101318359e+00,3.110578060150146484e+00,3.196739196777343750e+00,3.229465723037719727e+00,5.000000000000000000e+00,5.000000000000000000e+00,5.000000000000000000e+00,5.000000000000000000e+00,5.000000000000000000e+00,4.853283882141113281e+00,4.663064002990722656e+00,4.487193107604980469e+00,4.324105739593505859e+00,4.172457695007324219e+00,4.031086444854736328e+00,3.898980617523193359e+00,3.775258779525756836e+00,3.659147262573242188e+00,3.549964904785156250e+00,3.447109699249267578e+00,3.350046634674072266e+00,3.258300065994262695e+00,3.171444654464721680e+00,3.089099407196044922e+00,3.010922431945800781e+00,2.936604499816894531e+00,2.865866899490356445e+00,2.798457145690917969e+00,2.734145402908325195e+00,2.672723531723022461e+00,2.614000558853149414e+00,2.557802438735961914e+00,2.503969907760620117e+00,2.452356576919555664e+00,2.402828216552734375e+00,2.355260848999023438e+00,2.309540033340454102e+00,2.265560388565063477e+00,2.223224878311157227e+00,2.182442188262939453e+00,2.143129110336303711e+00,2.105206966400146484e+00,2.068603515625000000e+00,2.033251523971557617e+00,1.999087333679199219e+00,1.966052412986755371e+00,1.934091329574584961e+00,1.903152823448181152e+00,1.873188495635986328e+00,1.844153165817260742e+00
5.000000000000000000e+00,5.000000000000000000e+00,5.000000000000000000e+00,5.000000000000000000e+00,5.000000000000000000e+00,5.000000000000000000e+00,5.000000000000000000e+00,5.000000000000000000e+00,5.000000000000000000e+00,5.000000000000000000e+00,5.000000000000000000e+00,5.000000000000000000e+00,5.000000000000000000e+00,5.000000000000000000e+00,5.000000000000000000e+00,5.000000000000000000e+00,5.000000000000000000e+00,5.000000000000000000e+00,5.000000000000000000e+00,5.000000000000000000e+00,5.000000000000000000e+00,5.000000000000000000e+00,5.000000000000000000e+00,5.000000000000000000e+00,5.000000000000000000e+00,3.042133331298828125e+00,3.025986433029174805e+00,3.025789737701416016e+00,3.040310382843017578e+00,3.056651115417480469e+00,3.038131713867187500e+00,3.075434207916259766e+00,3.194641113281250000e+00,3.217025518417358398e+00,5.000000000000000000e+00,5.000000000000000000e+00,5.000000000000000000e+00,5.000000000000000000e+00,5.000000000000000000e+00,4.853423118591308594e+00,4.663192749023437500e+00,4.487312316894531250e+00,4.324216365814208984e+00,4.172561168670654297e+00,4.031182289123535156e+00,3.899070739746093750e+00,3.775343179702758789e+00,3.659226655960083008e+00,3.550039768218994141e+00,3.447179794311523438e+00,3.350112676620483398e+00,3.258362531661987305e+00,3.171503782272338867e+00,3.089155673980712891e+00,3.010976076126098633e+00,2.936655521392822266e+00,2.865915536880493164e+00,2.798503637313842773e+00,2.734189510345458984e+00,2.672765731811523438e+00,2.614040851593017578e+00,2.557841062545776367e+00,2.504006862640380859e+00,2.452392101287841797e+00,2.402862310409545898e+00,2.355293750762939453e+00,2.309571504592895508e+00,2.265590906143188477e+00,2.223253965377807617e+00,2.182470560073852539e+00,2.143156051635742188e+00,2.105233192443847656e+00,2.068628787994384766e+00,2.033275842666625977e+00,1.999110937118530273e+00,1.966075181961059570e+00,1.934113383293151855e+00,1.903174161911010742e+00,1.873209238052368164e+00,1.844173192977905273e+00
5.000000000000000000e+00,5.000000000000000000e+00,5.000000000000000000e+00,5.000000000000000000e+00,5.000000000000000000e+00,5.000000000000000000e+00,5.000000000000000000e+00,5.000000000000000000e+00,5.000000000000000000e+00,5.000000000000000000e+00,5.000000000000000000e+00,5.000000000000000000e+00,5.000000000000000000e+00,5.000000000000000000e+00,5.000000000000000000e+00,5.000000000000000000e+00,5.000000000000000000e+00,5.000000000000000000e+00,5.000000000000000000e+00,5.000000000000000000e+00,5.000000000000000000e+00,5.000000000000000000e+00,5.000000000000000000e+00,5.000000000000000000e+00,3.036817550659179688e+00,3.023400545120239258e+00,2.986969232559204102e+00,2.993958473205566406e+00,3.046616792678833008e+00,3.021346569061279297e+00,3.007043123245239258e+00,3.047007083892822266e+00,3.193996906280517578e+00,3.197228431701660156e+00,5.000000000000000000e+00,5.000000000000000000e+00,5.000000000000000000e+00,5.000000000000000000e+00,5.000000000000000000e+00,4.853562355041503906e+00,4.663321495056152344e+00,4.487431049346923828e+00,4.324326992034912109e+00,4.172664165496826172e+00,4.031278610229492188e+00,3.899160385131835938e+00,3.775427341461181641e+00,3.659305810928344727e+00,3.550114393234252930e+00,3.447250366210937500e+00,3.350179433822631836e+00,3.258425474166870117e+00,3.171563625335693359e+00,3.089212417602539062e+00,3.011029720306396484e+00,2.936706542968750000e+00,2.865964174270629883e+00,2.798549652099609375e+00,2.734233617782592773e+00,2.672808170318603516e+00,2.614081382751464844e+00,2.557879924774169922e+00,2.504044055938720703e+00,2.452427864074707031e+00,2.402896404266357422e+00,2.355326414108276367e+00,2.309602975845336914e+00,2.265621185302734375e+00,2.223283290863037109e+00,2.182498693466186523e+00,2.143183469772338867e+00,2.105259418487548828e+00,2.068654060363769531e+00,2.033300399780273438e+00,1.999134540557861328e+00,1.966097950935363770e+00,1.934135437011718750e+00,1.903195500373840332e+00,1.873229861259460449e+00,1.844193339347839355e+00
5.000000000000000000e+00,5.000000000000000000e+00,5.000000000000000000e+00,5.000000000000000000e+00,5.000000000000000000e+00,5.000000000000000000e+00,5.000000000000000000e+00,5.000000000000000000e+00,5.000000000000000000e+00,5.000000000000000000e+00,5.000000000000000000e+00,5.000000000000000000e+00,5.000000000000000000e+00,5.000000000000000000e+00,5.000000000000000000e+00,5.000000000000000000e+00,5.000000000000000000e+00,5.000000000000000000e+00,5.000000000000000000e+00,5.000000000000000000e+00,5.000000000000000000e+00,5.000000000000000000e+00,5.000000000000000000e+00,5.000000000000000000e+00,3.006391286849975586e+00,2.983266830444335938e+00,2.971738815307617188e+00,2.980039834976196289e+00,3.039887905120849609e+00,3.005143642425537109e+00,2.995669364929199219e+00,3.035972118377685547e+00,5.000000000000000000e+00,3.198195457458496094e+00,5.000000000000000000e+00,5.000000000000000000e+00,5.000000000000000000e+00,5.000000000000000000e+00,5.000000000000000000e+00,4.853702068328857422e+00,4.663449764251708984e+00,4.487550258636474609e+00,4.324438095092773438e+00,4.172767162322998047e+00,4.031374454498291016e+00,3.899250745773315430e+00,3.775511980056762695e+00,3.659385204315185547e+00,3.550188779830932617e+00,3.447320461273193359e+00,3.350245475769042969e+00,3.258488178253173828e+00,3.171622991561889648e+00,3.089268922805786133e+00,3.011083364486694336e+00,2.936757564544677734e+00,2.866012811660766602e+00,2.798595905303955078e+00,2.734277963638305664e+00,2.672850131988525391e+00,2.614121675491333008e+00,2.557918548583984375e+00,2.504081010818481445e+00,2.452463388442993164e+00,2.402930736541748047e+00,2.355359315872192383e+00,2.309634685516357422e+00,2.265651702880859375e+00,2.223312616348266602e+00,2.182526826858520508e+00,2.143210411071777344e+00,2.105285644531250000e+00,2.068679332733154297e+00,2.033324718475341797e+00,1.999158382415771484e+00,1.966121077537536621e+00,1.934157729148864746e+00,1.903217196464538574e+00,1.873250842094421387e+00,1.844213604927062988e+00
5.000000000000000000e+00,5.000000000000000000e+00,5.000000000000000000e+00,5.000000000000000000e+00,5.000000000000000000e+00,5.000000000000000000e+00,5.000000000000000000e+00,5.000000000000000000e+00,5.000000000000000000e+00,5.000000000000000000e+00,5.000000000000000000e+00,5.000000000000000000e+00,5.000000000000000000e+00,5.000000000000000000e+00,5.000000000000000000e+00,5.000000000000000000e+00,5.000000000000000000e+00,5.000000000000000000e+00,5.000000000000000000e+00,5.000000000000000000e+00,5.000000000000000000e+00,5.000000000000000000e+00,5.000000000000000000e+00,5.000000000000000000e+00,2.945538997650146484e+00,2.944550037384033203e+00,2.960340023040771484e+00,2.972886562347412109e+00,3.040474653244018555e+00,2.996834516525268555e+00,2.988053560256958008e+00,3.030145883560180664e+00,3.149239301681518555e+00,3.165669202804565430e+00,5.000000000000000000e+00,5.000000000000000000e+00,5.000000000000000000e+00,5.000000000000000000e+00,5.000000000000000000e+00,4.853841304779052734e+00,4.663578510284423828e+00,4.487669467926025391e+00,4.324548721313476562e+00,4.172870159149169922e+00,4.031470775604248047e+00,3.899340391159057617e+00,3.775595903396606445e+00,3.659464597702026367e+00,3.550263643264770508e+00,3.447391033172607422e+00,3.350312232971191406e+00,3.258551120758056641e+00,3.171682596206665039e+00,3.089325189590454102e+00,3.011136770248413086e+00,2.936808586120605469e+00,2.866060972213745117e+00,2.798642158508300781e+00,2.734322309494018555e+00,2.672892570495605469e+00,2.614162206649780273e+00,2.557957410812377930e+00,2.504118204116821289e+00,2.452498912811279297e+00,2.402964830398559570e+00,2.355391979217529297e+00,2.309666156768798828e+00,2.265681982040405273e+00,2.223341941833496094e+00,2.182554960250854492e+00,2.143237829208374023e+00,2.105311870574951172e+00,2.068704843521118164e+00,2.033349275588989258e+00,1.999181866645812988e+00,1.966143846511840820e+00,1.934179782867431641e+00,1.903238534927368164e+00,1.873271584510803223e+00,1.844233632087707520e+00
5.000000000000000000e+00,5.000000000000000000e+00,5.000000000000000000e+00,5.000000000000000000e+00,5.000000000000000000e+00,5.000000000000000000e+00,5.000000000000000000e+00,5.000000000000000000e+00,5.000000000000000000e+00,5.000000000000000000e+00,5.000000000000000000e+00,5.000000000000000000e+00,5.000000000000000000e+00,5.000000000000000000e+00,5.000000000000000000e+00,5.000000000000000000e+00,5.000000000000000000e+00,5.000000000000000000e+00,5.000000000000000000e+00,5.000000000000000000e+00,5.000000000000000000e+00,5.000000000000000000e+00,5.000000000000000000e+00,5.000000000000000000e+00,2.907792091369628906e+00,5.000000000000000000e+00,2.949743509292602539e+00,2.962974786758422852e+00,3.039331436157226562e+00,2.986482143402099609e+00,2.980710506439208984e+00,3.025341987609863281e+00,5.000000000000000000e+00,3.150983810424804688e+00,5.000000000000000000e+00,5.000000000000000000e+00,5.000000000000000000e+00,5.000000000000000000e+00,5.000000000000000000e+00,4.853980541229248047e+00,4.663707256317138672e+00,4.487789154052734375e+00,4.324659347534179688e+00,4.172973155975341797e+00,4.031567096710205078e+00,3.899430513381958008e+00,3.775680541992187500e+00,3.659543514251708984e+00,3.550338029861450195e+00,3.447461128234863281e+00,3.350378274917602539e+00,3.258613824844360352e+00,3.171742200851440430e+00,3.089381933212280273e+00,3.011190652847290039e+00,2.936859369277954102e+00,2.866109848022460938e+00,2.798688650131225586e+00,2.734366416931152344e+00,2.672934770584106445e+00,2.614202499389648438e+00,2.557995796203613281e+00,2.504155397415161133e+00,2.452534675598144531e+00,2.402998924255371094e+00,2.355424880981445312e+00,2.309697866439819336e+00,2.265712261199951172e+00,2.223371028900146484e+00,2.182583093643188477e+00,2.143264770507812500e+00,2.105338096618652344e+00,2.068730115890502930e+00,2.033373832702636719e+00,1.999205470085144043e+00,1.966166615486145020e+00,1.934201955795288086e+00,1.903259873390197754e+00,1.873292207717895508e+00,1.844253659248352051e+00
5.000000000000000000e+00,5.000000000000000000e+00,5.000000000000000000e+00,5.000000000000000000e+00,5.000000000000000000e+00,5.000000000000000000e+00,5.000000000000000000e+00,5.000000000000000000e+00,5.000000000000000000e+00,5.000000000000000000e+00,5.000000000000000000e+00,5.000000000000000000e+00,5.000000000000000000e+00,5.000000000000000000e+00,5.000000000000000000e+00,5.000000000000000000e+00,5.000000000000000000e+00,5.000000000000000000e+00,5.000000000000000000e+00,5.000000000000000000e+00,5.000000000000000000e+00,5.000000000000000000e+00,5.000000000000000000e+00,5.000000000000000000e+00,5.000000000000000000e+00,5.000000000000000000e+00,2.936811923980712891e+00,2.955464363098144531e+00,5.000000000000000000e+00,2.976198911666870117e+00,2.968572139739990234e+00,5.000000000000000000e+00,5.000000000000000000e+00,5.000000000000000000e+00,5.000000000000000000e+00,5.000000000000000000e+00,5.000000000000000000e+00,5.000000000000000000e+00,5.000000000000000000e+00,4.854120254516601562e+00,4.663836002349853516e+00,4.487907886505126953e+00,4.324769973754882812e+00,4.173076152801513672e+00,4.031662940979003906e+00,3.899520397186279297e+00,3.775765180587768555e+00,3.659622907638549805e+00,3.550412654876708984e+00,3.447531700134277344e+00,3.350445032119750977e+00,3.258676767349243164e+00,3.171801567077636719e+00,3.089438199996948242e+00,3.011243820190429688e+00,2.936910390853881836e+00,2.866158246994018555e+00,2.798735141754150391e+00,2.734410762786865234e+00,2.672977209091186523e+00,2.614243030548095703e+00,2.558034658432006836e+00,2.504192590713500977e+00,2.452570199966430664e+00,2.403033018112182617e+00,2.355457782745361328e+00,2.309729337692260742e+00,2.265742778778076172e+00,2.223400354385375977e+00,2.182611465454101562e+00,2.143291950225830078e+00,2.105364322662353516e+00,2.068755388259887695e+00,2.033398151397705078e+00,1.999229073524475098e+00,1.966189503669738770e+00,1.934224009513854980e+00,1.903281331062316895e+00,1.873313188552856445e+00,1.844273924827575684e+00
5.000000000000000000e+00,5.000000000000000000e+00,5.000000000000000000e+00,5.000000000000000000e+00,5.000000000000000000e+00,5.000000000000000000e+00,5.000000000000000000e+00,5.000000000000000000e+00,5.000000000000000000e+00,5.000000000000000000e+00,5.000000000000000000e+00,5.000000000000000000e+00,5.000000000000000000e+00,5.000000000000000000e+00,5.000000000000000000e+00,5.000000000000000000e+00,5.000000000000000000e+00,5.000000000000000000e+00,5.000000000000000000e+00,5.000000000000000000e+00,5.000000000000000000e+00,5.000000000000000000e+00,5.000000000000000000e+00,5.000000000000000000e+00,5.000000000000000000e+00,5.000000000000000000e+00,2.926022291183471680e+00,2.944200515747070312e+00,5.000000000000000000e+00,2.963121891021728516e+00,2.958021163940429688e+00,5.000000000000000000e+00,5.000000000000000000e+00,5.000000000000000000e+00,5.000000000000000000e+00,5.000000000000000000e+00,5.000000000000000000e+00,5.000000000000000000e+00,5.000000000000000000e+00,4.854259490966796875e+00,4.663964748382568359e+00,4.488027095794677734e+00,4.324880599975585938e+00,4.173179149627685547e+00,4.031759262084960938e+00,3.899610519409179688e+00,3.775849342346191406e+00,3.659702062606811523e+00,3.550487041473388672e+00,3.447601795196533203e+00,3.350511312484741211e+00,3.258739709854125977e+00,3.171861171722412109e+00,3.089494466781616211e+00,3.011297702789306641e+00,2.936961412429809570e+00,2.866206884384155273e+00,2.798781394958496094e+00,2.734454870223999023e+00,2.673019170761108398e+00,2.614283323287963867e+00,2.558073282241821289e+00,2.504229784011840820e+00,2.452605724334716797e+00,2.403067350387573242e+00,2.355490684509277344e+00,2.309761047363281250e+00,2.265773057937622070e+00,2.223429441452026367e+00,2.182639598846435547e+00,2.143319129943847656e+00,2.105390548706054688e+00,2.068780899047851562e+00,2.033422708511352539e+00,1.999252915382385254e+00,1.966212511062622070e+00,1.934246301651000977e+00,1.903302907943725586e+00,1.873333811759948730e+00,1.844294071197509766e+00
5.000000000000000000e+00,5.000000000000000000e+00,5.000000000000000000e+00,5.000000000000000000e+00,5.000000000000000000e+00,5.000000000000000000e+00,5.000000000000000000e+00,5.000000000000000000e+00,5.000000000000000000e+00,5.000000000000000000e+00,5.000000000000000000e+00,5.000000000000000000e+00,5.000000000000000000e+00,5.000000000000000000e+00,5.000000000000000000e+00,5.000000000000000000e+00,5.000000000000000000e+00,5.000000000000000000e+00,5.000000000000000000e+00,5.000000000000000000e+00,5.000000000000000000e+00,5.000000000000000000e+00,5.000000000000000000e+00,5.000000000000000000e+00,5.000000000000000000e+00,5.000000000000000000e+00,2.922378778457641602e+00,2.936807394027709961e+00,5.000000000000000000e+00,2.954775810241699219e+00,2.952709436416625977e+00,5.000000000000000000e+00,5.000000000000000000e+00,5.000000000000000000e+00,5.000000000000000000e+00,5.000000000000000000e+00,5.000000000000000000e+00,5.000000000000000000e+00,5.000000000000000000e+00,4.854398727416992188e+00,4.664093494415283203e+00,4.488146305084228516e+00,4.324991226196289062e+00,4.173282146453857422e+00,4.031855583190917969e+00,3.899700641632080078e+00,3.775933742523193359e+00,3.659781455993652344e+00,3.550561904907226562e+00,3.447672128677368164e+00,3.350577831268310547e+00,3.258802413940429688e+00,3.171920299530029297e+00,3.089550971984863281e+00,3.011351108551025391e+00,2.937012434005737305e+00,2.866255760192871094e+00,2.798827886581420898e+00,2.734499216079711914e+00,2.673061609268188477e+00,2.614323854446411133e+00,2.558112144470214844e+00,2.504266738891601562e+00,2.452641248703002930e+00,2.403101444244384766e+00,2.355523347854614258e+00,2.309792518615722656e+00,2.265803575515747070e+00,2.223458766937255859e+00,2.182667732238769531e+00,2.143346309661865234e+00,2.105416774749755859e+00,2.068806171417236328e+00,2.033447027206420898e+00,1.999276518821716309e+00,1.966235280036926270e+00,1.934268355369567871e+00,1.903324246406555176e+00,1.873354554176330566e+00,1.844314098358154297e+00
5.000000000000000000e+00,5.000000000000000000e+00,5.000000000000000000e+00,5.000000000000000000e+00,5.000000000000000000e+00,5.000000000000000000e+00,5.000000000000000000e+00,5.000000000000000000e+00,5.000000000000000000e+00,5.000000000000000000e+00,5.000000000000000000e+00,5.000000000000000000e+00,5.000000000000000000e+00,5.000000000000000000e+00,5.000000000000000000e+00,5.000000000000000000e+00,5.000000000000000000e+00,5.000000000000000000e+00,5.000000000000000000e+00,5.000000000000000000e+00,5.000000000000000000e+00,5.000000000000000000e+00,5.000000000000000000e+00,5.000000000000000000e+00,5.000000000000000000e+00,5.000000000000000000e+00,2.936045408248901367e+00,2.950577974319458008e+00,5.000000000000000000e+00,2.976220846176147461e+00,2.978150367736816406e+00,5.000000000000000000e+00,5.000000000000000000e+00,5.000000000000000000e+00,5.000000000000000000e+00,5.000000000000000000e+00,5.000000000000000000e+00,5.000000000000000000e+00,5.000000000000000000e+00,4.854538440704345703e+00,4.664222240447998047e+00,4.488265514373779297e+00,4.325101852416992188e+00,4.173385143280029297e+00,4.031951427459716797e+00,3.899790287017822266e+00,3.776017904281616211e+00,3.659860610961914062e+00,3.550636291503906250e+00,3.447742462158203125e+00,3.350644350051879883e+00,3.258865118026733398e+00,3.171980142593383789e+00,3.089607477188110352e+00,3.011404991149902344e+00,2.937063694000244141e+00,2.866304159164428711e+00,2.798873901367187500e+00,2.734543561935424805e+00,2.673103809356689453e+00,2.614364385604858398e+00,2.558151006698608398e+00,2.504303932189941406e+00,2.452677011489868164e+00,2.403135776519775391e+00,2.355556249618530273e+00,2.309823989868164062e+00,2.265833854675292969e+00,2.223488092422485352e+00,2.182695865631103516e+00,2.143373489379882812e+00,2.105443000793457031e+00,2.068831443786621094e+00,2.033471584320068359e+00,1.999300122261047363e+00,1.966258168220520020e+00,1.934290409088134766e+00,1.903345584869384766e+00,1.873375296592712402e+00,1.844334125518798828e+00
5.000000000000000000e+00,5.000000000000000000e+00,5.000000000000000000e+00,5.000000000000000000e+00,5.000000000000000000e+00,5.000000000000000000e+00,5.000000000000000000e+00,5.000000000000000000e+00,5.000000000000000000e+00,5.000000000000000000e+00,5.000000000000000000e+00,5.000000000000000000e+00,5.000000000000000000e+00,5.000000000000000000e+00,5.000000000000000000e+00,5.000000000000000000e+00,5.000000000000000000e+00,5.000000000000000000e+00,5.000000000000000000e+00,5.000000000000000000e+00,5.000000000000000000e+00,5.000000000000000000e+00,5.000000000000000000e+00,5.000000000000000000e+00,5.000000000000000000e+00,5.000000000000000000e+00,3.046443939208984375e+00,3.035963535308837891e+00,5.000000000000000000e+00,3.010500431060791016e+00,3.015010833740234375e+00,5.000000000000000000e+00,5.000000000000000000e+00,5.000000000000000000e+00,5.000000000000000000e+00,5.000000000000000000e+00,5.000000000000000000e+00,5.000000000000000000e+00,5.000000000000000000e+00,4.854676246643066406e+00,4.664350986480712891e+00,4.488384723663330078e+00,4.325212478637695312e+00,4.173488140106201172e+00,4.032047748565673828e+00,3.899880647659301758e+00,3.776102542877197266e+00,3.659940004348754883e+00,3.550711154937744141e+00,3.447812795639038086e+00,3.350710391998291016e+00,3.258927822113037109e+00,3.172039508819580078e+00,3.089663743972778320e+00,3.011458396911621094e+00,2.937114715576171875e+00,2.866352796554565430e+00,2.798920392990112305e+00,2.734587907791137695e+00,2.673146247863769531e+00,2.614404916763305664e+00,2.558189630508422852e+00,2.504340887069702148e+00,2.452712535858154297e+00,2.403169870376586914e+00,2.355588912963867188e+00,2.309855699539184570e+00,2.265864372253417969e+00,2.223517417907714844e+00,2.182724237442016602e+00,2.143400669097900391e+00,2.105469226837158203e+00,2.068856716156005859e+00,2.033495903015136719e+00,1.999323725700378418e+00,1.966280937194824219e+00,1.934312701225280762e+00,1.903367161750793457e+00,1.873396158218383789e+00,1.844354510307312012e+00
5.000000000000000000e+00,5.000000000000000000e+00,5.000000000000000000e+00,5.000000000000000000e+00,5.000000000000000000e+00,5.000000000000000000e+00,5.000000000000000000e+00,5.000000000000000000e+00,5.000000000000000000e+00,5.000000000000000000e+00,5.000000000000000000e+00,5.000000000000000000e+00,5.000000000000000000e+00,5.000000000000000000e+00,5.000000000000000000e+00,5.000000000000000000e+00,5.000000000000000000e+00,5.000000000000000000e+00,5.000000000000000000e+00,5.000000000000000000e+00,5.000000000000000000e+00,5.000000000000000000e+00,5.000000000000000000e+00,5.000000000000000000e+00,5.000000000000000000e+00,5.000000000000000000e+00,5.000000000000000000e+00,3.117683649063110352e+00,3.203129291534423828e+00,3.028557538986206055e+00,3.033339738845825195e+00,5.000000000000000000e+00,5.000000000000000000e+00,5.000000000000000000e+00,5.000000000000000000e+00,5.000000000000000000e+00,5.000000000000000000e+00,5.000000000000000000e+00,5.000000000000000000e+00,4.854814529418945312e+00,4.664479732513427734e+00,4.488503932952880859e+00,4.325323104858398438e+00,4.173591136932373047e+00,4.032144069671630859e+00,3.899970293045043945e+00,3.776186704635620117e+00,3.660018920898437500e+00,3.550785541534423828e+00,3.447883129119873047e+00,3.350776910781860352e+00,3.258991003036499023e+00,3.172099113464355469e+00,3.089720487594604492e+00,3.011512279510498047e+00,2.937165737152099609e+00,2.866401433944702148e+00,2.798966646194458008e+00,2.734632015228271484e+00,2.673188447952270508e+00,2.614445447921752930e+00,2.558228254318237305e+00,2.504378080368041992e+00,2.452748060226440430e+00,2.403203964233398438e+00,2.355621814727783203e+00,2.309887170791625977e+00,2.265894651412963867e+00,2.223546504974365234e+00,2.182752370834350586e+00,2.143428087234497070e+00,2.105495452880859375e+00,2.068881988525390625e+00,2.033520460128784180e+00,1.999347448348999023e+00,1.966303944587707520e+00,1.934334874153137207e+00,1.903388619422912598e+00,1.873416900634765625e+00,1.844374537467956543e+00
5.000000000000000000e+00,5.000000000000000000e+00,5.000000000000000000e+00,5.000000000000000000e+00,5.000000000000000000e+00,5.000000000000000000e+00,5.000000000000000000e+00,5.000000000000000000e+00,5.000000000000000000e+00,5.000000000000000000e+00,5.000000000000000000e+00,5.000000000000000000e+00,5.000000000000000000e+00,5.000000000000000000e+00,5.000000000000000000e+00,5.000000000000000000e+00,5.000000000000000000e+00,5.000000000000000000e+00,5.000000000000000000e+00,5.000000000000000000e+00,5.000000000000000000e+00,5.000000000000000000e+00,5.000000000000000000e+00,5.000000000000000000e+00,5.000000000000000000e+00,5.000000000000000000e+00,5.000000000000000000e+00,3.182483673095703125e+00,3.274300575256347656e+00,3.034289121627807617e+00,3.044388771057128906e+00,5.000000000000000000e+00,5.000000000000000000e+00,5.000000000000000000e+00,5.000000000000000000e+00,5.000000000000000000e+00,5.000000000000000000e+00,5.000000000000000000e+00,5.000000000000000000e+00,4.854952812194824219e+00,4.664606571197509766e+00,4.488623142242431641e+00,4.325433731079101562e+00,4.173694610595703125e+00,4.032240390777587891e+00,3.900060653686523438e+00,3.776271104812622070e+00,3.660098552703857422e+00,3.550859928131103516e+00,3.447953224182128906e+00,3.350843191146850586e+00,3.259053468704223633e+00,3.172158479690551758e+00,3.089776754379272461e+00,3.011566162109375000e+00,2.937216758728027344e+00,2.866450071334838867e+00,2.799013137817382812e+00,2.734676361083984375e+00,2.673230648040771484e+00,2.614485740661621094e+00,2.558266878128051758e+00,2.504415035247802734e+00,2.452783584594726562e+00,2.403238058090209961e+00,2.355654716491699219e+00,2.309918880462646484e+00,2.265925168991088867e+00,2.223575830459594727e+00,2.182780504226684570e+00,2.143455028533935547e+00,2.105521678924560547e+00,2.068907260894775391e+00,2.033545017242431641e+00,1.999371051788330078e+00,1.966326832771301270e+00,1.934356927871704102e+00,1.903409957885742188e+00,1.873437643051147461e+00,1.844394564628601074e+00
5.000000000000000000e+00,5.000000000000000000e+00,5.000000000000000000e+00,5.000000000000000000e+00,5.000000000000000000e+00,5.000000000000000000e+00,5.000000000000000000e+00,5.000000000000000000e+00,5.000000000000000000e+00,5.000000000000000000e+00,5.000000000000000000e+00,5.000000000000000000e+00,5.000000000000000000e+00,5.000000000000000000e+00,5.000000000000000000e+00,5.000000000000000000e+00,5.000000000000000000e+00,5.000000000000000000e+00,5.000000000000000000e+00,5.000000000000000000e+00,5.000000000000000000e+00,5.000000000000000000e+00,5.000000000000000000e+00,5.000000000000000000e+00,5.000000000000000000e+00,5.000000000000000000e+00,5.000000000000000000e+00,3.285867452621459961e+00,3.348564624786376953e+00,3.039605140686035156e+00,3.065226078033447266e+00,5.000000000000000000e+00,5.000000000000000000e+00,5.000000000000000000e+00,5.000000000000000000e+00,5.000000000000000000e+00,5.000000000000000000e+00,5.000000000000000000e+00,5.000000000000000000e+00,4.855091094970703125e+00,4.664733886718750000e+00,4.488740444183349609e+00,4.325544357299804688e+00,4.173797607421875000e+00,4.032336711883544922e+00,3.900150299072265625e+00,3.776355266571044922e+00,3.660177230834960938e+00,3.550934791564941406e+00,3.448023796081542969e+00,3.350909709930419922e+00,3.259116649627685547e+00,3.172218084335327148e+00,3.089833498001098633e+00,3.011619567871093750e+00,2.937267780303955078e+00,2.866498470306396484e+00,2.799059391021728516e+00,2.734720468521118164e+00,2.673273086547851562e+00,2.614526271820068359e+00,2.558305740356445312e+00,2.504452228546142578e+00,2.452819347381591797e+00,2.403272390365600586e+00,2.355687618255615234e+00,2.309950351715087891e+00,2.265955448150634766e+00,2.223604917526245117e+00,2.182808876037597656e+00,2.143482446670532227e+00,2.105547904968261719e+00,2.068932771682739258e+00,2.033569574356079102e+00,1.999394655227661133e+00,1.966349601745605469e+00,1.934378981590270996e+00,1.903431296348571777e+00,1.873458385467529297e+00,1.844414710998535156e+00
5.000000000000000000e+00,5.000000000000000000e+00,5.000000000000000000e+00,5.000000000000000000e+00,5.000000000000000000e+00,5.000000000000000000e+00,5.000000000000000000e+00,5.000000000000000000e+00,5.000000000000000000e+00,5.000000000000000000e+00,5.000000000000000000e+00,5.000000000000000000e+00,5.000000000000000000e+00,5.000000000000000000e+00,5.000000000000000000e+00,5.000000000000000000e+00,5.000000000000000000e+00,5.000000000000000000e+00,5.000000000000000000e+00,5.000000000000000000e+00,5.000000000000000000e+00,5.000000000000000000e+00,5.000000000000000000e+00,5.000000000000000000e+00,5.000000000000000000e+00,5.000000000000000000e+00,5.000000000000000000e+00,3.354100704193115234e+00,3.358900547027587891e+00,3.046586036682128906e+00,3.094051599502563477e+00,5.000000000000000000e+00,5.000000000000000000e+00,5.000000000000000000e+00,5.000000000000000000e+00,5.000000000000000000e+00,5.000000000000000000e+00,5.000000000000000000e+00,5.000000000000000000e+00,4.855228900909423828e+00,4.664861202239990234e+00,4.488858699798583984e+00,4.325654029846191406e+00,4.173900604248046875e+00,4.032432556152343750e+00,3.900240421295166016e+00,3.776439666748046875e+00,3.660256624221801758e+00,3.551009178161621094e+00,3.448093891143798828e+00,3.350975990295410156e+00,3.259179353713989258e+00,3.172277450561523438e+00,3.089890003204345703e+00,3.011673450469970703e+00,2.937318801879882812e+00,2.866547346115112305e+00,2.799105882644653320e+00,2.734764814376831055e+00,2.673315286636352539e+00,2.614566564559936523e+00,2.558344364166259766e+00,2.504489421844482422e+00,2.452854871749877930e+00,2.403306722640991211e+00,2.355720520019531250e+00,2.309982061386108398e+00,2.265985727310180664e+00,2.223634243011474609e+00,2.182837009429931641e+00,2.143509387969970703e+00,2.105574131011962891e+00,2.068958044052124023e+00,2.033593893051147461e+00,1.999418497085571289e+00,1.966372609138488770e+00,1.934401273727416992e+00,1.903452992439270020e+00,1.873479247093200684e+00,1.844434976577758789e+00
5.000000000000000000e+00,5.000000000000000000e+00,5.000000000000000000e+00,5.000000000000000000e+00,5.000000000000000000e+00,5.000000000000000000e+00,5.000000000000000000e+00,5.000000000000000000e+00,5.000000000000000000e+00,5.000000000000000000e+00,5.000000000000000000e+00,5.000000000000000000e+00,5.000000000000000000e+00,5.000000000000000000e+00,5.000000000000000000e+00,5.000000000000000000e+00,5.000000000000000000e+00,5.000000000000000000e+00,5.000000000000000000e+00,5.000000000000000000e+00,5.000000000000000000e+00,5.000000000000000000e+00,5.000000000000000000e+00,5.000000000000000000e+00,5.000000000000000000e+00,5.000000000000000000e+00,5.000000000000000000e+00,3.348875284194946289e+00,3.347296476364135742e+00,3.053599119186401367e+00,3.123647928237915039e+00,5.000000000000000000e+00,5.000000000000000000e+00,5.000000000000000000e+00,5.000000000000000000e+00,5.000000000000000000e+00,5.000000000000000000e+00,5.000000000000000000e+00,5.000000000000000000e+00,4.855367183685302734e+00,4.664988994598388672e+00,4.488976955413818359e+00,4.325763702392578125e+00,4.174003601074218750e+00,4.032528877258300781e+00,3.900330066680908203e+00,3.776523828506469727e+00,3.660336256027221680e+00,3.551084041595458984e+00,3.448164463043212891e+00,3.351042747497558594e+00,3.259242296218872070e+00,3.172337293624877930e+00,3.089946269989013672e+00,3.011726856231689453e+00,2.937369823455810547e+00,2.866595745086669922e+00,2.799152135848999023e+00,2.734809160232543945e+00,2.673357725143432617e+00,2.614607095718383789e+00,2.558383226394653320e+00,2.504526615142822266e+00,2.452890634536743164e+00,2.403340578079223633e+00,2.355753183364868164e+00,2.310013532638549805e+00,2.266016006469726562e+00,2.223663568496704102e+00,2.182865142822265625e+00,2.143536806106567383e+00,2.105600357055664062e+00,2.068983316421508789e+00,2.033618450164794922e+00,1.999442100524902344e+00,1.966395497322082520e+00,1.934423327445983887e+00,1.903474330902099609e+00,1.873499989509582520e+00,1.844455003738403320e+00
4.874891281127929688e+00,4.873681068420410156e+00,4.872470855712890625e+00,4.871261119842529297e+00,4.870051860809326172e+00,4.868843555450439453e+00,4.867635726928710938e+00,4.866428852081298828e+00,4.865221977233886719e+00,4.864016056060791016e+00,4.862810611724853516e+00,4.861606121063232422e+00,4.860401630401611328e+00,4.859198093414306641e+00,4.857995510101318359e+00,4.856792926788330078e+00,4.855591297149658203e+00,4.854390144348144531e+00,4.853189468383789062e+00,4.851989269256591797e+00,4.850790023803710938e+00,4.849591255187988281e+00,4.848392963409423828e+00,4.847195148468017578e+00,4.845998287200927734e+00,4.844801902770996094e+00,4.843605995178222656e+00,4.842411041259765625e+00,3.341950178146362305e+00,3.075389385223388672e+00,4.838828563690185547e+00,4.837635517120361328e+00,4.836442947387695312e+00,4.835251331329345703e+00,4.834060192108154297e+00,4.832869529724121094e+00,4.831679344177246094e+00,4.830490112304687500e+00,4.829301357269287109e+00,4.828113079071044922e+00,4.665116310119628906e+00,4.489094734191894531e+00,4.325873374938964844e+00,4.174105167388916016e+00,4.032625198364257812e+00,3.900420188903808594e+00,3.776608467102050781e+00,3.660415172576904297e+00,3.551158428192138672e+00,3.448234558105468750e+00,3.351109027862548828e+00,3.259305000305175781e+00,3.172396898269653320e+00,3.090003013610839844e+00,3.011780738830566406e+00,2.937421083450317383e+00,2.866644620895385742e+00,2.799198627471923828e+00,2.734853267669677734e+00,2.673399925231933594e+00,2.614647388458251953e+00,2.558421850204467773e+00,2.504563570022583008e+00,2.452926158905029297e+00,2.403374910354614258e+00,2.355786085128784180e+00,2.310045003890991211e+00,2.266046524047851562e+00,2.223692893981933594e+00,2.182893276214599609e+00,2.143563747406005859e+00,2.105626583099365234e+00,2.069008588790893555e+00,2.033643007278442383e+00,1.999465703964233398e+00,1.966418266296386719e+00,1.934445381164550781e+00,1.903495669364929199e+00,1.873520731925964355e+00,1.844475150108337402e+00
3.777687311172485352e+00,3.776960134506225586e+00,3.776233434677124023e+00,3.775506734848022461e+00,3.774780511856079102e+00,3.774054527282714844e+00,3.773328781127929688e+00,3.772603273391723633e+00,3.771878004074096680e+00,3.771153211593627930e+00,3.770428657531738281e+00,3.769704341888427734e+00,3.768980264663696289e+00,3.768256425857543945e+00,3.767532825469970703e+00,3.766809701919555664e+00,3.766086816787719727e+00,3.765364170074462891e+00,3.764641523361206055e+00,3.763919591903686523e+00,3.763197660446166992e+00,3.762476444244384766e+00,3.761755228042602539e+00,3.761034250259399414e+00,3.760313510894775391e+00,3.759593009948730469e+00,3.758872747421264648e+00,3.758152961730957031e+00,3.757433414459228516e+00,3.032060146331787109e+00,3.755994796752929688e+00,3.755275964736938477e+00,3.754557609558105469e+00,3.753839254379272461e+00,3.753121376037597656e+00,3.752403497695922852e+00,3.751686096191406250e+00,3.750968933105468750e+00,3.750252008438110352e+00,3.749535560607910156e+00,3.748819112777709961e+00,3.748103141784667969e+00,3.747387170791625977e+00,3.746671676635742188e+00,3.745956420898437500e+00,3.745241403579711914e+00,3.744526863098144531e+00,3.660494804382324219e+00,3.551233053207397461e+00,3.448305130004882812e+00,3.351175546646118164e+00,3.259367942810058594e+00,3.172456264495849609e+00,3.090059280395507812e+00,3.011834144592285156e+00,2.937471866607666016e+00,2.866693019866943359e+00,2.799245119094848633e+00,2.734897613525390625e+00,2.673442125320434570e+00,2.614687919616699219e+00,2.558460712432861328e+00,2.504600763320922852e+00,2.452961683273315430e+00,2.403409004211425781e+00,2.355818748474121094e+00,2.310076475143432617e+00,2.266077041625976562e+00,2.223722219467163086e+00,2.182921648025512695e+00,2.143591165542602539e+00,2.105652809143066406e+00,2.069034099578857422e+00,2.033667325973510742e+00,1.999489307403564453e+00,1.966441154479980469e+00,1.934467554092407227e+00,1.903517127037048340e+00,1.873541593551635742e+00,1.844495415687561035e+00
3.083643674850463867e+00,3.083159208297729492e+00,3.082674980163574219e+00,3.082190752029418945e+00,3.081706762313842773e+00,3.081222772598266602e+00,3.080739021301269531e+00,3.080255508422851562e+00,3.079771995544433594e+00,3.079288721084594727e+00,3.078805446624755859e+00,3.078322410583496094e+00,3.077839612960815430e+00,3.077357053756713867e+00,3.076874732971191406e+00,3.076392412185668945e+00,3.075910091400146484e+00,3.075428009033203125e+00,3.074945926666259766e+00,3.074464321136474609e+00,3.073982715606689453e+00,3.073501110076904297e+00,3.073019742965698242e+00,3.072538614273071289e+00,3.072057485580444336e+00,3.071576595306396484e+00,3.071095943450927734e+00,3.070615291595458984e+00,2.939400911331176758e+00,2.969645500183105469e+00,3.069174528121948242e+00,3.068694591522216797e+00,3.068214654922485352e+00,3.067734956741333008e+00,3.067255496978759766e+00,3.066776037216186523e+00,3.066296815872192383e+00,3.065817832946777344e+00,3.065339088439941406e+00,3.064860105514526367e+00,3.064381599426269531e+00,3.063903331756591797e+00,3.063425064086914062e+00,3.062946796417236328e+00,3.062468767166137695e+00,3.061990976333618164e+00,3.061513185501098633e+00,3.061035633087158203e+00,3.060558080673217773e+00,3.060081005096435547e+00,3.059603691101074219e+00,3.059126853942871094e+00,3.058650016784667969e+00,3.058173179626464844e+00,3.011888027191162109e+00,2.937523126602172852e+00,2.866741657257080078e+00,2.799291133880615234e+00,2.734941720962524414e+00,2.673484325408935547e+00,2.614728450775146484e+00,2.558499336242675781e+00,2.504637956619262695e+00,2.452997446060180664e+00,2.403443336486816406e+00,2.355851888656616211e+00,2.310108184814453125e+00,2.266107320785522461e+00,2.223751306533813477e+00,2.182949781417846680e+00,2.143618106842041016e+00,2.105679035186767578e+00,2.069059371948242188e+00,2.033691883087158203e+00,1.999513149261474609e+00,1.966464161872863770e+00,1.934489846229553223e+00,1.903538703918457031e+00,1.873562335968017578e+00,1.844515442848205566e+00
2.605040788650512695e+00,2.604695081710815430e+00,2.604349374771118164e+00,2.604003667831420898e+00,2.603658199310302734e+00,2.603312730789184570e+00,2.602967500686645508e+00,2.602622509002685547e+00,2.602277278900146484e+00,2.601932287216186523e+00,2.601587295532226562e+00,2.601242303848266602e+00,2.600897550582885742e+00,2.600552797317504883e+00,2.600208282470703125e+00,2.599863767623901367e+00,2.599519252777099609e+00,2.599174976348876953e+00,2.598830699920654297e+00,2.598486661911010742e+00,2.598142623901367188e+00,2.597798585891723633e+00,2.597454786300659180e+00,2.597110986709594727e+00,2.596767187118530273e+00,2.596423625946044922e+00,2.596080064773559570e+00,2.595736742019653320e+00,2.595393419265747070e+00,2.595050096511840820e+00,2.594707012176513672e+00,2.594363927841186523e+00,2.594021081924438477e+00,2.593677997589111328e+00,2.593335390090942383e+00,2.592992782592773438e+00,2.592650175094604492e+00,2.592307806015014648e+00,2.591965198516845703e+00,2.591622829437255859e+00,2.591280698776245117e+00,2.590938568115234375e+00,2.590596437454223633e+00,2.590254545211791992e+00,2.589912652969360352e+00,2.589570760726928711e+00,2.589229106903076172e+00,2.588887453079223633e+00,2.588546037673950195e+00,2.588204622268676758e+00,2.587863206863403320e+00,2.587522029876708984e+00,2.587180852890014648e+00,2.586839914321899414e+00,2.586498737335205078e+00,2.586158037185668945e+00,2.585817098617553711e+00,2.585476398468017578e+00,2.585135936737060547e+00,2.584795236587524414e+00,2.584454774856567383e+00,2.558538198471069336e+00,2.504674911499023438e+00,2.453032970428466797e+00,2.403477430343627930e+00,2.355884552001953125e+00,2.310139894485473633e+00,2.266137838363647461e+00,2.223780632019042969e+00,2.182977914810180664e+00,2.143645524978637695e+00,2.105705261230468750e+00,2.069084644317626953e+00,2.033716201782226562e+00,1.999536752700805664e+00,1.966486930847167969e+00,1.934511899948120117e+00,1.903560042381286621e+00,1.873583078384399414e+00,1.844535589218139648e+00
2.255082845687866211e+00,2.254822015762329102e+00,2.254561185836791992e+00,2.254300594329833984e+00,2.254040002822875977e+00,2.253779172897338867e+00,2.253518819808959961e+00,2.253258228302001953e+00,2.252997875213623047e+00,2.252737522125244141e+00,2.252477169036865234e+00,2.252217054367065430e+00,2.251956701278686523e+00,2.251696586608886719e+00,2.251436710357666016e+00,2.251176595687866211e+00,2.250916719436645508e+00,2.250656843185424805e+00,2.250396966934204102e+00,2.250137090682983398e+00,2.249877452850341797e+00,2.249617815017700195e+00,2.249358177185058594e+00,2.249098777770996094e+00,2.248840332031250000e+00,2.248582601547241211e+00,2.248324871063232422e+00,2.248067617416381836e+00,2.247809886932373047e+00,2.247552633285522461e+00,2.247295141220092773e+00,2.247037887573242188e+00,2.246780395507812500e+00,2.246523380279541016e+00,2.246266126632690430e+00,2.246008872985839844e+00,2.245751857757568359e+00,2.245494842529296875e+00,2.245238065719604492e+00,2.244981050491333008e+00,2.244724273681640625e+00,2.244467496871948242e+00,2.244210720062255859e+00,2.243954181671142578e+00,2.243697643280029297e+00,2.243441104888916016e+00,2.243184566497802734e+00,2.242928266525268555e+00,2.242671966552734375e+00,2.242415666580200195e+00,2.242159366607666016e+00,2.241903066635131836e+00,2.241647005081176758e+00,2.241390943527221680e+00,2.241135120391845703e+00,2.240879297256469727e+00,2.240623235702514648e+00,2.240367412567138672e+00,2.240111827850341797e+00,2.239856004714965820e+00,2.239600419998168945e+00,2.239344835281372070e+00,2.239089250564575195e+00,2.238833904266357422e+00,2.238578319549560547e+00,2.238322973251342773e+00,2.238067865371704102e+00,2.237812519073486328e+00,2.223809957504272461e+00,2.183006048202514648e+00,2.143672466278076172e+00,2.105731725692749023e+00,2.069110155105590820e+00,2.033740758895874023e+00,1.999560236930847168e+00,1.966509819030761719e+00,1.934533953666687012e+00,1.903581380844116211e+00,1.873603701591491699e+00,1.844555616378784180e+00
1.988090276718139648e+00,1.987887740135192871e+00,1.987684965133666992e+00,1.987482190132141113e+00,1.987279772758483887e+00,1.987077116966247559e+00,1.986874461174011230e+00,1.986672163009643555e+00,1.986469626426696777e+00,1.986267089843750000e+00,1.986064910888671875e+00,1.985862493515014648e+00,1.985660433769226074e+00,1.985458135604858398e+00,1.985255837440490723e+00,1.985053777694702148e+00,1.984851598739624023e+00,1.984649419784545898e+00,1.984447479248046875e+00,1.984245419502258301e+00,1.984043478965759277e+00,1.983841657638549805e+00,1.983639717102050781e+00,1.983437776565551758e+00,1.983236193656921387e+00,1.983034372329711914e+00,1.982832551002502441e+00,1.982631087303161621e+00,1.982429385185241699e+00,1.982227683067321777e+00,1.982026338577270508e+00,1.981824755668640137e+00,1.981623172760009766e+00,1.981421947479248047e+00,1.981220483779907227e+00,1.981019020080566406e+00,1.980817914009094238e+00,1.980616569519042969e+00,1.980415225028991699e+00,1.980214238166809082e+00,1.980013012886047363e+00,1.979812026023864746e+00,1.979610919952392578e+00,1.979409813880920410e+00,1.979208946228027344e+00,1.979007959365844727e+00,1.978806972503662109e+00,1.978606343269348145e+00,1.978405356407165527e+00,1.978204607963562012e+00,1.978003978729248047e+00,1.977803230285644531e+00,1.977602481842041016e+00,1.977401971817016602e+00,1.977201342582702637e+00,1.977000713348388672e+00,1.976800441741943359e+00,1.976599931716918945e+00,1.976399421691894531e+00,1.976199150085449219e+00,1.975998759269714355e+00,1.975798487663269043e+00,1.975598335266113281e+00,1.975398063659667969e+00,1.975197792053222656e+00,1.974997878074645996e+00,1.974797725677490234e+00,1.974597573280334473e+00,1.974397778511047363e+00,1.974197745323181152e+00,1.973997950553894043e+00,1.973797917366027832e+00,1.973598003387451172e+00,1.973398447036743164e+00,1.973198533058166504e+00,1.966532588005065918e+00,1.934556245803833008e+00,1.903603076934814453e+00,1.873624682426452637e+00,1.844575881958007812e+00
1.777626752853393555e+00,1.777464509010314941e+00,1.777302622795104980e+00,1.777140498161315918e+00,1.776978492736816406e+00,1.776816606521606445e+00,1.776654601097106934e+00,1.776492595672607422e+00,1.776330947875976562e+00,1.776168942451477051e+00,1.776007294654846191e+00,1.775845408439636230e+00,1.775683641433715820e+00,1.775521993637084961e+00,1.775360226631164551e+00,1.775198459625244141e+00,1.775036931037902832e+00,1.774875283241271973e+00,1.774713635444641113e+00,1.774552226066589355e+00,1.774390578269958496e+00,1.774229049682617188e+00,1.774067640304565430e+00,1.773906230926513672e+00,1.773744702339172363e+00,1.773583412170410156e+00,1.773422002792358398e+00,1.773260593414306641e+00,1.773099422454833984e+00,1.772938132286071777e+00,1.772776842117309570e+00,1.772615790367126465e+00,1.772454500198364258e+00,1.772293329238891602e+00,1.772132277488708496e+00,1.771971106529235840e+00,1.771810054779052734e+00,1.771649122238159180e+00,1.771488070487976074e+00,1.771327257156372070e+00,1.771166205406188965e+00,1.771005272865295410e+00,1.770844459533691406e+00,1.770683526992797852e+00,1.770522594451904297e+00,1.770362019538879395e+00,1.770201086997985840e+00,1.770040273666381836e+00,1.769879698753356934e+00,1.769719004631042480e+00,1.769558310508728027e+00,1.769397735595703125e+00,1.769237160682678223e+00,1.769076466560363770e+00,1.768916130065917969e+00,1.768755555152893066e+00,1.768594980239868164e+00,1.768434643745422363e+00,1.768274188041687012e+00,1.768113732337951660e+00,1.767953515052795410e+00,1.767793059349060059e+00,1.767632722854614258e+00,1.767472624778747559e+00,1.767312288284301758e+00,1.767151951789855957e+00,1.766991972923278809e+00,1.766831755638122559e+00,1.766671657562255859e+00,1.766511559486389160e+00,1.766351461410522461e+00,1.766191482543945312e+00,1.766031384468078613e+00,1.765871405601501465e+00,1.765711545944213867e+00,1.765551567077636719e+00,1.765391707420349121e+00,1.765231966972351074e+00,1.765071988105773926e+00,1.764912128448486328e+00
1.607457756996154785e+00,1.607325077056884766e+00,1.607192516326904297e+00,1.607060194015502930e+00,1.606927633285522461e+00,1.606795072555541992e+00,1.606662750244140625e+00,1.606530308723449707e+00,1.606397986412048340e+00,1.606265664100646973e+00,1.606133222579956055e+00,1.606001019477844238e+00,1.605868697166442871e+00,1.605736255645751953e+00,1.605604171752929688e+00,1.605471849441528320e+00,1.605339646339416504e+00,1.605207443237304688e+00,1.605075240135192871e+00,1.604943037033081055e+00,1.604811072349548340e+00,1.604678869247436523e+00,1.604546785354614258e+00,1.604414820671081543e+00,1.604282736778259277e+00,1.604150652885437012e+00,1.604018688201904297e+00,1.603886723518371582e+00,1.603754639625549316e+00,1.603622913360595703e+00,1.603490948677062988e+00,1.603358983993530273e+00,1.603227138519287109e+00,1.603095293045043945e+00,1.602963447570800781e+00,1.602831721305847168e+00,1.602699875831604004e+00,1.602568268775939941e+00,1.602436423301696777e+00,1.602304697036743164e+00,1.602173089981079102e+00,1.602041363716125488e+00,1.601909637451171875e+00,1.601778149604797363e+00,1.601646423339843750e+00,1.601514816284179688e+00,1.601383328437805176e+00,1.601251721382141113e+00,1.601120233535766602e+00,1.600988864898681641e+00,1.600857257843017578e+00,1.600725769996643066e+00,1.600594401359558105e+00,1.600463032722473145e+00,1.600331544876098633e+00,1.600200295448303223e+00,1.600068926811218262e+00,1.599937438964843750e+00,1.599806189537048340e+00,1.599674940109252930e+00,1.599543571472167969e+00,1.599412441253662109e+00,1.599281191825866699e+00,1.599149942398071289e+00,1.599018812179565430e+00,1.598887681961059570e+00,1.598756432533264160e+00,1.598625421524047852e+00,1.598494291305541992e+00,1.598363399505615234e+00,1.598232269287109375e+00,1.598101139068603516e+00,1.597970247268676758e+00,1.597839236259460449e+00,1.597708225250244141e+00,1.597577452659606934e+00,1.597446441650390625e+00,1.597315430641174316e+00,1.597184658050537109e+00,1.597053766250610352e+00
1.467022180557250977e+00,1.466911911964416504e+00,1.466801404953002930e+00,1.466691017150878906e+00,1.466580748558044434e+00,1.466470360755920410e+00,1.466360211372375488e+00,1.466249823570251465e+00,1.466139554977416992e+00,1.466029286384582520e+00,1.465919017791748047e+00,1.465808749198913574e+00,1.465698599815368652e+00,1.465588450431823730e+00,1.465478181838989258e+00,1.465368032455444336e+00,1.465257883071899414e+00,1.465147733688354492e+00,1.465037703514099121e+00,1.464927554130554199e+00,1.464817404747009277e+00,1.464707493782043457e+00,1.464597344398498535e+00,1.464487314224243164e+00,1.464377284049987793e+00,1.464267253875732422e+00,1.464157223701477051e+00,1.464047431945800781e+00,1.463937401771545410e+00,1.463827371597290039e+00,1.463717579841613770e+00,1.463607668876647949e+00,1.463497757911682129e+00,1.463387966156005859e+00,1.463278055191040039e+00,1.463168263435363770e+00,1.463058471679687500e+00,1.462948560714721680e+00,1.462838888168334961e+00,1.462729096412658691e+00,1.462619304656982422e+00,1.462509632110595703e+00,1.462399840354919434e+00,1.462290167808532715e+00,1.462180495262145996e+00,1.462070822715759277e+00,1.461961150169372559e+00,1.461851596832275391e+00,1.461741924285888672e+00,1.461632251739501953e+00,1.461522817611694336e+00,1.461413145065307617e+00,1.461303591728210449e+00,1.461194157600402832e+00,1.461084604263305664e+00,1.460975050926208496e+00,1.460865616798400879e+00,1.460756063461303711e+00,1.460646629333496094e+00,1.460537314414978027e+00,1.460427761077880859e+00,1.460318326950073242e+00,1.460209012031555176e+00,1.460099577903747559e+00,1.459990262985229492e+00,1.459880948066711426e+00,1.459771633148193359e+00,1.459662318229675293e+00,1.459553003311157227e+00,1.459443688392639160e+00,1.459334492683410645e+00,1.459225296974182129e+00,1.459115982055664062e+00,1.459006905555725098e+00,1.458897590637207031e+00,1.458788394927978516e+00,1.458679318428039551e+00,1.458570122718811035e+00,1.458460927009582520e+00,1.458351969718933105e+00
1.349153518676757812e+00,1.349060058593750000e+00,1.348966836929321289e+00,1.348873376846313477e+00,1.348780155181884766e+00,1.348686814308166504e+00,1.348593473434448242e+00,1.348500251770019531e+00,1.348406910896301270e+00,1.348313570022583008e+00,1.348220467567443848e+00,1.348127126693725586e+00,1.348033905029296875e+00,1.347940802574157715e+00,1.347847461700439453e+00,1.347754240036010742e+00,1.347661137580871582e+00,1.347568035125732422e+00,1.347474813461303711e+00,1.347381711006164551e+00,1.347288608551025391e+00,1.347195506095886230e+00,1.347102403640747070e+00,1.347009301185607910e+00,1.346916198730468750e+00,1.346823215484619141e+00,1.346730113029479980e+00,1.346637010574340820e+00,1.346544146537780762e+00,1.346451044082641602e+00,1.346358060836791992e+00,1.346265077590942383e+00,1.346172094345092773e+00,1.346079230308532715e+00,1.345986247062683105e+00,1.345893263816833496e+00,1.345800399780273438e+00,1.345707535743713379e+00,1.345614552497863770e+00,1.345521807670593262e+00,1.345428824424743652e+00,1.345335960388183594e+00,1.345243215560913086e+00,1.345150351524353027e+00,1.345057487487792969e+00,1.344964742660522461e+00,1.344871878623962402e+00,1.344779133796691895e+00,1.344686388969421387e+00,1.344593644142150879e+00,1.344500780105590820e+00,1.344408154487609863e+00,1.344315409660339355e+00,1.344222664833068848e+00,1.344130039215087891e+00,1.344037294387817383e+00,1.343944668769836426e+00,1.343852043151855469e+00,1.343759417533874512e+00,1.343666791915893555e+00,1.343574166297912598e+00,1.343481540679931641e+00,1.343388915061950684e+00,1.343296408653259277e+00,1.343203783035278320e+00,1.343111395835876465e+00,1.343018770217895508e+00,1.342926263809204102e+00,1.342833757400512695e+00,1.342741250991821289e+00,1.342648744583129883e+00,1.342556357383728027e+00,1.342463850975036621e+00,1.342371344566345215e+00,1.342278957366943359e+00,1.342186570167541504e+00,1.342094063758850098e+00,1.342001795768737793e+00,1.341909289360046387e+00,1.341816902160644531e+00
1.248816609382629395e+00,1.248736619949340820e+00,1.248656749725341797e+00,1.248576641082763672e+00,1.248496651649475098e+00,1.248416781425476074e+00,1.248336791992187500e+00,1.248256802558898926e+00,1.248176932334899902e+00,1.248097062110900879e+00,1.248017072677612305e+00,1.247937202453613281e+00,1.247857332229614258e+00,1.247777462005615234e+00,1.247697591781616211e+00,1.247617721557617188e+00,1.247537851333618164e+00,1.247458100318908691e+00,1.247378230094909668e+00,1.247298359870910645e+00,1.247218608856201172e+00,1.247138857841491699e+00,1.247058987617492676e+00,1.246979236602783203e+00,1.246899485588073730e+00,1.246819734573364258e+00,1.246739983558654785e+00,1.246660232543945312e+00,1.246580481529235840e+00,1.246500849723815918e+00,1.246421098709106445e+00,1.246341466903686523e+00,1.246261835098266602e+00,1.246182084083557129e+00,1.246102452278137207e+00,1.246022820472717285e+00,1.245943069458007812e+00,1.245863556861877441e+00,1.245783925056457520e+00,1.245704293251037598e+00,1.245624661445617676e+00,1.245545148849487305e+00,1.245465517044067383e+00,1.245386004447937012e+00,1.245306372642517090e+00,1.245226860046386719e+00,1.245147347450256348e+00,1.245067715644836426e+00,1.244988203048706055e+00,1.244908809661865234e+00,1.244829297065734863e+00,1.244749665260314941e+00,1.244670271873474121e+00,1.244590759277343750e+00,1.244511365890502930e+00,1.244431972503662109e+00,1.244352459907531738e+00,1.244272947311401367e+00,1.244193673133850098e+00,1.244114160537719727e+00,1.244034767150878906e+00,1.243955492973327637e+00,1.243876099586486816e+00,1.243796706199645996e+00,1.243717312812805176e+00,1.243637919425964355e+00,1.243558645248413086e+00,1.243479371070861816e+00,1.243399977684020996e+00,1.243320703506469727e+00,1.243241429328918457e+00,1.243162155151367188e+00,1.243082880973815918e+00,1.243003606796264648e+00,1.242924332618713379e+00,1.242845177650451660e+00,1.242765903472900391e+00,1.242686629295349121e+00,1.242607474327087402e+00,1.242528200149536133e+00
1.162370920181274414e+00,1.162301540374755859e+00,1.162232279777526855e+00,1.162163019180297852e+00,1.162093639373779297e+00,1.162024378776550293e+00,1.161955237388610840e+00,1.161885857582092285e+00,1.161816596984863281e+00,1.161747455596923828e+00,1.161678194999694824e+00,1.161608934402465820e+00,1.161539793014526367e+00,1.161470532417297363e+00,1.161401271820068359e+00,1.161332130432128906e+00,1.161262989044189453e+00,1.161193728446960449e+00,1.161124587059020996e+00,1.161055445671081543e+00,1.160986304283142090e+00,1.160917162895202637e+00,1.160848021507263184e+00,1.160778880119323730e+00,1.160709738731384277e+00,1.160640716552734375e+00,1.160571575164794922e+00,1.160502433776855469e+00,1.160433411598205566e+00,1.160364389419555664e+00,1.160295248031616211e+00,1.160226225852966309e+00,1.160157203674316406e+00,1.160088062286376953e+00,1.160019040107727051e+00,1.159950017929077148e+00,1.159880995750427246e+00,1.159811973571777344e+00,1.159743070602416992e+00,1.159674048423767090e+00,1.159605026245117188e+00,1.159536004066467285e+00,1.159467101097106934e+00,1.159398078918457031e+00,1.159329175949096680e+00,1.159260153770446777e+00,1.159191250801086426e+00,1.159122347831726074e+00,1.159053444862365723e+00,1.158984422683715820e+00,1.158915638923645020e+00,1.158846735954284668e+00,1.158777832984924316e+00,1.158708930015563965e+00,1.158640027046203613e+00,1.158571124076843262e+00,1.158502340316772461e+00,1.158433437347412109e+00,1.158364653587341309e+00,1.158295869827270508e+00,1.158226966857910156e+00,1.158158302307128906e+00,1.158089399337768555e+00,1.158020615577697754e+00,1.157951831817626953e+00,1.157883048057556152e+00,1.157814264297485352e+00,1.157745599746704102e+00,1.157676815986633301e+00,1.157608032226562500e+00,1.157539248466491699e+00,1.157470583915710449e+00,1.157401800155639648e+00,1.157333135604858398e+00,1.157264351844787598e+00,1.157195687294006348e+00,1.157127022743225098e+00,1.157058358192443848e+00,1.156989574432373047e+00,1.156921029090881348e+00
1.087118148803710938e+00,1.087057590484619141e+00,1.086996912956237793e+00,1.086936235427856445e+00,1.086875796318054199e+00,1.086815118789672852e+00,1.086754560470581055e+00,1.086694002151489258e+00,1.086633324623107910e+00,1.086572766304016113e+00,1.086512207984924316e+00,1.086451649665832520e+00,1.086391091346740723e+00,1.086330652236938477e+00,1.086270093917846680e+00,1.086209535598754883e+00,1.086148977279663086e+00,1.086088538169860840e+00,1.086027979850769043e+00,1.085967540740966797e+00,1.085906982421875000e+00,1.085846424102783203e+00,1.085785984992980957e+00,1.085725545883178711e+00,1.085665106773376465e+00,1.085604667663574219e+00,1.085544109344482422e+00,1.085483789443969727e+00,1.085423350334167480e+00,1.085362792015075684e+00,1.085302472114562988e+00,1.085242033004760742e+00,1.085181593894958496e+00,1.085121154785156250e+00,1.085060834884643555e+00,1.085000395774841309e+00,1.084940075874328613e+00,1.084879636764526367e+00,1.084819197654724121e+00,1.084758877754211426e+00,1.084698557853698730e+00,1.084638118743896484e+00,1.084577798843383789e+00,1.084517478942871094e+00,1.084457159042358398e+00,1.084396839141845703e+00,1.084336519241333008e+00,1.084276199340820312e+00,1.084215879440307617e+00,1.084155559539794922e+00,1.084095239639282227e+00,1.084035038948059082e+00,1.083974719047546387e+00,1.083914399147033691e+00,1.083854198455810547e+00,1.083793878555297852e+00,1.083733677864074707e+00,1.083673477172851562e+00,1.083613157272338867e+00,1.083552956581115723e+00,1.083492755889892578e+00,1.083432435989379883e+00,1.083372354507446289e+00,1.083312034606933594e+00,1.083251833915710449e+00,1.083191752433776855e+00,1.083131551742553711e+00,1.083071351051330566e+00,1.083011150360107422e+00,1.082950949668884277e+00,1.082890748977661133e+00,1.082830667495727539e+00,1.082770466804504395e+00,1.082710385322570801e+00,1.082650303840637207e+00,1.082590103149414062e+00,1.082530021667480469e+00,1.082469940185546875e+00,1.082409739494323730e+00,1.082349658012390137e+00
1.021016836166381836e+00,1.020963311195373535e+00,1.020909905433654785e+00,1.020856380462646484e+00,1.020802974700927734e+00,1.020749568939208984e+00,1.020696043968200684e+00,1.020642638206481934e+00,1.020589232444763184e+00,1.020535707473754883e+00,1.020482301712036133e+00,1.020428895950317383e+00,1.020375490188598633e+00,1.020322084426879883e+00,1.020268678665161133e+00,1.020215272903442383e+00,1.020161867141723633e+00,1.020108580589294434e+00,1.020055174827575684e+00,1.020001769065856934e+00,1.019948363304138184e+00,1.019895076751708984e+00,1.019841670989990234e+00,1.019788384437561035e+00,1.019734978675842285e+00,1.019681692123413086e+00,1.019628286361694336e+00,1.019574999809265137e+00,1.019521713256835938e+00,1.019468307495117188e+00,1.019415020942687988e+00,1.019361734390258789e+00,1.019308447837829590e+00,1.019255161285400391e+00,1.019201874732971191e+00,1.019148588180541992e+00,1.019095301628112793e+00,1.019042015075683594e+00,1.018988728523254395e+00,1.018935441970825195e+00,1.018882274627685547e+00,1.018828988075256348e+00,1.018775701522827148e+00,1.018722534179687500e+00,1.018669247627258301e+00,1.018615961074829102e+00,1.018562793731689453e+00,1.018509507179260254e+00,1.018456339836120605e+00,1.018403172492980957e+00,1.018349885940551758e+00,1.018296718597412109e+00,1.018243551254272461e+00,1.018190383911132812e+00,1.018137097358703613e+00,1.018084049224853516e+00,1.018030881881713867e+00,1.017977714538574219e+00,1.017924547195434570e+00,1.017871379852294922e+00,1.017818212509155273e+00,1.017765045166015625e+00,1.017711877822875977e+00,1.017658829689025879e+00,1.017605662345886230e+00,1.017552614212036133e+00,1.017499446868896484e+00,1.017446398735046387e+00,1.017393231391906738e+00,1.017340183258056641e+00,1.017287015914916992e+00,1.017233967781066895e+00,1.017180919647216797e+00,1.017127871513366699e+00,1.017074704170227051e+00,1.017021775245666504e+00,1.016968607902526855e+00,1.016915559768676758e+00,1.016862511634826660e+00,1.016809463500976562e+00
9.624933004379272461e-01,9.624457955360412598e-01,9.623981714248657227e-01,9.623507261276245117e-01,9.623032212257385254e-01,9.622556567192077637e-01,9.622082114219665527e-01,9.621607661247253418e-01,9.621132016181945801e-01,9.620657563209533691e-01,9.620183110237121582e-01,9.619707465171813965e-01,9.619233012199401855e-01,9.618759155273437500e-01,9.618283510208129883e-01,9.617809653282165527e-01,9.617335200309753418e-01,9.616860151290893555e-01,9.616385698318481445e-01,9.615911841392517090e-01,9.615436792373657227e-01,9.614962935447692871e-01,9.614489078521728516e-01,9.614015221595764160e-01,9.613540768623352051e-01,9.613066911697387695e-01,9.612593054771423340e-01,9.612118601799011230e-01,9.611644744873046875e-01,9.611171483993530273e-01,9.610696434974670410e-01,9.610223174095153809e-01,9.609749913215637207e-01,9.609275460243225098e-01,9.608802199363708496e-01,9.608328938484191895e-01,9.607854485511779785e-01,9.607381224632263184e-01,9.606908559799194336e-01,9.606434106826782227e-01,9.605960845947265625e-01,9.605488181114196777e-01,9.605014324188232422e-01,9.604541063308715820e-01,9.604068398475646973e-01,9.603594541549682617e-01,9.603121876716613770e-01,9.602649211883544922e-01,9.602175354957580566e-01,9.601702690124511719e-01,9.601230025291442871e-01,9.600756764411926270e-01,9.600284099578857422e-01,9.599811434745788574e-01,9.599338173866271973e-01,9.598865509033203125e-01,9.598393440246582031e-01,9.597920179367065430e-01,9.597448110580444336e-01,9.596976041793823242e-01,9.596502780914306641e-01,9.596030712127685547e-01,9.595558643341064453e-01,9.595085382461547852e-01,9.594613909721374512e-01,9.594141840934753418e-01,9.593668580055236816e-01,9.593197107315063477e-01,9.592725634574890137e-01,9.592252373695373535e-01,9.591780900955200195e-01,9.591309428215026855e-01,9.590836763381958008e-01,9.590365290641784668e-01,9.589893817901611328e-01,9.589421153068542480e-01,9.588949680328369141e-01,9.588478803634643555e-01,9.588006138801574707e-01,9.587535262107849121e-01
9.103149771690368652e-01,9.102724790573120117e-01,9.102299213409423828e-01,9.101874828338623047e-01,9.101449847221374512e-01,9.101024270057678223e-01,9.100599884986877441e-01,9.100175499916076660e-01,9.099749922752380371e-01,9.099325537681579590e-01,9.098901152610778809e-01,9.098475575447082520e-01,9.098051190376281738e-01,9.097626805305480957e-01,9.097201824188232422e-01,9.096777439117431641e-01,9.096353650093078613e-01,9.095928072929382324e-01,9.095504283905029297e-01,9.095079898834228516e-01,9.094654917716979980e-01,9.094231128692626953e-01,9.093807339668273926e-01,9.093382358551025391e-01,9.092958569526672363e-01,9.092534780502319336e-01,9.092109799385070801e-01,9.091686010360717773e-01,9.091262817382812500e-01,9.090837836265563965e-01,9.090414047241210938e-01,9.089990854263305664e-01,9.089566469192504883e-01,9.089142680168151855e-01,9.088719487190246582e-01,9.088295102119445801e-01,9.087871313095092773e-01,9.087448120117187500e-01,9.087023735046386719e-01,9.086600542068481445e-01,9.086177349090576172e-01,9.085753560066223145e-01,9.085330367088317871e-01,9.084907174110412598e-01,9.084482789039611816e-01,9.084060192108154297e-01,9.083636999130249023e-01,9.083213210105895996e-01,9.082790017127990723e-01,9.082367420196533203e-01,9.081943631172180176e-01,9.081521034240722656e-01,9.081097841262817383e-01,9.080675244331359863e-01,9.080252051353454590e-01,9.079829454421997070e-01,9.079406857490539551e-01,9.078983068466186523e-01,9.078560471534729004e-01,9.078137874603271484e-01,9.077714681625366211e-01,9.077292084693908691e-01,9.076870083808898926e-01,9.076446890830993652e-01,9.076024293899536133e-01,9.075602293014526367e-01,9.075179100036621094e-01,9.074757099151611328e-01,9.074334502220153809e-01,9.073911905288696289e-01,9.073489904403686523e-01,9.073067903518676758e-01,9.072644710540771484e-01,9.072222709655761719e-01,9.071800708770751953e-01,9.071378111839294434e-01,9.070956110954284668e-01,9.070534706115722656e-01,9.070112109184265137e-01,9.069690108299255371e-01
8.635030984878540039e-01,8.634647727012634277e-01,8.634265661239624023e-01,8.633883595466613770e-01,8.633500933647155762e-01,8.633118867874145508e-01,8.632736802101135254e-01,8.632353544235229492e-01,8.631971478462219238e-01,8.631590008735656738e-01,8.631207346916198730e-01,8.630825281143188477e-01,8.630443215370178223e-01,8.630060553550720215e-01,8.629679083824157715e-01,8.629297018051147461e-01,8.628914356231689453e-01,8.628532886505126953e-01,8.628151416778564453e-01,8.627769947052001953e-01,8.627387285232543945e-01,8.627005815505981445e-01,8.626624345779418945e-01,8.626241683959960938e-01,8.625860810279846191e-01,8.625479340553283691e-01,8.625096678733825684e-01,8.624715805053710938e-01,8.624334335327148438e-01,8.623952269554138184e-01,8.623570799827575684e-01,8.623189926147460938e-01,8.622807860374450684e-01,8.622426390647888184e-01,8.622045516967773438e-01,8.621663451194763184e-01,8.621282577514648438e-01,8.620901703834533691e-01,8.620519638061523438e-01,8.620138764381408691e-01,8.619757890701293945e-01,8.619376420974731445e-01,8.618995547294616699e-01,8.618614673614501953e-01,8.618233203887939453e-01,8.617852330207824707e-01,8.617471456527709961e-01,8.617089986801147461e-01,8.616709709167480469e-01,8.616328835487365723e-01,8.615947365760803223e-01,8.615567088127136230e-01,8.615186214447021484e-01,8.614805340766906738e-01,8.614424467086791992e-01,8.614044189453125000e-01,8.613663315773010254e-01,8.613283038139343262e-01,8.612902760505676270e-01,8.612521290779113770e-01,8.612141013145446777e-01,8.611761331558227539e-01,8.611379861831665039e-01,8.611000180244445801e-01,8.610619902610778809e-01,8.610239028930664062e-01,8.609858751296997070e-01,8.609479069709777832e-01,8.609098196029663086e-01,8.608717918395996094e-01,8.608338236808776855e-01,8.607957363128662109e-01,8.607577681541442871e-01,8.607197999954223633e-01,8.606817722320556641e-01,8.606437444686889648e-01,8.606058359146118164e-01,8.605677485466003418e-01,8.605297803878784180e-01,8.604918122291564941e-01
8.212702274322509766e-01,8.212355971336364746e-01,8.212010264396667480e-01,8.211664557456970215e-01,8.211318254470825195e-01,8.210972547531127930e-01,8.210626840591430664e-01,8.210280537605285645e-01,8.209935426712036133e-01,8.209589719772338867e-01,8.209243416786193848e-01,8.208897709846496582e-01,8.208552598953247070e-01,8.208206295967102051e-01,8.207861185073852539e-01,8.207516074180603027e-01,8.207169771194458008e-01,8.206824660301208496e-01,8.206478953361511230e-01,8.206133246421813965e-01,8.205788135528564453e-01,8.205443024635314941e-01,8.205097317695617676e-01,8.204752206802368164e-01,8.204407095909118652e-01,8.204060792922973633e-01,8.203716278076171875e-01,8.203371167182922363e-01,8.203025460243225098e-01,8.202680349349975586e-01,8.202335834503173828e-01,8.201990127563476562e-01,8.201645016670227051e-01,8.201300501823425293e-01,8.200954794883728027e-01,8.200610280036926270e-01,8.200265169143676758e-01,8.199920058250427246e-01,8.199574947357177734e-01,8.199230432510375977e-01,8.198885321617126465e-01,8.198540806770324707e-01,8.198196291923522949e-01,8.197850584983825684e-01,8.197506070137023926e-01,8.197161555290222168e-01,8.196816444396972656e-01,8.196471929550170898e-01,8.196128010749816895e-01,8.195783495903015137e-01,8.195438385009765625e-01,8.195093870162963867e-01,8.194749951362609863e-01,8.194404840469360352e-01,8.194060921669006348e-01,8.193716406822204590e-01,8.193371295928955078e-01,8.193027377128601074e-01,8.192683458328247070e-01,8.192338347434997559e-01,8.191994428634643555e-01,8.191650509834289551e-01,8.191305994987487793e-01,8.190962076187133789e-01,8.190618157386779785e-01,8.190273046493530273e-01,8.189929723739624023e-01,8.189585804939270020e-01,8.189241290092468262e-01,8.188897371292114258e-01,8.188553452491760254e-01,8.188208937644958496e-01,8.187865614891052246e-01,8.187521696090698242e-01,8.187177181243896484e-01,8.186833858489990234e-01,8.186489939689636230e-01,8.186146020889282227e-01,8.185802102088928223e-01,8.185458779335021973e-01
7.829758524894714355e-01,7.829444408416748047e-01,7.829129695892333984e-01,7.828814983367919922e-01,7.828500866889953613e-01,7.828186750411987305e-01,7.827872037887573242e-01,7.827557921409606934e-01,7.827243804931640625e-01,7.826929092407226562e-01,7.826614975929260254e-01,7.826300859451293945e-01,7.825986146926879883e-01,7.825672030448913574e-01,7.825358510017395020e-01,7.825044393539428711e-01,7.824729681015014648e-01,7.824416160583496094e-01,7.824102044105529785e-01,7.823787927627563477e-01,7.823473811149597168e-01,7.823160290718078613e-01,7.822845578193664551e-01,7.822532057762145996e-01,7.822218537330627441e-01,7.821903824806213379e-01,7.821590304374694824e-01,7.821276783943176270e-01,7.820962667465209961e-01,7.820649147033691406e-01,7.820335626602172852e-01,7.820021510124206543e-01,7.819707989692687988e-01,7.819394469261169434e-01,7.819080352783203125e-01,7.818766832351684570e-01,7.818453311920166016e-01,7.818139195442199707e-01,7.817826271057128906e-01,7.817512750625610352e-01,7.817198634147644043e-01,7.816885709762573242e-01,7.816572189331054688e-01,7.816258668899536133e-01,7.815945148468017578e-01,7.815632224082946777e-01,7.815318107604980469e-01,7.815005183219909668e-01,7.814692258834838867e-01,7.814378738403320312e-01,7.814065217971801758e-01,7.813752293586730957e-01,7.813438773155212402e-01,7.813125848770141602e-01,7.812812924385070801e-01,7.812499403953552246e-01,7.812186479568481445e-01,7.811873555183410645e-01,7.811560034751892090e-01,7.811247110366821289e-01,7.810934782028198242e-01,7.810621261596679688e-01,7.810308337211608887e-01,7.809996008872985840e-01,7.809682488441467285e-01,7.809369564056396484e-01,7.809057235717773438e-01,7.808743715286254883e-01,7.808431386947631836e-01,7.808118462562561035e-01,7.807805538177490234e-01,7.807493209838867188e-01,7.807180285453796387e-01,7.806867361068725586e-01,7.806555032730102539e-01,7.806242704391479492e-01,7.805930376052856445e-01,7.805617451667785645e-01,7.805305123329162598e-01,7.804992794990539551e-01
