5.000000000000000000e+00,5.000000000000000000e+00,5.000000000000000000e+00,5.000000000000000000e+00,5.000000000000000000e+00,5.000000000000000000e+00,5.000000000000000000e+00,5.000000000000000000e+00,5.000000000000000000e+00,5.000000000000000000e+00,5.000000000000000000e+00,5.000000000000000000e+00,5.000000000000000000e+00,5.000000000000000000e+00,5.000000000000000000e+00,5.000000000000000000e+00,5.000000000000000000e+00,5.000000000000000000e+00,5.000000000000000000e+00,5.000000000000000000e+00,5.000000000000000000e+00,5.000000000000000000e+00,5.000000000000000000e+00,5.000000000000000000e+00,5.000000000000000000e+00,5.000000000000000000e+00,5.000000000000000000e+00,5.000000000000000000e+00,5.000000000000000000e+00,5.000000000000000000e+00,2.049976348876953125e+00,2.035736322402954102e+00,2.054298162460327148e+00,2.074430704116821289e+00,2.069005966186523438e+00,2.083359718322753906e+00,2.066663503646850586e+00,2.181628465652465820e+00,2.112677097320556641e+00,5.000000000000000000e+00,5.000000000000000000e+00,5.000000000000000000e+00,5.000000000000000000e+00,4.168652057647705078e+00,4.027547359466552734e+00,3.895682334899902344e+00,3.772178411483764648e+00,3.656265020370483398e+00,3.547262430191040039e+00,3.444571018218994141e+00,3.347658157348632812e+00,3.256049394607543945e+00,3.169320583343505859e+00,3.087092399597167969e+00,3.009023189544677734e+00,2.934804916381835938e+00,2.864159822463989258e+00,2.796835899353027344e+00,2.732604265213012695e+00,2.671256780624389648e+00,2.612603187561035156e+00,2.556469917297363281e+00,2.502698183059692383e+00,2.451141834259033203e+00,2.401666641235351562e+00,2.354149341583251953e+00,2.308475732803344727e+00,2.264540910720825195e+00,2.222246885299682617e+00,2.181503772735595703e+00,2.142227888107299805e+00,2.104341030120849609e+00,2.067771196365356445e+00,2.032450675964355469e+00,1.998316526412963867e+00,1.965309977531433105e+00,1.933375835418701172e+00,1.902463078498840332e+00,1.872523188591003418e+00,1.843511223793029785e+00
5.000000000000000000e+00,5.000000000000000000e+00,5.000000000000000000e+00,5.000000000000000000e+00,5.000000000000000000e+00,5.000000000000000000e+00,5.000000000000000000e+00,5.000000000000000000e+00,5.000000000000000000e+00,5.000000000000000000e+00,5.000000000000000000e+00,5.000000000000000000e+00,5.000000000000000000e+00,5.000000000000000000e+00,5.000000000000000000e+00,5.000000000000000000e+00,5.000000000000000000e+00,5.000000000000000000e+00,5.000000000000000000e+00,5.000000000000000000e+00,5.000000000000000000e+00,5.000000000000000000e+00,5.000000000000000000e+00,5.000000000000000000e+00,5.000000000000000000e+00,5.000000000000000000e+00,5.000000000000000000e+00,5.000000000000000000e+00,5.000000000000000000e+00,5.000000000000000000e+00,2.045286893844604492e+00,2.044539213180541992e+00,2.051707983016967773e+00,2.046444892883300781e+00,2.040911912918090820e+00,2.056373119354248047e+00,2.070152521133422852e+00,2.091762781143188477e+00,2.116468906402587891e+00,2.144782543182373047e+00,2.204184055328369141e+00,2.231001377105712891e+00,4.320113182067871094e+00,4.168754577636718750e+00,4.027643203735351562e+00,3.895771980285644531e+00,3.772262334823608398e+00,3.656343460083007812e+00,3.547336339950561523e+00,3.444640874862670898e+00,3.347723960876464844e+00,3.256111621856689453e+00,3.169379711151123047e+00,3.087148666381835938e+00,3.009076595306396484e+00,2.934855937957763672e+00,2.864208221435546875e+00,2.796881914138793945e+00,2.732648372650146484e+00,2.671298742294311523e+00,2.612643480300903320e+00,2.556508541107177734e+00,2.502735137939453125e+00,2.451177120208740234e+00,2.401700735092163086e+00,2.354182004928588867e+00,2.308507204055786133e+00,2.264571189880371094e+00,2.222275972366333008e+00,2.181531906127929688e+00,2.142254829406738281e+00,2.104367256164550781e+00,2.067796230316162109e+00,2.032474994659423828e+00,1.998340010643005371e+00,1.965332746505737305e+00,1.933398008346557617e+00,1.902484416961669922e+00,1.872543931007385254e+00,1.843531250953674316e+00
5.000000000000000000e+00,5.000000000000000000e+00,5.000000000000000000e+00,5.000000000000000000e+00,5.000000000000000000e+00,5.000000000000000000e+00,5.000000000000000000e+00,5.000000000000000000e+00,5.000000000000000000e+00,5.000000000000000000e+00,5.000000000000000000e+00,5.000000000000000000e+00,5.000000000000000000e+00,5.000000000000000000e+00,5.000000000000000000e+00,5.000000000000000000e+00,5.000000000000000000e+00,5.000000000000000000e+00,5.000000000000000000e+00,5.000000000000000000e+00,5.000000000000000000e+00,5.000000000000000000e+00,5.000000000000000000e+00,5.000000000000000000e+00,5.000000000000000000e+00,5.000000000000000000e+00,5.000000000000000000e+00,5.000000000000000000e+00,5.000000000000000000e+00,5.000000000000000000e+00,2.056174755096435547e+00,2.050045728683471680e+00,2.062153577804565430e+00,2.050424814224243164e+00,2.036225080490112305e+00,2.036490201950073242e+00,2.039948463439941406e+00,2.053369760513305664e+00,2.070451736450195312e+00,2.098611354827880859e+00,2.154587507247924805e+00,2.222536325454711914e+00,4.320223331451416016e+00,4.168857097625732422e+00,4.027738571166992188e+00,3.895861625671386719e+00,3.772346258163452148e+00,3.656422376632690430e+00,3.547410726547241211e+00,3.444710731506347656e+00,3.347790002822875977e+00,3.256174325942993164e+00,3.169438838958740234e+00,3.087204694747924805e+00,3.009129762649536133e+00,2.934906482696533203e+00,2.864256381988525391e+00,2.796927928924560547e+00,2.732692480087280273e+00,2.671340942382812500e+00,2.612683773040771484e+00,2.556547164916992188e+00,2.502772092819213867e+00,2.451212644577026367e+00,2.401734828948974609e+00,2.354214906692504883e+00,2.308538675308227539e+00,2.264601469039916992e+00,2.222305059432983398e+00,2.181560039520263672e+00,2.142282009124755859e+00,2.104393482208251953e+00,2.067821502685546875e+00,2.032499313354492188e+00,1.998363614082336426e+00,1.965355515480041504e+00,1.933420062065124512e+00,1.902505874633789062e+00,1.872564673423767090e+00,1.843551278114318848e+00
5.000000000000000000e+00,5.000000000000000000e+00,5.000000000000000000e+00,5.000000000000000000e+00,5.000000000000000000e+00,5.000000000000000000e+00,5.000000000000000000e+00,5.000000000000000000e+00,5.000000000000000000e+00,5.000000000000000000e+00,5.000000000000000000e+00,5.000000000000000000e+00,5.000000000000000000e+00,5.000000000000000000e+00,5.000000000000000000e+00,5.000000000000000000e+00,5.000000000000000000e+00,5.000000000000000000e+00,5.000000000000000000e+00,5.000000000000000000e+00,5.000000000000000000e+00,5.000000000000000000e+00,5.000000000000000000e+00,5.000000000000000000e+00,5.000000000000000000e+00,5.000000000000000000e+00,5.000000000000000000e+00,5.000000000000000000e+00,5.000000000000000000e+00,5.000000000000000000e+00,2.073536157608032227e+00,2.063306331634521484e+00,2.078252315521240234e+00,2.053366422653198242e+00,2.036494493484497070e+00,2.037729024887084961e+00,2.039906263351440430e+00,2.063375711441040039e+00,2.080892324447631836e+00,2.095395088195800781e+00,2.142019748687744141e+00,2.242213249206542969e+00,2.259302377700805664e+00,4.168959617614746094e+00,4.027834415435791016e+00,3.895951032638549805e+00,3.772430181503295898e+00,3.656501293182373047e+00,3.547484874725341797e+00,3.444780826568603516e+00,3.347856283187866211e+00,3.256236791610717773e+00,3.169498205184936523e+00,3.087260961532592773e+00,3.009183168411254883e+00,2.934957265853881836e+00,2.864304780960083008e+00,2.796974182128906250e+00,2.732736110687255859e+00,2.671382904052734375e+00,2.612723827362060547e+00,2.556585550308227539e+00,2.502808809280395508e+00,2.451247930526733398e+00,2.401768684387207031e+00,2.354247570037841797e+00,2.308570146560668945e+00,2.264631748199462891e+00,2.222334384918212891e+00,2.181588172912597656e+00,2.142309188842773438e+00,2.104419469833374023e+00,2.067846775054931641e+00,2.032523870468139648e+00,1.998387217521667480e+00,1.965378403663635254e+00,1.933442115783691406e+00,1.902527213096618652e+00,1.872585296630859375e+00,1.843571305274963379e+00
5.000000000000000000e+00,5.000000000000000000e+00,5.000000000000000000e+00,5.000000000000000000e+00,5.000000000000000000e+00,5.000000000000000000e+00,5.000000000000000000e+00,5.000000000000000000e+00,5.000000000000000000e+00,5.000000000000000000e+00,5.000000000000000000e+00,5.000000000000000000e+00,5.000000000000000000e+00,5.000000000000000000e+00,5.000000000000000000e+00,5.000000000000000000e+00,5.000000000000000000e+00,5.000000000000000000e+00,5.000000000000000000e+00,5.000000000000000000e+00,5.000000000000000000e+00,5.000000000000000000e+00,5.000000000000000000e+00,5.000000000000000000e+00,5.000000000000000000e+00,5.000000000000000000e+00,5.000000000000000000e+00,5.000000000000000000e+00,5.000000000000000000e+00,5.000000000000000000e+00,2.084941387176513672e+00,2.069086551666259766e+00,2.076059818267822266e+00,2.065646171569824219e+00,2.046936035156250000e+00,2.047715425491333008e+00,2.044505834579467773e+00,2.054488897323608398e+00,2.074574708938598633e+00,2.101982831954956055e+00,2.141364574432373047e+00,2.240247249603271484e+00,2.282855749130249023e+00,4.169062137603759766e+00,4.027929782867431641e+00,3.896040678024291992e+00,3.772514104843139648e+00,3.656580209732055664e+00,3.547559261322021484e+00,3.444850921630859375e+00,3.347922325134277344e+00,3.256299257278442383e+00,3.169557571411132812e+00,3.087316989898681641e+00,3.009236574172973633e+00,2.935008049011230469e+00,2.864353179931640625e+00,2.797020196914672852e+00,2.732780218124389648e+00,2.671424865722656250e+00,2.612764120101928711e+00,2.556623935699462891e+00,2.502845764160156250e+00,2.451283454895019531e+00,2.401802539825439453e+00,2.354279994964599609e+00,2.308601379394531250e+00,2.264661788940429688e+00,2.222363233566284180e+00,2.181616067886352539e+00,2.142336130142211914e+00,2.104445695877075195e+00,2.067872047424316406e+00,2.032548189163208008e+00,1.998410701751708984e+00,1.965401172637939453e+00,1.933464169502258301e+00,1.902548670768737793e+00,1.872606158256530762e+00,1.843591570854187012e+00
5.000000000000000000e+00,5.000000000000000000e+00,5.000000000000000000e+00,5.000000000000000000e+00,5.000000000000000000e+00,5.000000000000000000e+00,5.000000000000000000e+00,5.000000000000000000e+00,5.000000000000000000e+00,5.000000000000000000e+00,5.000000000000000000e+00,5.000000000000000000e+00,5.000000000000000000e+00,5.000000000000000000e+00,5.000000000000000000e+00,5.000000000000000000e+00,5.000000000000000000e+00,5.000000000000000000e+00,5.000000000000000000e+00,5.000000000000000000e+00,5.000000000000000000e+00,5.000000000000000000e+00,5.000000000000000000e+00,5.000000000000000000e+00,5.000000000000000000e+00,5.000000000000000000e+00,5.000000000000000000e+00,5.000000000000000000e+00,5.000000000000000000e+00,5.000000000000000000e+00,2.089458227157592773e+00,2.072562217712402344e+00,2.074082612991333008e+00,2.074966430664062500e+00,2.050939798355102539e+00,2.044539451599121094e+00,2.043849706649780273e+00,2.049454689025878906e+00,2.068252801895141602e+00,2.104700088500976562e+00,2.156681537628173828e+00,2.246224403381347656e+00,2.289729118347167969e+00,4.169164657592773438e+00,4.028025627136230469e+00,3.896130323410034180e+00,3.772598266601562500e+00,3.656659126281738281e+00,3.547633409500122070e+00,3.444920778274536133e+00,3.347988605499267578e+00,3.256361961364746094e+00,3.169616699218750000e+00,3.087373256683349609e+00,3.009289979934692383e+00,2.935058832168579102e+00,2.864401578903198242e+00,2.797066450119018555e+00,2.732824325561523438e+00,2.671467065811157227e+00,2.612804412841796875e+00,2.556662559509277344e+00,2.502882719039916992e+00,2.451318979263305664e+00,2.401836633682250977e+00,2.354312658309936523e+00,2.308632850646972656e+00,2.264692068099975586e+00,2.222392559051513672e+00,2.181644201278686523e+00,2.142363071441650391e+00,2.104471683502197266e+00,2.067897081375122070e+00,2.032572507858276367e+00,1.998434066772460938e+00,1.965423941612243652e+00,1.933486223220825195e+00,1.902570009231567383e+00,1.872626781463623047e+00,1.843611598014831543e+00
5.000000000000000000e+00,5.000000000000000000e+00,5.000000000000000000e+00,5.000000000000000000e+00,5.000000000000000000e+00,5.000000000000000000e+00,5.000000000000000000e+00,5.000000000000000000e+00,5.000000000000000000e+00,5.000000000000000000e+00,5.000000000000000000e+00,5.000000000000000000e+00,5.000000000000000000e+00,5.000000000000000000e+00,5.000000000000000000e+00,5.000000000000000000e+00,5.000000000000000000e+00,5.000000000000000000e+00,5.000000000000000000e+00,5.000000000000000000e+00,5.000000000000000000e+00,5.000000000000000000e+00,5.000000000000000000e+00,5.000000000000000000e+00,5.000000000000000000e+00,5.000000000000000000e+00,5.000000000000000000e+00,5.000000000000000000e+00,5.000000000000000000e+00,5.000000000000000000e+00,2.096375226974487305e+00,2.076049804687500000e+00,2.072108983993530273e+00,2.083704233169555664e+00,2.055640220642089844e+00,2.042633533477783203e+00,2.042517662048339844e+00,2.051596403121948242e+00,2.069262981414794922e+00,2.099360704421997070e+00,2.173475980758666992e+00,2.248515129089355469e+00,2.292638301849365234e+00,4.169267177581787109e+00,4.028121471405029297e+00,3.896219253540039062e+00,3.772681713104248047e+00,3.656737565994262695e+00,3.547707319259643555e+00,3.444990873336791992e+00,3.348054647445678711e+00,3.256424427032470703e+00,3.169676065444946289e+00,3.087429523468017578e+00,3.009343385696411133e+00,2.935109853744506836e+00,2.864450216293334961e+00,2.797112703323364258e+00,2.732868432998657227e+00,2.671509027481079102e+00,2.612844705581665039e+00,2.556701183319091797e+00,2.502919673919677734e+00,2.451354265213012695e+00,2.401870727539062500e+00,2.354345560073852539e+00,2.308664321899414062e+00,2.264722347259521484e+00,2.222421646118164062e+00,2.181672334671020508e+00,2.142390251159667969e+00,2.104497909545898438e+00,2.067922353744506836e+00,2.032596826553344727e+00,1.998457670211791992e+00,1.965446472167968750e+00,1.933508038520812988e+00,1.902591109275817871e+00,1.872647285461425781e+00,1.843631386756896973e+00
5.000000000000000000e+00,5.000000000000000000e+00,5.000000000000000000e+00,5.000000000000000000e+00,5.000000000000000000e+00,5.000000000000000000e+00,5.000000000000000000e+00,5.000000000000000000e+00,5.000000000000000000e+00,5.000000000000000000e+00,5.000000000000000000e+00,5.000000000000000000e+00,5.000000000000000000e+00,5.000000000000000000e+00,5.000000000000000000e+00,5.000000000000000000e+00,5.000000000000000000e+00,5.000000000000000000e+00,5.000000000000000000e+00,5.000000000000000000e+00,5.000000000000000000e+00,5.000000000000000000e+00,5.000000000000000000e+00,5.000000000000000000e+00,5.000000000000000000e+00,5.000000000000000000e+00,5.000000000000000000e+00,5.000000000000000000e+00,5.000000000000000000e+00,5.000000000000000000e+00,2.107698202133178711e+00,2.079329490661621094e+00,2.076463222503662109e+00,2.090090036392211914e+00,2.054530143737792969e+00,2.039880037307739258e+00,2.043566942214965820e+00,2.054641485214233398e+00,2.072169542312622070e+00,2.101798534393310547e+00,2.244441747665405273e+00,2.244551897048950195e+00,2.294681310653686523e+00,4.169369697570800781e+00,4.028216838836669922e+00,3.896308898925781250e+00,3.772765636444091797e+00,3.656816482543945312e+00,3.547781705856323242e+00,3.445060491561889648e+00,3.348120450973510742e+00,3.256486892700195312e+00,3.169734954833984375e+00,3.087485551834106445e+00,3.009396553039550781e+00,2.935160636901855469e+00,2.864498615264892578e+00,2.797158718109130859e+00,2.732912540435791016e+00,2.671551227569580078e+00,2.612884998321533203e+00,2.556739807128906250e+00,2.502956628799438477e+00,2.451389789581298828e+00,2.401904821395874023e+00,2.354378223419189453e+00,2.308695793151855469e+00,2.264752626419067383e+00,2.222450733184814453e+00,2.181700229644775391e+00,2.142417430877685547e+00,2.104523897171020508e+00,2.067947626113891602e+00,2.032621145248413086e+00,1.998481273651123047e+00,1.965469241142272949e+00,1.933530211448669434e+00,1.902612447738647461e+00,1.872668027877807617e+00,1.843651533126831055e+00
5.000000000000000000e+00,5.000000000000000000e+00,5.000000000000000000e+00,5.000000000000000000e+00,5.000000000000000000e+00,5.000000000000000000e+00,5.000000000000000000e+00,5.000000000000000000e+00,5.000000000000000000e+00,5.000000000000000000e+00,5.000000000000000000e+00,5.000000000000000000e+00,5.000000000000000000e+00,5.000000000000000000e+00,5.000000000000000000e+00,5.000000000000000000e+00,5.000000000000000000e+00,5.000000000000000000e+00,5.000000000000000000e+00,5.000000000000000000e+00,5.000000000000000000e+00,5.000000000000000000e+00,5.000000000000000000e+00,5.000000000000000000e+00,5.000000000000000000e+00,5.000000000000000000e+00,5.000000000000000000e+00,5.000000000000000000e+00,5.000000000000000000e+00,5.000000000000000000e+00,2.131965637207031250e+00,2.084019899368286133e+00,2.086718559265136719e+00,2.067143678665161133e+00,2.042883872985839844e+00,2.030279159545898438e+00,2.033521175384521484e+00,2.051033496856689453e+00,2.073541879653930664e+00,2.098909854888916016e+00,2.256028175354003906e+00,2.250063657760620117e+00,2.298928737640380859e+00,4.169471740722656250e+00,4.028312683105468750e+00,3.896398544311523438e+00,3.772849798202514648e+00,3.656895399093627930e+00,3.547855854034423828e+00,3.445130586624145508e+00,3.348186731338500977e+00,3.256549358367919922e+00,3.169794321060180664e+00,3.087541818618774414e+00,3.009449958801269531e+00,2.935211181640625000e+00,2.864546775817871094e+00,2.797204732894897461e+00,2.732956409454345703e+00,2.671593189239501953e+00,2.612925291061401367e+00,2.556778430938720703e+00,2.502993583679199219e+00,2.451425313949584961e+00,2.401938915252685547e+00,2.354410886764526367e+00,2.308727264404296875e+00,2.264782905578613281e+00,2.222479820251464844e+00,2.181728363037109375e+00,2.142444372177124023e+00,2.104550123214721680e+00,2.067972898483276367e+00,2.032645463943481445e+00,1.998504757881164551e+00,1.965492129325866699e+00,1.933552265167236328e+00,1.902633905410766602e+00,1.872688651084899902e+00,1.843671560287475586e+00
5.000000000000000000e+00,5.000000000000000000e+00,5.000000000000000000e+00,5.000000000000000000e+00,5.000000000000000000e+00,5.000000000000000000e+00,5.000000000000000000e+00,5.000000000000000000e+00,5.000000000000000000e+00,5.000000000000000000e+00,5.000000000000000000e+00,5.000000000000000000e+00,5.000000000000000000e+00,5.000000000000000000e+00,5.000000000000000000e+00,5.000000000000000000e+00,5.000000000000000000e+00,5.000000000000000000e+00,5.000000000000000000e+00,5.000000000000000000e+00,5.000000000000000000e+00,5.000000000000000000e+00,5.000000000000000000e+00,5.000000000000000000e+00,5.000000000000000000e+00,5.000000000000000000e+00,5.000000000000000000e+00,5.000000000000000000e+00,5.000000000000000000e+00,5.000000000000000000e+00,5.000000000000000000e+00,2.088731527328491211e+00,2.097075939178466797e+00,2.063534736633300781e+00,2.037667751312255859e+00,2.035337209701538086e+00,2.027744531631469727e+00,2.042696952819824219e+00,2.062649488449096680e+00,2.089662075042724609e+00,2.267578363418579102e+00,2.263254165649414062e+00,4.320993423461914062e+00,4.169574737548828125e+00,4.028408050537109375e+00,3.896488189697265625e+00,3.772933721542358398e+00,3.656974315643310547e+00,3.547930240631103516e+00,3.445200681686401367e+00,3.348252773284912109e+00,3.256611824035644531e+00,3.169853687286376953e+00,3.087598085403442383e+00,3.009503602981567383e+00,2.935261964797973633e+00,2.864595174789428711e+00,2.797250986099243164e+00,2.733000516891479492e+00,2.671635150909423828e+00,2.612965345382690430e+00,2.556816816329956055e+00,2.503030538558959961e+00,2.451460599899291992e+00,2.401972770690917969e+00,2.354443311691284180e+00,2.308758735656738281e+00,2.264813184738159180e+00,2.222509145736694336e+00,2.181756496429443359e+00,2.142471551895141602e+00,2.104576110839843750e+00,2.067998170852661133e+00,2.032670021057128906e+00,1.998528361320495605e+00,1.965514898300170898e+00,1.933574318885803223e+00,1.902655243873596191e+00,1.872709393501281738e+00,1.843691587448120117e+00
5.000000000000000000e+00,5.000000000000000000e+00,5.000000000000000000e+00,5.000000000000000000e+00,5.000000000000000000e+00,5.000000000000000000e+00,5.000000000000000000e+00,5.000000000000000000e+00,5.000000000000000000e+00,5.000000000000000000e+00,5.000000000000000000e+00,5.000000000000000000e+00,5.000000000000000000e+00,5.000000000000000000e+00,5.000000000000000000e+00,5.000000000000000000e+00,5.000000000000000000e+00,5.000000000000000000e+00,5.000000000000000000e+00,5.000000000000000000e+00,5.000000000000000000e+00,5.000000000000000000e+00,5.000000000000000000e+00,5.000000000000000000e+00,5.000000000000000000e+00,5.000000000000000000e+00,5.000000000000000000e+00,5.000000000000000000e+00,5.000000000000000000e+00,5.000000000000000000e+00,5.000000000000000000e+00,2.082384347915649414e+00,2.095184326171875000e+00,2.061746597290039062e+00,2.041599988937377930e+00,2.036612749099731445e+00,2.039837360382080078e+00,2.049878835678100586e+00,2.070323228836059570e+00,2.114392042160034180e+00,2.279299259185791016e+00,2.276453018188476562e+00,4.321103572845458984e+00,4.169677257537841797e+00,4.028503894805908203e+00,3.896577596664428711e+00,3.773017644882202148e+00,3.657053232192993164e+00,3.548004388809204102e+00,3.445270776748657227e+00,3.348319053649902344e+00,3.256674528121948242e+00,3.169912815093994141e+00,3.087654352188110352e+00,3.009557008743286133e+00,2.935312747955322266e+00,2.864643573760986328e+00,2.797297000885009766e+00,2.733044385910034180e+00,2.671677350997924805e+00,2.613005638122558594e+00,2.556855201721191406e+00,2.503067493438720703e+00,2.451495885848999023e+00,2.402006626129150391e+00,2.354476213455200195e+00,2.308789968490600586e+00,2.264843225479125977e+00,2.222537994384765625e+00,2.181784391403198242e+00,2.142498493194580078e+00,2.104602098464965820e+00,2.068023204803466797e+00,2.032694339752197266e+00,1.998551964759826660e+00,1.965537667274475098e+00,1.933596372604370117e+00,1.902676582336425781e+00,1.872730135917663574e+00,1.843711614608764648e+00
5.000000000000000000e+00,5.000000000000000000e+00,5.000000000000000000e+00,5.000000000000000000e+00,5.000000000000000000e+00,5.000000000000000000e+00,5.000000000000000000e+00,5.000000000000000000e+00,5.000000000000000000e+00,5.000000000000000000e+00,5.000000000000000000e+00,5.000000000000000000e+00,5.000000000000000000e+00,5.000000000000000000e+00,5.000000000000000000e+00,5.000000000000000000e+00,5.000000000000000000e+00,5.000000000000000000e+00,5.000000000000000000e+00,5.000000000000000000e+00,5.000000000000000000e+00,5.000000000000000000e+00,5.000000000000000000e+00,5.000000000000000000e+00,5.000000000000000000e+00,5.000000000000000000e+00,5.000000000000000000e+00,5.000000000000000000e+00,5.000000000000000000e+00,5.000000000000000000e+00,5.000000000000000000e+00,2.066711902618408203e+00,2.076692104339599609e+00,2.050094366073608398e+00,2.039180040359497070e+00,2.036164760589599609e+00,2.043206214904785156e+00,2.050302505493164062e+00,2.073964357376098633e+00,2.103699684143066406e+00,2.271679162979125977e+00,2.256833314895629883e+00,2.278739213943481445e+00,4.169779300689697266e+00,4.028599739074707031e+00,3.896667242050170898e+00,3.773101806640625000e+00,3.657132148742675781e+00,3.548078775405883789e+00,3.445340633392333984e+00,3.348385095596313477e+00,3.256736993789672852e+00,3.169972181320190430e+00,3.087710618972778320e+00,3.009610414505004883e+00,2.935363769531250000e+00,2.864691972732543945e+00,2.797343254089355469e+00,2.733088493347167969e+00,2.671719551086425781e+00,2.613045930862426758e+00,2.556893825531005859e+00,2.503104448318481445e+00,2.451531410217285156e+00,2.402040719985961914e+00,2.354508876800537109e+00,2.308821439743041992e+00,2.264873504638671875e+00,2.222567081451416016e+00,2.181812524795532227e+00,2.142525434494018555e+00,2.104628324508666992e+00,2.068048477172851562e+00,2.032718658447265625e+00,1.998575448989868164e+00,1.965560436248779297e+00,1.933618426322937012e+00,1.902697920799255371e+00,1.872750759124755859e+00,1.843731760978698730e+00
5.000000000000000000e+00,5.000000000000000000e+00,5.000000000000000000e+00,5.000000000000000000e+00,5.000000000000000000e+00,5.000000000000000000e+00,5.000000000000000000e+00,5.000000000000000000e+00,5.000000000000000000e+00,5.000000000000000000e+00,5.000000000000000000e+00,5.000000000000000000e+00,5.000000000000000000e+00,5.000000000000000000e+00,5.000000000000000000e+00,5.000000000000000000e+00,5.000000000000000000e+00,5.000000000000000000e+00,5.000000000000000000e+00,5.000000000000000000e+00,5.000000000000000000e+00,5.000000000000000000e+00,5.000000000000000000e+00,5.000000000000000000e+00,5.000000000000000000e+00,5.000000000000000000e+00,5.000000000000000000e+00,5.000000000000000000e+00,5.000000000000000000e+00,5.000000000000000000e+00,5.000000000000000000e+00,2.056132555007934570e+00,2.064969301223754883e+00,2.042739152908325195e+00,2.033069133758544922e+00,2.033227443695068359e+00,2.059588193893432617e+00,2.066974878311157227e+00,2.089023113250732422e+00,2.112487792968750000e+00,2.273701190948486328e+00,2.248808145523071289e+00,2.256331682205200195e+00,4.169881820678710938e+00,4.028695106506347656e+00,3.896756410598754883e+00,3.773185253143310547e+00,3.657210588455200195e+00,3.548152685165405273e+00,3.445410490036010742e+00,3.348450899124145508e+00,3.256799697875976562e+00,3.170031547546386719e+00,3.087766885757446289e+00,3.009663820266723633e+00,2.935414552688598633e+00,2.864740371704101562e+00,2.797389507293701172e+00,2.733132600784301758e+00,2.671761512756347656e+00,2.613086223602294922e+00,2.556932449340820312e+00,2.503141403198242188e+00,2.451566934585571289e+00,2.402074813842773438e+00,2.354541540145874023e+00,2.308852910995483398e+00,2.264903783798217773e+00,2.222596406936645508e+00,2.181840658187866211e+00,2.142552614212036133e+00,2.104654550552368164e+00,2.068073749542236328e+00,2.032742977142333984e+00,1.998599052429199219e+00,1.965583324432373047e+00,1.933640480041503906e+00,1.902719259262084961e+00,1.872771501541137695e+00,1.843751788139343262e+00
5.000000000000000000e+00,5.000000000000000000e+00,5.000000000000000000e+00,5.000000000000000000e+00,5.000000000000000000e+00,5.000000000000000000e+00,5.000000000000000000e+00,5.000000000000000000e+00,5.000000000000000000e+00,5.000000000000000000e+00,5.000000000000000000e+00,5.000000000000000000e+00,5.000000000000000000e+00,5.000000000000000000e+00,5.000000000000000000e+00,5.000000000000000000e+00,5.000000000000000000e+00,5.000000000000000000e+00,5.000000000000000000e+00,5.000000000000000000e+00,5.000000000000000000e+00,5.000000000000000000e+00,5.000000000000000000e+00,5.000000000000000000e+00,5.000000000000000000e+00,5.000000000000000000e+00,5.000000000000000000e+00,5.000000000000000000e+00,5.000000000000000000e+00,5.000000000000000000e+00,5.000000000000000000e+00,2.049517393112182617e+00,2.055622816085815430e+00,2.035783529281616211e+00,2.021385908126831055e+00,2.024986028671264648e+00,2.063861608505249023e+00,2.086952686309814453e+00,2.105022192001342773e+00,2.102721214294433594e+00,2.146469354629516602e+00,2.245748281478881836e+00,2.241183757781982422e+00,4.169984817504882812e+00,4.028790950775146484e+00,3.896846055984497070e+00,3.773269414901733398e+00,3.657289743423461914e+00,3.548226833343505859e+00,3.445480585098266602e+00,3.348517179489135742e+00,3.256861925125122070e+00,3.170090436935424805e+00,3.087822914123535156e+00,3.009716987609863281e+00,2.935465097427368164e+00,2.864788532257080078e+00,2.797435522079467773e+00,2.733176708221435547e+00,2.671803712844848633e+00,2.613126516342163086e+00,2.556971073150634766e+00,2.503178358078002930e+00,2.451602458953857422e+00,2.402108907699584961e+00,2.354574203491210938e+00,2.308884382247924805e+00,2.264934062957763672e+00,2.222625494003295898e+00,2.181868791580200195e+00,2.142579793930053711e+00,2.104680538177490234e+00,2.068098783493041992e+00,2.032767295837402344e+00,1.998622655868530273e+00,1.965606093406677246e+00,1.933662533760070801e+00,1.902740716934204102e+00,1.872792124748229980e+00,1.843771815299987793e+00
5.000000000000000000e+00,5.000000000000000000e+00,5.000000000000000000e+00,5.000000000000000000e+00,5.000000000000000000e+00,5.000000000000000000e+00,5.000000000000000000e+00,5.000000000000000000e+00,5.000000000000000000e+00,5.000000000000000000e+00,5.000000000000000000e+00,5.000000000000000000e+00,5.000000000000000000e+00,5.000000000000000000e+00,5.000000000000000000e+00,5.000000000000000000e+00,5.000000000000000000e+00,5.000000000000000000e+00,5.000000000000000000e+00,5.000000000000000000e+00,5.000000000000000000e+00,5.000000000000000000e+00,5.000000000000000000e+00,5.000000000000000000e+00,5.000000000000000000e+00,5.000000000000000000e+00,5.000000000000000000e+00,5.000000000000000000e+00,5.000000000000000000e+00,5.000000000000000000e+00,5.000000000000000000e+00,2.035274267196655273e+00,2.042551994323730469e+00,2.030215263366699219e+00,2.011995315551757812e+00,2.013171195983886719e+00,2.032366752624511719e+00,2.107208251953125000e+00,2.078589439392089844e+00,2.073633909225463867e+00,2.073205232620239258e+00,2.246960878372192383e+00,2.220752954483032227e+00,4.170086860656738281e+00,4.028886795043945312e+00,3.896935701370239258e+00,3.773353338241577148e+00,3.657368659973144531e+00,3.548301219940185547e+00,3.445550441741943359e+00,3.348583221435546875e+00,3.256924629211425781e+00,3.170149803161621094e+00,3.087879180908203125e+00,3.009770393371582031e+00,2.935515880584716797e+00,2.864836931228637695e+00,2.797481536865234375e+00,2.733220577239990234e+00,2.671845674514770508e+00,2.613166570663452148e+00,2.557009458541870117e+00,2.503215312957763672e+00,2.451637744903564453e+00,2.402143001556396484e+00,2.354607105255126953e+00,2.308915853500366211e+00,2.264964342117309570e+00,2.222654581069946289e+00,2.181896686553955078e+00,2.142606735229492188e+00,2.104706764221191406e+00,2.068124055862426758e+00,2.032791614532470703e+00,1.998646140098571777e+00,1.965628862380981445e+00,1.933684587478637695e+00,1.902762055397033691e+00,1.872812867164611816e+00,1.843791961669921875e+00
5.000000000000000000e+00,5.000000000000000000e+00,5.000000000000000000e+00,5.000000000000000000e+00,5.000000000000000000e+00,5.000000000000000000e+00,5.000000000000000000e+00,5.000000000000000000e+00,5.000000000000000000e+00,5.000000000000000000e+00,5.000000000000000000e+00,5.000000000000000000e+00,5.000000000000000000e+00,5.000000000000000000e+00,5.000000000000000000e+00,5.000000000000000000e+00,5.000000000000000000e+00,5.000000000000000000e+00,5.000000000000000000e+00,5.000000000000000000e+00,5.000000000000000000e+00,5.000000000000000000e+00,5.000000000000000000e+00,5.000000000000000000e+00,5.000000000000000000e+00,5.000000000000000000e+00,5.000000000000000000e+00,5.000000000000000000e+00,5.000000000000000000e+00,5.000000000000000000e+00,5.000000000000000000e+00,2.037150382995605469e+00,2.044102191925048828e+00,2.025570869445800781e+00,2.009921789169311523e+00,2.010734319686889648e+00,2.017731428146362305e+00,2.071765661239624023e+00,2.065003395080566406e+00,2.058457374572753906e+00,2.058518171310424805e+00,2.119610309600830078e+00,2.232064008712768555e+00,4.170189380645751953e+00,4.028982639312744141e+00,3.897025346755981445e+00,3.773437261581420898e+00,3.657447576522827148e+00,3.548375606536865234e+00,3.445620536804199219e+00,3.348649501800537109e+00,3.256987094879150391e+00,3.170209169387817383e+00,3.087935447692871094e+00,3.009824037551879883e+00,2.935566902160644531e+00,2.864885330200195312e+00,2.797527790069580078e+00,2.733264684677124023e+00,2.671887874603271484e+00,2.613206863403320312e+00,2.557048082351684570e+00,2.503252029418945312e+00,2.451673030853271484e+00,2.402176856994628906e+00,2.354639530181884766e+00,2.308947086334228516e+00,2.264994382858276367e+00,2.222683906555175781e+00,2.181924819946289062e+00,2.142633914947509766e+00,2.104732990264892578e+00,2.068149328231811523e+00,2.032816171646118164e+00,1.998669743537902832e+00,1.965651631355285645e+00,1.933706641197204590e+00,1.902783393859863281e+00,1.872833609580993652e+00,1.843811988830566406e+00
5.000000000000000000e+00,5.000000000000000000e+00,5.000000000000000000e+00,5.000000000000000000e+00,5.000000000000000000e+00,5.000000000000000000e+00,5.000000000000000000e+00,5.000000000000000000e+00,5.000000000000000000e+00,5.000000000000000000e+00,5.000000000000000000e+00,5.000000000000000000e+00,5.000000000000000000e+00,5.000000000000000000e+00,5.000000000000000000e+00,5.000000000000000000e+00,5.000000000000000000e+00,5.000000000000000000e+00,5.000000000000000000e+00,5.000000000000000000e+00,5.000000000000000000e+00,5.000000000000000000e+00,5.000000000000000000e+00,5.000000000000000000e+00,5.000000000000000000e+00,5.000000000000000000e+00,5.000000000000000000e+00,5.000000000000000000e+00,5.000000000000000000e+00,5.000000000000000000e+00,5.000000000000000000e+00,2.022308349609375000e+00,2.020671129226684570e+00,2.031432151794433594e+00,2.009871482849121094e+00,2.010463953018188477e+00,2.013064384460449219e+00,2.065821409225463867e+00,2.066340208053588867e+00,2.050667047500610352e+00,2.051818132400512695e+00,2.094850540161132812e+00,2.188394308090209961e+00,2.207363128662109375e+00,4.029078006744384766e+00,3.897114992141723633e+00,3.773521423339843750e+00,3.657526493072509766e+00,3.548449754714965820e+00,3.445690631866455078e+00,3.348715543746948242e+00,3.257049798965454102e+00,3.170268535614013672e+00,3.087991714477539062e+00,3.009877443313598633e+00,2.935617685317993164e+00,2.864933967590332031e+00,2.797573804855346680e+00,2.733308792114257812e+00,2.671929836273193359e+00,2.613247156143188477e+00,2.557086467742919922e+00,2.503288984298706055e+00,2.451708555221557617e+00,2.402210950851440430e+00,2.354672193527221680e+00,2.308978557586669922e+00,2.265024662017822266e+00,2.222712755203247070e+00,2.181952953338623047e+00,2.142660856246948242e+00,2.104758977890014648e+00,2.068174362182617188e+00,2.032840251922607422e+00,1.998693346977233887e+00,1.965674519538879395e+00,1.933728694915771484e+00,1.902804732322692871e+00,1.872854232788085938e+00,1.843832015991210938e+00
5.000000000000000000e+00,5.000000000000000000e+00,5.000000000000000000e+00,5.000000000000000000e+00,5.000000000000000000e+00,5.000000000000000000e+00,5.000000000000000000e+00,5.000000000000000000e+00,5.000000000000000000e+00,5.000000000000000000e+00,5.000000000000000000e+00,5.000000000000000000e+00,5.000000000000000000e+00,5.000000000000000000e+00,5.000000000000000000e+00,5.000000000000000000e+00,5.000000000000000000e+00,5.000000000000000000e+00,5.000000000000000000e+00,5.000000000000000000e+00,5.000000000000000000e+00,5.000000000000000000e+00,5.000000000000000000e+00,5.000000000000000000e+00,5.000000000000000000e+00,5.000000000000000000e+00,5.000000000000000000e+00,5.000000000000000000e+00,5.000000000000000000e+00,5.000000000000000000e+00,5.000000000000000000e+00,2.004880189895629883e+00,2.011487007141113281e+00,2.044522762298583984e+00,2.011463403701782227e+00,2.010914564132690430e+00,2.011724472045898438e+00,2.062249422073364258e+00,2.066632032394409180e+00,2.042221784591674805e+00,2.045422554016113281e+00,2.072550058364868164e+00,2.170059919357299805e+00,2.184888362884521484e+00,4.029173851013183594e+00,3.897204160690307617e+00,3.773604869842529297e+00,3.657604932785034180e+00,3.548524141311645508e+00,3.445760726928710938e+00,3.348781824111938477e+00,3.257112264633178711e+00,3.170327663421630859e+00,3.088047981262207031e+00,3.009930849075317383e+00,2.935668468475341797e+00,2.864982366561889648e+00,2.797620058059692383e+00,2.733352899551391602e+00,2.671972036361694336e+00,2.613287448883056641e+00,2.557125091552734375e+00,2.503325939178466797e+00,2.451744079589843750e+00,2.402244806289672852e+00,2.354705095291137695e+00,2.309010028839111328e+00,2.265054941177368164e+00,2.222741842269897461e+00,2.181980848312377930e+00,2.142688035964965820e+00,2.104784965515136719e+00,2.068199634552001953e+00,2.032864809036254883e+00,1.998716711997985840e+00,1.965697050094604492e+00,1.933750629425048828e+00,1.902825951576232910e+00,1.872874736785888672e+00,1.843851923942565918e+00
5.000000000000000000e+00,5.000000000000000000e+00,5.000000000000000000e+00,5.000000000000000000e+00,5.000000000000000000e+00,5.000000000000000000e+00,5.000000000000000000e+00,5.000000000000000000e+00,5.000000000000000000e+00,5.000000000000000000e+00,5.000000000000000000e+00,5.000000000000000000e+00,5.000000000000000000e+00,5.000000000000000000e+00,5.000000000000000000e+00,5.000000000000000000e+00,5.000000000000000000e+00,5.000000000000000000e+00,5.000000000000000000e+00,5.000000000000000000e+00,5.000000000000000000e+00,5.000000000000000000e+00,5.000000000000000000e+00,5.000000000000000000e+00,5.000000000000000000e+00,5.000000000000000000e+00,5.000000000000000000e+00,5.000000000000000000e+00,5.000000000000000000e+00,5.000000000000000000e+00,5.000000000000000000e+00,2.001531600952148438e+00,5.000000000000000000e+00,2.057783126831054688e+00,2.013235330581665039e+00,2.012073993682861328e+00,2.011958837509155273e+00,2.058331251144409180e+00,2.066835880279541016e+00,2.032879114151000977e+00,2.036987066268920898e+00,2.051512956619262695e+00,4.321984291076660156e+00,2.249755859375000000e+00,4.029269695281982422e+00,3.897293567657470703e+00,3.773689031600952148e+00,3.657683849334716797e+00,3.548598051071166992e+00,3.445830345153808594e+00,3.348847627639770508e+00,3.257174730300903320e+00,3.170386791229248047e+00,3.088104248046875000e+00,3.009984254837036133e+00,2.935719251632690430e+00,2.865030765533447266e+00,2.797666311264038086e+00,2.733397006988525391e+00,2.672014236450195312e+00,2.613327741622924805e+00,2.557163715362548828e+00,2.503363132476806641e+00,2.451779603958129883e+00,2.402278900146484375e+00,2.354737758636474609e+00,2.309041500091552734e+00,2.265085220336914062e+00,2.222771167755126953e+00,2.182008981704711914e+00,2.142714977264404297e+00,2.104811191558837891e+00,2.068224906921386719e+00,2.032889127731323242e+00,1.998740196228027344e+00,1.965719819068908691e+00,1.933772683143615723e+00,1.902847290039062500e+00,1.872895479202270508e+00,1.843871951103210449e+00
5.000000000000000000e+00,5.000000000000000000e+00,5.000000000000000000e+00,5.000000000000000000e+00,5.000000000000000000e+00,5.000000000000000000e+00,5.000000000000000000e+00,5.000000000000000000e+00,5.000000000000000000e+00,5.000000000000000000e+00,5.000000000000000000e+00,5.000000000000000000e+00,5.000000000000000000e+00,5.000000000000000000e+00,5.000000000000000000e+00,5.000000000000000000e+00,5.000000000000000000e+00,5.000000000000000000e+00,5.000000000000000000e+00,5.000000000000000000e+00,5.000000000000000000e+00,5.000000000000000000e+00,5.000000000000000000e+00,5.000000000000000000e+00,5.000000000000000000e+00,5.000000000000000000e+00,5.000000000000000000e+00,5.000000000000000000e+00,5.000000000000000000e+00,5.000000000000000000e+00,5.000000000000000000e+00,1.988534927368164062e+00,5.000000000000000000e+00,2.081644058227539062e+00,2.020086050033569336e+00,2.013262987136840820e+00,2.012192726135253906e+00,2.054428339004516602e+00,2.066939115524291992e+00,2.031048536300659180e+00,2.029254198074340820e+00,2.033941268920898438e+00,4.322094440460205078e+00,4.170599937438964844e+00,2.191342115402221680e+00,3.897383213043212891e+00,3.773772954940795898e+00,3.657762765884399414e+00,3.548672437667846680e+00,3.445900440216064453e+00,3.348913669586181641e+00,3.257237195968627930e+00,3.170446157455444336e+00,3.088160037994384766e+00,3.010037422180175781e+00,2.935770034790039062e+00,2.865078926086425781e+00,2.797712087631225586e+00,2.733440876007080078e+00,2.672056198120117188e+00,2.613368034362792969e+00,2.557202339172363281e+00,2.503400087356567383e+00,2.451815128326416016e+00,2.402312994003295898e+00,2.354770421981811523e+00,2.309072971343994141e+00,2.265115499496459961e+00,2.222800254821777344e+00,2.182037115097045898e+00,2.142742156982421875e+00,2.104837417602539062e+00,2.068250179290771484e+00,2.032913446426391602e+00,1.998763799667358398e+00,1.965742588043212891e+00,1.933794736862182617e+00,1.902868628501892090e+00,1.872916102409362793e+00,1.843891978263854980e+00
5.000000000000000000e+00,5.000000000000000000e+00,5.000000000000000000e+00,5.000000000000000000e+00,5.000000000000000000e+00,5.000000000000000000e+00,5.000000000000000000e+00,5.000000000000000000e+00,5.000000000000000000e+00,5.000000000000000000e+00,5.000000000000000000e+00,5.000000000000000000e+00,5.000000000000000000e+00,5.000000000000000000e+00,5.000000000000000000e+00,5.000000000000000000e+00,5.000000000000000000e+00,5.000000000000000000e+00,5.000000000000000000e+00,5.000000000000000000e+00,5.000000000000000000e+00,5.000000000000000000e+00,5.000000000000000000e+00,5.000000000000000000e+00,5.000000000000000000e+00,5.000000000000000000e+00,5.000000000000000000e+00,5.000000000000000000e+00,5.000000000000000000e+00,5.000000000000000000e+00,5.000000000000000000e+00,1.976276040077209473e+00,5.000000000000000000e+00,2.106070518493652344e+00,2.034596920013427734e+00,2.011143922805786133e+00,2.010076045989990234e+00,2.050861835479736328e+00,2.064494132995605469e+00,2.028688669204711914e+00,2.021260976791381836e+00,2.027265548706054688e+00,4.322204589843750000e+00,4.170702457427978516e+00,4.029460906982421875e+00,3.897472858428955078e+00,3.773857116699218750e+00,3.657841682434082031e+00,3.548746585845947266e+00,3.445970535278320312e+00,3.348979949951171875e+00,3.257299900054931641e+00,3.170505285263061523e+00,3.088216304779052734e+00,3.010091066360473633e+00,2.935820817947387695e+00,2.865127325057983398e+00,2.797758340835571289e+00,2.733484983444213867e+00,2.672098159790039062e+00,2.613408088684082031e+00,2.557240724563598633e+00,2.503436803817749023e+00,2.451850414276123047e+00,2.402346849441528320e+00,2.354803085327148438e+00,2.309104442596435547e+00,2.265145778656005859e+00,2.222829341888427734e+00,2.182065248489379883e+00,2.142769098281860352e+00,2.104863405227661133e+00,2.068275451660156250e+00,2.032938003540039062e+00,1.998787403106689453e+00,1.965765476226806641e+00,1.933816790580749512e+00,1.902889966964721680e+00,1.872936844825744629e+00,1.843912124633789062e+00
5.000000000000000000e+00,5.000000000000000000e+00,5.000000000000000000e+00,5.000000000000000000e+00,5.000000000000000000e+00,5.000000000000000000e+00,5.000000000000000000e+00,5.000000000000000000e+00,5.000000000000000000e+00,5.000000000000000000e+00,5.000000000000000000e+00,5.000000000000000000e+00,5.000000000000000000e+00,5.000000000000000000e+00,5.000000000000000000e+00,5.000000000000000000e+00,5.000000000000000000e+00,5.000000000000000000e+00,5.000000000000000000e+00,5.000000000000000000e+00,5.000000000000000000e+00,5.000000000000000000e+00,5.000000000000000000e+00,5.000000000000000000e+00,5.000000000000000000e+00,5.000000000000000000e+00,5.000000000000000000e+00,5.000000000000000000e+00,5.000000000000000000e+00,5.000000000000000000e+00,5.000000000000000000e+00,5.000000000000000000e+00,5.000000000000000000e+00,5.000000000000000000e+00,2.049317359924316406e+00,2.012269973754882812e+00,2.007964134216308594e+00,2.044256687164306641e+00,2.077085018157958984e+00,2.027296781539916992e+00,2.010253667831420898e+00,2.020429849624633789e+00,4.322314739227294922e+00,4.170804977416992188e+00,4.029556751251220703e+00,3.897562503814697266e+00,3.773941040039062500e+00,3.657920837402343750e+00,3.548820972442626953e+00,3.446040630340576172e+00,3.349046230316162109e+00,3.257362365722656250e+00,3.170564651489257812e+00,3.088272571563720703e+00,3.010144472122192383e+00,2.935871601104736328e+00,2.865175724029541016e+00,2.797804594039916992e+00,2.733529090881347656e+00,2.672140359878540039e+00,2.613448381423950195e+00,2.557279348373413086e+00,2.503473758697509766e+00,2.451885700225830078e+00,2.402380943298339844e+00,2.354835748672485352e+00,2.309135675430297852e+00,2.265175819396972656e+00,2.222858428955078125e+00,2.182093143463134766e+00,2.142796277999877930e+00,2.104889631271362305e+00,2.068300724029541016e+00,2.032962322235107422e+00,1.998811006546020508e+00,1.965788245201110840e+00,1.933838844299316406e+00,1.902911424636840820e+00,1.872957587242126465e+00,1.843932151794433594e+00
5.000000000000000000e+00,5.000000000000000000e+00,5.000000000000000000e+00,5.000000000000000000e+00,5.000000000000000000e+00,5.000000000000000000e+00,5.000000000000000000e+00,5.000000000000000000e+00,5.000000000000000000e+00,5.000000000000000000e+00,5.000000000000000000e+00,5.000000000000000000e+00,5.000000000000000000e+00,5.000000000000000000e+00,5.000000000000000000e+00,5.000000000000000000e+00,5.000000000000000000e+00,5.000000000000000000e+00,5.000000000000000000e+00,5.000000000000000000e+00,5.000000000000000000e+00,5.000000000000000000e+00,5.000000000000000000e+00,5.000000000000000000e+00,5.000000000000000000e+00,5.000000000000000000e+00,5.000000000000000000e+00,5.000000000000000000e+00,5.000000000000000000e+00,5.000000000000000000e+00,5.000000000000000000e+00,5.000000000000000000e+00,5.000000000000000000e+00,5.000000000000000000e+00,2.068587541580200195e+00,2.016018390655517578e+00,2.005856275558471680e+00,2.037694215774536133e+00,5.000000000000000000e+00,2.025907039642333984e+00,2.003844738006591797e+00,2.009431838989257812e+00,2.048326492309570312e+00,4.170907497406005859e+00,4.029652595520019531e+00,3.897652149200439453e+00,3.774025201797485352e+00,3.657999753952026367e+00,3.548895359039306641e+00,3.446110725402832031e+00,3.349112272262573242e+00,3.257425069808959961e+00,3.170624017715454102e+00,3.088329076766967773e+00,3.010197877883911133e+00,2.935922622680664062e+00,2.865224361419677734e+00,2.797850847244262695e+00,2.733572959899902344e+00,2.672182559967041016e+00,2.613488674163818359e+00,2.557317972183227539e+00,2.503510713577270508e+00,2.451921224594116211e+00,2.402415037155151367e+00,2.354868412017822266e+00,2.309167146682739258e+00,2.265206098556518555e+00,2.222887516021728516e+00,2.182121276855468750e+00,2.142823219299316406e+00,2.104915618896484375e+00,2.068325757980346680e+00,2.032986640930175781e+00,1.998834490776062012e+00,1.965811014175415039e+00,1.933860898017883301e+00,1.902932763099670410e+00,1.872978210449218750e+00,1.843952178955078125e+00
5.000000000000000000e+00,5.000000000000000000e+00,5.000000000000000000e+00,5.000000000000000000e+00,5.000000000000000000e+00,5.000000000000000000e+00,5.000000000000000000e+00,5.000000000000000000e+00,5.000000000000000000e+00,5.000000000000000000e+00,5.000000000000000000e+00,5.000000000000000000e+00,5.000000000000000000e+00,5.000000000000000000e+00,5.000000000000000000e+00,5.000000000000000000e+00,5.000000000000000000e+00,5.000000000000000000e+00,5.000000000000000000e+00,5.000000000000000000e+00,5.000000000000000000e+00,5.000000000000000000e+00,5.000000000000000000e+00,5.000000000000000000e+00,5.000000000000000000e+00,5.000000000000000000e+00,5.000000000000000000e+00,5.000000000000000000e+00,5.000000000000000000e+00,5.000000000000000000e+00,5.000000000000000000e+00,5.000000000000000000e+00,5.000000000000000000e+00,5.000000000000000000e+00,2.084919214248657227e+00,2.022424221038818359e+00,2.007292270660400391e+00,2.034525632858276367e+00,5.000000000000000000e+00,2.025146007537841797e+00,2.006177902221679688e+00,2.010572195053100586e+00,4.322535037994384766e+00,4.171010017395019531e+00,4.029747962951660156e+00,3.897741317749023438e+00,3.774108886718750000e+00,3.658078193664550781e+00,3.548969268798828125e+00,3.446180343627929688e+00,3.349178552627563477e+00,3.257487773895263672e+00,3.170683383941650391e+00,3.088385343551635742e+00,3.010251283645629883e+00,2.935973405838012695e+00,2.865272760391235352e+00,2.797897100448608398e+00,2.733617067337036133e+00,2.672224521636962891e+00,2.613528966903686523e+00,2.557356595993041992e+00,2.503547668457031250e+00,2.451956748962402344e+00,2.402449131011962891e+00,2.354901075363159180e+00,2.309198617935180664e+00,2.265236377716064453e+00,2.222916841506958008e+00,2.182149410247802734e+00,2.142850399017333984e+00,2.104941844940185547e+00,2.068351030349731445e+00,2.033010959625244141e+00,1.998858094215393066e+00,1.965833902359008789e+00,1.933882951736450195e+00,1.902954101562500000e+00,1.872998952865600586e+00,1.843972325325012207e+00
5.000000000000000000e+00,5.000000000000000000e+00,5.000000000000000000e+00,5.000000000000000000e+00,5.000000000000000000e+00,5.000000000000000000e+00,5.000000000000000000e+00,5.000000000000000000e+00,5.000000000000000000e+00,5.000000000000000000e+00,5.000000000000000000e+00,5.000000000000000000e+00,5.000000000000000000e+00,5.000000000000000000e+00,5.000000000000000000e+00,5.000000000000000000e+00,5.000000000000000000e+00,5.000000000000000000e+00,5.000000000000000000e+00,5.000000000000000000e+00,5.000000000000000000e+00,5.000000000000000000e+00,5.000000000000000000e+00,5.000000000000000000e+00,5.000000000000000000e+00,5.000000000000000000e+00,5.000000000000000000e+00,5.000000000000000000e+00,5.000000000000000000e+00,5.000000000000000000e+00,5.000000000000000000e+00,5.000000000000000000e+00,5.000000000000000000e+00,5.000000000000000000e+00,2.096662759780883789e+00,2.035957813262939453e+00,2.014791965484619141e+00,2.045801401138305664e+00,2.140444040298461914e+00,2.041279792785644531e+00,2.015016555786132812e+00,2.020803213119506836e+00,4.322645187377929688e+00,4.171112537384033203e+00,4.029843807220458984e+00,3.897831201553344727e+00,3.774192810058593750e+00,3.658157348632812500e+00,3.549043655395507812e+00,3.446250438690185547e+00,3.349244356155395508e+00,3.257550001144409180e+00,3.170742273330688477e+00,3.088441133499145508e+00,3.010304689407348633e+00,2.936024188995361328e+00,2.865321159362792969e+00,2.797943353652954102e+00,2.733661174774169922e+00,2.672266721725463867e+00,2.613569259643554688e+00,2.557394981384277344e+00,2.503584623336791992e+00,2.451992273330688477e+00,2.402483224868774414e+00,2.354933977127075195e+00,2.309230089187622070e+00,2.265266656875610352e+00,2.222945928573608398e+00,2.182177543640136719e+00,2.142877340316772461e+00,2.104967832565307617e+00,2.068376302719116211e+00,2.033035278320312500e+00,1.998881697654724121e+00,1.965856671333312988e+00,1.933905005455017090e+00,1.902975440025329590e+00,1.873019695281982422e+00,1.843992352485656738e+00
5.000000000000000000e+00,5.000000000000000000e+00,5.000000000000000000e+00,5.000000000000000000e+00,5.000000000000000000e+00,5.000000000000000000e+00,5.000000000000000000e+00,5.000000000000000000e+00,5.000000000000000000e+00,5.000000000000000000e+00,5.000000000000000000e+00,5.000000000000000000e+00,5.000000000000000000e+00,5.000000000000000000e+00,5.000000000000000000e+00,5.000000000000000000e+00,5.000000000000000000e+00,5.000000000000000000e+00,5.000000000000000000e+00,5.000000000000000000e+00,5.000000000000000000e+00,5.000000000000000000e+00,5.000000000000000000e+00,5.000000000000000000e+00,5.000000000000000000e+00,5.000000000000000000e+00,5.000000000000000000e+00,5.000000000000000000e+00,5.000000000000000000e+00,5.000000000000000000e+00,5.000000000000000000e+00,5.000000000000000000e+00,5.000000000000000000e+00,5.000000000000000000e+00,2.091705083847045898e+00,2.049004793167114258e+00,2.033649682998657227e+00,2.075968742370605469e+00,2.112673044204711914e+00,2.071365356445312500e+00,2.045382976531982422e+00,2.052305936813354492e+00,4.322755336761474609e+00,4.171215057373046875e+00,4.029939651489257812e+00,3.897920846939086914e+00,3.774276971817016602e+00,3.658236265182495117e+00,3.549117803573608398e+00,3.446320533752441406e+00,3.349310636520385742e+00,3.257612705230712891e+00,3.170801639556884766e+00,3.088497638702392578e+00,3.010358095169067383e+00,2.936074972152709961e+00,2.865369319915771484e+00,2.797989130020141602e+00,2.733705043792724609e+00,2.672308683395385742e+00,2.613609552383422852e+00,2.557433605194091797e+00,2.503621816635131836e+00,2.452027797698974609e+00,2.402517080307006836e+00,2.354966640472412109e+00,2.309261560440063477e+00,2.265296936035156250e+00,2.222975015640258789e+00,2.182205677032470703e+00,2.142904520034790039e+00,2.104994058609008789e+00,2.068401575088500977e+00,2.033059835433959961e+00,1.998905301094055176e+00,1.965879440307617188e+00,1.933927059173583984e+00,1.902996897697448730e+00,1.873040318489074707e+00,1.844012379646301270e+00
5.000000000000000000e+00,5.000000000000000000e+00,5.000000000000000000e+00,5.000000000000000000e+00,5.000000000000000000e+00,5.000000000000000000e+00,5.000000000000000000e+00,5.000000000000000000e+00,5.000000000000000000e+00,5.000000000000000000e+00,5.000000000000000000e+00,5.000000000000000000e+00,5.000000000000000000e+00,5.000000000000000000e+00,5.000000000000000000e+00,5.000000000000000000e+00,5.000000000000000000e+00,5.000000000000000000e+00,5.000000000000000000e+00,5.000000000000000000e+00,5.000000000000000000e+00,5.000000000000000000e+00,5.000000000000000000e+00,5.000000000000000000e+00,5.000000000000000000e+00,5.000000000000000000e+00,5.000000000000000000e+00,5.000000000000000000e+00,5.000000000000000000e+00,5.000000000000000000e+00,5.000000000000000000e+00,5.000000000000000000e+00,5.000000000000000000e+00,5.000000000000000000e+00,2.089452981948852539e+00,2.065132617950439453e+00,2.058537960052490234e+00,5.000000000000000000e+00,2.130878210067749023e+00,2.105508089065551758e+00,2.092275619506835938e+00,4.485840797424316406e+00,4.322865486145019531e+00,4.171317577362060547e+00,4.030035495758056641e+00,3.898010492324829102e+00,3.774360895156860352e+00,3.658315181732177734e+00,3.549192190170288086e+00,3.446390628814697266e+00,3.349376678466796875e+00,3.257675170898437500e+00,3.170861005783081055e+00,3.088553905487060547e+00,3.010411500930786133e+00,2.936125755310058594e+00,2.865417718887329102e+00,2.798035383224487305e+00,2.733749151229858398e+00,2.672350883483886719e+00,2.613649845123291016e+00,2.557471990585327148e+00,2.503658533096313477e+00,2.452063083648681641e+00,2.402551174163818359e+00,2.354999065399169922e+00,2.309292793273925781e+00,2.265327215194702148e+00,2.223004102706909180e+00,2.182233572006225586e+00,2.142931699752807617e+00,2.105020284652709961e+00,2.068426847457885742e+00,2.033084154129028320e+00,1.998928904533386230e+00,1.965902328491210938e+00,1.933949232101440430e+00,1.903018236160278320e+00,1.873061060905456543e+00,1.844032406806945801e+00
5.000000000000000000e+00,5.000000000000000000e+00,5.000000000000000000e+00,5.000000000000000000e+00,5.000000000000000000e+00,5.000000000000000000e+00,5.000000000000000000e+00,5.000000000000000000e+00,5.000000000000000000e+00,5.000000000000000000e+00,5.000000000000000000e+00,5.000000000000000000e+00,5.000000000000000000e+00,5.000000000000000000e+00,5.000000000000000000e+00,5.000000000000000000e+00,5.000000000000000000e+00,5.000000000000000000e+00,5.000000000000000000e+00,5.000000000000000000e+00,5.000000000000000000e+00,5.000000000000000000e+00,5.000000000000000000e+00,5.000000000000000000e+00,5.000000000000000000e+00,5.000000000000000000e+00,5.000000000000000000e+00,5.000000000000000000e+00,5.000000000000000000e+00,5.000000000000000000e+00,5.000000000000000000e+00,5.000000000000000000e+00,5.000000000000000000e+00,5.000000000000000000e+00,2.100661516189575195e+00,2.081516265869140625e+00,2.087685585021972656e+00,2.199000835418701172e+00,2.144521713256835938e+00,2.137588262557983398e+00,2.160484790802001953e+00,4.485959529876708984e+00,4.322976112365722656e+00,4.171420574188232422e+00,4.030131340026855469e+00,3.898100137710571289e+00,3.774445056915283203e+00,3.658394098281860352e+00,3.549266576766967773e+00,3.446460723876953125e+00,3.349442958831787109e+00,3.257737874984741211e+00,3.170920372009277344e+00,3.088610172271728516e+00,3.010464906692504883e+00,2.936176538467407227e+00,2.865466356277465820e+00,2.798081636428833008e+00,2.733793258666992188e+00,2.672393083572387695e+00,2.613690137863159180e+00,2.557510614395141602e+00,2.503695487976074219e+00,2.452098369598388672e+00,2.402585029602050781e+00,2.355031967163085938e+00,2.309324264526367188e+00,2.265357494354248047e+00,2.223033189773559570e+00,2.182261705398559570e+00,2.142958641052246094e+00,2.105046272277832031e+00,2.068452119827270508e+00,2.033108472824096680e+00,1.998952388763427734e+00,1.965925097465515137e+00,1.933971285820007324e+00,1.903039574623107910e+00,1.873081803321838379e+00,1.844052553176879883e+00
5.000000000000000000e+00,5.000000000000000000e+00,5.000000000000000000e+00,5.000000000000000000e+00,5.000000000000000000e+00,5.000000000000000000e+00,5.000000000000000000e+00,5.000000000000000000e+00,5.000000000000000000e+00,5.000000000000000000e+00,5.000000000000000000e+00,5.000000000000000000e+00,5.000000000000000000e+00,5.000000000000000000e+00,5.000000000000000000e+00,5.000000000000000000e+00,5.000000000000000000e+00,5.000000000000000000e+00,5.000000000000000000e+00,5.000000000000000000e+00,5.000000000000000000e+00,5.000000000000000000e+00,5.000000000000000000e+00,5.000000000000000000e+00,5.000000000000000000e+00,5.000000000000000000e+00,5.000000000000000000e+00,5.000000000000000000e+00,5.000000000000000000e+00,5.000000000000000000e+00,5.000000000000000000e+00,5.000000000000000000e+00,5.000000000000000000e+00,5.000000000000000000e+00,2.112265825271606445e+00,2.088812112808227539e+00,2.095565795898437500e+00,2.199537754058837891e+00,2.168480634689331055e+00,2.165575265884399414e+00,4.661841869354248047e+00,4.486078262329101562e+00,4.323085784912109375e+00,4.171522617340087891e+00,4.030226707458496094e+00,3.898189306259155273e+00,3.774529218673706055e+00,3.658473014831542969e+00,3.549340963363647461e+00,3.446530818939208984e+00,3.349509239196777344e+00,3.257800579071044922e+00,3.170979738235473633e+00,3.088666439056396484e+00,3.010518550872802734e+00,2.936227560043334961e+00,2.865514755249023438e+00,2.798127889633178711e+00,2.733837366104125977e+00,2.672435045242309570e+00,2.613730430603027344e+00,2.557549238204956055e+00,2.503732442855834961e+00,2.452133893966674805e+00,2.402619123458862305e+00,2.355064630508422852e+00,2.309355735778808594e+00,2.265387773513793945e+00,2.223062276840209961e+00,2.182289838790893555e+00,2.142985582351684570e+00,2.105072498321533203e+00,2.068477153778076172e+00,2.033132791519165039e+00,1.998975753784179688e+00,1.965947628021240234e+00,1.933993101119995117e+00,1.903060793876647949e+00,1.873102426528930664e+00,1.844072580337524414e+00
5.000000000000000000e+00,5.000000000000000000e+00,5.000000000000000000e+00,5.000000000000000000e+00,5.000000000000000000e+00,5.000000000000000000e+00,5.000000000000000000e+00,5.000000000000000000e+00,5.000000000000000000e+00,5.000000000000000000e+00,5.000000000000000000e+00,5.000000000000000000e+00,5.000000000000000000e+00,5.000000000000000000e+00,5.000000000000000000e+00,5.000000000000000000e+00,5.000000000000000000e+00,5.000000000000000000e+00,5.000000000000000000e+00,5.000000000000000000e+00,5.000000000000000000e+00,5.000000000000000000e+00,5.000000000000000000e+00,5.000000000000000000e+00,5.000000000000000000e+00,5.000000000000000000e+00,5.000000000000000000e+00,5.000000000000000000e+00,5.000000000000000000e+00,5.000000000000000000e+00,5.000000000000000000e+00,5.000000000000000000e+00,5.000000000000000000e+00,5.000000000000000000e+00,2.123991727828979492e+00,2.098070383071899414e+00,2.103505611419677734e+00,2.218690395355224609e+00,2.196884155273437500e+00,2.194304466247558594e+00,4.661968708038330078e+00,4.486196994781494141e+00,4.323196411132812500e+00,4.171625614166259766e+00,4.030322551727294922e+00,3.898278951644897461e+00,3.774612665176391602e+00,3.658551692962646484e+00,3.549414873123168945e+00,3.446600675582885742e+00,3.349575042724609375e+00,3.257862806320190430e+00,3.171039104461669922e+00,3.088722705841064453e+00,3.010571956634521484e+00,2.936278343200683594e+00,2.865563154220581055e+00,2.798173904418945312e+00,2.733881473541259766e+00,2.672477245330810547e+00,2.613770723342895508e+00,2.557587862014770508e+00,2.503769397735595703e+00,2.452169418334960938e+00,2.402653217315673828e+00,2.355097293853759766e+00,2.309387207031250000e+00,2.265418052673339844e+00,2.223091602325439453e+00,2.182317733764648438e+00,2.143012762069702148e+00,2.105098485946655273e+00,2.068502426147460938e+00,2.033157110214233398e+00,1.998999357223510742e+00,1.965970516204833984e+00,1.934015154838562012e+00,1.903082132339477539e+00,1.873122930526733398e+00,1.844092488288879395e+00
5.000000000000000000e+00,5.000000000000000000e+00,5.000000000000000000e+00,5.000000000000000000e+00,5.000000000000000000e+00,5.000000000000000000e+00,5.000000000000000000e+00,5.000000000000000000e+00,5.000000000000000000e+00,5.000000000000000000e+00,5.000000000000000000e+00,5.000000000000000000e+00,5.000000000000000000e+00,5.000000000000000000e+00,5.000000000000000000e+00,5.000000000000000000e+00,5.000000000000000000e+00,5.000000000000000000e+00,5.000000000000000000e+00,5.000000000000000000e+00,5.000000000000000000e+00,5.000000000000000000e+00,5.000000000000000000e+00,5.000000000000000000e+00,5.000000000000000000e+00,5.000000000000000000e+00,5.000000000000000000e+00,5.000000000000000000e+00,5.000000000000000000e+00,5.000000000000000000e+00,5.000000000000000000e+00,5.000000000000000000e+00,5.000000000000000000e+00,5.000000000000000000e+00,2.135866641998291016e+00,2.107746839523315430e+00,2.111162424087524414e+00,2.238641977310180664e+00,2.227669715881347656e+00,4.852212905883789062e+00,4.662095069885253906e+00,4.486314296722412109e+00,4.323306560516357422e+00,4.171728134155273438e+00,4.030418395996093750e+00,3.898368597030639648e+00,3.774696826934814453e+00,3.658630609512329102e+00,3.549489259719848633e+00,3.446670770645141602e+00,3.349641323089599609e+00,3.257925510406494141e+00,3.171097993850708008e+00,3.088778734207153320e+00,3.010625123977661133e+00,2.936328887939453125e+00,2.865611314773559570e+00,2.798220157623291016e+00,2.733925580978393555e+00,2.672519445419311523e+00,2.613811016082763672e+00,2.557626485824584961e+00,2.503806591033935547e+00,2.452204942703247070e+00,2.402687311172485352e+00,2.355129957199096680e+00,2.309418678283691406e+00,2.265448331832885742e+00,2.223120689392089844e+00,2.182345867156982422e+00,2.143039941787719727e+00,2.105124711990356445e+00,2.068527698516845703e+00,2.033181667327880859e+00,1.999022960662841797e+00,1.965993285179138184e+00,1.934037208557128906e+00,1.903103470802307129e+00,1.873143672943115234e+00,1.844112515449523926e+00
5.000000000000000000e+00,5.000000000000000000e+00,5.000000000000000000e+00,5.000000000000000000e+00,5.000000000000000000e+00,5.000000000000000000e+00,5.000000000000000000e+00,5.000000000000000000e+00,5.000000000000000000e+00,5.000000000000000000e+00,5.000000000000000000e+00,5.000000000000000000e+00,5.000000000000000000e+00,5.000000000000000000e+00,5.000000000000000000e+00,5.000000000000000000e+00,5.000000000000000000e+00,5.000000000000000000e+00,5.000000000000000000e+00,5.000000000000000000e+00,5.000000000000000000e+00,5.000000000000000000e+00,5.000000000000000000e+00,5.000000000000000000e+00,5.000000000000000000e+00,5.000000000000000000e+00,5.000000000000000000e+00,5.000000000000000000e+00,5.000000000000000000e+00,5.000000000000000000e+00,5.000000000000000000e+00,5.000000000000000000e+00,5.000000000000000000e+00,5.000000000000000000e+00,2.148669242858886719e+00,2.120155572891235352e+00,2.119038581848144531e+00,2.265199422836303711e+00,2.284785509109497070e+00,4.852350234985351562e+00,4.662221908569335938e+00,4.486432075500488281e+00,4.323415756225585938e+00,4.171830654144287109e+00,4.030514240264892578e+00,3.898458242416381836e+00,3.774780988693237305e+00,3.658709764480590820e+00,3.549563646316528320e+00,3.446740865707397461e+00,3.349707365036010742e+00,3.257987976074218750e+00,3.171157360076904297e+00,3.088835000991821289e+00,3.010678768157958984e+00,2.936379909515380859e+00,2.865659713745117188e+00,2.798266172409057617e+00,2.733969449996948242e+00,2.672561407089233398e+00,2.613851070404052734e+00,2.557664871215820312e+00,2.503843307495117188e+00,2.452240467071533203e+00,2.402721405029296875e+00,2.355162858963012695e+00,2.309450149536132812e+00,2.265478610992431641e+00,2.223149776458740234e+00,2.182374000549316406e+00,2.143066883087158203e+00,2.105150938034057617e+00,2.068552970886230469e+00,2.033205986022949219e+00,1.999046564102172852e+00,1.966016054153442383e+00,1.934059262275695801e+00,1.903124809265136719e+00,1.873164415359497070e+00,1.844132542610168457e+00
5.000000000000000000e+00,5.000000000000000000e+00,5.000000000000000000e+00,5.000000000000000000e+00,5.000000000000000000e+00,5.000000000000000000e+00,5.000000000000000000e+00,5.000000000000000000e+00,5.000000000000000000e+00,5.000000000000000000e+00,5.000000000000000000e+00,5.000000000000000000e+00,5.000000000000000000e+00,5.000000000000000000e+00,5.000000000000000000e+00,5.000000000000000000e+00,5.000000000000000000e+00,5.000000000000000000e+00,5.000000000000000000e+00,5.000000000000000000e+00,5.000000000000000000e+00,5.000000000000000000e+00,5.000000000000000000e+00,5.000000000000000000e+00,5.000000000000000000e+00,5.000000000000000000e+00,5.000000000000000000e+00,5.000000000000000000e+00,5.000000000000000000e+00,5.000000000000000000e+00,5.000000000000000000e+00,5.000000000000000000e+00,5.000000000000000000e+00,5.000000000000000000e+00,2.162665843963623047e+00,2.134040594100952148e+00,2.128115653991699219e+00,2.307109355926513672e+00,5.000000000000000000e+00,4.852488040924072266e+00,4.662349224090576172e+00,4.486549377441406250e+00,4.323524951934814453e+00,4.171933174133300781e+00,4.030610084533691406e+00,3.898547887802124023e+00,3.774864912033081055e+00,3.658788681030273438e+00,3.549637794494628906e+00,3.446810960769653320e+00,3.349773645401000977e+00,3.258050680160522461e+00,3.171216726303100586e+00,3.088891267776489258e+00,3.010732173919677734e+00,2.936430692672729492e+00,2.865708351135253906e+00,2.798312425613403320e+00,2.734013557434082031e+00,2.672603607177734375e+00,2.613891363143920898e+00,2.557703495025634766e+00,2.503880262374877930e+00,2.452275753021240234e+00,2.402755260467529297e+00,2.355195283889770508e+00,2.309481620788574219e+00,2.265508651733398438e+00,2.223178863525390625e+00,2.182402133941650391e+00,2.143094062805175781e+00,2.105176925659179688e+00,2.068578243255615234e+00,2.033230304718017578e+00,1.999070048332214355e+00,1.966038942337036133e+00,1.934081435203552246e+00,1.903146266937255859e+00,1.873185038566589355e+00,1.844152688980102539e+00
4.871841430664062500e+00,4.870620250701904297e+00,4.869400024414062500e+00,4.868180751800537109e+00,4.866961479187011719e+00,4.865743160247802734e+00,4.864525318145751953e+00,4.863307952880859375e+00,4.862091064453125000e+00,4.860875606536865234e+00,4.859660148620605469e+00,4.858445167541503906e+00,4.857231140136718750e+00,4.856017589569091797e+00,4.854804515838623047e+00,4.853591918945312500e+00,4.852380752563476562e+00,4.851169586181640625e+00,4.849958896636962891e+00,4.848748683929443359e+00,4.847539424896240234e+00,4.846330642700195312e+00,4.845122814178466797e+00,4.843915462493896484e+00,4.842708110809326172e+00,4.841501712799072266e+00,4.840296268463134766e+00,4.839090824127197266e+00,4.837886810302734375e+00,4.836682796478271484e+00,4.835479259490966797e+00,4.834276199340820312e+00,4.833074092864990234e+00,4.831872463226318359e+00,2.199121713638305664e+00,2.148108720779418945e+00,2.142929315567016602e+00,2.301775693893432617e+00,4.825873851776123047e+00,4.824676036834716797e+00,4.662476062774658203e+00,4.486666679382324219e+00,4.323634147644042969e+00,4.172034740447998047e+00,4.030705928802490234e+00,3.898637771606445312e+00,3.774949073791503906e+00,3.658867597579956055e+00,3.549712181091308594e+00,3.446881055831909180e+00,3.349839925765991211e+00,3.258113384246826172e+00,3.171276092529296875e+00,3.088947534561157227e+00,3.010785579681396484e+00,2.936481714248657227e+00,2.865756750106811523e+00,2.798358678817749023e+00,2.734057664871215820e+00,2.672645568847656250e+00,2.613931655883789062e+00,2.557742118835449219e+00,2.503917217254638672e+00,2.452311277389526367e+00,2.402789354324340820e+00,2.355228185653686523e+00,2.309513092041015625e+00,2.265538930892944336e+00,2.223207950592041016e+00,2.182430028915405273e+00,2.143121004104614258e+00,2.105202913284301758e+00,2.068603277206420898e+00,2.033254623413085938e+00,1.999093651771545410e+00,1.966061711311340332e+00,1.934103488922119141e+00,1.903167605400085449e+00,1.873205780982971191e+00,1.844172716140747070e+00
3.776715040206909180e+00,3.775981426239013672e+00,3.775247573852539062e+00,3.774514675140380859e+00,3.773782014846801758e+00,3.773049116134643555e+00,3.772316932678222656e+00,3.771584749221801758e+00,3.770853042602539062e+00,3.770121812820434570e+00,3.769390344619750977e+00,3.768659830093383789e+00,3.767928838729858398e+00,3.767198801040649414e+00,3.766468524932861328e+00,3.765738964080810547e+00,3.765009641647338867e+00,3.764280080795288086e+00,3.763551473617553711e+00,3.762822389602661133e+00,3.762094259262084961e+00,3.761366128921508789e+00,3.760638475418090820e+00,3.759911060333251953e+00,3.759183645248413086e+00,3.758456945419311523e+00,3.757730007171630859e+00,3.757003784179687500e+00,3.756277799606323242e+00,3.755551815032958984e+00,3.754826307296752930e+00,3.754101037979125977e+00,3.753376007080078125e+00,3.752651214599609375e+00,3.751926898956298828e+00,2.162363290786743164e+00,2.156286239624023438e+00,2.285396814346313477e+00,2.333419799804687500e+00,3.748309135437011719e+00,3.747586011886596680e+00,3.746863842010498047e+00,3.746141672134399414e+00,3.745419502258300781e+00,3.744698047637939453e+00,3.743976593017578125e+00,3.743255615234375000e+00,3.658946275711059570e+00,3.549786567687988281e+00,3.446951150894165039e+00,3.349906206130981445e+00,3.258175849914550781e+00,3.171335458755493164e+00,3.089003801345825195e+00,3.010839223861694336e+00,2.936532497406005859e+00,2.865805149078369141e+00,2.798404932022094727e+00,2.734101772308349609e+00,2.672687768936157227e+00,2.613971948623657227e+00,2.557780742645263672e+00,2.503954172134399414e+00,2.452346801757812500e+00,2.402823448181152344e+00,2.355260848999023438e+00,2.309544563293457031e+00,2.265569210052490234e+00,2.223237276077270508e+00,2.182458162307739258e+00,2.143148183822631836e+00,2.105229139328002930e+00,2.068628549575805664e+00,2.033278942108154297e+00,1.999117255210876465e+00,1.966084480285644531e+00,1.934125542640686035e+00,1.903188943862915039e+00,1.873226523399353027e+00,1.844192743301391602e+00
3.083569049835205078e+00,3.083080053329467773e+00,3.082590818405151367e+00,3.082102060317993164e+00,3.081613540649414062e+00,3.081124782562255859e+00,3.080636501312255859e+00,3.080148220062255859e+00,3.079660415649414062e+00,3.079172611236572266e+00,3.078684568405151367e+00,3.078197002410888672e+00,3.077709436416625977e+00,3.077222347259521484e+00,3.076735019683837891e+00,3.076248168945312500e+00,3.075761556625366211e+00,3.075274705886840820e+00,3.074788331985473633e+00,3.074301719665527344e+00,3.073815584182739258e+00,3.073329448699951172e+00,3.072843551635742188e+00,3.072357892990112305e+00,3.071872234344482422e+00,3.071386814117431641e+00,3.070901393890380859e+00,3.070416450500488281e+00,3.069931507110595703e+00,3.069446563720703125e+00,3.068962097167968750e+00,3.068477392196655273e+00,3.067993164062500000e+00,3.067508697509765625e+00,3.067024707794189453e+00,2.179768085479736328e+00,2.167025089263916016e+00,2.256275177001953125e+00,2.291301727294921875e+00,3.064606904983520508e+00,3.064123630523681641e+00,3.063640594482421875e+00,3.063158035278320312e+00,3.062675237655639648e+00,3.062192678451538086e+00,3.061710119247436523e+00,3.061228036880493164e+00,3.060746192932128906e+00,3.060263872146606445e+00,3.059782266616821289e+00,3.059300422668457031e+00,3.058819055557250977e+00,3.058337688446044922e+00,3.057856559753417969e+00,3.010892629623413086e+00,2.936583518981933594e+00,2.865853786468505859e+00,2.798450946807861328e+00,2.734145879745483398e+00,2.672729969024658203e+00,2.614012479782104492e+00,2.557819366455078125e+00,2.503991365432739258e+00,2.452382087707519531e+00,2.402857542037963867e+00,2.355293512344360352e+00,2.309576034545898438e+00,2.265599489212036133e+00,2.223266363143920898e+00,2.182486295700073242e+00,2.143175363540649414e+00,2.105255365371704102e+00,2.068653821945190430e+00,2.033303499221801758e+00,1.999140858650207520e+00,1.966107368469238281e+00,1.934147596359252930e+00,1.903210401535034180e+00,1.873247146606445312e+00,1.844212889671325684e+00
2.605396747589111328e+00,2.605047464370727539e+00,2.604698419570922852e+00,2.604349374771118164e+00,2.604000568389892578e+00,2.603651523590087891e+00,2.603302955627441406e+00,2.602954149246215820e+00,2.602605581283569336e+00,2.602257251739501953e+00,2.601908922195434570e+00,2.601560592651367188e+00,2.601212263107299805e+00,2.600864410400390625e+00,2.600516319274902344e+00,2.600168466567993164e+00,2.599820613861083984e+00,2.599472761154174805e+00,2.599125385284423828e+00,2.598777532577514648e+00,2.598430156707763672e+00,2.598082780838012695e+00,2.597735643386840820e+00,2.597388505935668945e+00,2.597041368484497070e+00,2.596694469451904297e+00,2.596347570419311523e+00,2.596000671386718750e+00,2.595654249191284180e+00,2.595307350158691406e+00,2.594960927963256836e+00,2.594614505767822266e+00,2.594268321990966797e+00,2.593921899795532227e+00,2.593575954437255859e+00,2.167047977447509766e+00,2.136806964874267578e+00,2.132004976272583008e+00,2.592192173004150391e+00,2.591846466064453125e+00,2.591500759124755859e+00,2.591155529022216797e+00,2.590810060501098633e+00,2.590464591979980469e+00,2.590119600296020508e+00,2.589774370193481445e+00,2.589429378509521484e+00,2.589084625244140625e+00,2.588739633560180664e+00,2.588394880294799805e+00,2.588050127029418945e+00,2.587705612182617188e+00,2.587361097335815430e+00,2.587016582489013672e+00,2.586672544479370117e+00,2.586328268051147461e+00,2.585984230041503906e+00,2.585639953613281250e+00,2.585296154022216797e+00,2.584952116012573242e+00,2.584608554840087891e+00,2.557857990264892578e+00,2.504028320312500000e+00,2.452417612075805664e+00,2.402891635894775391e+00,2.355326414108276367e+00,2.309607505798339844e+00,2.265629768371582031e+00,2.223295450210571289e+00,2.182514429092407227e+00,2.143202304840087891e+00,2.105281352996826172e+00,2.068679094314575195e+00,2.033327817916870117e+00,1.999164462089538574e+00,1.966130137443542480e+00,1.934169650077819824e+00,1.903231739997863770e+00,1.873267889022827148e+00,1.844232916831970215e+00
2.255565404891967773e+00,2.255305767059326172e+00,2.255046367645263672e+00,2.254786968231201172e+00,2.254527568817138672e+00,2.254268407821655273e+00,2.254009008407592773e+00,2.253749847412109375e+00,2.253490686416625977e+00,2.253231525421142578e+00,2.252972602844238281e+00,2.252713680267333984e+00,2.252454757690429688e+00,2.252195835113525391e+00,2.251937150955200195e+00,2.251678228378295898e+00,2.251419544219970703e+00,2.251161098480224609e+00,2.250902414321899414e+00,2.250643968582153320e+00,2.250385522842407227e+00,2.250127315521240234e+00,2.249868869781494141e+00,2.249610662460327148e+00,2.249350786209106445e+00,2.249090671539306641e+00,2.248830318450927734e+00,2.248570203781127930e+00,2.248310089111328125e+00,2.248049974441528320e+00,2.247790098190307617e+00,2.247529983520507812e+00,2.247270345687866211e+00,2.247010469436645508e+00,2.246750593185424805e+00,2.246491193771362305e+00,2.090360641479492188e+00,2.080256223678588867e+00,2.085699796676635742e+00,2.245452880859375000e+00,2.245193243026733398e+00,2.244934082031250000e+00,2.244674921035766602e+00,2.244415521621704102e+00,2.244156599044799805e+00,2.243897199630737305e+00,2.243638277053833008e+00,2.243379354476928711e+00,2.243120431900024414e+00,2.242861747741699219e+00,2.242602825164794922e+00,2.242344141006469727e+00,2.242085218429565430e+00,2.241826772689819336e+00,2.241568326950073242e+00,2.241309642791748047e+00,2.241051435470581055e+00,2.240792989730834961e+00,2.240534543991088867e+00,2.240276336669921875e+00,2.240018129348754883e+00,2.239760160446166992e+00,2.239501953125000000e+00,2.239243984222412109e+00,2.238986015319824219e+00,2.238728046417236328e+00,2.238470315933227539e+00,2.238212347030639648e+00,2.223324775695800781e+00,2.182542562484741211e+00,2.143229484558105469e+00,2.105307579040527344e+00,2.068704366683959961e+00,2.033352136611938477e+00,1.999187946319580078e+00,1.966152906417846680e+00,1.934191703796386719e+00,1.903253078460693359e+00,1.873288631439208984e+00,1.844253063201904297e+00
1.988463521003723145e+00,1.988261818885803223e+00,1.988060116767883301e+00,1.987858533859252930e+00,1.987656950950622559e+00,1.987455368041992188e+00,1.987253904342651367e+00,1.987052440643310547e+00,1.986850976943969727e+00,1.986649513244628906e+00,1.986448168754577637e+00,1.986246943473815918e+00,1.986045598983764648e+00,1.985844135284423828e+00,1.985643029212951660e+00,1.985441923141479492e+00,1.985240817070007324e+00,1.985039710998535156e+00,1.984838724136352539e+00,1.984637737274169922e+00,1.984436750411987305e+00,1.984235882759094238e+00,1.984035015106201172e+00,1.983834147453308105e+00,1.983633399009704590e+00,1.983432650566101074e+00,1.983231902122497559e+00,1.983031272888183594e+00,1.982830643653869629e+00,1.982629895210266113e+00,1.982429385185241699e+00,1.982228875160217285e+00,1.982028365135192871e+00,1.981827974319458008e+00,1.981627583503723145e+00,1.981427311897277832e+00,1.981226921081542969e+00,1.981026768684387207e+00,1.980826497077941895e+00,1.980626344680786133e+00,1.980426192283630371e+00,1.980226159095764160e+00,1.980026125907897949e+00,1.979826092720031738e+00,1.979626059532165527e+00,1.979425907135009766e+00,1.979225993156433105e+00,1.979026198387145996e+00,1.978826403617858887e+00,1.978626608848571777e+00,1.978426814079284668e+00,1.978227138519287109e+00,1.978027462959289551e+00,1.977827906608581543e+00,1.977628350257873535e+00,1.977428793907165527e+00,1.977229356765747070e+00,1.977029919624328613e+00,1.976830482482910156e+00,1.976631164550781250e+00,1.976431608200073242e+00,1.976232290267944336e+00,1.976032972335815430e+00,1.975833773612976074e+00,1.975634694099426270e+00,1.975435495376586914e+00,1.975236415863037109e+00,1.975037336349487305e+00,1.974838376045227051e+00,1.974639415740966797e+00,1.974440455436706543e+00,1.974241614341735840e+00,1.974042773246765137e+00,1.973843932151794434e+00,1.973645210266113281e+00,1.966175794601440430e+00,1.934213876724243164e+00,1.903274536132812500e+00,1.873309254646301270e+00,1.844273090362548828e+00
1.777923583984375000e+00,1.777762293815612793e+00,1.777601122856140137e+00,1.777439832687377930e+00,1.777278661727905273e+00,1.777117609977722168e+00,1.776956439018249512e+00,1.776795387268066406e+00,1.776634335517883301e+00,1.776473283767700195e+00,1.776312232017517090e+00,1.776151061058044434e+00,1.775990128517150879e+00,1.775829315185546875e+00,1.775668382644653320e+00,1.775507569313049316e+00,1.775346636772155762e+00,1.775185942649841309e+00,1.775025129318237305e+00,1.774864435195922852e+00,1.774703621864318848e+00,1.774543046951293945e+00,1.774382352828979492e+00,1.774221658706665039e+00,1.774061083793640137e+00,1.773900508880615234e+00,1.773740053176879883e+00,1.773579359054565430e+00,1.773418903350830078e+00,1.773258447647094727e+00,1.773097991943359375e+00,1.772937536239624023e+00,1.772777199745178223e+00,1.772616863250732422e+00,1.772456526756286621e+00,1.772296309471130371e+00,1.772136092185974121e+00,1.771975874900817871e+00,1.771815657615661621e+00,1.771655440330505371e+00,1.771495342254638672e+00,1.771335244178771973e+00,1.771175146102905273e+00,1.771014928817749023e+00,1.770854949951171875e+00,1.770694971084594727e+00,1.770534992218017578e+00,1.770375013351440430e+00,1.770215153694152832e+00,1.770055294036865234e+00,1.769895434379577637e+00,1.769735574722290039e+00,1.769575834274291992e+00,1.769416093826293945e+00,1.769256353378295898e+00,1.769096612930297852e+00,1.768936991691589355e+00,1.768777370452880859e+00,1.768617510795593262e+00,1.768458008766174316e+00,1.768298387527465820e+00,1.768138885498046875e+00,1.767979383468627930e+00,1.767819881439208984e+00,1.767660498619079590e+00,1.767501115798950195e+00,1.767341732978820801e+00,1.767182350158691406e+00,1.767022967338562012e+00,1.766863703727722168e+00,1.766704440116882324e+00,1.766545176506042480e+00,1.766386032104492188e+00,1.766226887702941895e+00,1.766067504882812500e+00,1.765908360481262207e+00,1.765749335289001465e+00,1.765590190887451172e+00,1.765431165695190430e+00,1.765272259712219238e+00
1.607699275016784668e+00,1.607567429542541504e+00,1.607435584068298340e+00,1.607303738594055176e+00,1.607171893119812012e+00,1.607040166854858398e+00,1.606908440589904785e+00,1.606776595115661621e+00,1.606644988059997559e+00,1.606513142585754395e+00,1.606381416320800781e+00,1.606249809265136719e+00,1.606118202209472656e+00,1.605986595153808594e+00,1.605854988098144531e+00,1.605723381042480469e+00,1.605591893196105957e+00,1.605460286140441895e+00,1.605328798294067383e+00,1.605197310447692871e+00,1.605065941810607910e+00,1.604934453964233398e+00,1.604803085327148438e+00,1.604671716690063477e+00,1.604540348052978516e+00,1.604408860206604004e+00,1.604277491569519043e+00,1.604146122932434082e+00,1.604014873504638672e+00,1.603883624076843262e+00,1.603752374649047852e+00,1.603621125221252441e+00,1.603489995002746582e+00,1.603358864784240723e+00,1.603227615356445312e+00,1.603096485137939453e+00,1.602965354919433594e+00,1.602834343910217285e+00,1.602703213691711426e+00,1.602572202682495117e+00,1.602441191673278809e+00,1.602310061454772949e+00,1.602179050445556641e+00,1.602048039436340332e+00,1.601917147636413574e+00,1.601786255836486816e+00,1.601655364036560059e+00,1.601524472236633301e+00,1.601393580436706543e+00,1.601262807846069336e+00,1.601131916046142578e+00,1.601001143455505371e+00,1.600870370864868164e+00,1.600739717483520508e+00,1.600608944892883301e+00,1.600478291511535645e+00,1.600347399711608887e+00,1.600216746330261230e+00,1.600086092948913574e+00,1.599955439567565918e+00,1.599824905395507812e+00,1.599694252014160156e+00,1.599563717842102051e+00,1.599433183670043945e+00,1.599302649497985840e+00,1.599172234535217285e+00,1.599041700363159180e+00,1.598911285400390625e+00,1.598780870437622070e+00,1.598650455474853516e+00,1.598520040512084961e+00,1.598389744758605957e+00,1.598259210586547852e+00,1.598128914833068848e+00,1.597998619079589844e+00,1.597868323326110840e+00,1.597738027572631836e+00,1.597607851028442383e+00,1.597477555274963379e+00,1.597347378730773926e+00
1.467222452163696289e+00,1.467112660408020020e+00,1.467002868652343750e+00,1.466893076896667480e+00,1.466783285140991211e+00,1.466673493385314941e+00,1.466563701629638672e+00,1.466453909873962402e+00,1.466344118118286133e+00,1.466234445571899414e+00,1.466124773025512695e+00,1.466015100479125977e+00,1.465905427932739258e+00,1.465795874595642090e+00,1.465686202049255371e+00,1.465576648712158203e+00,1.465466976165771484e+00,1.465357422828674316e+00,1.465247869491577148e+00,1.465138435363769531e+00,1.465028882026672363e+00,1.464919328689575195e+00,1.464809894561767578e+00,1.464700222015380859e+00,1.464590787887573242e+00,1.464481353759765625e+00,1.464371919631958008e+00,1.464262604713439941e+00,1.464153170585632324e+00,1.464043855667114258e+00,1.463934421539306641e+00,1.463825106620788574e+00,1.463715791702270508e+00,1.463606476783752441e+00,1.463497161865234375e+00,1.463387966156005859e+00,1.463278651237487793e+00,1.463169455528259277e+00,1.463060259819030762e+00,1.462950944900512695e+00,1.462841749191284180e+00,1.462732553482055664e+00,1.462623357772827148e+00,1.462514281272888184e+00,1.462405085563659668e+00,1.462296009063720703e+00,1.462186932563781738e+00,1.462077856063842773e+00,1.461968779563903809e+00,1.461859703063964844e+00,1.461750745773315430e+00,1.461641669273376465e+00,1.461532711982727051e+00,1.461423754692077637e+00,1.461314797401428223e+00,1.461205720901489258e+00,1.461096763610839844e+00,1.460987925529479980e+00,1.460878968238830566e+00,1.460770130157470703e+00,1.460661292076110840e+00,1.460552334785461426e+00,1.460443496704101562e+00,1.460334777832031250e+00,1.460225939750671387e+00,1.460117101669311523e+00,1.460008382797241211e+00,1.459899663925170898e+00,1.459790945053100586e+00,1.459682226181030273e+00,1.459573388099670410e+00,1.459464669227600098e+00,1.459355950355529785e+00,1.459247350692749023e+00,1.459138751029968262e+00,1.459030032157897949e+00,1.458921432495117188e+00,1.458812952041625977e+00,1.458704352378845215e+00,1.458595752716064453e+00
1.349321961402893066e+00,1.349229097366333008e+00,1.349136233329772949e+00,1.349043369293212891e+00,1.348950505256652832e+00,1.348857522010803223e+00,1.348764777183532715e+00,1.348671913146972656e+00,1.348579168319702148e+00,1.348486304283142090e+00,1.348393559455871582e+00,1.348300814628601074e+00,1.348208069801330566e+00,1.348115324974060059e+00,1.348022580146789551e+00,1.347929954528808594e+00,1.347837209701538086e+00,1.347744584083557129e+00,1.347651839256286621e+00,1.347559213638305664e+00,1.347466588020324707e+00,1.347373843193054199e+00,1.347281217575073242e+00,1.347188591957092285e+00,1.347096085548400879e+00,1.347003459930419922e+00,1.346910953521728516e+00,1.346818327903747559e+00,1.346725821495056152e+00,1.346633315086364746e+00,1.346540808677673340e+00,1.346448302268981934e+00,1.346355795860290527e+00,1.346263289451599121e+00,1.346170783042907715e+00,1.346078395843505859e+00,1.345985889434814453e+00,1.345893383026123047e+00,1.345800995826721191e+00,1.345708608627319336e+00,1.345616221427917480e+00,1.345523834228515625e+00,1.345431447029113770e+00,1.345339059829711914e+00,1.345246791839599609e+00,1.345154404640197754e+00,1.345062136650085449e+00,1.344969749450683594e+00,1.344877481460571289e+00,1.344785213470458984e+00,1.344692945480346680e+00,1.344600677490234375e+00,1.344508528709411621e+00,1.344416141510009766e+00,1.344323992729187012e+00,1.344231724739074707e+00,1.344139575958251953e+00,1.344047427177429199e+00,1.343955159187316895e+00,1.343863010406494141e+00,1.343770861625671387e+00,1.343678832054138184e+00,1.343586683273315430e+00,1.343494534492492676e+00,1.343402504920959473e+00,1.343310356140136719e+00,1.343218326568603516e+00,1.343126296997070312e+00,1.343034148216247559e+00,1.342942118644714355e+00,1.342850089073181152e+00,1.342758178710937500e+00,1.342666149139404297e+00,1.342574119567871094e+00,1.342482209205627441e+00,1.342390298843383789e+00,1.342298269271850586e+00,1.342206358909606934e+00,1.342114448547363281e+00,1.342022538185119629e+00
1.248960256576538086e+00,1.248880624771118164e+00,1.248801112174987793e+00,1.248721480369567871e+00,1.248641967773437500e+00,1.248562335968017578e+00,1.248482823371887207e+00,1.248403310775756836e+00,1.248323798179626465e+00,1.248244285583496094e+00,1.248164772987365723e+00,1.248085379600524902e+00,1.248005867004394531e+00,1.247926354408264160e+00,1.247846961021423340e+00,1.247767448425292969e+00,1.247688055038452148e+00,1.247608661651611328e+00,1.247529268264770508e+00,1.247449755668640137e+00,1.247370362281799316e+00,1.247290968894958496e+00,1.247211575508117676e+00,1.247132182121276855e+00,1.247052907943725586e+00,1.246973514556884766e+00,1.246894240379333496e+00,1.246814846992492676e+00,1.246735572814941406e+00,1.246656298637390137e+00,1.246577024459838867e+00,1.246497750282287598e+00,1.246418476104736328e+00,1.246339201927185059e+00,1.246259927749633789e+00,1.246180653572082520e+00,1.246101379394531250e+00,1.246022105216979980e+00,1.245942950248718262e+00,1.245863676071166992e+00,1.245784521102905273e+00,1.245705366134643555e+00,1.245626211166381836e+00,1.245547056198120117e+00,1.245467901229858398e+00,1.245388746261596680e+00,1.245309591293334961e+00,1.245230555534362793e+00,1.245151400566101074e+00,1.245072245597839355e+00,1.244993209838867188e+00,1.244914054870605469e+00,1.244835019111633301e+00,1.244755864143371582e+00,1.244676828384399414e+00,1.244597792625427246e+00,1.244518756866455078e+00,1.244439721107482910e+00,1.244360804557800293e+00,1.244281768798828125e+00,1.244202733039855957e+00,1.244123816490173340e+00,1.244044780731201172e+00,1.243965864181518555e+00,1.243886947631835938e+00,1.243808031082153320e+00,1.243728995323181152e+00,1.243650078773498535e+00,1.243571162223815918e+00,1.243492245674133301e+00,1.243413329124450684e+00,1.243334531784057617e+00,1.243255615234375000e+00,1.243176698684692383e+00,1.243097901344299316e+00,1.243019104003906250e+00,1.242940187454223633e+00,1.242861390113830566e+00,1.242782592773437500e+00,1.242703795433044434e+00
1.162494659423828125e+00,1.162425637245178223e+00,1.162356734275817871e+00,1.162287831306457520e+00,1.162218928337097168e+00,1.162149906158447266e+00,1.162081003189086914e+00,1.162012100219726562e+00,1.161943316459655762e+00,1.161874413490295410e+00,1.161805510520935059e+00,1.161736607551574707e+00,1.161667823791503906e+00,1.161598920822143555e+00,1.161530137062072754e+00,1.161461234092712402e+00,1.161392450332641602e+00,1.161323547363281250e+00,1.161254763603210449e+00,1.161185979843139648e+00,1.161117196083068848e+00,1.161048412322998047e+00,1.160979628562927246e+00,1.160910844802856445e+00,1.160842061042785645e+00,1.160773277282714844e+00,1.160704612731933594e+00,1.160635828971862793e+00,1.160567164421081543e+00,1.160498380661010742e+00,1.160429716110229492e+00,1.160360932350158691e+00,1.160292267799377441e+00,1.160223484039306641e+00,1.160154819488525391e+00,1.160086154937744141e+00,1.160017490386962891e+00,1.159948825836181641e+00,1.159880161285400391e+00,1.159811615943908691e+00,1.159742951393127441e+00,1.159674286842346191e+00,1.159605741500854492e+00,1.159537076950073242e+00,1.159468531608581543e+00,1.159399867057800293e+00,1.159331321716308594e+00,1.159262776374816895e+00,1.159194231033325195e+00,1.159125566482543945e+00,1.159057021141052246e+00,1.158988475799560547e+00,1.158919930458068848e+00,1.158851385116577148e+00,1.158782839775085449e+00,1.158714413642883301e+00,1.158645868301391602e+00,1.158577442169189453e+00,1.158508896827697754e+00,1.158440470695495605e+00,1.158371925354003906e+00,1.158303499221801758e+00,1.158235073089599609e+00,1.158166646957397461e+00,1.158098101615905762e+00,1.158029675483703613e+00,1.157961249351501465e+00,1.157892942428588867e+00,1.157824516296386719e+00,1.157756090164184570e+00,1.157687664031982422e+00,1.157619357109069824e+00,1.157550930976867676e+00,1.157482624053955078e+00,1.157414197921752930e+00,1.157345890998840332e+00,1.157277584075927734e+00,1.157209277153015137e+00,1.157140970230102539e+00,1.157072663307189941e+00
1.087225914001464844e+00,1.087165594100952148e+00,1.087105274200439453e+00,1.087044954299926758e+00,1.086984634399414062e+00,1.086924433708190918e+00,1.086864113807678223e+00,1.086803793907165527e+00,1.086743593215942383e+00,1.086683392524719238e+00,1.086623072624206543e+00,1.086562871932983398e+00,1.086502671241760254e+00,1.086442351341247559e+00,1.086382150650024414e+00,1.086321949958801270e+00,1.086261630058288574e+00,1.086201429367065430e+00,1.086141347885131836e+00,1.086081147193908691e+00,1.086020946502685547e+00,1.085960745811462402e+00,1.085900545120239258e+00,1.085840463638305664e+00,1.085780262947082520e+00,1.085720181465148926e+00,1.085659980773925781e+00,1.085599899291992188e+00,1.085539698600769043e+00,1.085479617118835449e+00,1.085419535636901855e+00,1.085359334945678711e+00,1.085299253463745117e+00,1.085239171981811523e+00,1.085179090499877930e+00,1.085119009017944336e+00,1.085058927536010742e+00,1.084998846054077148e+00,1.084938764572143555e+00,1.084878683090209961e+00,1.084818720817565918e+00,1.084758639335632324e+00,1.084698557853698730e+00,1.084638595581054688e+00,1.084578514099121094e+00,1.084518551826477051e+00,1.084458470344543457e+00,1.084398388862609863e+00,1.084338426589965820e+00,1.084278464317321777e+00,1.084218502044677734e+00,1.084158539772033691e+00,1.084098577499389648e+00,1.084038615226745605e+00,1.083978652954101562e+00,1.083918690681457520e+00,1.083858728408813477e+00,1.083798766136169434e+00,1.083738923072814941e+00,1.083678960800170898e+00,1.083618998527526855e+00,1.083559155464172363e+00,1.083499193191528320e+00,1.083439230918884277e+00,1.083379387855529785e+00,1.083319544792175293e+00,1.083259582519531250e+00,1.083199739456176758e+00,1.083139896392822266e+00,1.083080053329467773e+00,1.083020210266113281e+00,1.082960367202758789e+00,1.082900524139404297e+00,1.082840681076049805e+00,1.082780838012695312e+00,1.082720994949340820e+00,1.082661271095275879e+00,1.082601428031921387e+00,1.082541584968566895e+00,1.082481741905212402e+00
1.021111369132995605e+00,1.021058201789855957e+00,1.021004915237426758e+00,1.020951747894287109e+00,1.020898580551147461e+00,1.020845413208007812e+00,1.020792245864868164e+00,1.020739078521728516e+00,1.020685911178588867e+00,1.020632743835449219e+00,1.020579695701599121e+00,1.020526528358459473e+00,1.020473361015319824e+00,1.020420193672180176e+00,1.020367026329040527e+00,1.020313978195190430e+00,1.020260810852050781e+00,1.020207762718200684e+00,1.020154595375061035e+00,1.020101547241210938e+00,1.020048379898071289e+00,1.019995331764221191e+00,1.019942283630371094e+00,1.019889235496520996e+00,1.019836187362670898e+00,1.019783020019531250e+00,1.019729971885681152e+00,1.019676923751831055e+00,1.019623875617980957e+00,1.019570827484130859e+00,1.019517779350280762e+00,1.019464731216430664e+00,1.019411683082580566e+00,1.019358754158020020e+00,1.019305706024169922e+00,1.019252657890319824e+00,1.019199728965759277e+00,1.019146680831909180e+00,1.019093751907348633e+00,1.019040703773498535e+00,1.018987774848937988e+00,1.018934726715087891e+00,1.018881797790527344e+00,1.018828868865966797e+00,1.018775820732116699e+00,1.018722891807556152e+00,1.018669962882995605e+00,1.018616914749145508e+00,1.018563985824584961e+00,1.018511056900024414e+00,1.018458127975463867e+00,1.018405199050903320e+00,1.018352389335632324e+00,1.018299460411071777e+00,1.018246531486511230e+00,1.018193602561950684e+00,1.018140792846679688e+00,1.018087863922119141e+00,1.018034934997558594e+00,1.017982125282287598e+00,1.017929196357727051e+00,1.017876267433166504e+00,1.017823457717895508e+00,1.017770528793334961e+00,1.017717719078063965e+00,1.017664909362792969e+00,1.017612099647521973e+00,1.017559170722961426e+00,1.017506361007690430e+00,1.017453551292419434e+00,1.017400741577148438e+00,1.017347931861877441e+00,1.017295122146606445e+00,1.017242312431335449e+00,1.017189502716064453e+00,1.017136812210083008e+00,1.017083883285522461e+00,1.017031192779541016e+00,1.016978383064270020e+00,1.016925573348999023e+00
