5.000000000000000000e+00,5.000000000000000000e+00,5.000000000000000000e+00,5.000000000000000000e+00,5.000000000000000000e+00,5.000000000000000000e+00,5.000000000000000000e+00,5.000000000000000000e+00,5.000000000000000000e+00,5.000000000000000000e+00,5.000000000000000000e+00,5.000000000000000000e+00,5.000000000000000000e+00,5.000000000000000000e+00,5.000000000000000000e+00,5.000000000000000000e+00,5.000000000000000000e+00,5.000000000000000000e+00,5.000000000000000000e+00,5.000000000000000000e+00,5.000000000000000000e+00,5.000000000000000000e+00,5.000000000000000000e+00,5.000000000000000000e+00,5.000000000000000000e+00,5.000000000000000000e+00,5.000000000000000000e+00,5.000000000000000000e+00,5.000000000000000000e+00,5.000000000000000000e+00,5.000000000000000000e+00,5.000000000000000000e+00,5.000000000000000000e+00,5.000000000000000000e+00,5.000000000000000000e+00,5.000000000000000000e+00,5.000000000000000000e+00,5.000000000000000000e+00,5.000000000000000000e+00,4.853046417236328125e+00,4.662840366363525391e+00,4.486981391906738281e+00,4.323904991149902344e+00,4.172266960144042969e+00,4.030904293060302734e+00,3.898807048797607422e+00,3.775093078613281250e+00,3.658988475799560547e+00,3.549812793731689453e+00,3.446963071823120117e+00,3.349905729293823242e+00,3.258164167404174805e+00,3.171313762664794922e+00,3.088973522186279297e+00,3.010800600051879883e+00,2.936486721038818359e+00,2.865752935409545898e+00,2.798346757888793945e+00,2.734038352966308594e+00,2.672619581222534180e+00,2.613899469375610352e+00,2.557704448699951172e+00,2.503874778747558594e+00,2.452263832092285156e+00,2.402737855911254883e+00,2.355172634124755859e+00,2.309453964233398438e+00,2.265476703643798828e+00,2.223142862319946289e+00,2.182362318038940430e+00,2.143050670623779297e+00,2.105130434036254883e+00,2.068528652191162109e+00,2.033178329467773438e+00,1.999015688896179199e+00,1.965982079505920410e+00,1.934022426605224609e+00,1.903085470199584961e+00,1.873122453689575195e+00,1.844088315963745117e+00
5.000000000000000000e+00,5.000000000000000000e+00,5.000000000000000000e+00,5.000000000000000000e+00,5.000000000000000000e+00,5.000000000000000000e+00,5.000000000000000000e+00,5.000000000000000000e+00,5.000000000000000000e+00,5.000000000000000000e+00,5.000000000000000000e+00,5.000000000000000000e+00,5.000000000000000000e+00,5.000000000000000000e+00,5.000000000000000000e+00,5.000000000000000000e+00,5.000000000000000000e+00,5.000000000000000000e+00,5.000000000000000000e+00,5.000000000000000000e+00,5.000000000000000000e+00,5.000000000000000000e+00,5.000000000000000000e+00,5.000000000000000000e+00,5.000000000000000000e+00,5.000000000000000000e+00,5.000000000000000000e+00,5.000000000000000000e+00,5.000000000000000000e+00,5.000000000000000000e+00,5.000000000000000000e+00,5.000000000000000000e+00,5.000000000000000000e+00,5.000000000000000000e+00,5.000000000000000000e+00,5.000000000000000000e+00,5.000000000000000000e+00,5.000000000000000000e+00,5.000000000000000000e+00,4.853186130523681641e+00,4.662968635559082031e+00,4.487100124359130859e+00,4.324015617370605469e+00,4.172369956970214844e+00,4.031000614166259766e+00,3.898897171020507812e+00,3.775177240371704102e+00,3.659067869186401367e+00,3.549887180328369141e+00,3.447033643722534180e+00,3.349972009658813477e+00,3.258227109909057617e+00,3.171373605728149414e+00,3.089029788970947266e+00,3.010854244232177734e+00,2.936537742614746094e+00,2.865801572799682617e+00,2.798393011093139648e+00,2.734082698822021484e+00,2.672662019729614258e+00,2.613940000534057617e+00,2.557743310928344727e+00,2.503911733627319336e+00,2.452299594879150391e+00,2.402771949768066406e+00,2.355205297470092773e+00,2.309485435485839844e+00,2.265506982803344727e+00,2.223172187805175781e+00,2.182390451431274414e+00,2.143078088760375977e+00,2.105156660079956055e+00,2.068554162979125977e+00,2.033202648162841797e+00,1.999039292335510254e+00,1.966005086898803711e+00,1.934044718742370605e+00,1.903106808662414551e+00,1.873143076896667480e+00,1.844108581542968750e+00
5.000000000000000000e+00,5.000000000000000000e+00,5.000000000000000000e+00,5.000000000000000000e+00,5.000000000000000000e+00,5.000000000000000000e+00,5.000000000000000000e+00,5.000000000000000000e+00,5.000000000000000000e+00,5.000000000000000000e+00,5.000000000000000000e+00,5.000000000000000000e+00,5.000000000000000000e+00,5.000000000000000000e+00,5.000000000000000000e+00,5.000000000000000000e+00,5.000000000000000000e+00,5.000000000000000000e+00,5.000000000000000000e+00,5.000000000000000000e+00,5.000000000000000000e+00,5.000000000000000000e+00,5.000000000000000000e+00,5.000000000000000000e+00,5.000000000000000000e+00,5.000000000000000000e+00,5.000000000000000000e+00,5.000000000000000000e+00,5.000000000000000000e+00,5.000000000000000000e+00,5.000000000000000000e+00,5.000000000000000000e+00,5.000000000000000000e+00,5.000000000000000000e+00,5.000000000000000000e+00,5.000000000000000000e+00,5.000000000000000000e+00,5.000000000000000000e+00,5.000000000000000000e+00,4.853325366973876953e+00,4.663097381591796875e+00,4.487219810485839844e+00,4.324126243591308594e+00,4.172472953796386719e+00,4.031096458435058594e+00,3.898987054824829102e+00,3.775261640548706055e+00,3.659147024154663086e+00,3.549962043762207031e+00,3.447103977203369141e+00,3.350038528442382812e+00,3.258290052413940430e+00,3.171432971954345703e+00,3.089086294174194336e+00,3.010907649993896484e+00,2.936588764190673828e+00,2.865849971771240234e+00,2.798439264297485352e+00,2.734127044677734375e+00,2.672704219818115234e+00,2.613980531692504883e+00,2.557781934738159180e+00,2.503948926925659180e+00,2.452335119247436523e+00,2.402806043624877930e+00,2.355238199234008789e+00,2.309517145156860352e+00,2.265537261962890625e+00,2.223201274871826172e+00,2.182418584823608398e+00,2.143105030059814453e+00,2.105182886123657227e+00,2.068579196929931641e+00,2.033227205276489258e+00,1.999063014984130859e+00,1.966027975082397461e+00,1.934066772460937500e+00,1.903128147125244141e+00,1.873164057731628418e+00,1.844128608703613281e+00
5.000000000000000000e+00,5.000000000000000000e+00,5.000000000000000000e+00,5.000000000000000000e+00,5.000000000000000000e+00,5.000000000000000000e+00,5.000000000000000000e+00,5.000000000000000000e+00,5.000000000000000000e+00,5.000000000000000000e+00,5.000000000000000000e+00,5.000000000000000000e+00,5.000000000000000000e+00,5.000000000000000000e+00,5.000000000000000000e+00,5.000000000000000000e+00,5.000000000000000000e+00,5.000000000000000000e+00,5.000000000000000000e+00,5.000000000000000000e+00,5.000000000000000000e+00,5.000000000000000000e+00,5.000000000000000000e+00,5.000000000000000000e+00,5.000000000000000000e+00,5.000000000000000000e+00,5.000000000000000000e+00,5.000000000000000000e+00,5.000000000000000000e+00,5.000000000000000000e+00,5.000000000000000000e+00,5.000000000000000000e+00,5.000000000000000000e+00,5.000000000000000000e+00,5.000000000000000000e+00,5.000000000000000000e+00,5.000000000000000000e+00,5.000000000000000000e+00,5.000000000000000000e+00,4.853465080261230469e+00,4.663226127624511719e+00,4.487339019775390625e+00,4.324236869812011719e+00,4.172575950622558594e+00,4.031192779541015625e+00,3.899077177047729492e+00,3.775345802307128906e+00,3.659226417541503906e+00,3.550036668777465820e+00,3.447174310684204102e+00,3.350105047225952148e+00,3.258352756500244141e+00,3.171492576599121094e+00,3.089142799377441406e+00,3.010961532592773438e+00,2.936640024185180664e+00,2.865898609161376953e+00,2.798485755920410156e+00,2.734171152114868164e+00,2.672746658325195312e+00,2.614020824432373047e+00,2.557820558547973633e+00,2.503985881805419922e+00,2.452370405197143555e+00,2.402840137481689453e+00,2.355271100997924805e+00,2.309548616409301758e+00,2.265567541122436523e+00,2.223230600357055664e+00,2.182446718215942383e+00,2.143132209777832031e+00,2.105209350585937500e+00,2.068604707717895508e+00,2.033251762390136719e+00,1.999086618423461914e+00,1.966050744056701660e+00,1.934088826179504395e+00,1.903149843215942383e+00,1.873184680938720703e+00,1.844148635864257812e+00
5.000000000000000000e+00,5.000000000000000000e+00,5.000000000000000000e+00,5.000000000000000000e+00,5.000000000000000000e+00,5.000000000000000000e+00,5.000000000000000000e+00,5.000000000000000000e+00,5.000000000000000000e+00,5.000000000000000000e+00,5.000000000000000000e+00,5.000000000000000000e+00,5.000000000000000000e+00,5.000000000000000000e+00,5.000000000000000000e+00,5.000000000000000000e+00,5.000000000000000000e+00,5.000000000000000000e+00,5.000000000000000000e+00,5.000000000000000000e+00,5.000000000000000000e+00,5.000000000000000000e+00,5.000000000000000000e+00,5.000000000000000000e+00,5.000000000000000000e+00,5.000000000000000000e+00,5.000000000000000000e+00,5.000000000000000000e+00,5.000000000000000000e+00,5.000000000000000000e+00,5.000000000000000000e+00,5.000000000000000000e+00,5.000000000000000000e+00,5.000000000000000000e+00,5.000000000000000000e+00,5.000000000000000000e+00,5.000000000000000000e+00,5.000000000000000000e+00,5.000000000000000000e+00,4.853604316711425781e+00,4.663354873657226562e+00,4.487457752227783203e+00,4.324347496032714844e+00,4.172678947448730469e+00,4.031289100646972656e+00,3.899167299270629883e+00,3.775430440902709961e+00,3.659305810928344727e+00,3.550111055374145508e+00,3.447244644165039062e+00,3.350171327590942383e+00,3.258415699005126953e+00,3.171551942825317383e+00,3.089199304580688477e+00,3.011015176773071289e+00,2.936690807342529297e+00,2.865947484970092773e+00,2.798532009124755859e+00,2.734215497970581055e+00,2.672788619995117188e+00,2.614061355590820312e+00,2.557859420776367188e+00,2.504022836685180664e+00,2.452406167984008789e+00,2.402874231338500977e+00,2.355304002761840820e+00,2.309580087661743164e+00,2.265598058700561523e+00,2.223259925842285156e+00,2.182475090026855469e+00,2.143159627914428711e+00,2.105235338211059570e+00,2.068629980087280273e+00,2.033276081085205078e+00,1.999110221862792969e+00,1.966073513031005859e+00,1.934111118316650391e+00,1.903171181678771973e+00,1.873205423355102539e+00,1.844168901443481445e+00
5.000000000000000000e+00,5.000000000000000000e+00,5.000000000000000000e+00,5.000000000000000000e+00,5.000000000000000000e+00,5.000000000000000000e+00,5.000000000000000000e+00,5.000000000000000000e+00,5.000000000000000000e+00,5.000000000000000000e+00,5.000000000000000000e+00,5.000000000000000000e+00,5.000000000000000000e+00,5.000000000000000000e+00,5.000000000000000000e+00,5.000000000000000000e+00,5.000000000000000000e+00,5.000000000000000000e+00,5.000000000000000000e+00,5.000000000000000000e+00,5.000000000000000000e+00,5.000000000000000000e+00,5.000000000000000000e+00,5.000000000000000000e+00,5.000000000000000000e+00,5.000000000000000000e+00,5.000000000000000000e+00,5.000000000000000000e+00,5.000000000000000000e+00,5.000000000000000000e+00,5.000000000000000000e+00,5.000000000000000000e+00,5.000000000000000000e+00,5.000000000000000000e+00,5.000000000000000000e+00,5.000000000000000000e+00,5.000000000000000000e+00,5.000000000000000000e+00,5.000000000000000000e+00,4.853743553161621094e+00,4.663483619689941406e+00,4.487576961517333984e+00,4.324458122253417969e+00,4.172782421112060547e+00,4.031385421752929688e+00,3.899256944656372070e+00,3.775514841079711914e+00,3.659384727478027344e+00,3.550185918807983398e+00,3.447314739227294922e+00,3.350237846374511719e+00,3.258478641510009766e+00,3.171611547470092773e+00,3.089255809783935547e+00,3.011068820953369141e+00,2.936742067337036133e+00,2.865995883941650391e+00,2.798578500747680664e+00,2.734259605407714844e+00,2.672831058502197266e+00,2.614101886749267578e+00,2.557898044586181641e+00,2.504060029983520508e+00,2.452441692352294922e+00,2.402908563613891602e+00,2.355336666107177734e+00,2.309611797332763672e+00,2.265628576278686523e+00,2.223289251327514648e+00,2.182503223419189453e+00,2.143186569213867188e+00,2.105261564254760742e+00,2.068655252456665039e+00,2.033300638198852539e+00,1.999133825302124023e+00,1.966096639633178711e+00,1.934133172035217285e+00,1.903192520141601562e+00,1.873226404190063477e+00,1.844189047813415527e+00
5.000000000000000000e+00,5.000000000000000000e+00,5.000000000000000000e+00,5.000000000000000000e+00,5.000000000000000000e+00,5.000000000000000000e+00,5.000000000000000000e+00,5.000000000000000000e+00,5.000000000000000000e+00,5.000000000000000000e+00,5.000000000000000000e+00,5.000000000000000000e+00,5.000000000000000000e+00,5.000000000000000000e+00,5.000000000000000000e+00,5.000000000000000000e+00,5.000000000000000000e+00,5.000000000000000000e+00,5.000000000000000000e+00,5.000000000000000000e+00,5.000000000000000000e+00,5.000000000000000000e+00,5.000000000000000000e+00,5.000000000000000000e+00,5.000000000000000000e+00,5.000000000000000000e+00,5.000000000000000000e+00,5.000000000000000000e+00,5.000000000000000000e+00,5.000000000000000000e+00,5.000000000000000000e+00,5.000000000000000000e+00,5.000000000000000000e+00,5.000000000000000000e+00,5.000000000000000000e+00,5.000000000000000000e+00,5.000000000000000000e+00,5.000000000000000000e+00,5.000000000000000000e+00,4.853883266448974609e+00,4.663612842559814453e+00,4.487696647644042969e+00,4.324569225311279297e+00,4.172885417938232422e+00,4.031481266021728516e+00,3.899347066879272461e+00,3.775599002838134766e+00,3.659464120864868164e+00,3.550260543823242188e+00,3.447385311126708984e+00,3.350304365158081055e+00,3.258541345596313477e+00,3.171671152114868164e+00,3.089312314987182617e+00,3.011122465133666992e+00,2.936792850494384766e+00,2.866044521331787109e+00,2.798624992370605469e+00,2.734303951263427734e+00,2.672873497009277344e+00,2.614142179489135742e+00,2.557936668395996094e+00,2.504096984863281250e+00,2.452477216720581055e+00,2.402942657470703125e+00,2.355369567871093750e+00,2.309643507003784180e+00,2.265658855438232422e+00,2.223318338394165039e+00,2.182531356811523438e+00,2.143213987350463867e+00,2.105287790298461914e+00,2.068680763244628906e+00,2.033325195312500000e+00,1.999157667160034180e+00,1.966119408607482910e+00,1.934155344963073730e+00,1.903214097023010254e+00,1.873247027397155762e+00,1.844209074974060059e+00
5.000000000000000000e+00,5.000000000000000000e+00,5.000000000000000000e+00,5.000000000000000000e+00,5.000000000000000000e+00,5.000000000000000000e+00,5.000000000000000000e+00,5.000000000000000000e+00,5.000000000000000000e+00,5.000000000000000000e+00,5.000000000000000000e+00,5.000000000000000000e+00,5.000000000000000000e+00,5.000000000000000000e+00,5.000000000000000000e+00,5.000000000000000000e+00,5.000000000000000000e+00,5.000000000000000000e+00,5.000000000000000000e+00,5.000000000000000000e+00,5.000000000000000000e+00,5.000000000000000000e+00,5.000000000000000000e+00,5.000000000000000000e+00,5.000000000000000000e+00,5.000000000000000000e+00,5.000000000000000000e+00,5.000000000000000000e+00,5.000000000000000000e+00,5.000000000000000000e+00,5.000000000000000000e+00,5.000000000000000000e+00,5.000000000000000000e+00,5.000000000000000000e+00,5.000000000000000000e+00,5.000000000000000000e+00,5.000000000000000000e+00,5.000000000000000000e+00,5.000000000000000000e+00,4.854022979736328125e+00,4.663741111755371094e+00,4.487815856933593750e+00,4.324679851531982422e+00,4.172988414764404297e+00,4.031577587127685547e+00,3.899436950683593750e+00,3.775683641433715820e+00,3.659543514251708984e+00,3.550334930419921875e+00,3.447455883026123047e+00,3.350370645523071289e+00,3.258604288101196289e+00,3.171730518341064453e+00,3.089368820190429688e+00,3.011176347732543945e+00,2.936844110488891602e+00,2.866093397140502930e+00,2.798671245574951172e+00,2.734348297119140625e+00,2.672915697097778320e+00,2.614182710647583008e+00,2.557975292205810547e+00,2.504134178161621094e+00,2.452512979507446289e+00,2.402976751327514648e+00,2.355402469635009766e+00,2.309674978256225586e+00,2.265689373016357422e+00,2.223347663879394531e+00,2.182559728622436523e+00,2.143241167068481445e+00,2.105314016342163086e+00,2.068706035614013672e+00,2.033349514007568359e+00,1.999181151390075684e+00,1.966142177581787109e+00,1.934177637100219727e+00,1.903235554695129395e+00,1.873267769813537598e+00,1.844229340553283691e+00
5.000000000000000000e+00,5.000000000000000000e+00,5.000000000000000000e+00,5.000000000000000000e+00,5.000000000000000000e+00,5.000000000000000000e+00,5.000000000000000000e+00,5.000000000000000000e+00,5.000000000000000000e+00,5.000000000000000000e+00,5.000000000000000000e+00,5.000000000000000000e+00,5.000000000000000000e+00,5.000000000000000000e+00,5.000000000000000000e+00,5.000000000000000000e+00,5.000000000000000000e+00,5.000000000000000000e+00,5.000000000000000000e+00,5.000000000000000000e+00,5.000000000000000000e+00,5.000000000000000000e+00,5.000000000000000000e+00,5.000000000000000000e+00,5.000000000000000000e+00,5.000000000000000000e+00,5.000000000000000000e+00,5.000000000000000000e+00,5.000000000000000000e+00,5.000000000000000000e+00,5.000000000000000000e+00,5.000000000000000000e+00,5.000000000000000000e+00,5.000000000000000000e+00,5.000000000000000000e+00,5.000000000000000000e+00,5.000000000000000000e+00,5.000000000000000000e+00,5.000000000000000000e+00,4.854162216186523438e+00,4.663869857788085938e+00,4.487934589385986328e+00,4.324790477752685547e+00,4.173091411590576172e+00,4.031673908233642578e+00,3.899527072906494141e+00,3.775768041610717773e+00,3.659622669219970703e+00,3.550409793853759766e+00,3.447525978088378906e+00,3.350437164306640625e+00,3.258666992187500000e+00,3.171790122985839844e+00,3.089425325393676758e+00,3.011229753494262695e+00,2.936895132064819336e+00,2.866141796112060547e+00,2.798717498779296875e+00,2.734392166137695312e+00,2.672957658767700195e+00,2.614223241806030273e+00,2.558014154434204102e+00,2.504171371459960938e+00,2.452548503875732422e+00,2.403011083602905273e+00,2.355435132980346680e+00,2.309706449508666992e+00,2.265719652175903320e+00,2.223376989364624023e+00,2.182587862014770508e+00,2.143268346786499023e+00,2.105340480804443359e+00,2.068731307983398438e+00,2.033374071121215820e+00,1.999204754829406738e+00,1.966165304183959961e+00,1.934199690818786621e+00,1.903256893157958984e+00,1.873288631439208984e+00,1.844249486923217773e+00
5.000000000000000000e+00,5.000000000000000000e+00,5.000000000000000000e+00,5.000000000000000000e+00,5.000000000000000000e+00,5.000000000000000000e+00,5.000000000000000000e+00,5.000000000000000000e+00,5.000000000000000000e+00,5.000000000000000000e+00,5.000000000000000000e+00,5.000000000000000000e+00,5.000000000000000000e+00,5.000000000000000000e+00,5.000000000000000000e+00,5.000000000000000000e+00,5.000000000000000000e+00,5.000000000000000000e+00,5.000000000000000000e+00,5.000000000000000000e+00,5.000000000000000000e+00,5.000000000000000000e+00,5.000000000000000000e+00,5.000000000000000000e+00,5.000000000000000000e+00,5.000000000000000000e+00,5.000000000000000000e+00,5.000000000000000000e+00,5.000000000000000000e+00,5.000000000000000000e+00,5.000000000000000000e+00,5.000000000000000000e+00,5.000000000000000000e+00,5.000000000000000000e+00,5.000000000000000000e+00,5.000000000000000000e+00,5.000000000000000000e+00,5.000000000000000000e+00,5.000000000000000000e+00,4.854301452636718750e+00,4.663998603820800781e+00,4.488053798675537109e+00,4.324901580810546875e+00,4.173194885253906250e+00,4.031770229339599609e+00,3.899617195129394531e+00,3.775852203369140625e+00,3.659702062606811523e+00,3.550484180450439453e+00,3.447596311569213867e+00,3.350503921508789062e+00,3.258729934692382812e+00,3.171849966049194336e+00,3.089481830596923828e+00,3.011283636093139648e+00,2.936946153640747070e+00,2.866190433502197266e+00,2.798763751983642578e+00,2.734436511993408203e+00,2.673000097274780273e+00,2.614263534545898438e+00,2.558052778244018555e+00,2.504208326339721680e+00,2.452584028244018555e+00,2.403045177459716797e+00,2.355468034744262695e+00,2.309738159179687500e+00,2.265749931335449219e+00,2.223406314849853516e+00,2.182615995407104492e+00,2.143295526504516602e+00,2.105366468429565430e+00,2.068756818771362305e+00,2.033398389816284180e+00,1.999228596687316895e+00,1.966188073158264160e+00,1.934221744537353516e+00,1.903278470039367676e+00,1.873309373855590820e+00,1.844269514083862305e+00
5.000000000000000000e+00,5.000000000000000000e+00,5.000000000000000000e+00,5.000000000000000000e+00,5.000000000000000000e+00,5.000000000000000000e+00,5.000000000000000000e+00,5.000000000000000000e+00,5.000000000000000000e+00,5.000000000000000000e+00,5.000000000000000000e+00,5.000000000000000000e+00,5.000000000000000000e+00,5.000000000000000000e+00,5.000000000000000000e+00,5.000000000000000000e+00,5.000000000000000000e+00,5.000000000000000000e+00,5.000000000000000000e+00,5.000000000000000000e+00,5.000000000000000000e+00,5.000000000000000000e+00,5.000000000000000000e+00,5.000000000000000000e+00,5.000000000000000000e+00,5.000000000000000000e+00,5.000000000000000000e+00,5.000000000000000000e+00,5.000000000000000000e+00,5.000000000000000000e+00,5.000000000000000000e+00,5.000000000000000000e+00,5.000000000000000000e+00,5.000000000000000000e+00,5.000000000000000000e+00,5.000000000000000000e+00,5.000000000000000000e+00,5.000000000000000000e+00,5.000000000000000000e+00,4.854441165924072266e+00,4.664127826690673828e+00,4.488173484802246094e+00,4.325012207031250000e+00,4.173297882080078125e+00,4.031866073608398438e+00,3.899707078933715820e+00,3.775936841964721680e+00,3.659781217575073242e+00,3.550558805465698242e+00,3.447666883468627930e+00,3.350570201873779297e+00,3.258792877197265625e+00,3.171909332275390625e+00,3.089538335800170898e+00,3.011337041854858398e+00,2.936997175216674805e+00,2.866239309310913086e+00,2.798810005187988281e+00,2.734480857849121094e+00,2.673042297363281250e+00,2.614304065704345703e+00,2.558091402053833008e+00,2.504245519638061523e+00,2.452619552612304688e+00,2.403079509735107422e+00,2.355500936508178711e+00,2.309769630432128906e+00,2.265780448913574219e+00,2.223435401916503906e+00,2.182644128799438477e+00,2.143322706222534180e+00,2.105392932891845703e+00,2.068782091140747070e+00,2.033422946929931641e+00,1.999252200126647949e+00,1.966210842132568359e+00,1.934244036674499512e+00,1.903299808502197266e+00,1.873330116271972656e+00,1.844289541244506836e+00
5.000000000000000000e+00,5.000000000000000000e+00,5.000000000000000000e+00,5.000000000000000000e+00,5.000000000000000000e+00,5.000000000000000000e+00,5.000000000000000000e+00,5.000000000000000000e+00,5.000000000000000000e+00,5.000000000000000000e+00,5.000000000000000000e+00,5.000000000000000000e+00,5.000000000000000000e+00,5.000000000000000000e+00,5.000000000000000000e+00,5.000000000000000000e+00,5.000000000000000000e+00,5.000000000000000000e+00,5.000000000000000000e+00,5.000000000000000000e+00,5.000000000000000000e+00,5.000000000000000000e+00,5.000000000000000000e+00,5.000000000000000000e+00,5.000000000000000000e+00,5.000000000000000000e+00,5.000000000000000000e+00,5.000000000000000000e+00,5.000000000000000000e+00,5.000000000000000000e+00,5.000000000000000000e+00,5.000000000000000000e+00,5.000000000000000000e+00,5.000000000000000000e+00,5.000000000000000000e+00,5.000000000000000000e+00,5.000000000000000000e+00,5.000000000000000000e+00,5.000000000000000000e+00,4.854580879211425781e+00,4.664256572723388672e+00,4.488292694091796875e+00,4.325122833251953125e+00,4.173400878906250000e+00,4.031962394714355469e+00,3.899797201156616211e+00,3.776021242141723633e+00,3.659860610961914062e+00,3.550633668899536133e+00,3.447736978530883789e+00,3.350636720657348633e+00,3.258855581283569336e+00,3.171968936920166016e+00,3.089594602584838867e+00,3.011390924453735352e+00,2.937048435211181641e+00,2.866287469863891602e+00,2.798856496810913086e+00,2.734524965286254883e+00,2.673084735870361328e+00,2.614344358444213867e+00,2.558130264282226562e+00,2.504282712936401367e+00,2.452655315399169922e+00,2.403113603591918945e+00,2.355533838272094727e+00,2.309801340103149414e+00,2.265810728073120117e+00,2.223464727401733398e+00,2.182672262191772461e+00,2.143349885940551758e+00,2.105419158935546875e+00,2.068807363510131836e+00,2.033447504043579102e+00,1.999275803565979004e+00,1.966233968734741211e+00,1.934266090393066406e+00,1.903321266174316406e+00,1.873350977897644043e+00,1.844309806823730469e+00
5.000000000000000000e+00,5.000000000000000000e+00,5.000000000000000000e+00,5.000000000000000000e+00,5.000000000000000000e+00,5.000000000000000000e+00,5.000000000000000000e+00,5.000000000000000000e+00,5.000000000000000000e+00,5.000000000000000000e+00,5.000000000000000000e+00,5.000000000000000000e+00,5.000000000000000000e+00,5.000000000000000000e+00,5.000000000000000000e+00,5.000000000000000000e+00,5.000000000000000000e+00,5.000000000000000000e+00,5.000000000000000000e+00,5.000000000000000000e+00,5.000000000000000000e+00,5.000000000000000000e+00,5.000000000000000000e+00,5.000000000000000000e+00,5.000000000000000000e+00,5.000000000000000000e+00,5.000000000000000000e+00,5.000000000000000000e+00,5.000000000000000000e+00,5.000000000000000000e+00,5.000000000000000000e+00,5.000000000000000000e+00,5.000000000000000000e+00,5.000000000000000000e+00,5.000000000000000000e+00,5.000000000000000000e+00,5.000000000000000000e+00,5.000000000000000000e+00,5.000000000000000000e+00,4.854720115661621094e+00,4.664385318756103516e+00,4.488411903381347656e+00,4.325233459472656250e+00,4.173503875732421875e+00,4.032058715820312500e+00,3.899887323379516602e+00,3.776105403900146484e+00,3.659940004348754883e+00,3.550708055496215820e+00,3.447807550430297852e+00,3.350703001022338867e+00,3.258918523788452148e+00,3.172028541564941406e+00,3.089651346206665039e+00,3.011444807052612305e+00,2.937098979949951172e+00,2.866336107254028320e+00,2.798902750015258789e+00,2.734569311141967773e+00,2.673126935958862305e+00,2.614384889602661133e+00,2.558169126510620117e+00,2.504319667816162109e+00,2.452691078186035156e+00,2.403147697448730469e+00,2.355566740036010742e+00,2.309832811355590820e+00,2.265841245651245117e+00,2.223494052886962891e+00,2.182700634002685547e+00,2.143377065658569336e+00,2.105445384979248047e+00,2.068832635879516602e+00,2.033471822738647461e+00,1.999299645423889160e+00,1.966256737709045410e+00,1.934288144111633301e+00,1.903342843055725098e+00,1.873371720314025879e+00,1.844329953193664551e+00
5.000000000000000000e+00,5.000000000000000000e+00,5.000000000000000000e+00,5.000000000000000000e+00,5.000000000000000000e+00,5.000000000000000000e+00,5.000000000000000000e+00,5.000000000000000000e+00,5.000000000000000000e+00,5.000000000000000000e+00,5.000000000000000000e+00,5.000000000000000000e+00,5.000000000000000000e+00,5.000000000000000000e+00,5.000000000000000000e+00,5.000000000000000000e+00,5.000000000000000000e+00,5.000000000000000000e+00,5.000000000000000000e+00,5.000000000000000000e+00,5.000000000000000000e+00,5.000000000000000000e+00,5.000000000000000000e+00,5.000000000000000000e+00,5.000000000000000000e+00,5.000000000000000000e+00,5.000000000000000000e+00,5.000000000000000000e+00,5.000000000000000000e+00,5.000000000000000000e+00,5.000000000000000000e+00,5.000000000000000000e+00,5.000000000000000000e+00,5.000000000000000000e+00,5.000000000000000000e+00,5.000000000000000000e+00,5.000000000000000000e+00,5.000000000000000000e+00,5.000000000000000000e+00,4.854859352111816406e+00,4.664513587951660156e+00,4.488531112670898438e+00,4.325344562530517578e+00,4.173606872558593750e+00,4.032155036926269531e+00,3.899977207183837891e+00,3.776190042495727539e+00,3.660018920898437500e+00,3.550782918930053711e+00,3.447878122329711914e+00,3.350769519805908203e+00,3.258981704711914062e+00,3.172087907791137695e+00,3.089707851409912109e+00,3.011497974395751953e+00,2.937150239944458008e+00,2.866384744644165039e+00,2.798949241638183594e+00,2.734613656997680664e+00,2.673169136047363281e+00,2.614425420761108398e+00,2.558207750320434570e+00,2.504356861114501953e+00,2.452726364135742188e+00,2.403182029724121094e+00,2.355599641799926758e+00,2.309864521026611328e+00,2.265871763229370117e+00,2.223523139953613281e+00,2.182728767395019531e+00,2.143404245376586914e+00,2.105471611022949219e+00,2.068857908248901367e+00,2.033496379852294922e+00,1.999323248863220215e+00,1.966279506683349609e+00,1.934310555458068848e+00,1.903364181518554688e+00,1.873392462730407715e+00,1.844349980354309082e+00
5.000000000000000000e+00,5.000000000000000000e+00,5.000000000000000000e+00,5.000000000000000000e+00,5.000000000000000000e+00,5.000000000000000000e+00,5.000000000000000000e+00,5.000000000000000000e+00,5.000000000000000000e+00,5.000000000000000000e+00,5.000000000000000000e+00,5.000000000000000000e+00,5.000000000000000000e+00,5.000000000000000000e+00,5.000000000000000000e+00,5.000000000000000000e+00,5.000000000000000000e+00,5.000000000000000000e+00,5.000000000000000000e+00,5.000000000000000000e+00,5.000000000000000000e+00,5.000000000000000000e+00,5.000000000000000000e+00,5.000000000000000000e+00,5.000000000000000000e+00,5.000000000000000000e+00,5.000000000000000000e+00,5.000000000000000000e+00,5.000000000000000000e+00,5.000000000000000000e+00,5.000000000000000000e+00,5.000000000000000000e+00,5.000000000000000000e+00,5.000000000000000000e+00,5.000000000000000000e+00,5.000000000000000000e+00,5.000000000000000000e+00,5.000000000000000000e+00,5.000000000000000000e+00,4.854999542236328125e+00,4.664642810821533203e+00,4.488650321960449219e+00,4.325455188751220703e+00,4.173710346221923828e+00,4.032251358032226562e+00,3.900067329406738281e+00,3.776274204254150391e+00,3.660098552703857422e+00,3.550857543945312500e+00,3.447948217391967773e+00,3.350836038589477539e+00,3.259044408798217773e+00,3.172147512435913086e+00,3.089763879776000977e+00,3.011551856994628906e+00,2.937201499938964844e+00,2.866433382034301758e+00,2.798995733261108398e+00,2.734657764434814453e+00,2.673211574554443359e+00,2.614465713500976562e+00,2.558246612548828125e+00,2.504394054412841797e+00,2.452762126922607422e+00,2.403216123580932617e+00,2.355632305145263672e+00,2.309895992279052734e+00,2.265902042388916016e+00,2.223552465438842773e+00,2.182756900787353516e+00,2.143431425094604492e+00,2.105497837066650391e+00,2.068883419036865234e+00,2.033520936965942383e+00,1.999346733093261719e+00,1.966302633285522461e+00,1.934332609176635742e+00,1.903385519981384277e+00,1.873413205146789551e+00,1.844370245933532715e+00
5.000000000000000000e+00,5.000000000000000000e+00,5.000000000000000000e+00,5.000000000000000000e+00,5.000000000000000000e+00,5.000000000000000000e+00,5.000000000000000000e+00,5.000000000000000000e+00,5.000000000000000000e+00,5.000000000000000000e+00,5.000000000000000000e+00,5.000000000000000000e+00,5.000000000000000000e+00,5.000000000000000000e+00,5.000000000000000000e+00,5.000000000000000000e+00,5.000000000000000000e+00,5.000000000000000000e+00,5.000000000000000000e+00,5.000000000000000000e+00,5.000000000000000000e+00,5.000000000000000000e+00,5.000000000000000000e+00,5.000000000000000000e+00,5.000000000000000000e+00,5.000000000000000000e+00,5.000000000000000000e+00,5.000000000000000000e+00,5.000000000000000000e+00,5.000000000000000000e+00,5.000000000000000000e+00,5.000000000000000000e+00,5.000000000000000000e+00,5.000000000000000000e+00,5.000000000000000000e+00,5.000000000000000000e+00,5.000000000000000000e+00,5.000000000000000000e+00,5.000000000000000000e+00,4.855138778686523438e+00,4.664771556854248047e+00,4.488769531250000000e+00,4.325565814971923828e+00,4.173813343048095703e+00,4.032347202301025391e+00,3.900157451629638672e+00,3.776358842849731445e+00,3.660177946090698242e+00,3.550931930541992188e+00,3.448018789291381836e+00,3.350902318954467773e+00,3.259107351303100586e+00,3.172206878662109375e+00,3.089820623397827148e+00,3.011605501174926758e+00,2.937252283096313477e+00,2.866482019424438477e+00,2.799041748046875000e+00,2.734702110290527344e+00,2.673253774642944336e+00,2.614506244659423828e+00,2.558285236358642578e+00,2.504431247711181641e+00,2.452797889709472656e+00,2.403250217437744141e+00,2.355665206909179688e+00,2.309927463531494141e+00,2.265932321548461914e+00,2.223581790924072266e+00,2.182785272598266602e+00,2.143458604812622070e+00,2.105524063110351562e+00,2.068908691406250000e+00,2.033545255661010742e+00,1.999370574951171875e+00,1.966325402259826660e+00,1.934354662895202637e+00,1.903407096862792969e+00,1.873434066772460938e+00,1.844390392303466797e+00
5.000000000000000000e+00,5.000000000000000000e+00,5.000000000000000000e+00,5.000000000000000000e+00,5.000000000000000000e+00,5.000000000000000000e+00,5.000000000000000000e+00,5.000000000000000000e+00,5.000000000000000000e+00,5.000000000000000000e+00,5.000000000000000000e+00,5.000000000000000000e+00,5.000000000000000000e+00,5.000000000000000000e+00,5.000000000000000000e+00,5.000000000000000000e+00,5.000000000000000000e+00,5.000000000000000000e+00,5.000000000000000000e+00,5.000000000000000000e+00,5.000000000000000000e+00,5.000000000000000000e+00,5.000000000000000000e+00,5.000000000000000000e+00,5.000000000000000000e+00,5.000000000000000000e+00,5.000000000000000000e+00,5.000000000000000000e+00,5.000000000000000000e+00,5.000000000000000000e+00,5.000000000000000000e+00,5.000000000000000000e+00,5.000000000000000000e+00,5.000000000000000000e+00,5.000000000000000000e+00,5.000000000000000000e+00,5.000000000000000000e+00,5.000000000000000000e+00,5.000000000000000000e+00,4.855278015136718750e+00,4.664900302886962891e+00,4.488888740539550781e+00,4.325676441192626953e+00,4.173916339874267578e+00,4.032444000244140625e+00,3.900247335433959961e+00,3.776443243026733398e+00,3.660256862640380859e+00,3.551006793975830078e+00,3.448088884353637695e+00,3.350968837738037109e+00,3.259170055389404297e+00,3.172266483306884766e+00,3.089877128601074219e+00,3.011659145355224609e+00,2.937303543090820312e+00,2.866530656814575195e+00,2.799088239669799805e+00,2.734746217727661133e+00,2.673296213150024414e+00,2.614546775817871094e+00,2.558323860168457031e+00,2.504468441009521484e+00,2.452833414077758789e+00,2.403284549713134766e+00,2.355697870254516602e+00,2.309959173202514648e+00,2.265962839126586914e+00,2.223611116409301758e+00,2.182813405990600586e+00,2.143485784530639648e+00,2.105550289154052734e+00,2.068933963775634766e+00,2.033569812774658203e+00,1.999394178390502930e+00,1.966348290443420410e+00,1.934376955032348633e+00,1.903428554534912109e+00,1.873454809188842773e+00,1.844410419464111328e+00
5.000000000000000000e+00,5.000000000000000000e+00,5.000000000000000000e+00,5.000000000000000000e+00,5.000000000000000000e+00,5.000000000000000000e+00,5.000000000000000000e+00,5.000000000000000000e+00,5.000000000000000000e+00,5.000000000000000000e+00,5.000000000000000000e+00,5.000000000000000000e+00,5.000000000000000000e+00,5.000000000000000000e+00,5.000000000000000000e+00,5.000000000000000000e+00,5.000000000000000000e+00,5.000000000000000000e+00,5.000000000000000000e+00,5.000000000000000000e+00,5.000000000000000000e+00,5.000000000000000000e+00,5.000000000000000000e+00,5.000000000000000000e+00,5.000000000000000000e+00,5.000000000000000000e+00,5.000000000000000000e+00,5.000000000000000000e+00,5.000000000000000000e+00,5.000000000000000000e+00,5.000000000000000000e+00,5.000000000000000000e+00,5.000000000000000000e+00,5.000000000000000000e+00,5.000000000000000000e+00,5.000000000000000000e+00,5.000000000000000000e+00,5.000000000000000000e+00,5.000000000000000000e+00,4.855416297912597656e+00,4.665029048919677734e+00,4.489008426666259766e+00,4.325787544250488281e+00,4.174019336700439453e+00,4.032539844512939453e+00,3.900337457656860352e+00,3.776527404785156250e+00,3.660336494445800781e+00,3.551081180572509766e+00,3.448159456253051758e+00,3.351035356521606445e+00,3.259232759475708008e+00,3.172326087951660156e+00,3.089933633804321289e+00,3.011712789535522461e+00,2.937354326248168945e+00,2.866579294204711914e+00,2.799134731292724609e+00,2.734790563583374023e+00,2.673338413238525391e+00,2.614587068557739258e+00,2.558362722396850586e+00,2.504505395889282227e+00,2.452868938446044922e+00,2.403318643569946289e+00,2.355730772018432617e+00,2.309990882873535156e+00,2.265993118286132812e+00,2.223640441894531250e+00,2.182841539382934570e+00,2.143512964248657227e+00,2.105576515197753906e+00,2.068959474563598633e+00,2.033594369888305664e+00,1.999417781829833984e+00,1.966371297836303711e+00,1.934399008750915527e+00,1.903449892997741699e+00,1.873475432395935059e+00,1.844430685043334961e+00
5.000000000000000000e+00,5.000000000000000000e+00,5.000000000000000000e+00,5.000000000000000000e+00,5.000000000000000000e+00,5.000000000000000000e+00,5.000000000000000000e+00,5.000000000000000000e+00,5.000000000000000000e+00,5.000000000000000000e+00,5.000000000000000000e+00,5.000000000000000000e+00,5.000000000000000000e+00,5.000000000000000000e+00,5.000000000000000000e+00,5.000000000000000000e+00,5.000000000000000000e+00,5.000000000000000000e+00,5.000000000000000000e+00,5.000000000000000000e+00,5.000000000000000000e+00,5.000000000000000000e+00,5.000000000000000000e+00,5.000000000000000000e+00,5.000000000000000000e+00,5.000000000000000000e+00,5.000000000000000000e+00,5.000000000000000000e+00,5.000000000000000000e+00,5.000000000000000000e+00,5.000000000000000000e+00,5.000000000000000000e+00,5.000000000000000000e+00,5.000000000000000000e+00,5.000000000000000000e+00,5.000000000000000000e+00,5.000000000000000000e+00,5.000000000000000000e+00,5.000000000000000000e+00,4.855555057525634766e+00,4.665158271789550781e+00,4.489127635955810547e+00,4.325898170471191406e+00,4.174122810363769531e+00,4.032636165618896484e+00,3.900427341461181641e+00,3.776612043380737305e+00,3.660415887832641602e+00,3.551156044006347656e+00,3.448229551315307617e+00,3.351101636886596680e+00,3.259295701980590820e+00,3.172385454177856445e+00,3.089990139007568359e+00,3.011766433715820312e+00,2.937405586242675781e+00,2.866628170013427734e+00,2.799180984497070312e+00,2.734834909439086914e+00,2.673380613327026367e+00,2.614627599716186523e+00,2.558401346206665039e+00,2.504542589187622070e+00,2.452904701232910156e+00,2.403352975845336914e+00,2.355763673782348633e+00,2.310022354125976562e+00,2.266023635864257812e+00,2.223669528961181641e+00,2.182869911193847656e+00,2.143540143966674805e+00,2.105602741241455078e+00,2.068984746932983398e+00,2.033618688583374023e+00,1.999441623687744141e+00,1.966394066810607910e+00,1.934421062469482422e+00,1.903471231460571289e+00,1.873496413230895996e+00,1.844450712203979492e+00
5.000000000000000000e+00,5.000000000000000000e+00,5.000000000000000000e+00,5.000000000000000000e+00,5.000000000000000000e+00,5.000000000000000000e+00,5.000000000000000000e+00,5.000000000000000000e+00,5.000000000000000000e+00,5.000000000000000000e+00,5.000000000000000000e+00,5.000000000000000000e+00,5.000000000000000000e+00,5.000000000000000000e+00,5.000000000000000000e+00,5.000000000000000000e+00,5.000000000000000000e+00,5.000000000000000000e+00,5.000000000000000000e+00,5.000000000000000000e+00,5.000000000000000000e+00,5.000000000000000000e+00,5.000000000000000000e+00,5.000000000000000000e+00,5.000000000000000000e+00,5.000000000000000000e+00,5.000000000000000000e+00,5.000000000000000000e+00,5.000000000000000000e+00,5.000000000000000000e+00,5.000000000000000000e+00,5.000000000000000000e+00,5.000000000000000000e+00,5.000000000000000000e+00,5.000000000000000000e+00,5.000000000000000000e+00,5.000000000000000000e+00,5.000000000000000000e+00,5.000000000000000000e+00,4.855693340301513672e+00,4.665284633636474609e+00,4.489246845245361328e+00,4.326008796691894531e+00,4.174225807189941406e+00,4.032732486724853516e+00,3.900517463684082031e+00,3.776696681976318359e+00,3.660495042800903320e+00,3.551230430603027344e+00,3.448299884796142578e+00,3.351168155670166016e+00,3.259358406066894531e+00,3.172445297241210938e+00,3.090046882629394531e+00,3.011820077896118164e+00,2.937456607818603516e+00,2.866676568984985352e+00,2.799227476119995117e+00,2.734879016876220703e+00,2.673423051834106445e+00,2.614668130874633789e+00,2.558440208435058594e+00,2.504579782485961914e+00,2.452940225601196289e+00,2.403387069702148438e+00,2.355796575546264648e+00,2.310054063796997070e+00,2.266053915023803711e+00,2.223698854446411133e+00,2.182898044586181641e+00,2.143567323684692383e+00,2.105628967285156250e+00,2.069010019302368164e+00,2.033643245697021484e+00,1.999465227127075195e+00,1.966416954994201660e+00,1.934443473815917969e+00,1.903492927551269531e+00,1.873517155647277832e+00,1.844470858573913574e+00
5.000000000000000000e+00,5.000000000000000000e+00,5.000000000000000000e+00,5.000000000000000000e+00,5.000000000000000000e+00,5.000000000000000000e+00,5.000000000000000000e+00,5.000000000000000000e+00,5.000000000000000000e+00,5.000000000000000000e+00,5.000000000000000000e+00,5.000000000000000000e+00,5.000000000000000000e+00,5.000000000000000000e+00,5.000000000000000000e+00,5.000000000000000000e+00,5.000000000000000000e+00,5.000000000000000000e+00,5.000000000000000000e+00,5.000000000000000000e+00,5.000000000000000000e+00,5.000000000000000000e+00,5.000000000000000000e+00,5.000000000000000000e+00,5.000000000000000000e+00,5.000000000000000000e+00,5.000000000000000000e+00,5.000000000000000000e+00,5.000000000000000000e+00,5.000000000000000000e+00,5.000000000000000000e+00,5.000000000000000000e+00,5.000000000000000000e+00,5.000000000000000000e+00,5.000000000000000000e+00,5.000000000000000000e+00,5.000000000000000000e+00,5.000000000000000000e+00,5.000000000000000000e+00,4.855831623077392578e+00,4.665412425994873047e+00,4.489364624023437500e+00,4.326119899749755859e+00,4.174329280853271484e+00,4.032828807830810547e+00,3.900607824325561523e+00,3.776780843734741211e+00,3.660574197769165039e+00,3.551305055618286133e+00,3.448370218276977539e+00,3.351234674453735352e+00,3.259421348571777344e+00,3.172504901885986328e+00,3.090103149414062500e+00,3.011873960494995117e+00,2.937507629394531250e+00,2.866725206375122070e+00,2.799273729324340820e+00,2.734923362731933594e+00,2.673465490341186523e+00,2.614708662033081055e+00,2.558479070663452148e+00,2.504616737365722656e+00,2.452975988388061523e+00,2.403421163558959961e+00,2.355829477310180664e+00,2.310085773468017578e+00,2.266084432601928711e+00,2.223728179931640625e+00,2.182926177978515625e+00,2.143594741821289062e+00,2.105655193328857422e+00,2.069035530090332031e+00,2.033667802810668945e+00,1.999488830566406250e+00,1.966439962387084961e+00,1.934465527534484863e+00,1.903514266014099121e+00,1.873537778854370117e+00,1.844491124153137207e+00
5.000000000000000000e+00,5.000000000000000000e+00,5.000000000000000000e+00,5.000000000000000000e+00,5.000000000000000000e+00,5.000000000000000000e+00,5.000000000000000000e+00,5.000000000000000000e+00,5.000000000000000000e+00,5.000000000000000000e+00,5.000000000000000000e+00,5.000000000000000000e+00,5.000000000000000000e+00,5.000000000000000000e+00,5.000000000000000000e+00,5.000000000000000000e+00,5.000000000000000000e+00,5.000000000000000000e+00,5.000000000000000000e+00,5.000000000000000000e+00,5.000000000000000000e+00,5.000000000000000000e+00,5.000000000000000000e+00,5.000000000000000000e+00,5.000000000000000000e+00,5.000000000000000000e+00,5.000000000000000000e+00,5.000000000000000000e+00,5.000000000000000000e+00,5.000000000000000000e+00,5.000000000000000000e+00,5.000000000000000000e+00,5.000000000000000000e+00,5.000000000000000000e+00,5.000000000000000000e+00,5.000000000000000000e+00,5.000000000000000000e+00,5.000000000000000000e+00,5.000000000000000000e+00,4.855970382690429688e+00,4.665540218353271484e+00,4.489482879638671875e+00,4.326229095458984375e+00,4.174432277679443359e+00,4.032925128936767578e+00,3.900697469711303711e+00,3.776865243911743164e+00,3.660653352737426758e+00,3.551379680633544922e+00,3.448440790176391602e+00,3.351300954818725586e+00,3.259484529495239258e+00,3.172564268112182617e+00,3.090159893035888672e+00,3.011927366256713867e+00,2.937558889389038086e+00,2.866774082183837891e+00,2.799320220947265625e+00,2.734967947006225586e+00,2.673507690429687500e+00,2.614749193191528320e+00,2.558517694473266602e+00,2.504653930664062500e+00,2.453011274337768555e+00,2.403455495834350586e+00,2.355862379074096680e+00,2.310117244720458984e+00,2.266114711761474609e+00,2.223757505416870117e+00,2.182954549789428711e+00,2.143621683120727539e+00,2.105681657791137695e+00,2.069060802459716797e+00,2.033692121505737305e+00,1.999512672424316406e+00,1.966462731361389160e+00,1.934487581253051758e+00,1.903535604476928711e+00,1.873558759689331055e+00,1.844511151313781738e+00
5.000000000000000000e+00,5.000000000000000000e+00,5.000000000000000000e+00,5.000000000000000000e+00,5.000000000000000000e+00,5.000000000000000000e+00,5.000000000000000000e+00,5.000000000000000000e+00,5.000000000000000000e+00,5.000000000000000000e+00,5.000000000000000000e+00,5.000000000000000000e+00,5.000000000000000000e+00,5.000000000000000000e+00,5.000000000000000000e+00,5.000000000000000000e+00,5.000000000000000000e+00,5.000000000000000000e+00,5.000000000000000000e+00,5.000000000000000000e+00,5.000000000000000000e+00,5.000000000000000000e+00,5.000000000000000000e+00,5.000000000000000000e+00,5.000000000000000000e+00,5.000000000000000000e+00,5.000000000000000000e+00,5.000000000000000000e+00,5.000000000000000000e+00,5.000000000000000000e+00,5.000000000000000000e+00,5.000000000000000000e+00,5.000000000000000000e+00,5.000000000000000000e+00,5.000000000000000000e+00,5.000000000000000000e+00,5.000000000000000000e+00,5.000000000000000000e+00,5.000000000000000000e+00,4.856108665466308594e+00,4.665668487548828125e+00,4.489601135253906250e+00,4.326339244842529297e+00,4.174535274505615234e+00,4.033021450042724609e+00,3.900787591934204102e+00,3.776949882507324219e+00,3.660732746124267578e+00,3.551454544067382812e+00,3.448511123657226562e+00,3.351367712020874023e+00,3.259546995162963867e+00,3.172623872756958008e+00,3.090216159820556641e+00,3.011981248855590820e+00,2.937609910964965820e+00,2.866822481155395508e+00,2.799366712570190430e+00,2.735012054443359375e+00,2.673550128936767578e+00,2.614789485931396484e+00,2.558556556701660156e+00,2.504691123962402344e+00,2.453047037124633789e+00,2.403489828109741211e+00,2.355895042419433594e+00,2.310148715972900391e+00,2.266145229339599609e+00,2.223786830902099609e+00,2.182982683181762695e+00,2.143649101257324219e+00,2.105707883834838867e+00,2.069086074829101562e+00,2.033716678619384766e+00,1.999536275863647461e+00,1.966485619544982910e+00,1.934509634971618652e+00,1.903557300567626953e+00,1.873579502105712891e+00,1.844531297683715820e+00
4.871483802795410156e+00,4.870263099670410156e+00,4.869042396545410156e+00,4.867822647094726562e+00,4.866603374481201172e+00,4.865384578704833984e+00,4.864166736602783203e+00,4.862949371337890625e+00,4.861732482910156250e+00,4.860516548156738281e+00,4.859300613403320312e+00,4.858086109161376953e+00,4.856871604919433594e+00,4.855658054351806641e+00,4.854444980621337891e+00,4.853232383728027344e+00,4.852020740509033203e+00,4.850809097290039062e+00,4.849598407745361328e+00,4.848388195037841797e+00,4.847178936004638672e+00,4.845970153808593750e+00,4.844761848449707031e+00,4.843554019927978516e+00,4.842347145080566406e+00,4.841140747070312500e+00,4.839934825897216797e+00,4.838729381561279297e+00,4.837524414062500000e+00,4.836320400238037109e+00,4.835117340087890625e+00,4.833914279937744141e+00,4.832711696624755859e+00,4.831510066986083984e+00,4.830308914184570312e+00,4.829108715057373047e+00,4.827908992767333984e+00,4.826709270477294922e+00,4.825510501861572266e+00,4.824312686920166016e+00,4.665796279907226562e+00,4.489719390869140625e+00,4.326448917388916016e+00,4.174636840820312500e+00,4.033117771148681641e+00,3.900877714157104492e+00,3.777034044265747070e+00,3.660812139511108398e+00,3.551528930664062500e+00,3.448581457138061523e+00,3.351433992385864258e+00,3.259610176086425781e+00,3.172683715820312500e+00,3.090272903442382812e+00,3.012035131454467773e+00,2.937660932540893555e+00,2.866871356964111328e+00,2.799412965774536133e+00,2.735056400299072266e+00,2.673592090606689453e+00,2.614830017089843750e+00,2.558595180511474609e+00,2.504728317260742188e+00,2.453082799911499023e+00,2.403523921966552734e+00,2.355927944183349609e+00,2.310180187225341797e+00,2.266175508499145508e+00,2.223816156387329102e+00,2.183010816574096680e+00,2.143676280975341797e+00,2.105734109878540039e+00,2.069111585617065430e+00,2.033741235733032227e+00,1.999559760093688965e+00,1.966508388519287109e+00,1.934531927108764648e+00,1.903578639030456543e+00,1.873600125312805176e+00,1.844551563262939453e+00
3.776345491409301758e+00,3.775611639022827148e+00,3.774878263473510742e+00,3.774144887924194336e+00,3.773411989212036133e+00,3.772679567337036133e+00,3.771947145462036133e+00,3.771214962005615234e+00,3.770483255386352539e+00,3.769751787185668945e+00,3.769020318984985352e+00,3.768289327621459961e+00,3.767558574676513672e+00,3.766828298568725586e+00,3.766098499298095703e+00,3.765368700027465820e+00,3.764639139175415039e+00,3.763909816741943359e+00,3.763180732727050781e+00,3.762452125549316406e+00,3.761723518371582031e+00,3.760995388031005859e+00,3.760267496109008789e+00,3.759539842605590820e+00,3.758813142776489258e+00,3.758085966110229492e+00,3.757359266281127930e+00,3.756632804870605469e+00,3.755906581878662109e+00,3.755180597305297852e+00,3.754455089569091797e+00,3.753729581832885742e+00,3.753004550933837891e+00,3.752279758453369141e+00,3.751555681228637695e+00,3.750831365585327148e+00,3.750107526779174805e+00,3.749383687973022461e+00,3.748660326004028320e+00,3.747937202453613281e+00,3.747214317321777344e+00,3.746491909027099609e+00,3.745769500732421875e+00,3.745048046112060547e+00,3.744326114654541016e+00,3.743604898452758789e+00,3.742883682250976562e+00,3.660891294479370117e+00,3.551603794097900391e+00,3.448651790618896484e+00,3.351500511169433594e+00,3.259673118591308594e+00,3.172743082046508789e+00,3.090329408645629883e+00,3.012088537216186523e+00,2.937712192535400391e+00,2.866919755935668945e+00,2.799459457397460938e+00,2.735100746154785156e+00,2.673634529113769531e+00,2.614870548248291016e+00,2.558633804321289062e+00,2.504765510559082031e+00,2.453118324279785156e+00,2.403558015823364258e+00,2.355960845947265625e+00,2.310211896896362305e+00,2.266206026077270508e+00,2.223845243453979492e+00,2.183039188385009766e+00,2.143703460693359375e+00,2.105760335922241211e+00,2.069136619567871094e+00,2.033765792846679688e+00,1.999583601951599121e+00,1.966531515121459961e+00,1.934554100036621094e+00,1.903599977493286133e+00,1.873621106147766113e+00,1.844571590423583984e+00
3.083219528198242188e+00,3.082730531692504883e+00,3.082241296768188477e+00,3.081752777099609375e+00,3.081264019012451172e+00,3.080775499343872070e+00,3.080286979675292969e+00,3.079798698425292969e+00,3.079310655593872070e+00,3.078822851181030273e+00,3.078335046768188477e+00,3.077847242355346680e+00,3.077359676361083984e+00,3.076872825622558594e+00,3.076385498046875000e+00,3.075898408889770508e+00,3.075411558151245117e+00,3.074924945831298828e+00,3.074438333511352539e+00,3.073951959609985352e+00,3.073465585708618164e+00,3.072979450225830078e+00,3.072493553161621094e+00,3.072008132934570312e+00,3.071522474288940430e+00,3.071036815643310547e+00,3.070551633834838867e+00,3.070066452026367188e+00,3.069581270217895508e+00,3.069096565246582031e+00,3.068611860275268555e+00,3.068127155303955078e+00,3.067642688751220703e+00,3.067158699035644531e+00,3.066674709320068359e+00,3.066190719604492188e+00,3.065706968307495117e+00,3.065223217010498047e+00,3.064739942550659180e+00,3.064256429672241211e+00,3.063773393630981445e+00,3.063290357589721680e+00,3.062807559967041016e+00,3.062325000762939453e+00,3.061842203140258789e+00,3.061359882354736328e+00,3.060877561569213867e+00,3.060395479202270508e+00,3.059913396835327148e+00,3.059431552886962891e+00,3.058949947357177734e+00,3.058468341827392578e+00,3.057987213134765625e+00,3.057506084442138672e+00,3.012142419815063477e+00,2.937763214111328125e+00,2.866968631744384766e+00,2.799505949020385742e+00,2.735144853591918945e+00,2.673676967620849609e+00,2.614910840988159180e+00,2.558672666549682617e+00,2.504802465438842773e+00,2.453153848648071289e+00,2.403592348098754883e+00,2.355993747711181641e+00,2.310243606567382812e+00,2.266236305236816406e+00,2.223874568939208984e+00,2.183067321777343750e+00,2.143730640411376953e+00,2.105786561965942383e+00,2.069162130355834961e+00,2.033790111541748047e+00,1.999607205390930176e+00,1.966554284095764160e+00,1.934576153755187988e+00,1.903621673583984375e+00,1.873641848564147949e+00,1.844591736793518066e+00
2.605073690414428711e+00,2.604724407196044922e+00,2.604375362396240234e+00,2.604026317596435547e+00,2.603677511215209961e+00,2.603328466415405273e+00,2.602979898452758789e+00,2.602631092071533203e+00,2.602282524108886719e+00,2.601933956146240234e+00,2.601585626602172852e+00,2.601237297058105469e+00,2.600889205932617188e+00,2.600541114807128906e+00,2.600193262100219727e+00,2.599845170974731445e+00,2.599497318267822266e+00,2.599149703979492188e+00,2.598801851272583008e+00,2.598454475402832031e+00,2.598106861114501953e+00,2.597759485244750977e+00,2.597412586212158203e+00,2.597065210342407227e+00,2.596718311309814453e+00,2.596371173858642578e+00,2.596024274826049805e+00,2.595677375793457031e+00,2.595330715179443359e+00,2.594984054565429688e+00,2.594637632369995117e+00,2.594291210174560547e+00,2.593945026397705078e+00,2.593598604202270508e+00,2.593252420425415039e+00,2.592906475067138672e+00,2.592560529708862305e+00,2.592214584350585938e+00,2.591868877410888672e+00,2.591523170471191406e+00,2.591177463531494141e+00,2.590832233428955078e+00,2.590486764907836914e+00,2.590141296386718750e+00,2.589796066284179688e+00,2.589450836181640625e+00,2.589105844497680664e+00,2.588760852813720703e+00,2.588416099548339844e+00,2.588071346282958984e+00,2.587726593017578125e+00,2.587382078170776367e+00,2.587037563323974609e+00,2.586693286895751953e+00,2.586349010467529297e+00,2.586004734039306641e+00,2.585660457611083984e+00,2.585316419601440430e+00,2.584972620010375977e+00,2.584628582000732422e+00,2.584285020828247070e+00,2.558711528778076172e+00,2.504839658737182617e+00,2.453189611434936523e+00,2.403626441955566406e+00,2.356026649475097656e+00,2.310275077819824219e+00,2.266266822814941406e+00,2.223903656005859375e+00,2.183095455169677734e+00,2.143757820129394531e+00,2.105812788009643555e+00,2.069187402725219727e+00,2.033814668655395508e+00,1.999630808830261230e+00,1.966577053070068359e+00,1.934598445892333984e+00,1.903643012046813965e+00,1.873662590980529785e+00,1.844612002372741699e+00
2.255285263061523438e+00,2.255024909973144531e+00,2.254764795303344727e+00,2.254504680633544922e+00,2.254244565963745117e+00,2.253984451293945312e+00,2.253724336624145508e+00,2.253464698791503906e+00,2.253204584121704102e+00,2.252944946289062500e+00,2.252685070037841797e+00,2.252425432205200195e+00,2.252165794372558594e+00,2.251906394958496094e+00,2.251646757125854492e+00,2.251387357711791992e+00,2.251127958297729492e+00,2.250868558883666992e+00,2.250609397888183594e+00,2.250350236892700195e+00,2.250090837478637695e+00,2.249831914901733398e+00,2.249572753906250000e+00,2.249313831329345703e+00,2.249053478240966797e+00,2.248793363571166992e+00,2.248533010482788086e+00,2.248272895812988281e+00,2.248012781143188477e+00,2.247752666473388672e+00,2.247492790222167969e+00,2.247232913970947266e+00,2.246973037719726562e+00,2.246713161468505859e+00,2.246453285217285156e+00,2.246193647384643555e+00,2.245934009552001953e+00,2.245674371719360352e+00,2.245414733886718750e+00,2.245155334472656250e+00,2.244896173477172852e+00,2.244636774063110352e+00,2.244377374649047852e+00,2.244118213653564453e+00,2.243859052658081055e+00,2.243599891662597656e+00,2.243340969085693359e+00,2.243081808090209961e+00,2.242822885513305664e+00,2.242564201354980469e+00,2.242305517196655273e+00,2.242046594619750977e+00,2.241787910461425781e+00,2.241529464721679688e+00,2.241270780563354492e+00,2.241012334823608398e+00,2.240753889083862305e+00,2.240495443344116211e+00,2.240236997604370117e+00,2.239979028701782227e+00,2.239720821380615234e+00,2.239462614059448242e+00,2.239204406738281250e+00,2.238946437835693359e+00,2.238688468933105469e+00,2.238430500030517578e+00,2.238172769546508789e+00,2.237915039062500000e+00,2.223932981491088867e+00,2.183123826980590820e+00,2.143784999847412109e+00,2.105839014053344727e+00,2.069212675094604492e+00,2.033839225769042969e+00,1.999654412269592285e+00,1.966600179672241211e+00,1.934620499610900879e+00,1.903664350509643555e+00,1.873683452606201172e+00,1.844632029533386230e+00
1.988247394561767578e+00,1.988045096397399902e+00,1.987842679023742676e+00,1.987640619277954102e+00,1.987438440322875977e+00,1.987236142158508301e+00,1.987034201622009277e+00,1.986832141876220703e+00,1.986630082130432129e+00,1.986428260803222656e+00,1.986226201057434082e+00,1.986024260520935059e+00,1.985822558403015137e+00,1.985620737075805664e+00,1.985418796539306641e+00,1.985217332839965820e+00,1.985015511512756348e+00,1.984813809394836426e+00,1.984612345695495605e+00,1.984410643577575684e+00,1.984209060668945312e+00,1.984007716178894043e+00,1.983806252479553223e+00,1.983604788780212402e+00,1.983403563499450684e+00,1.983202219009399414e+00,1.983000874519348145e+00,1.982799768447875977e+00,1.982598423957824707e+00,1.982397198677062988e+00,1.982196331024169922e+00,1.981995105743408203e+00,1.981793999671936035e+00,1.981593251228332520e+00,1.981392145156860352e+00,1.981191158294677734e+00,1.980990529060363770e+00,1.980789542198181152e+00,1.980588674545288086e+00,1.980388164520263672e+00,1.980187296867370605e+00,1.979986548423767090e+00,1.979786157608032227e+00,1.979585409164428711e+00,1.979384779930114746e+00,1.979184508323669434e+00,1.978983879089355469e+00,1.978783369064331055e+00,1.978583216667175293e+00,1.978382825851440430e+00,1.978182435035705566e+00,1.977982282638549805e+00,1.977782011032104492e+00,1.977581739425659180e+00,1.977381706237792969e+00,1.977181553840637207e+00,1.976981401443481445e+00,1.976781606674194336e+00,1.976581454277038574e+00,1.976381540298461914e+00,1.976181745529174805e+00,1.975981831550598145e+00,1.975781917572021484e+00,1.975582242012023926e+00,1.975382447242736816e+00,1.975182652473449707e+00,1.974983215332031250e+00,1.974783539772033691e+00,1.974583864212036133e+00,1.974384546279907227e+00,1.974184870719909668e+00,1.973985433578491211e+00,1.973786115646362305e+00,1.973586678504943848e+00,1.973387241363525391e+00,1.966622948646545410e+00,1.934642672538757324e+00,1.903685927391052246e+00,1.873704195022583008e+00,1.844652175903320312e+00
1.777751922607421875e+00,1.777590394020080566e+00,1.777428627014160156e+00,1.777266860008239746e+00,1.777105331420898438e+00,1.776943683624267578e+00,1.776782035827636719e+00,1.776620626449584961e+00,1.776458978652954102e+00,1.776297450065612793e+00,1.776136040687561035e+00,1.775974512100219727e+00,1.775813102722167969e+00,1.775651812553405762e+00,1.775490403175354004e+00,1.775328993797302246e+00,1.775167822837829590e+00,1.775006532669067383e+00,1.774845242500305176e+00,1.774684190750122070e+00,1.774522900581359863e+00,1.774361729621887207e+00,1.774200677871704102e+00,1.774039506912231445e+00,1.773878455162048340e+00,1.773717522621154785e+00,1.773556470870971680e+00,1.773395419120788574e+00,1.773234605789184570e+00,1.773073554039001465e+00,1.772912621498107910e+00,1.772751927375793457e+00,1.772590994834899902e+00,1.772430181503295898e+00,1.772269487380981445e+00,1.772108674049377441e+00,1.771947979927062988e+00,1.771787405014038086e+00,1.771626710891723633e+00,1.771466016769409180e+00,1.771305322647094727e+00,1.771144866943359375e+00,1.770984292030334473e+00,1.770823955535888672e+00,1.770663380622863770e+00,1.770502805709838867e+00,1.770342350006103516e+00,1.770182132720947266e+00,1.770021677017211914e+00,1.769861221313476562e+00,1.769701123237609863e+00,1.769540786743164062e+00,1.769380450248718262e+00,1.769220352172851562e+00,1.769060134887695312e+00,1.768899917602539062e+00,1.768739819526672363e+00,1.768579721450805664e+00,1.768419504165649414e+00,1.768259644508361816e+00,1.768099546432495117e+00,1.767939567565917969e+00,1.767779707908630371e+00,1.767619729042053223e+00,1.767459750175476074e+00,1.767300009727478027e+00,1.767140030860900879e+00,1.766980171203613281e+00,1.766820549964904785e+00,1.766660690307617188e+00,1.766500949859619141e+00,1.766341328620910645e+00,1.766181707382202148e+00,1.766021966934204102e+00,1.765862464904785156e+00,1.765702843666076660e+00,1.765543222427368164e+00,1.765383839607238770e+00,1.765224337577819824e+00,1.765064835548400879e+00
1.607560038566589355e+00,1.607427716255187988e+00,1.607295393943786621e+00,1.607163310050964355e+00,1.607031106948852539e+00,1.606898903846740723e+00,1.606766819953918457e+00,1.606634616851806641e+00,1.606502532958984375e+00,1.606370449066162109e+00,1.606238365173339844e+00,1.606106281280517578e+00,1.605974435806274414e+00,1.605842351913452148e+00,1.605710387229919434e+00,1.605578541755676270e+00,1.605446457862854004e+00,1.605314612388610840e+00,1.605182766914367676e+00,1.605050802230834961e+00,1.604918956756591797e+00,1.604787230491638184e+00,1.604655385017395020e+00,1.604523539543151855e+00,1.604391932487487793e+00,1.604260087013244629e+00,1.604128360748291016e+00,1.603996753692626953e+00,1.603865027427673340e+00,1.603733420372009277e+00,1.603601813316345215e+00,1.603470206260681152e+00,1.603338599205017090e+00,1.603207111358642578e+00,1.603075504302978516e+00,1.602944016456604004e+00,1.602812528610229492e+00,1.602681040763854980e+00,1.602549552917480469e+00,1.602418184280395508e+00,1.602286815643310547e+00,1.602155327796936035e+00,1.602024078369140625e+00,1.601892709732055664e+00,1.601761341094970703e+00,1.601630091667175293e+00,1.601498723030090332e+00,1.601367473602294922e+00,1.601236343383789062e+00,1.601105093955993652e+00,1.600973844528198242e+00,1.600842714309692383e+00,1.600711584091186523e+00,1.600580334663391113e+00,1.600449442863464355e+00,1.600318193435668945e+00,1.600187182426452637e+00,1.600056171417236328e+00,1.599925041198730469e+00,1.599794030189514160e+00,1.599663138389587402e+00,1.599532127380371094e+00,1.599401116371154785e+00,1.599270343780517578e+00,1.599139451980590820e+00,1.599008560180664062e+00,1.598877787590026855e+00,1.598746895790100098e+00,1.598616003990173340e+00,1.598485350608825684e+00,1.598354578018188477e+00,1.598223686218261719e+00,1.598093152046203613e+00,1.597962379455566406e+00,1.597831606864929199e+00,1.597701072692871094e+00,1.597570419311523438e+00,1.597439765930175781e+00,1.597309231758117676e+00,1.597178578376770020e+00
1.467107295989990234e+00,1.466997146606445312e+00,1.466886997222900391e+00,1.466776847839355469e+00,1.466666817665100098e+00,1.466556668281555176e+00,1.466446518898010254e+00,1.466336607933044434e+00,1.466226458549499512e+00,1.466116428375244141e+00,1.466006517410278320e+00,1.465896487236022949e+00,1.465786457061767578e+00,1.465676665306091309e+00,1.465566635131835938e+00,1.465456604957580566e+00,1.465346813201904297e+00,1.465236902236938477e+00,1.465126991271972656e+00,1.465017199516296387e+00,1.464907288551330566e+00,1.464797496795654297e+00,1.464687705039978027e+00,1.464577913284301758e+00,1.464468121528625488e+00,1.464358448982238770e+00,1.464248657226562500e+00,1.464138865470886230e+00,1.464029192924499512e+00,1.463919520378112793e+00,1.463809847831726074e+00,1.463700175285339355e+00,1.463590502738952637e+00,1.463480830192565918e+00,1.463371396064758301e+00,1.463261723518371582e+00,1.463152050971984863e+00,1.463042616844177246e+00,1.462933063507080078e+00,1.462823510169982910e+00,1.462713956832885742e+00,1.462604522705078125e+00,1.462494969367980957e+00,1.462385654449462891e+00,1.462276101112365723e+00,1.462166666984558105e+00,1.462057232856750488e+00,1.461947917938232422e+00,1.461838483810424805e+00,1.461729049682617188e+00,1.461619853973388672e+00,1.461510419845581055e+00,1.461401104927062988e+00,1.461291909217834473e+00,1.461182594299316406e+00,1.461073279380798340e+00,1.460964083671569824e+00,1.460854768753051758e+00,1.460745573043823242e+00,1.460636496543884277e+00,1.460527181625366211e+00,1.460417985916137695e+00,1.460308909416198730e+00,1.460199713706970215e+00,1.460090637207031250e+00,1.459981560707092285e+00,1.459872484207153320e+00,1.459763288497924805e+00,1.459654331207275391e+00,1.459545254707336426e+00,1.459436178207397461e+00,1.459327340126037598e+00,1.459218263626098633e+00,1.459109306335449219e+00,1.459000349044799805e+00,1.458891391754150391e+00,1.458782434463500977e+00,1.458673596382141113e+00,1.458564758300781250e+00,1.458455801010131836e+00
1.349225282669067383e+00,1.349132061004638672e+00,1.349038958549499512e+00,1.348945856094360352e+00,1.348852634429931641e+00,1.348759531974792480e+00,1.348666548728942871e+00,1.348573446273803711e+00,1.348480224609375000e+00,1.348387241363525391e+00,1.348294258117675781e+00,1.348201155662536621e+00,1.348108172416687012e+00,1.348015189170837402e+00,1.347922086715698242e+00,1.347829222679138184e+00,1.347736239433288574e+00,1.347643256187438965e+00,1.347550392150878906e+00,1.347457408905029297e+00,1.347364425659179688e+00,1.347271561622619629e+00,1.347178697586059570e+00,1.347085833549499512e+00,1.346992969512939453e+00,1.346900105476379395e+00,1.346807241439819336e+00,1.346714496612548828e+00,1.346621632575988770e+00,1.346528768539428711e+00,1.346436023712158203e+00,1.346343278884887695e+00,1.346250414848327637e+00,1.346157789230346680e+00,1.346064925193786621e+00,1.345972180366516113e+00,1.345879554748535156e+00,1.345786809921264648e+00,1.345694065093994141e+00,1.345601558685302734e+00,1.345508813858032227e+00,1.345416069030761719e+00,1.345323562622070312e+00,1.345230937004089355e+00,1.345138192176818848e+00,1.345045685768127441e+00,1.344953060150146484e+00,1.344860434532165527e+00,1.344768047332763672e+00,1.344675421714782715e+00,1.344582796096801758e+00,1.344490408897399902e+00,1.344397783279418945e+00,1.344305276870727539e+00,1.344212889671325684e+00,1.344120383262634277e+00,1.344027876853942871e+00,1.343935489654541016e+00,1.343842983245849609e+00,1.343750596046447754e+00,1.343658208847045898e+00,1.343565821647644043e+00,1.343473434448242188e+00,1.343381047248840332e+00,1.343288660049438477e+00,1.343196272850036621e+00,1.343104004859924316e+00,1.343011736869812012e+00,1.342919349670410156e+00,1.342827081680297852e+00,1.342734813690185547e+00,1.342642545700073242e+00,1.342550277709960938e+00,1.342458009719848633e+00,1.342365741729736328e+00,1.342273592948913574e+00,1.342181324958801270e+00,1.342089176177978516e+00,1.341997027397155762e+00,1.341904878616333008e+00
1.248878002166748047e+00,1.248798251152038574e+00,1.248718380928039551e+00,1.248638629913330078e+00,1.248558878898620605e+00,1.248479008674621582e+00,1.248399257659912109e+00,1.248319506645202637e+00,1.248239755630493164e+00,1.248160004615783691e+00,1.248080372810363770e+00,1.248000621795654297e+00,1.247920870780944824e+00,1.247841238975524902e+00,1.247761487960815430e+00,1.247681736946105957e+00,1.247602105140686035e+00,1.247522473335266113e+00,1.247442841529846191e+00,1.247363209724426270e+00,1.247283577919006348e+00,1.247203946113586426e+00,1.247124314308166504e+00,1.247044682502746582e+00,1.246965169906616211e+00,1.246885538101196289e+00,1.246806025505065918e+00,1.246726393699645996e+00,1.246646881103515625e+00,1.246567368507385254e+00,1.246487855911254883e+00,1.246408343315124512e+00,1.246328830718994141e+00,1.246249318122863770e+00,1.246169805526733398e+00,1.246090412139892578e+00,1.246010899543762207e+00,1.245931506156921387e+00,1.245851993560791016e+00,1.245772480964660645e+00,1.245693087577819824e+00,1.245613694190979004e+00,1.245534300804138184e+00,1.245454907417297363e+00,1.245375514030456543e+00,1.245296120643615723e+00,1.245216727256774902e+00,1.245137453079223633e+00,1.245058059692382812e+00,1.244978666305541992e+00,1.244899392127990723e+00,1.244820117950439453e+00,1.244740724563598633e+00,1.244661569595336914e+00,1.244582176208496094e+00,1.244502902030944824e+00,1.244423747062683105e+00,1.244344472885131836e+00,1.244265198707580566e+00,1.244185924530029297e+00,1.244106769561767578e+00,1.244027495384216309e+00,1.243948340415954590e+00,1.243869066238403320e+00,1.243789911270141602e+00,1.243710756301879883e+00,1.243631601333618164e+00,1.243552446365356445e+00,1.243473291397094727e+00,1.243394136428833008e+00,1.243314981460571289e+00,1.243235945701599121e+00,1.243156909942626953e+00,1.243077754974365234e+00,1.242998719215393066e+00,1.242919564247131348e+00,1.242840528488159180e+00,1.242761492729187012e+00,1.242682456970214844e+00,1.242603421211242676e+00
1.162423968315124512e+00,1.162354826927185059e+00,1.162285566329956055e+00,1.162216544151306152e+00,1.162147402763366699e+00,1.162078261375427246e+00,1.162009239196777344e+00,1.161940097808837891e+00,1.161870956420898438e+00,1.161801934242248535e+00,1.161732792854309082e+00,1.161663651466369629e+00,1.161594629287719727e+00,1.161525607109069824e+00,1.161456584930419922e+00,1.161387562751770020e+00,1.161318540573120117e+00,1.161249399185180664e+00,1.161180496215820312e+00,1.161111474037170410e+00,1.161042451858520508e+00,1.160973548889160156e+00,1.160904526710510254e+00,1.160835504531860352e+00,1.160766601562500000e+00,1.160697579383850098e+00,1.160628557205200195e+00,1.160559773445129395e+00,1.160490751266479492e+00,1.160421848297119141e+00,1.160352945327758789e+00,1.160284042358398438e+00,1.160215139389038086e+00,1.160146236419677734e+00,1.160077333450317383e+00,1.160008430480957031e+00,1.159939646720886230e+00,1.159870743751525879e+00,1.159801840782165527e+00,1.159733057022094727e+00,1.159664273262023926e+00,1.159595370292663574e+00,1.159526586532592773e+00,1.159457802772521973e+00,1.159388899803161621e+00,1.159320235252380371e+00,1.159251332283020020e+00,1.159182548522949219e+00,1.159113883972167969e+00,1.159045100212097168e+00,1.158976316452026367e+00,1.158907651901245117e+00,1.158838868141174316e+00,1.158770084381103516e+00,1.158701419830322266e+00,1.158632636070251465e+00,1.158563971519470215e+00,1.158495306968688965e+00,1.158426642417907715e+00,1.158357977867126465e+00,1.158289313316345215e+00,1.158220648765563965e+00,1.158151984214782715e+00,1.158083319664001465e+00,1.158014655113220215e+00,1.157945990562438965e+00,1.157877445220947266e+00,1.157808780670166016e+00,1.157740235328674316e+00,1.157671689987182617e+00,1.157603025436401367e+00,1.157534480094909668e+00,1.157465934753417969e+00,1.157397270202636719e+00,1.157328724861145020e+00,1.157260298728942871e+00,1.157191634178161621e+00,1.157123088836669922e+00,1.157054662704467773e+00,1.156986117362976074e+00
1.087164521217346191e+00,1.087104082107543945e+00,1.087043523788452148e+00,1.086983084678649902e+00,1.086922645568847656e+00,1.086862206459045410e+00,1.086801648139953613e+00,1.086741328239440918e+00,1.086680769920349121e+00,1.086620330810546875e+00,1.086560010910034180e+00,1.086499571800231934e+00,1.086439132690429688e+00,1.086378693580627441e+00,1.086318254470825195e+00,1.086257934570312500e+00,1.086197495460510254e+00,1.086137175559997559e+00,1.086076736450195312e+00,1.086016416549682617e+00,1.085956096649169922e+00,1.085895657539367676e+00,1.085835337638854980e+00,1.085775017738342285e+00,1.085714697837829590e+00,1.085654377937316895e+00,1.085594058036804199e+00,1.085533738136291504e+00,1.085473418235778809e+00,1.085413098335266113e+00,1.085352778434753418e+00,1.085292577743530273e+00,1.085232257843017578e+00,1.085171937942504883e+00,1.085111737251281738e+00,1.085051417350769043e+00,1.084991216659545898e+00,1.084931015968322754e+00,1.084870696067810059e+00,1.084810495376586914e+00,1.084750175476074219e+00,1.084689974784851074e+00,1.084629774093627930e+00,1.084569573402404785e+00,1.084509372711181641e+00,1.084449172019958496e+00,1.084388971328735352e+00,1.084328889846801758e+00,1.084268689155578613e+00,1.084208488464355469e+00,1.084148406982421875e+00,1.084088206291198730e+00,1.084028005599975586e+00,1.083967924118041992e+00,1.083907723426818848e+00,1.083847641944885254e+00,1.083787560462951660e+00,1.083727359771728516e+00,1.083667278289794922e+00,1.083607196807861328e+00,1.083547115325927734e+00,1.083487033843994141e+00,1.083426952362060547e+00,1.083366870880126953e+00,1.083306789398193359e+00,1.083246707916259766e+00,1.083186626434326172e+00,1.083126664161682129e+00,1.083066582679748535e+00,1.083006620407104492e+00,1.082946538925170898e+00,1.082886576652526855e+00,1.082826495170593262e+00,1.082766532897949219e+00,1.082706570625305176e+00,1.082646489143371582e+00,1.082586526870727539e+00,1.082526564598083496e+00,1.082466602325439453e+00,1.082406520843505859e+00
1.021057724952697754e+00,1.021004319190979004e+00,1.020950913429260254e+00,1.020897626876831055e+00,1.020844221115112305e+00,1.020790934562683105e+00,1.020737648010253906e+00,1.020684242248535156e+00,1.020630955696105957e+00,1.020577669143676758e+00,1.020524382591247559e+00,1.020470976829528809e+00,1.020417809486389160e+00,1.020364403724670410e+00,1.020311117172241211e+00,1.020257949829101562e+00,1.020204663276672363e+00,1.020151376724243164e+00,1.020098090171813965e+00,1.020044803619384766e+00,1.019991517066955566e+00,1.019938349723815918e+00,1.019885063171386719e+00,1.019831895828247070e+00,1.019778728485107422e+00,1.019725441932678223e+00,1.019672155380249023e+00,1.019618988037109375e+00,1.019565820693969727e+00,1.019512534141540527e+00,1.019459366798400879e+00,1.019406199455261230e+00,1.019353032112121582e+00,1.019299864768981934e+00,1.019246697425842285e+00,1.019193530082702637e+00,1.019140362739562988e+00,1.019087195396423340e+00,1.019034028053283691e+00,1.018980979919433594e+00,1.018927812576293945e+00,1.018874645233154297e+00,1.018821477890014648e+00,1.018768429756164551e+00,1.018715262413024902e+00,1.018662214279174805e+00,1.018609046936035156e+00,1.018555879592895508e+00,1.018502831459045410e+00,1.018449783325195312e+00,1.018396615982055664e+00,1.018343567848205566e+00,1.018290519714355469e+00,1.018237471580505371e+00,1.018184423446655273e+00,1.018131375312805176e+00,1.018078327178955078e+00,1.018025279045104980e+00,1.017972230911254883e+00,1.017919182777404785e+00,1.017866134643554688e+00,1.017813086509704590e+00,1.017760038375854492e+00,1.017707109451293945e+00,1.017654061317443848e+00,1.017601132392883301e+00,1.017548084259033203e+00,1.017495155334472656e+00,1.017442107200622559e+00,1.017389178276062012e+00,1.017336130142211914e+00,1.017283201217651367e+00,1.017230272293090820e+00,1.017177343368530273e+00,1.017124295234680176e+00,1.017071366310119629e+00,1.017018437385559082e+00,1.016965508460998535e+00,1.016912579536437988e+00,1.016859650611877441e+00
9.625294804573059082e-01,9.624820947647094727e-01,9.624346494674682617e-01,9.623872637748718262e-01,9.623398780822753906e-01,9.622924327850341797e-01,9.622450470924377441e-01,9.621977210044860840e-01,9.621502757072448730e-01,9.621028900146484375e-01,9.620555639266967773e-01,9.620081186294555664e-01,9.619607925415039062e-01,9.619134664535522461e-01,9.618660807609558105e-01,9.618187546730041504e-01,9.617714285850524902e-01,9.617240428924560547e-01,9.616767168045043945e-01,9.616294503211975098e-01,9.615820646286010742e-01,9.615347385406494141e-01,9.614874720573425293e-01,9.614400863647460938e-01,9.613928198814392090e-01,9.613455533981323242e-01,9.612981677055358887e-01,9.612509608268737793e-01,9.612036943435668945e-01,9.611563086509704590e-01,9.611091017723083496e-01,9.610618352890014648e-01,9.610145092010498047e-01,9.609673023223876953e-01,9.609200358390808105e-01,9.608727097511291504e-01,9.608255028724670410e-01,9.607782959938049316e-01,9.607309699058532715e-01,9.606837630271911621e-01,9.606364965438842773e-01,9.605892896652221680e-01,9.605420827865600586e-01,9.604949355125427246e-01,9.604476094245910645e-01,9.604004621505737305e-01,9.603531956672668457e-01,9.603059887886047363e-01,9.602588415145874023e-01,9.602115750312805176e-01,9.601644277572631836e-01,9.601172804832458496e-01,9.600700736045837402e-01,9.600229263305664062e-01,9.599757790565490723e-01,9.599285125732421875e-01,9.598814249038696289e-01,9.598342776298522949e-01,9.597870707511901855e-01,9.597399830818176270e-01,9.596928954124450684e-01,9.596456289291381836e-01,9.595985412597656250e-01,9.595514535903930664e-01,9.595043063163757324e-01,9.594572186470031738e-01,9.594101309776306152e-01,9.593629240989685059e-01,9.593158960342407227e-01,9.592688083648681641e-01,9.592216610908508301e-01,9.591745734214782715e-01,9.591275453567504883e-01,9.590803980827331543e-01,9.590333700180053711e-01,9.589863419532775879e-01,9.589391946792602539e-01,9.588921666145324707e-01,9.588451385498046875e-01,9.587979912757873535e-01
9.103472828865051270e-01,9.103049039840698242e-01,9.102624058723449707e-01,9.102200269699096680e-01,9.101777076721191406e-01,9.101352095603942871e-01,9.100928306579589844e-01,9.100505113601684570e-01,9.100080728530883789e-01,9.099656939506530762e-01,9.099233746528625488e-01,9.098809361457824707e-01,9.098385572433471680e-01,9.097962379455566406e-01,9.097537994384765625e-01,9.097114801406860352e-01,9.096691608428955078e-01,9.096267819404602051e-01,9.095844626426696777e-01,9.095421433448791504e-01,9.094997048377990723e-01,9.094574451446533203e-01,9.094151258468627930e-01,9.093727469444274902e-01,9.093304276466369629e-01,9.092881679534912109e-01,9.092457890510559082e-01,9.092035293579101562e-01,9.091612100601196289e-01,9.091188907623291016e-01,9.090766310691833496e-01,9.090343117713928223e-01,9.089919924736022949e-01,9.089497327804565430e-01,9.089074730873107910e-01,9.088651537895202637e-01,9.088228940963745117e-01,9.087806344032287598e-01,9.087383151054382324e-01,9.086961150169372559e-01,9.086538553237915039e-01,9.086115360260009766e-01,9.085693359375000000e-01,9.085271358489990234e-01,9.084848165512084961e-01,9.084426164627075195e-01,9.084004163742065430e-01,9.083580970764160156e-01,9.083158969879150391e-01,9.082736968994140625e-01,9.082314372062683105e-01,9.081892371177673340e-01,9.081470966339111328e-01,9.081047773361206055e-01,9.080626368522644043e-01,9.080204367637634277e-01,9.079781770706176758e-01,9.079360365867614746e-01,9.078938961029052734e-01,9.078516364097595215e-01,9.078094959259033203e-01,9.077673554420471191e-01,9.077250957489013672e-01,9.076829552650451660e-01,9.076408147811889648e-01,9.075986146926879883e-01,9.075564742088317871e-01,9.075143337249755859e-01,9.074721336364746094e-01,9.074300527572631836e-01,9.073879122734069824e-01,9.073457121849060059e-01,9.073036313056945801e-01,9.072615504264831543e-01,9.072193503379821777e-01,9.071772694587707520e-01,9.071351885795593262e-01,9.070929884910583496e-01,9.070509076118469238e-01,9.070088267326354980e-01
8.635320663452148438e-01,8.634939193725585938e-01,8.634558320045471191e-01,8.634176254272460938e-01,8.633794784545898438e-01,8.633413910865783691e-01,8.633031845092773438e-01,8.632650375366210938e-01,8.632269501686096191e-01,8.631887435913085938e-01,8.631506562232971191e-01,8.631125092506408691e-01,8.630743622779846191e-01,8.630362749099731445e-01,8.629981875419616699e-01,8.629599809646606445e-01,8.629218935966491699e-01,8.628838062286376953e-01,8.628456592559814453e-01,8.628075718879699707e-01,8.627695441246032715e-01,8.627313375473022461e-01,8.626933097839355469e-01,8.626552224159240723e-01,8.626170754432678223e-01,8.625790476799011230e-01,8.625410199165344238e-01,8.625028729438781738e-01,8.624648451805114746e-01,8.624267578125000000e-01,8.623886704444885254e-01,8.623506426811218262e-01,8.623126149177551270e-01,8.622744679450988770e-01,8.622364401817321777e-01,8.621984124183654785e-01,8.621603250503540039e-01,8.621222972869873047e-01,8.620843291282653809e-01,8.620462417602539062e-01,8.620082139968872070e-01,8.619701862335205078e-01,8.619321584701538086e-01,8.618941307067871094e-01,8.618561625480651855e-01,8.618180751800537109e-01,8.617801070213317871e-01,8.617421388626098633e-01,8.617040514945983887e-01,8.616660833358764648e-01,8.616281151771545410e-01,8.615900874137878418e-01,8.615521192550659180e-01,8.615141510963439941e-01,8.614760637283325195e-01,8.614381551742553711e-01,8.614001870155334473e-01,8.613621592521667480e-01,8.613241910934448242e-01,8.612862825393676758e-01,8.612482547760009766e-01,8.612103462219238281e-01,8.611723780632019043e-01,8.611343502998352051e-01,8.610964417457580566e-01,8.610585331916809082e-01,8.610205650329589844e-01,8.609825968742370605e-01,8.609446883201599121e-01,8.609067201614379883e-01,8.608688116073608398e-01,8.608309030532836914e-01,8.607929348945617676e-01,8.607550263404846191e-01,8.607171773910522461e-01,8.606792092323303223e-01,8.606413006782531738e-01,8.606033921241760254e-01,8.605654835700988770e-01,8.605275750160217285e-01
8.212964534759521484e-01,8.212618827819824219e-01,8.212273716926574707e-01,8.211929202079772949e-01,8.211583495140075684e-01,8.211238384246826172e-01,8.210893869400024414e-01,8.210548162460327148e-01,8.210203647613525391e-01,8.209858536720275879e-01,8.209513425827026367e-01,8.209168910980224609e-01,8.208823800086975098e-01,8.208478689193725586e-01,8.208134174346923828e-01,8.207789659500122070e-01,8.207444548606872559e-01,8.207100033760070801e-01,8.206755518913269043e-01,8.206410408020019531e-01,8.206065893173217773e-01,8.205721378326416016e-01,8.205376267433166504e-01,8.205031752586364746e-01,8.204687833786010742e-01,8.204342722892761230e-01,8.203998208045959473e-01,8.203654289245605469e-01,8.203309178352355957e-01,8.202965259552001953e-01,8.202621340751647949e-01,8.202276229858398438e-01,8.201932311058044434e-01,8.201588392257690430e-01,8.201243281364440918e-01,8.200899362564086914e-01,8.200555443763732910e-01,8.200210928916931152e-01,8.199867010116577148e-01,8.199523091316223145e-01,8.199178576469421387e-01,8.198834657669067383e-01,8.198490738868713379e-01,8.198146224021911621e-01,8.197802901268005371e-01,8.197458982467651367e-01,8.197114467620849609e-01,8.196771144866943359e-01,8.196427226066589355e-01,8.196082711219787598e-01,8.195739388465881348e-01,8.195396065711975098e-01,8.195051550865173340e-01,8.194708228111267090e-01,8.194364905357360840e-01,8.194020390510559082e-01,8.193677067756652832e-01,8.193333745002746582e-01,8.192989826202392578e-01,8.192646503448486328e-01,8.192303180694580078e-01,8.191959261894226074e-01,8.191615939140319824e-01,8.191273212432861328e-01,8.190929293632507324e-01,8.190585970878601074e-01,8.190242648124694824e-01,8.189899325370788574e-01,8.189556002616882324e-01,8.189213275909423828e-01,8.188869357109069824e-01,8.188526630401611328e-01,8.188183307647705078e-01,8.187839984893798828e-01,8.187497258186340332e-01,8.187153935432434082e-01,8.186810612678527832e-01,8.186467885971069336e-01,8.186125159263610840e-01,8.185781836509704590e-01
7.829996347427368164e-01,7.829682826995849609e-01,7.829368710517883301e-01,7.829055190086364746e-01,7.828741669654846191e-01,7.828427553176879883e-01,7.828114628791809082e-01,7.827801108360290527e-01,7.827486991882324219e-01,7.827173471450805664e-01,7.826860547065734863e-01,7.826546430587768555e-01,7.826232910156250000e-01,7.825919985771179199e-01,7.825605869293212891e-01,7.825292944908142090e-01,7.824979424476623535e-01,7.824665904045104980e-01,7.824352383613586426e-01,7.824039459228515625e-01,7.823725938796997070e-01,7.823412418365478516e-01,7.823099493980407715e-01,7.822785973548889160e-01,7.822473049163818359e-01,7.822160124778747559e-01,7.821846604347229004e-01,7.821533679962158203e-01,7.821220755577087402e-01,7.820907235145568848e-01,7.820594310760498047e-01,7.820281386375427246e-01,7.819967865943908691e-01,7.819655537605285645e-01,7.819342613220214844e-01,7.819029092788696289e-01,7.818716764450073242e-01,7.818403840065002441e-01,7.818090915679931641e-01,7.817777991294860840e-01,7.817465066909790039e-01,7.817152142524719238e-01,7.816839814186096191e-01,7.816527485847473145e-01,7.816213965415954590e-01,7.815901637077331543e-01,7.815588712692260742e-01,7.815276384353637695e-01,7.814964056015014648e-01,7.814650535583496094e-01,7.814338207244873047e-01,7.814025878906250000e-01,7.813712954521179199e-01,7.813401222229003906e-01,7.813088893890380859e-01,7.812775969505310059e-01,7.812463641166687012e-01,7.812151312828063965e-01,7.811838984489440918e-01,7.811526656150817871e-01,7.811214327812194824e-01,7.810901999473571777e-01,7.810589671134948730e-01,7.810277938842773438e-01,7.809965014457702637e-01,7.809653282165527344e-01,7.809341549873352051e-01,7.809028625488281250e-01,7.808716893196105957e-01,7.808405160903930664e-01,7.808092832565307617e-01,7.807781100273132324e-01,7.807469367980957031e-01,7.807156443595886230e-01,7.806844711303710938e-01,7.806532979011535645e-01,7.806220650672912598e-01,7.805909514427185059e-01,7.805597782135009766e-01,7.805285453796386719e-01
7.481152415275573730e-01,7.480866312980651855e-01,7.480579614639282227e-01,7.480293512344360352e-01,7.480007410049438477e-01,7.479720115661621094e-01,7.479434013366699219e-01,7.479147911071777344e-01,7.478861212730407715e-01,7.478575706481933594e-01,7.478289604187011719e-01,7.478002905845642090e-01,7.477716803550720215e-01,7.477430701255798340e-01,7.477144002914428711e-01,7.476858496665954590e-01,7.476572394371032715e-01,7.476285696029663086e-01,7.476000189781188965e-01,7.475714087486267090e-01,7.475427985191345215e-01,7.475141882896423340e-01,7.474856376647949219e-01,7.474569678306579590e-01,7.474284172058105469e-01,7.473998665809631348e-01,7.473711967468261719e-01,7.473426461219787598e-01,7.473140954971313477e-01,7.472854852676391602e-01,7.472568750381469727e-01,7.472283244132995605e-01,7.471997141838073730e-01,7.471711635589599609e-01,7.471426129341125488e-01,7.471140027046203613e-01,7.470854520797729492e-01,7.470569014549255371e-01,7.470282912254333496e-01,7.469998002052307129e-01,7.469712495803833008e-01,7.469426393508911133e-01,7.469140887260437012e-01,7.468855977058410645e-01,7.468569874763488770e-01,7.468284368515014648e-01,7.467999458312988281e-01,7.467713356018066406e-01,7.467428445816040039e-01,7.467142939567565918e-01,7.466857433319091797e-01,7.466572523117065430e-01,7.466287016868591309e-01,7.466001510620117188e-01,7.465716600418090820e-01,7.465431094169616699e-01,7.465145587921142578e-01,7.464860677719116211e-01,7.464575767517089844e-01,7.464290261268615723e-01,7.464005351066589355e-01,7.463720440864562988e-01,7.463434934616088867e-01,7.463150024414062500e-01,7.462865114212036133e-01,7.462579607963562012e-01,7.462294697761535645e-01,7.462009787559509277e-01,7.461724281311035156e-01,7.461439967155456543e-01,7.461155056953430176e-01,7.460869550704956055e-01,7.460585236549377441e-01,7.460300326347351074e-01,7.460015416145324707e-01,7.459730505943298340e-01,7.459446191787719727e-01,7.459160685539245605e-01,7.458876371383666992e-01,7.458591461181640625e-01
7.162066102027893066e-01,7.161803841590881348e-01,7.161541581153869629e-01,7.161278724670410156e-01,7.161016464233398438e-01,7.160754203796386719e-01,7.160491347312927246e-01,7.160229086875915527e-01,7.159966826438903809e-01,7.159703969955444336e-01,7.159442305564880371e-01,7.159180045127868652e-01,7.158917188644409180e-01,7.158654928207397461e-01,7.158393263816833496e-01,7.158130407333374023e-01,7.157868146896362305e-01,7.157606482505798340e-01,7.157343626022338867e-01,7.157081961631774902e-01,7.156819701194763184e-01,7.156557440757751465e-01,7.156295180320739746e-01,7.156033515930175781e-01,7.155771255493164062e-01,7.155508995056152344e-01,7.155247330665588379e-01,7.154985070228576660e-01,7.154723405838012695e-01,7.154461145401000977e-01,7.154198884963989258e-01,7.153937220573425293e-01,7.153675556182861328e-01,7.153413295745849609e-01,7.153151631355285645e-01,7.152889966964721680e-01,7.152627706527709961e-01,7.152366042137145996e-01,7.152104377746582031e-01,7.151842117309570312e-01,7.151580452919006348e-01,7.151318788528442383e-01,7.151057124137878418e-01,7.150795459747314453e-01,7.150533795356750488e-01,7.150272130966186523e-01,7.150010466575622559e-01,7.149748802185058594e-01,7.149487137794494629e-01,7.149225473403930664e-01,7.148964405059814453e-01,7.148702144622802734e-01,7.148441076278686523e-01,7.148179411888122559e-01,7.147917747497558594e-01,7.147656083106994629e-01,7.147395014762878418e-01,7.147133350372314453e-01,7.146872282028198242e-01,7.146610617637634277e-01,7.146348953247070312e-01,7.146087884902954102e-01,7.145826816558837891e-01,7.145565152168273926e-01,7.145304083824157715e-01,7.145043015480041504e-01,7.144781351089477539e-01,7.144520282745361328e-01,7.144259214401245117e-01,7.143997550010681152e-01,7.143736481666564941e-01,7.143475413322448730e-01,7.143213748931884766e-01,7.142952680587768555e-01,7.142692208290100098e-01,7.142430543899536133e-01,7.142169475555419922e-01,7.141909003257751465e-01,7.141647338867187500e-01,7.141386270523071289e-01
6.869086623191833496e-01,6.868844628334045410e-01,6.868603229522705078e-01,6.868361830711364746e-01,6.868120431900024414e-01,6.867879033088684082e-01,6.867637634277343750e-01,6.867396235466003418e-01,6.867154836654663086e-01,6.866914033889770508e-01,6.866672039031982422e-01,6.866431236267089844e-01,6.866189837455749512e-01,6.865948438644409180e-01,6.865707039833068848e-01,6.865466237068176270e-01,6.865224242210388184e-01,6.864983439445495605e-01,6.864742636680603027e-01,6.864500641822814941e-01,6.864259839057922363e-01,6.864019036293029785e-01,6.863777637481689453e-01,6.863536238670349121e-01,6.863295435905456543e-01,6.863054037094116211e-01,6.862813234329223633e-01,6.862572431564331055e-01,6.862331032752990723e-01,6.862090229988098145e-01,6.861849427223205566e-01,6.861608028411865234e-01,6.861367225646972656e-01,6.861126422882080078e-01,6.860885024070739746e-01,6.860644221305847168e-01,6.860404014587402344e-01,6.860162615776062012e-01,6.859921813011169434e-01,6.859681010246276855e-01,6.859440207481384277e-01,6.859199404716491699e-01,6.858958601951599121e-01,6.858717799186706543e-01,6.858476996421813965e-01,6.858236789703369141e-01,6.857995390892028809e-01,6.857755184173583984e-01,6.857514381408691406e-01,6.857273578643798828e-01,6.857032775878906250e-01,6.856792569160461426e-01,6.856551170349121094e-01,6.856310963630676270e-01,6.856070756912231445e-01,6.855829954147338867e-01,6.855589151382446289e-01,6.855348944664001465e-01,6.855108141899108887e-01,6.854867935180664062e-01,6.854627728462219238e-01,6.854386329650878906e-01,6.854146122932434082e-01,6.853905916213989258e-01,6.853665113449096680e-01,6.853424906730651855e-01,6.853184700012207031e-01,6.852943897247314453e-01,6.852704286575317383e-01,6.852464079856872559e-01,6.852223277091979980e-01,6.851983070373535156e-01,6.851742863655090332e-01,6.851502060890197754e-01,6.851262450218200684e-01,6.851022243499755859e-01,6.850781440734863281e-01,6.850541830062866211e-01,6.850301623344421387e-01,6.850060820579528809e-01
6.599134206771850586e-01,6.598911285400390625e-01,6.598688364028930664e-01,6.598465442657470703e-01,6.598243117332458496e-01,6.598019599914550781e-01,6.597797274589538574e-01,6.597574353218078613e-01,6.597351431846618652e-01,6.597129106521606445e-01,6.596906185150146484e-01,6.596683263778686523e-01,6.596460938453674316e-01,6.596238017082214355e-01,6.596015095710754395e-01,6.595792770385742188e-01,6.595570445060729980e-01,6.595346927642822266e-01,6.595124602317810059e-01,6.594902276992797852e-01,6.594679355621337891e-01,6.594457030296325684e-01,6.594234704971313477e-01,6.594011783599853516e-01,6.593789458274841309e-01,6.593567132949829102e-01,6.593344211578369141e-01,6.593121886253356934e-01,6.592899560928344727e-01,6.592676639556884766e-01,6.592454314231872559e-01,6.592231988906860352e-01,6.592009663581848145e-01,6.591787338256835938e-01,6.591565012931823730e-01,6.591342091560363770e-01,6.591120362281799316e-01,6.590898036956787109e-01,6.590675115585327148e-01,6.590453386306762695e-01,6.590230464935302734e-01,6.590008735656738281e-01,6.589786410331726074e-01,6.589564085006713867e-01,6.589341759681701660e-01,6.589119434356689453e-01,6.588897109031677246e-01,6.588675379753112793e-01,6.588453054428100586e-01,6.588230729103088379e-01,6.588008403778076172e-01,6.587786674499511719e-01,6.587564349174499512e-01,6.587342023849487305e-01,6.587120294570922852e-01,6.586897969245910645e-01,6.586676239967346191e-01,6.586454510688781738e-01,6.586232185363769531e-01,6.586009860038757324e-01,6.585788130760192871e-01,6.585565805435180664e-01,6.585344076156616211e-01,6.585122346878051758e-01,6.584900021553039551e-01,6.584678292274475098e-01,6.584456562995910645e-01,6.584234237670898438e-01,6.584012508392333984e-01,6.583790779113769531e-01,6.583569049835205078e-01,6.583347320556640625e-01,6.583125591278076172e-01,6.582903265953063965e-01,6.582681536674499512e-01,6.582460403442382812e-01,6.582238078117370605e-01,6.582016348838806152e-01,6.581795215606689453e-01,6.581572890281677246e-01
6.349597573280334473e-01,6.349391341209411621e-01,6.349184513092041016e-01,6.348978281021118164e-01,6.348772048950195312e-01,6.348565816879272461e-01,6.348359584808349609e-01,6.348153352737426758e-01,6.347946524620056152e-01,6.347740888595581055e-01,6.347534656524658203e-01,6.347328424453735352e-01,6.347122192382812500e-01,6.346915960311889648e-01,6.346709728240966797e-01,6.346503496170043945e-01,6.346297860145568848e-01,6.346091032028198242e-01,6.345885396003723145e-01,6.345679163932800293e-01,6.345472931861877441e-01,6.345267295837402344e-01,6.345061063766479492e-01,6.344854831695556641e-01,6.344648599624633789e-01,6.344442963600158691e-01,6.344236731529235840e-01,6.344031095504760742e-01,6.343824863433837891e-01,6.343618631362915039e-01,6.343412995338439941e-01,6.343207359313964844e-01,6.343001127243041992e-01,6.342795491218566895e-01,6.342589259147644043e-01,6.342383027076721191e-01,6.342177391052246094e-01,6.341971755027770996e-01,6.341765522956848145e-01,6.341559886932373047e-01,6.341354250907897949e-01,6.341148018836975098e-01,6.340942382812500000e-01,6.340736746788024902e-01,6.340531110763549805e-01,6.340325474739074707e-01,6.340119838714599609e-01,6.339913606643676758e-01,6.339707970619201660e-01,6.339502930641174316e-01,6.339296698570251465e-01,6.339091062545776367e-01,6.338885426521301270e-01,6.338679790496826172e-01,6.338474154472351074e-01,6.338268518447875977e-01,6.338062882423400879e-01,6.337857246398925781e-01,6.337652206420898438e-01,6.337445974349975586e-01,6.337240934371948242e-01,6.337035298347473145e-01,6.336829662322998047e-01,6.336624026298522949e-01,6.336418390274047852e-01,6.336212754249572754e-01,6.336007714271545410e-01,6.335802078247070312e-01,6.335596442222595215e-01,6.335391402244567871e-01,6.335185766220092773e-01,6.334980130195617676e-01,6.334775090217590332e-01,6.334570050239562988e-01,6.334364414215087891e-01,6.334158778190612793e-01,6.333953738212585449e-01,6.333748102188110352e-01,6.333543062210083008e-01,6.333338022232055664e-01
