5.000000000000000000e+00,5.000000000000000000e+00,5.000000000000000000e+00,5.000000000000000000e+00,5.000000000000000000e+00,5.000000000000000000e+00,5.000000000000000000e+00,5.000000000000000000e+00,5.000000000000000000e+00,5.000000000000000000e+00,5.000000000000000000e+00,5.000000000000000000e+00,5.000000000000000000e+00,5.000000000000000000e+00,5.000000000000000000e+00,5.000000000000000000e+00,5.000000000000000000e+00,5.000000000000000000e+00,5.000000000000000000e+00,5.000000000000000000e+00,5.000000000000000000e+00,5.000000000000000000e+00,5.000000000000000000e+00,5.000000000000000000e+00,5.000000000000000000e+00,5.000000000000000000e+00,5.000000000000000000e+00,5.000000000000000000e+00,2.398891210556030273e+00,2.375025510787963867e+00,2.386888742446899414e+00,2.363304138183593750e+00,2.342018365859985352e+00,2.346067428588867188e+00,2.356973409652709961e+00,2.375974178314208984e+00,2.400547742843627930e+00,2.441808938980102539e+00,2.553122043609619141e+00,2.556407451629638672e+00,4.659144401550292969e+00,4.483580112457275391e+00,4.320765495300292969e+00,4.169361591339111328e+00,4.028209686279296875e+00,3.896301746368408203e+00,3.772758483886718750e+00,3.656809568405151367e+00,3.547774791717529297e+00,3.445053815841674805e+00,3.348114252090454102e+00,3.256480455398559570e+00,3.169728755950927734e+00,3.087479591369628906e+00,3.009390592575073242e+00,2.935154438018798828e+00,2.864492654800415039e+00,2.797152996063232422e+00,2.732906818389892578e+00,2.671545743942260742e+00,2.612879514694213867e+00,2.556734323501586914e+00,2.502951383590698242e+00,2.451384544372558594e+00,2.401899814605712891e+00,2.354373216629028320e+00,2.308690786361694336e+00,2.264747858047485352e+00,2.222445964813232422e+00,2.181695461273193359e+00,2.142412662506103516e+00,2.104519128799438477e+00,2.067942857742309570e+00,2.032616615295410156e+00,1.998476862907409668e+00,1.965465068817138672e+00,1.933526039123535156e+00,1.902608275413513184e+00,1.872663855552673340e+00,1.843647480010986328e+00
5.000000000000000000e+00,5.000000000000000000e+00,5.000000000000000000e+00,5.000000000000000000e+00,5.000000000000000000e+00,5.000000000000000000e+00,5.000000000000000000e+00,5.000000000000000000e+00,5.000000000000000000e+00,5.000000000000000000e+00,5.000000000000000000e+00,5.000000000000000000e+00,5.000000000000000000e+00,5.000000000000000000e+00,5.000000000000000000e+00,5.000000000000000000e+00,5.000000000000000000e+00,5.000000000000000000e+00,5.000000000000000000e+00,5.000000000000000000e+00,5.000000000000000000e+00,5.000000000000000000e+00,5.000000000000000000e+00,5.000000000000000000e+00,5.000000000000000000e+00,5.000000000000000000e+00,5.000000000000000000e+00,5.000000000000000000e+00,5.000000000000000000e+00,2.388735771179199219e+00,2.393540143966674805e+00,2.375474452972412109e+00,2.355428457260131836e+00,2.354045391082763672e+00,2.352385759353637695e+00,2.374252557754516602e+00,2.395645856857299805e+00,2.444656372070312500e+00,2.539649724960327148e+00,2.559491157531738281e+00,4.659272193908691406e+00,4.483698368072509766e+00,4.320875644683837891e+00,4.169464111328125000e+00,4.028305053710937500e+00,3.896391391754150391e+00,3.772842407226562500e+00,3.656888246536254883e+00,3.547849178314208984e+00,3.445123910903930664e+00,3.348180055618286133e+00,3.256543159484863281e+00,3.169788122177124023e+00,3.087535619735717773e+00,3.009444236755371094e+00,2.935205221176147461e+00,2.864540815353393555e+00,2.797199010848999023e+00,2.732950687408447266e+00,2.671587705612182617e+00,2.612919807434082031e+00,2.556772947311401367e+00,2.502988338470458984e+00,2.451420068740844727e+00,2.401933670043945312e+00,2.354405879974365234e+00,2.308722257614135742e+00,2.264777898788452148e+00,2.222475051879882812e+00,2.181723594665527344e+00,2.142439603805541992e+00,2.104545354843139648e+00,2.067968130111694336e+00,2.032640933990478516e+00,1.998500347137451172e+00,1.965487837791442871e+00,1.933547854423522949e+00,1.902629613876342773e+00,1.872684597969055176e+00,1.843667387962341309e+00
5.000000000000000000e+00,5.000000000000000000e+00,5.000000000000000000e+00,5.000000000000000000e+00,5.000000000000000000e+00,5.000000000000000000e+00,5.000000000000000000e+00,5.000000000000000000e+00,5.000000000000000000e+00,5.000000000000000000e+00,5.000000000000000000e+00,5.000000000000000000e+00,5.000000000000000000e+00,5.000000000000000000e+00,5.000000000000000000e+00,5.000000000000000000e+00,5.000000000000000000e+00,5.000000000000000000e+00,5.000000000000000000e+00,5.000000000000000000e+00,5.000000000000000000e+00,5.000000000000000000e+00,5.000000000000000000e+00,5.000000000000000000e+00,5.000000000000000000e+00,5.000000000000000000e+00,5.000000000000000000e+00,5.000000000000000000e+00,5.000000000000000000e+00,2.401635646820068359e+00,2.397225141525268555e+00,2.385217428207397461e+00,2.355324983596801758e+00,2.350399732589721680e+00,2.355293273925781250e+00,2.370425701141357422e+00,2.399151563644409180e+00,2.466108322143554688e+00,2.538549900054931641e+00,2.555096387863159180e+00,4.659400463104248047e+00,4.483816623687744141e+00,4.320985317230224609e+00,4.169566631317138672e+00,4.028400421142578125e+00,3.896480321884155273e+00,3.772926568984985352e+00,3.656967163085937500e+00,3.547923088073730469e+00,3.445194005966186523e+00,3.348246097564697266e+00,3.256605386734008789e+00,3.169847249984741211e+00,3.087591886520385742e+00,3.009497404098510742e+00,2.935256004333496094e+00,2.864589214324951172e+00,2.797245025634765625e+00,2.732994794845581055e+00,2.671629667282104492e+00,2.612959861755371094e+00,2.556811332702636719e+00,2.503025293350219727e+00,2.451455593109130859e+00,2.401967763900756836e+00,2.354438543319702148e+00,2.308753728866577148e+00,2.264807939529418945e+00,2.222503900527954102e+00,2.181751489639282227e+00,2.142466545104980469e+00,2.104571342468261719e+00,2.067993402481079102e+00,2.032665252685546875e+00,1.998523950576782227e+00,1.965510606765747070e+00,1.933569908142089844e+00,1.902650952339172363e+00,1.872705340385437012e+00,1.843687415122985840e+00
5.000000000000000000e+00,5.000000000000000000e+00,5.000000000000000000e+00,5.000000000000000000e+00,5.000000000000000000e+00,5.000000000000000000e+00,5.000000000000000000e+00,5.000000000000000000e+00,5.000000000000000000e+00,5.000000000000000000e+00,5.000000000000000000e+00,5.000000000000000000e+00,5.000000000000000000e+00,5.000000000000000000e+00,5.000000000000000000e+00,5.000000000000000000e+00,5.000000000000000000e+00,5.000000000000000000e+00,5.000000000000000000e+00,5.000000000000000000e+00,5.000000000000000000e+00,5.000000000000000000e+00,5.000000000000000000e+00,5.000000000000000000e+00,5.000000000000000000e+00,5.000000000000000000e+00,5.000000000000000000e+00,5.000000000000000000e+00,5.000000000000000000e+00,2.411471128463745117e+00,2.399620532989501953e+00,2.394163131713867188e+00,2.361856937408447266e+00,2.349974393844604492e+00,2.354489326477050781e+00,2.370892286300659180e+00,2.398336648941040039e+00,2.464072465896606445e+00,2.537139892578125000e+00,2.552081584930419922e+00,4.659528255462646484e+00,4.483935356140136719e+00,4.321095466613769531e+00,4.169669151306152344e+00,4.028496265411376953e+00,3.896569967269897461e+00,3.773010015487670898e+00,3.657046079635620117e+00,3.547997236251831055e+00,3.445263624191284180e+00,3.348312139511108398e+00,3.256667852401733398e+00,3.169906377792358398e+00,3.087648153305053711e+00,3.009550809860229492e+00,2.935306549072265625e+00,2.864637613296508789e+00,2.797291278839111328e+00,2.733038663864135742e+00,2.671671867370605469e+00,2.613000154495239258e+00,2.556849718093872070e+00,2.503062248229980469e+00,2.451490879058837891e+00,2.402001619338989258e+00,2.354471206665039062e+00,2.308784723281860352e+00,2.264838218688964844e+00,2.222532987594604492e+00,2.181779623031616211e+00,2.142493724822998047e+00,2.104597568511962891e+00,2.068018436431884766e+00,2.032689571380615234e+00,1.998547554016113281e+00,1.965533137321472168e+00,1.933591961860656738e+00,1.902672410011291504e+00,1.872725725173950195e+00,1.843707561492919922e+00
5.000000000000000000e+00,5.000000000000000000e+00,5.000000000000000000e+00,5.000000000000000000e+00,5.000000000000000000e+00,5.000000000000000000e+00,5.000000000000000000e+00,5.000000000000000000e+00,5.000000000000000000e+00,5.000000000000000000e+00,5.000000000000000000e+00,5.000000000000000000e+00,5.000000000000000000e+00,5.000000000000000000e+00,5.000000000000000000e+00,5.000000000000000000e+00,5.000000000000000000e+00,5.000000000000000000e+00,5.000000000000000000e+00,5.000000000000000000e+00,5.000000000000000000e+00,5.000000000000000000e+00,5.000000000000000000e+00,5.000000000000000000e+00,5.000000000000000000e+00,5.000000000000000000e+00,5.000000000000000000e+00,5.000000000000000000e+00,5.000000000000000000e+00,2.422546386718750000e+00,2.407938003540039062e+00,2.388329982757568359e+00,2.352041006088256836e+00,2.341321468353271484e+00,2.351105928421020508e+00,2.375232458114624023e+00,2.404566287994384766e+00,2.498703718185424805e+00,2.551080942153930664e+00,2.551792144775390625e+00,4.659656047821044922e+00,4.484053611755371094e+00,4.321205615997314453e+00,4.169771194458007812e+00,4.028591632843017578e+00,3.896659612655639648e+00,3.773094177246093750e+00,3.657124519348144531e+00,3.548071622848510742e+00,3.445333719253540039e+00,3.348378181457519531e+00,3.256730556488037109e+00,3.169965744018554688e+00,3.087703943252563477e+00,3.009604215621948242e+00,2.935357570648193359e+00,2.864685773849487305e+00,2.797337293624877930e+00,2.733082771301269531e+00,2.671713829040527344e+00,2.613040447235107422e+00,2.556888341903686523e+00,2.503098964691162109e+00,2.451526165008544922e+00,2.402035713195800781e+00,2.354503631591796875e+00,2.308816194534301758e+00,2.264868259429931641e+00,2.222562313079833984e+00,2.181807518005371094e+00,2.142520666122436523e+00,2.104623556137084961e+00,2.068043708801269531e+00,2.032713890075683594e+00,1.998571038246154785e+00,1.965556025505065918e+00,1.933614015579223633e+00,1.902693748474121094e+00,1.872746467590332031e+00,1.843727588653564453e+00
5.000000000000000000e+00,5.000000000000000000e+00,5.000000000000000000e+00,5.000000000000000000e+00,5.000000000000000000e+00,5.000000000000000000e+00,5.000000000000000000e+00,5.000000000000000000e+00,5.000000000000000000e+00,5.000000000000000000e+00,5.000000000000000000e+00,5.000000000000000000e+00,5.000000000000000000e+00,5.000000000000000000e+00,5.000000000000000000e+00,5.000000000000000000e+00,5.000000000000000000e+00,5.000000000000000000e+00,5.000000000000000000e+00,5.000000000000000000e+00,5.000000000000000000e+00,5.000000000000000000e+00,5.000000000000000000e+00,5.000000000000000000e+00,5.000000000000000000e+00,5.000000000000000000e+00,5.000000000000000000e+00,5.000000000000000000e+00,5.000000000000000000e+00,2.434602022171020508e+00,2.424133062362670898e+00,2.370304822921752930e+00,2.346550703048706055e+00,2.335198402404785156e+00,2.343974113464355469e+00,2.370386362075805664e+00,2.393189191818237305e+00,2.457986831665039062e+00,2.564430952072143555e+00,2.561601400375366211e+00,4.659784317016601562e+00,4.484171867370605469e+00,4.321315288543701172e+00,4.169874191284179688e+00,4.028687477111816406e+00,3.896748781204223633e+00,3.773178100585937500e+00,3.657203435897827148e+00,3.548145532608032227e+00,3.445403814315795898e+00,3.348444223403930664e+00,3.256792783737182617e+00,3.170024871826171875e+00,3.087760210037231445e+00,3.009657382965087891e+00,2.935408353805541992e+00,2.864734172821044922e+00,2.797383308410644531e+00,2.733126878738403320e+00,2.671755790710449219e+00,2.613080501556396484e+00,2.556926965713500977e+00,2.503135919570922852e+00,2.451561689376831055e+00,2.402069330215454102e+00,2.354536294937133789e+00,2.308847665786743164e+00,2.264898538589477539e+00,2.222591161727905273e+00,2.181835651397705078e+00,2.142547845840454102e+00,2.104649543762207031e+00,2.068068981170654297e+00,2.032738208770751953e+00,1.998594403266906738e+00,1.965578794479370117e+00,1.933636069297790527e+00,1.902714848518371582e+00,1.872767210006713867e+00,1.843747615814208984e+00
5.000000000000000000e+00,5.000000000000000000e+00,5.000000000000000000e+00,5.000000000000000000e+00,5.000000000000000000e+00,5.000000000000000000e+00,5.000000000000000000e+00,5.000000000000000000e+00,5.000000000000000000e+00,5.000000000000000000e+00,5.000000000000000000e+00,5.000000000000000000e+00,5.000000000000000000e+00,5.000000000000000000e+00,5.000000000000000000e+00,5.000000000000000000e+00,5.000000000000000000e+00,5.000000000000000000e+00,5.000000000000000000e+00,5.000000000000000000e+00,5.000000000000000000e+00,5.000000000000000000e+00,5.000000000000000000e+00,5.000000000000000000e+00,5.000000000000000000e+00,5.000000000000000000e+00,5.000000000000000000e+00,5.000000000000000000e+00,5.000000000000000000e+00,2.445391178131103516e+00,2.439266920089721680e+00,2.370841503143310547e+00,2.352146148681640625e+00,2.350047588348388672e+00,2.356559753417968750e+00,2.361032009124755859e+00,2.388992786407470703e+00,2.440563201904296875e+00,2.571365118026733398e+00,2.544882774353027344e+00,2.561767339706420898e+00,4.484290599822998047e+00,4.321425437927246094e+00,4.169976234436035156e+00,4.028783321380615234e+00,3.896838426589965820e+00,3.773261785507202148e+00,3.657282352447509766e+00,3.548219680786132812e+00,3.445473432540893555e+00,3.348510503768920898e+00,3.256855249404907227e+00,3.170083999633789062e+00,3.087816476821899414e+00,3.009710788726806641e+00,2.935458898544311523e+00,2.864782810211181641e+00,2.797429561614990234e+00,2.733170747756958008e+00,2.671797990798950195e+00,2.613120794296264648e+00,2.556965351104736328e+00,2.503172874450683594e+00,2.451596736907958984e+00,2.402103424072265625e+00,2.354568958282470703e+00,2.308878898620605469e+00,2.264928817749023438e+00,2.222620487213134766e+00,2.181863546371459961e+00,2.142574787139892578e+00,2.104675769805908203e+00,2.068094015121459961e+00,2.032762765884399414e+00,1.998618006706237793e+00,1.965601563453674316e+00,1.933658123016357422e+00,1.902736186981201172e+00,1.872787833213806152e+00,1.843767642974853516e+00
5.000000000000000000e+00,5.000000000000000000e+00,5.000000000000000000e+00,5.000000000000000000e+00,5.000000000000000000e+00,5.000000000000000000e+00,5.000000000000000000e+00,5.000000000000000000e+00,5.000000000000000000e+00,5.000000000000000000e+00,5.000000000000000000e+00,5.000000000000000000e+00,5.000000000000000000e+00,5.000000000000000000e+00,5.000000000000000000e+00,5.000000000000000000e+00,5.000000000000000000e+00,5.000000000000000000e+00,5.000000000000000000e+00,5.000000000000000000e+00,5.000000000000000000e+00,5.000000000000000000e+00,5.000000000000000000e+00,5.000000000000000000e+00,5.000000000000000000e+00,5.000000000000000000e+00,5.000000000000000000e+00,5.000000000000000000e+00,5.000000000000000000e+00,2.434260368347167969e+00,2.430588483810424805e+00,2.378770112991333008e+00,2.356778860092163086e+00,2.352687120437622070e+00,2.361668348312377930e+00,2.371041059494018555e+00,2.406047582626342773e+00,2.470147609710693359e+00,2.588288784027099609e+00,2.530012130737304688e+00,2.521801710128784180e+00,4.484408855438232422e+00,4.321535587310791016e+00,4.170078754425048828e+00,4.028878688812255859e+00,3.896928071975708008e+00,3.773345708847045898e+00,3.657361030578613281e+00,3.548294067382812500e+00,3.445543527603149414e+00,3.348576307296752930e+00,3.256917953491210938e+00,3.170143127441406250e+00,3.087872505187988281e+00,3.009764194488525391e+00,2.935509681701660156e+00,2.864830970764160156e+00,2.797475576400756836e+00,2.733214855194091797e+00,2.671839952468872070e+00,2.613161087036132812e+00,2.557003974914550781e+00,2.503209352493286133e+00,2.451632261276245117e+00,2.402137279510498047e+00,2.354601621627807617e+00,2.308910369873046875e+00,2.264958858489990234e+00,2.222649574279785156e+00,2.181891679763793945e+00,2.142601728439331055e+00,2.104701995849609375e+00,2.068119287490844727e+00,2.032786846160888672e+00,1.998641610145568848e+00,1.965624332427978516e+00,1.933680057525634766e+00,1.902757644653320312e+00,1.872808575630187988e+00,1.843787550926208496e+00
5.000000000000000000e+00,5.000000000000000000e+00,5.000000000000000000e+00,5.000000000000000000e+00,5.000000000000000000e+00,5.000000000000000000e+00,5.000000000000000000e+00,5.000000000000000000e+00,5.000000000000000000e+00,5.000000000000000000e+00,5.000000000000000000e+00,5.000000000000000000e+00,5.000000000000000000e+00,5.000000000000000000e+00,5.000000000000000000e+00,5.000000000000000000e+00,5.000000000000000000e+00,5.000000000000000000e+00,5.000000000000000000e+00,5.000000000000000000e+00,5.000000000000000000e+00,5.000000000000000000e+00,5.000000000000000000e+00,5.000000000000000000e+00,5.000000000000000000e+00,5.000000000000000000e+00,5.000000000000000000e+00,5.000000000000000000e+00,5.000000000000000000e+00,2.424007177352905273e+00,2.420766592025756836e+00,2.369043827056884766e+00,2.330079078674316406e+00,2.340655803680419922e+00,2.378029346466064453e+00,2.383601903915405273e+00,2.412870883941650391e+00,2.465953588485717773e+00,5.000000000000000000e+00,2.539181470870971680e+00,2.494596958160400391e+00,2.511543512344360352e+00,4.321645259857177734e+00,4.170181274414062500e+00,4.028974056243896484e+00,3.897017240524291992e+00,3.773429632186889648e+00,3.657439947128295898e+00,3.548367977142333984e+00,3.445613622665405273e+00,3.348642349243164062e+00,3.256980180740356445e+00,3.170202493667602539e+00,3.087928771972656250e+00,3.009817361831665039e+00,2.935560703277587891e+00,2.864879369735717773e+00,2.797521591186523438e+00,2.733258962631225586e+00,2.671882152557373047e+00,2.613201141357421875e+00,2.557042598724365234e+00,2.503246545791625977e+00,2.451667547225952148e+00,2.402171373367309570e+00,2.354634284973144531e+00,2.308941841125488281e+00,2.264989137649536133e+00,2.222678661346435547e+00,2.181919813156127930e+00,2.142628908157348633e+00,2.104727983474731445e+00,2.068144559860229492e+00,2.032811403274536133e+00,1.998665094375610352e+00,1.965647220611572266e+00,1.933702111244201660e+00,1.902778983116149902e+00,1.872829318046569824e+00,1.843807578086853027e+00
5.000000000000000000e+00,5.000000000000000000e+00,5.000000000000000000e+00,5.000000000000000000e+00,5.000000000000000000e+00,5.000000000000000000e+00,5.000000000000000000e+00,5.000000000000000000e+00,5.000000000000000000e+00,5.000000000000000000e+00,5.000000000000000000e+00,5.000000000000000000e+00,5.000000000000000000e+00,5.000000000000000000e+00,5.000000000000000000e+00,5.000000000000000000e+00,5.000000000000000000e+00,5.000000000000000000e+00,5.000000000000000000e+00,5.000000000000000000e+00,5.000000000000000000e+00,5.000000000000000000e+00,5.000000000000000000e+00,5.000000000000000000e+00,5.000000000000000000e+00,5.000000000000000000e+00,5.000000000000000000e+00,5.000000000000000000e+00,5.000000000000000000e+00,2.421010971069335938e+00,2.413515329360961914e+00,2.346788644790649414e+00,2.295157909393310547e+00,2.294960975646972656e+00,2.299686670303344727e+00,2.412492990493774414e+00,2.442117214202880859e+00,2.470324754714965820e+00,5.000000000000000000e+00,4.850265979766845703e+00,2.501962900161743164e+00,2.480221033096313477e+00,4.321755409240722656e+00,4.170283794403076172e+00,4.029069900512695312e+00,3.897106647491455078e+00,3.773513317108154297e+00,3.657518863677978516e+00,3.548442363739013672e+00,3.445683240890502930e+00,3.348708629608154297e+00,3.257042884826660156e+00,3.170261621475219727e+00,3.087985038757324219e+00,3.009871006011962891e+00,2.935611248016357422e+00,2.864927768707275391e+00,2.797567844390869141e+00,2.733302831649780273e+00,2.671924114227294922e+00,2.613241195678710938e+00,2.557080745697021484e+00,2.503283500671386719e+00,2.451703071594238281e+00,2.402205467224121094e+00,2.354666948318481445e+00,2.308973312377929688e+00,2.265019416809082031e+00,2.222707748413085938e+00,2.181947708129882812e+00,2.142655849456787109e+00,2.104753971099853516e+00,2.068169593811035156e+00,2.032835721969604492e+00,1.998688697814941406e+00,1.965669751167297363e+00,1.933724164962768555e+00,1.902800321578979492e+00,1.872849702835083008e+00,1.843827605247497559e+00
5.000000000000000000e+00,5.000000000000000000e+00,5.000000000000000000e+00,5.000000000000000000e+00,5.000000000000000000e+00,5.000000000000000000e+00,5.000000000000000000e+00,5.000000000000000000e+00,5.000000000000000000e+00,5.000000000000000000e+00,5.000000000000000000e+00,5.000000000000000000e+00,5.000000000000000000e+00,5.000000000000000000e+00,5.000000000000000000e+00,5.000000000000000000e+00,5.000000000000000000e+00,5.000000000000000000e+00,5.000000000000000000e+00,5.000000000000000000e+00,5.000000000000000000e+00,5.000000000000000000e+00,5.000000000000000000e+00,5.000000000000000000e+00,5.000000000000000000e+00,5.000000000000000000e+00,5.000000000000000000e+00,5.000000000000000000e+00,5.000000000000000000e+00,2.411094665527343750e+00,2.406574010848999023e+00,2.331683397293090820e+00,2.278482913970947266e+00,2.278265476226806641e+00,2.278173208236694336e+00,2.336945533752441406e+00,2.444636583328247070e+00,2.480107307434082031e+00,5.000000000000000000e+00,4.850404739379882812e+00,4.660423755645751953e+00,2.419486999511718750e+00,2.440831422805786133e+00,4.170385837554931641e+00,4.029165744781494141e+00,3.897196292877197266e+00,3.773597240447998047e+00,3.657597303390502930e+00,3.548516511917114258e+00,3.445753335952758789e+00,3.348774433135986328e+00,3.257105350494384766e+00,3.170320749282836914e+00,3.088041067123413086e+00,3.009924411773681641e+00,2.935662031173706055e+00,2.864975929260253906e+00,2.797614097595214844e+00,2.733346939086914062e+00,2.671966075897216797e+00,2.613281488418579102e+00,2.557119369506835938e+00,2.503320217132568359e+00,2.451738357543945312e+00,2.402239322662353516e+00,2.354699611663818359e+00,2.309004783630371094e+00,2.265049695968627930e+00,2.222736835479736328e+00,2.181975841522216797e+00,2.142682790756225586e+00,2.104780197143554688e+00,2.068194866180419922e+00,2.032860040664672852e+00,1.998712301254272461e+00,1.965692520141601562e+00,1.933746218681335449e+00,1.902821660041809082e+00,1.872870445251464844e+00,1.843847751617431641e+00
5.000000000000000000e+00,5.000000000000000000e+00,5.000000000000000000e+00,5.000000000000000000e+00,5.000000000000000000e+00,5.000000000000000000e+00,5.000000000000000000e+00,5.000000000000000000e+00,5.000000000000000000e+00,5.000000000000000000e+00,5.000000000000000000e+00,5.000000000000000000e+00,5.000000000000000000e+00,5.000000000000000000e+00,5.000000000000000000e+00,5.000000000000000000e+00,5.000000000000000000e+00,5.000000000000000000e+00,5.000000000000000000e+00,5.000000000000000000e+00,5.000000000000000000e+00,5.000000000000000000e+00,5.000000000000000000e+00,5.000000000000000000e+00,5.000000000000000000e+00,5.000000000000000000e+00,5.000000000000000000e+00,5.000000000000000000e+00,5.000000000000000000e+00,2.405515909194946289e+00,2.406355857849121094e+00,2.340073108673095703e+00,2.277713060379028320e+00,2.264558315277099609e+00,2.264210700988769531e+00,2.308597326278686523e+00,2.445354938507080078e+00,2.483051538467407227e+00,5.000000000000000000e+00,4.850543022155761719e+00,4.660551548004150391e+00,4.484882831573486328e+00,2.413785219192504883e+00,4.170488834381103516e+00,4.029261112213134766e+00,3.897285461425781250e+00,3.773681402206420898e+00,3.657676219940185547e+00,3.548590660095214844e+00,3.445823431015014648e+00,3.348840475082397461e+00,3.257167577743530273e+00,3.170380115509033203e+00,3.088097333908081055e+00,3.009977579116821289e+00,2.935713052749633789e+00,2.865024328231811523e+00,2.797659873962402344e+00,2.733390569686889648e+00,2.672008037567138672e+00,2.613321542739868164e+00,2.557157754898071289e+00,2.503357172012329102e+00,2.451773881912231445e+00,2.402273416519165039e+00,2.354732275009155273e+00,2.309036016464233398e+00,2.265079975128173828e+00,2.222765922546386719e+00,2.182003974914550781e+00,2.142709970474243164e+00,2.104806184768676758e+00,2.068220138549804688e+00,2.032884359359741211e+00,1.998735547065734863e+00,1.965715408325195312e+00,1.933768272399902344e+00,1.902842879295349121e+00,1.872891187667846680e+00,1.843867778778076172e+00
5.000000000000000000e+00,5.000000000000000000e+00,5.000000000000000000e+00,5.000000000000000000e+00,5.000000000000000000e+00,5.000000000000000000e+00,5.000000000000000000e+00,5.000000000000000000e+00,5.000000000000000000e+00,5.000000000000000000e+00,5.000000000000000000e+00,5.000000000000000000e+00,5.000000000000000000e+00,5.000000000000000000e+00,5.000000000000000000e+00,5.000000000000000000e+00,5.000000000000000000e+00,5.000000000000000000e+00,5.000000000000000000e+00,5.000000000000000000e+00,5.000000000000000000e+00,5.000000000000000000e+00,5.000000000000000000e+00,5.000000000000000000e+00,5.000000000000000000e+00,5.000000000000000000e+00,5.000000000000000000e+00,5.000000000000000000e+00,5.000000000000000000e+00,2.405237436294555664e+00,2.397091865539550781e+00,2.363950490951538086e+00,2.285022020339965820e+00,2.252814054489135742e+00,2.250802993774414062e+00,2.281228065490722656e+00,2.450703859329223633e+00,2.498023271560668945e+00,5.000000000000000000e+00,4.850681781768798828e+00,4.660679340362548828e+00,4.485001564025878906e+00,4.322085380554199219e+00,2.408269166946411133e+00,4.029356956481933594e+00,3.897375106811523438e+00,3.773765087127685547e+00,3.657755374908447266e+00,3.548664808273315430e+00,3.445893049240112305e+00,3.348906755447387695e+00,3.257230281829833984e+00,3.170439243316650391e+00,3.088153600692749023e+00,3.010030984878540039e+00,2.935763597488403320e+00,2.865072727203369141e+00,2.797706127166748047e+00,2.733434438705444336e+00,2.672049999237060547e+00,2.613361835479736328e+00,2.557196140289306641e+00,2.503394126892089844e+00,2.451809167861938477e+00,2.402307271957397461e+00,2.354764938354492188e+00,2.309067487716674805e+00,2.265110254287719727e+00,2.222795009613037109e+00,2.182031869888305664e+00,2.142737150192260742e+00,2.104832410812377930e+00,2.068245172500610352e+00,2.032908678054809570e+00,1.998759150505065918e+00,1.965738177299499512e+00,1.933790326118469238e+00,1.902864217758178711e+00,1.872911810874938965e+00,1.843887805938720703e+00
5.000000000000000000e+00,5.000000000000000000e+00,5.000000000000000000e+00,5.000000000000000000e+00,5.000000000000000000e+00,5.000000000000000000e+00,5.000000000000000000e+00,5.000000000000000000e+00,5.000000000000000000e+00,5.000000000000000000e+00,5.000000000000000000e+00,5.000000000000000000e+00,5.000000000000000000e+00,5.000000000000000000e+00,5.000000000000000000e+00,5.000000000000000000e+00,5.000000000000000000e+00,5.000000000000000000e+00,5.000000000000000000e+00,5.000000000000000000e+00,5.000000000000000000e+00,5.000000000000000000e+00,5.000000000000000000e+00,5.000000000000000000e+00,5.000000000000000000e+00,5.000000000000000000e+00,5.000000000000000000e+00,5.000000000000000000e+00,5.000000000000000000e+00,2.390688419342041016e+00,2.389017820358276367e+00,5.000000000000000000e+00,2.291888475418090820e+00,2.240143060684204102e+00,2.235827922821044922e+00,2.254392623901367188e+00,2.461062431335449219e+00,2.519889593124389648e+00,5.000000000000000000e+00,4.850820541381835938e+00,4.660807609558105469e+00,4.485119819641113281e+00,4.322195529937744141e+00,4.170693397521972656e+00,4.029452323913574219e+00,3.897464752197265625e+00,3.773849010467529297e+00,3.657833814620971680e+00,3.548739194869995117e+00,3.445963144302368164e+00,3.348972558975219727e+00,3.257292985916137695e+00,3.170498609542846680e+00,3.088209629058837891e+00,3.010084390640258789e+00,2.935814380645751953e+00,2.865121126174926758e+00,2.797752141952514648e+00,2.733478546142578125e+00,2.672091960906982422e+00,2.613402128219604492e+00,2.557234764099121094e+00,2.503430843353271484e+00,2.451844692230224609e+00,2.402341365814208984e+00,2.354797601699829102e+00,2.309098958969116211e+00,2.265140295028686523e+00,2.222824096679687500e+00,2.182060003280639648e+00,2.142764091491699219e+00,2.104858398437500000e+00,2.068270444869995117e+00,2.032932996749877930e+00,1.998782753944396973e+00,1.965760946273803711e+00,1.933812141418457031e+00,1.902885556221008301e+00,1.872932553291320801e+00,1.843907713890075684e+00
5.000000000000000000e+00,5.000000000000000000e+00,5.000000000000000000e+00,5.000000000000000000e+00,5.000000000000000000e+00,5.000000000000000000e+00,5.000000000000000000e+00,5.000000000000000000e+00,5.000000000000000000e+00,5.000000000000000000e+00,5.000000000000000000e+00,5.000000000000000000e+00,5.000000000000000000e+00,5.000000000000000000e+00,5.000000000000000000e+00,5.000000000000000000e+00,5.000000000000000000e+00,5.000000000000000000e+00,5.000000000000000000e+00,5.000000000000000000e+00,5.000000000000000000e+00,5.000000000000000000e+00,5.000000000000000000e+00,5.000000000000000000e+00,5.000000000000000000e+00,5.000000000000000000e+00,5.000000000000000000e+00,5.000000000000000000e+00,5.000000000000000000e+00,2.385697841644287109e+00,5.000000000000000000e+00,5.000000000000000000e+00,2.312422275543212891e+00,2.246855974197387695e+00,2.219069004058837891e+00,2.228504896163940430e+00,2.480533123016357422e+00,5.000000000000000000e+00,5.000000000000000000e+00,4.850958824157714844e+00,4.660935401916503906e+00,4.485238075256347656e+00,4.322305679321289062e+00,4.170795917510986328e+00,4.029548168182373047e+00,3.897553920745849609e+00,3.773933172225952148e+00,3.657912731170654297e+00,3.548813104629516602e+00,3.446033239364624023e+00,3.349038839340209961e+00,3.257355213165283203e+00,3.170557737350463867e+00,3.088265895843505859e+00,3.010137796401977539e+00,2.935865163803100586e+00,2.865169286727905273e+00,2.797798156738281250e+00,2.733522653579711914e+00,2.672134160995483398e+00,2.613442182540893555e+00,2.557273387908935547e+00,2.503468036651611328e+00,2.451879978179931641e+00,2.402375459671020508e+00,2.354830265045166016e+00,2.309130430221557617e+00,2.265170574188232422e+00,2.222853183746337891e+00,2.182088136672973633e+00,2.142791032791137695e+00,2.104884386062622070e+00,2.068295717239379883e+00,2.032957315444946289e+00,1.998806357383728027e+00,1.965783715248107910e+00,1.933834314346313477e+00,1.902906894683837891e+00,1.872953295707702637e+00,1.843927741050720215e+00
5.000000000000000000e+00,5.000000000000000000e+00,5.000000000000000000e+00,5.000000000000000000e+00,5.000000000000000000e+00,5.000000000000000000e+00,5.000000000000000000e+00,5.000000000000000000e+00,5.000000000000000000e+00,5.000000000000000000e+00,5.000000000000000000e+00,5.000000000000000000e+00,5.000000000000000000e+00,5.000000000000000000e+00,5.000000000000000000e+00,5.000000000000000000e+00,5.000000000000000000e+00,5.000000000000000000e+00,5.000000000000000000e+00,5.000000000000000000e+00,5.000000000000000000e+00,5.000000000000000000e+00,5.000000000000000000e+00,5.000000000000000000e+00,5.000000000000000000e+00,5.000000000000000000e+00,5.000000000000000000e+00,5.000000000000000000e+00,5.000000000000000000e+00,2.376413583755493164e+00,5.000000000000000000e+00,5.000000000000000000e+00,5.000000000000000000e+00,2.255401611328125000e+00,2.211402654647827148e+00,2.203204870223999023e+00,2.248443126678466797e+00,5.000000000000000000e+00,5.000000000000000000e+00,4.851097583770751953e+00,4.661063671112060547e+00,4.485356807708740234e+00,4.322415828704833984e+00,4.170898437500000000e+00,4.029644012451171875e+00,3.897643566131591797e+00,3.774016618728637695e+00,3.657991647720336914e+00,3.548887491226196289e+00,3.446102857589721680e+00,3.349104881286621094e+00,3.257417917251586914e+00,3.170616865158081055e+00,3.088322162628173828e+00,3.010191202163696289e+00,2.935915708541870117e+00,2.865217685699462891e+00,2.797844409942626953e+00,2.733566522598266602e+00,2.672176361083984375e+00,2.613482475280761719e+00,2.557311773300170898e+00,2.503504991531372070e+00,2.451915502548217773e+00,2.402409315109252930e+00,2.354862928390502930e+00,2.309161663055419922e+00,2.265200853347778320e+00,2.222882270812988281e+00,2.182116031646728516e+00,2.142818212509155273e+00,2.104910612106323242e+00,2.068320751190185547e+00,2.032981872558593750e+00,1.998829841613769531e+00,1.965806365013122559e+00,1.933856368064880371e+00,1.902928352355957031e+00,1.872973680496215820e+00,1.843947887420654297e+00
5.000000000000000000e+00,5.000000000000000000e+00,5.000000000000000000e+00,5.000000000000000000e+00,5.000000000000000000e+00,5.000000000000000000e+00,5.000000000000000000e+00,5.000000000000000000e+00,5.000000000000000000e+00,5.000000000000000000e+00,5.000000000000000000e+00,5.000000000000000000e+00,5.000000000000000000e+00,5.000000000000000000e+00,5.000000000000000000e+00,5.000000000000000000e+00,5.000000000000000000e+00,5.000000000000000000e+00,5.000000000000000000e+00,5.000000000000000000e+00,5.000000000000000000e+00,5.000000000000000000e+00,5.000000000000000000e+00,5.000000000000000000e+00,5.000000000000000000e+00,5.000000000000000000e+00,5.000000000000000000e+00,5.000000000000000000e+00,5.000000000000000000e+00,5.000000000000000000e+00,5.000000000000000000e+00,5.000000000000000000e+00,5.000000000000000000e+00,2.269693613052368164e+00,2.207788705825805664e+00,2.189024209976196289e+00,2.224374055862426758e+00,5.000000000000000000e+00,5.000000000000000000e+00,4.851236343383789062e+00,4.661191463470458984e+00,4.485475540161132812e+00,4.322525978088378906e+00,4.171000957489013672e+00,4.029739379882812500e+00,3.897733211517333984e+00,3.774100780487060547e+00,3.658070325851440430e+00,3.548961639404296875e+00,3.446172952651977539e+00,3.349170923233032227e+00,3.257480382919311523e+00,3.170676231384277344e+00,3.088378190994262695e+00,3.010244369506835938e+00,2.935966491699218750e+00,2.865265846252441406e+00,2.797890424728393555e+00,2.733610630035400391e+00,2.672218322753906250e+00,2.613522768020629883e+00,2.557350397109985352e+00,2.503541707992553711e+00,2.451951026916503906e+00,2.402443408966064453e+00,2.354895353317260742e+00,2.309193134307861328e+00,2.265230894088745117e+00,2.222911596298217773e+00,2.182144165039062500e+00,2.142845153808593750e+00,2.104936838150024414e+00,2.068346023559570312e+00,2.033005952835083008e+00,1.998853445053100586e+00,1.965829133987426758e+00,1.933878421783447266e+00,1.902949690818786621e+00,1.872994422912597656e+00,1.843967914581298828e+00
5.000000000000000000e+00,5.000000000000000000e+00,5.000000000000000000e+00,5.000000000000000000e+00,5.000000000000000000e+00,5.000000000000000000e+00,5.000000000000000000e+00,5.000000000000000000e+00,5.000000000000000000e+00,5.000000000000000000e+00,5.000000000000000000e+00,5.000000000000000000e+00,5.000000000000000000e+00,5.000000000000000000e+00,5.000000000000000000e+00,5.000000000000000000e+00,5.000000000000000000e+00,5.000000000000000000e+00,5.000000000000000000e+00,5.000000000000000000e+00,5.000000000000000000e+00,5.000000000000000000e+00,5.000000000000000000e+00,5.000000000000000000e+00,5.000000000000000000e+00,5.000000000000000000e+00,5.000000000000000000e+00,5.000000000000000000e+00,5.000000000000000000e+00,5.000000000000000000e+00,5.000000000000000000e+00,5.000000000000000000e+00,5.000000000000000000e+00,2.281931877136230469e+00,2.214018344879150391e+00,2.192131042480468750e+00,2.227122306823730469e+00,5.000000000000000000e+00,5.000000000000000000e+00,4.851375102996826172e+00,4.661319732666015625e+00,4.485593795776367188e+00,4.322636127471923828e+00,4.171103477478027344e+00,4.029835224151611328e+00,3.897822380065917969e+00,3.774184703826904297e+00,3.658149242401123047e+00,3.549035787582397461e+00,3.446243047714233398e+00,3.349236965179443359e+00,3.257542610168457031e+00,3.170735359191894531e+00,3.088434219360351562e+00,3.010297536849975586e+00,2.936017274856567383e+00,2.865314245223999023e+00,2.797936439514160156e+00,2.733654737472534180e+00,2.672260284423828125e+00,2.613563060760498047e+00,2.557389020919799805e+00,2.503578662872314453e+00,2.451986312866210938e+00,2.402477264404296875e+00,2.354928255081176758e+00,2.309224605560302734e+00,2.265261173248291016e+00,2.222940444946289062e+00,2.182172298431396484e+00,2.142872333526611328e+00,2.104962825775146484e+00,2.068371295928955078e+00,2.033030509948730469e+00,1.998876810073852539e+00,1.965851902961730957e+00,1.933900475502014160e+00,1.902970790863037109e+00,1.873015165328979492e+00,1.843987941741943359e+00
5.000000000000000000e+00,5.000000000000000000e+00,5.000000000000000000e+00,5.000000000000000000e+00,5.000000000000000000e+00,5.000000000000000000e+00,5.000000000000000000e+00,5.000000000000000000e+00,5.000000000000000000e+00,5.000000000000000000e+00,5.000000000000000000e+00,5.000000000000000000e+00,5.000000000000000000e+00,5.000000000000000000e+00,5.000000000000000000e+00,5.000000000000000000e+00,5.000000000000000000e+00,5.000000000000000000e+00,5.000000000000000000e+00,5.000000000000000000e+00,5.000000000000000000e+00,5.000000000000000000e+00,5.000000000000000000e+00,5.000000000000000000e+00,5.000000000000000000e+00,5.000000000000000000e+00,5.000000000000000000e+00,5.000000000000000000e+00,5.000000000000000000e+00,5.000000000000000000e+00,5.000000000000000000e+00,5.000000000000000000e+00,5.000000000000000000e+00,2.280221223831176758e+00,2.215973854064941406e+00,2.203511714935302734e+00,2.244237184524536133e+00,5.000000000000000000e+00,5.000000000000000000e+00,4.851513385772705078e+00,4.661447525024414062e+00,4.485712528228759766e+00,4.322745800018310547e+00,4.171205997467041016e+00,4.029930591583251953e+00,3.897912025451660156e+00,3.774268388748168945e+00,3.658228158950805664e+00,3.549109935760498047e+00,3.446312904357910156e+00,3.349303245544433594e+00,3.257605314254760742e+00,3.170794248580932617e+00,3.088490486145019531e+00,3.010351181030273438e+00,2.936068058013916016e+00,2.865362644195556641e+00,2.797982692718505859e+00,2.733698606491088867e+00,2.672302484512329102e+00,2.613603353500366211e+00,2.557427406311035156e+00,2.503615617752075195e+00,2.452021837234497070e+00,2.402511358261108398e+00,2.354960918426513672e+00,2.309255838394165039e+00,2.265291452407836914e+00,2.222969770431518555e+00,2.182200193405151367e+00,2.142899274826049805e+00,2.104989051818847656e+00,2.068396568298339844e+00,2.033054828643798828e+00,1.998900413513183594e+00,1.965874791145324707e+00,1.933922529220581055e+00,1.902992248535156250e+00,1.873035788536071777e+00,1.844007968902587891e+00
5.000000000000000000e+00,5.000000000000000000e+00,5.000000000000000000e+00,5.000000000000000000e+00,5.000000000000000000e+00,5.000000000000000000e+00,5.000000000000000000e+00,5.000000000000000000e+00,5.000000000000000000e+00,5.000000000000000000e+00,5.000000000000000000e+00,5.000000000000000000e+00,5.000000000000000000e+00,5.000000000000000000e+00,5.000000000000000000e+00,5.000000000000000000e+00,5.000000000000000000e+00,5.000000000000000000e+00,5.000000000000000000e+00,5.000000000000000000e+00,5.000000000000000000e+00,5.000000000000000000e+00,5.000000000000000000e+00,5.000000000000000000e+00,5.000000000000000000e+00,5.000000000000000000e+00,5.000000000000000000e+00,5.000000000000000000e+00,5.000000000000000000e+00,5.000000000000000000e+00,5.000000000000000000e+00,5.000000000000000000e+00,5.000000000000000000e+00,2.266604900360107422e+00,2.219914197921752930e+00,2.215011119842529297e+00,5.000000000000000000e+00,5.000000000000000000e+00,5.000000000000000000e+00,4.851652145385742188e+00,4.661575317382812500e+00,4.485830783843994141e+00,4.322855949401855469e+00,4.171308517456054688e+00,4.030026435852050781e+00,3.898001670837402344e+00,3.774352550506591797e+00,3.658306837081909180e+00,3.549184322357177734e+00,3.446382999420166016e+00,3.349369049072265625e+00,3.257667779922485352e+00,3.170853614807128906e+00,3.088546514511108398e+00,3.010404586791992188e+00,2.936118841171264648e+00,2.865411043167114258e+00,2.798028945922851562e+00,2.733742713928222656e+00,2.672344446182250977e+00,2.613643646240234375e+00,2.557466030120849609e+00,2.503652572631835938e+00,2.452057123184204102e+00,2.402545213699340820e+00,2.354993581771850586e+00,2.309287309646606445e+00,2.265321731567382812e+00,2.222998857498168945e+00,2.182228326797485352e+00,2.142926216125488281e+00,2.105015039443969727e+00,2.068421602249145508e+00,2.033079147338867188e+00,1.998924016952514648e+00,1.965897560119628906e+00,1.933944344520568848e+00,1.903013586997985840e+00,1.873056530952453613e+00,1.844027876853942871e+00
5.000000000000000000e+00,5.000000000000000000e+00,5.000000000000000000e+00,5.000000000000000000e+00,5.000000000000000000e+00,5.000000000000000000e+00,5.000000000000000000e+00,5.000000000000000000e+00,5.000000000000000000e+00,5.000000000000000000e+00,5.000000000000000000e+00,5.000000000000000000e+00,5.000000000000000000e+00,5.000000000000000000e+00,5.000000000000000000e+00,5.000000000000000000e+00,5.000000000000000000e+00,5.000000000000000000e+00,5.000000000000000000e+00,5.000000000000000000e+00,5.000000000000000000e+00,5.000000000000000000e+00,5.000000000000000000e+00,5.000000000000000000e+00,5.000000000000000000e+00,5.000000000000000000e+00,5.000000000000000000e+00,5.000000000000000000e+00,5.000000000000000000e+00,5.000000000000000000e+00,5.000000000000000000e+00,5.000000000000000000e+00,2.680221080780029297e+00,2.253150224685668945e+00,2.223843336105346680e+00,2.220435619354248047e+00,5.000000000000000000e+00,5.000000000000000000e+00,5.000000000000000000e+00,4.851789474487304688e+00,4.661703586578369141e+00,4.485949516296386719e+00,4.322966098785400391e+00,4.171411037445068359e+00,4.030121803283691406e+00,3.898091077804565430e+00,3.774436473846435547e+00,3.658385753631591797e+00,3.549258232116699219e+00,3.446452856063842773e+00,3.349435091018676758e+00,3.257730007171630859e+00,3.170912981033325195e+00,3.088602781295776367e+00,3.010457754135131836e+00,2.936169624328613281e+00,2.865459442138671875e+00,2.798074960708618164e+00,2.733786821365356445e+00,2.672386646270751953e+00,2.613683700561523438e+00,2.557504653930664062e+00,2.503689527511596680e+00,2.452092409133911133e+00,2.402579307556152344e+00,2.355026245117187500e+00,2.309318780899047852e+00,2.265352010726928711e+00,2.223027944564819336e+00,2.182256460189819336e+00,2.142953395843505859e+00,2.105041027069091797e+00,2.068446874618530273e+00,2.033103466033935547e+00,1.998947501182556152e+00,1.965920329093933105e+00,1.933966398239135742e+00,1.903034925460815430e+00,1.873077273368835449e+00,1.844047904014587402e+00
5.000000000000000000e+00,5.000000000000000000e+00,5.000000000000000000e+00,5.000000000000000000e+00,5.000000000000000000e+00,5.000000000000000000e+00,5.000000000000000000e+00,5.000000000000000000e+00,5.000000000000000000e+00,5.000000000000000000e+00,5.000000000000000000e+00,5.000000000000000000e+00,5.000000000000000000e+00,5.000000000000000000e+00,5.000000000000000000e+00,5.000000000000000000e+00,5.000000000000000000e+00,5.000000000000000000e+00,5.000000000000000000e+00,5.000000000000000000e+00,5.000000000000000000e+00,5.000000000000000000e+00,5.000000000000000000e+00,5.000000000000000000e+00,5.000000000000000000e+00,5.000000000000000000e+00,5.000000000000000000e+00,5.000000000000000000e+00,5.000000000000000000e+00,5.000000000000000000e+00,5.000000000000000000e+00,5.000000000000000000e+00,2.666714429855346680e+00,2.294388532638549805e+00,2.226715326309204102e+00,2.216936826705932617e+00,2.266436576843261719e+00,5.000000000000000000e+00,5.000000000000000000e+00,4.851926803588867188e+00,4.661831378936767578e+00,4.486068248748779297e+00,4.323076248168945312e+00,4.171513557434082031e+00,4.030217647552490234e+00,3.898180723190307617e+00,3.774520158767700195e+00,3.658464670181274414e+00,3.549332618713378906e+00,3.446522474288940430e+00,3.349501132965087891e+00,3.257792711257934570e+00,3.170971870422363281e+00,3.088659048080444336e+00,3.010511159896850586e+00,2.936220407485961914e+00,2.865507841110229492e+00,2.798120975494384766e+00,2.733830690383911133e+00,2.672428607940673828e+00,2.613723993301391602e+00,2.557543039321899414e+00,2.503726482391357422e+00,2.452127933502197266e+00,2.402613162994384766e+00,2.355058908462524414e+00,2.309350252151489258e+00,2.265382289886474609e+00,2.223057031631469727e+00,2.182284355163574219e+00,2.142980575561523438e+00,2.105067253112792969e+00,2.068472146987915039e+00,2.033127784729003906e+00,1.998971104621887207e+00,1.965942978858947754e+00,1.933988571166992188e+00,1.903056263923645020e+00,1.873097777366638184e+00,1.844068050384521484e+00
5.000000000000000000e+00,5.000000000000000000e+00,5.000000000000000000e+00,5.000000000000000000e+00,5.000000000000000000e+00,5.000000000000000000e+00,5.000000000000000000e+00,5.000000000000000000e+00,5.000000000000000000e+00,5.000000000000000000e+00,5.000000000000000000e+00,5.000000000000000000e+00,5.000000000000000000e+00,5.000000000000000000e+00,5.000000000000000000e+00,5.000000000000000000e+00,5.000000000000000000e+00,5.000000000000000000e+00,5.000000000000000000e+00,5.000000000000000000e+00,5.000000000000000000e+00,5.000000000000000000e+00,5.000000000000000000e+00,5.000000000000000000e+00,5.000000000000000000e+00,5.000000000000000000e+00,5.000000000000000000e+00,5.000000000000000000e+00,5.000000000000000000e+00,5.000000000000000000e+00,5.000000000000000000e+00,5.000000000000000000e+00,2.674730777740478516e+00,2.661019086837768555e+00,2.229684829711914062e+00,2.213449001312255859e+00,2.256219625473022461e+00,5.000000000000000000e+00,5.000000000000000000e+00,4.852064132690429688e+00,4.661957263946533203e+00,4.486186504364013672e+00,4.323186397552490234e+00,4.171616077423095703e+00,4.030313491821289062e+00,3.898270368576049805e+00,3.774604320526123047e+00,3.658543348312377930e+00,3.549406766891479492e+00,3.446592569351196289e+00,3.349567174911499023e+00,3.257855176925659180e+00,3.171031236648559570e+00,3.088715076446533203e+00,3.010564804077148438e+00,2.936271190643310547e+00,2.865556001663208008e+00,2.798167228698730469e+00,2.733874797821044922e+00,2.672470569610595703e+00,2.613764286041259766e+00,2.557581663131713867e+00,2.503763198852539062e+00,2.452163457870483398e+00,2.402647256851196289e+00,2.355091571807861328e+00,2.309381723403930664e+00,2.265412330627441406e+00,2.223086118698120117e+00,2.182312488555908203e+00,2.143007516860961914e+00,2.105093479156494141e+00,2.068497419357299805e+00,2.033152103424072266e+00,1.998994708061218262e+00,1.965965747833251953e+00,1.934010624885559082e+00,1.903077721595764160e+00,1.873118400573730469e+00,1.844088077545166016e+00
5.000000000000000000e+00,5.000000000000000000e+00,5.000000000000000000e+00,5.000000000000000000e+00,5.000000000000000000e+00,5.000000000000000000e+00,5.000000000000000000e+00,5.000000000000000000e+00,5.000000000000000000e+00,5.000000000000000000e+00,5.000000000000000000e+00,5.000000000000000000e+00,5.000000000000000000e+00,5.000000000000000000e+00,5.000000000000000000e+00,5.000000000000000000e+00,5.000000000000000000e+00,5.000000000000000000e+00,5.000000000000000000e+00,5.000000000000000000e+00,5.000000000000000000e+00,5.000000000000000000e+00,5.000000000000000000e+00,5.000000000000000000e+00,5.000000000000000000e+00,5.000000000000000000e+00,5.000000000000000000e+00,5.000000000000000000e+00,5.000000000000000000e+00,5.000000000000000000e+00,5.000000000000000000e+00,5.000000000000000000e+00,2.686802148818969727e+00,2.684322595596313477e+00,2.232661962509155273e+00,2.212257385253906250e+00,2.246215581893920898e+00,5.000000000000000000e+00,5.000000000000000000e+00,4.852201461791992188e+00,4.662084102630615234e+00,4.486303329467773438e+00,4.323296546936035156e+00,4.171718597412109375e+00,4.030408859252929688e+00,3.898359537124633789e+00,3.774688243865966797e+00,3.658622026443481445e+00,3.549480676651000977e+00,3.446662664413452148e+00,3.349633216857910156e+00,3.257917642593383789e+00,3.171090602874755859e+00,3.088771343231201172e+00,3.010617971420288086e+00,2.936321973800659180e+00,2.865604639053344727e+00,2.798213243484497070e+00,2.733918905258178711e+00,2.672512769699096680e+00,2.613804340362548828e+00,2.557620286941528320e+00,2.503800153732299805e+00,2.452198743820190430e+00,2.402681350708007812e+00,2.355124235153198242e+00,2.309412956237792969e+00,2.265442609786987305e+00,2.223115205764770508e+00,2.182340621948242188e+00,2.143034696578979492e+00,2.105119466781616211e+00,2.068522453308105469e+00,2.033176422119140625e+00,1.999018073081970215e+00,1.965988516807556152e+00,1.934032678604125977e+00,1.903098821640014648e+00,1.873139142990112305e+00,1.844108104705810547e+00
5.000000000000000000e+00,5.000000000000000000e+00,5.000000000000000000e+00,5.000000000000000000e+00,5.000000000000000000e+00,5.000000000000000000e+00,5.000000000000000000e+00,5.000000000000000000e+00,5.000000000000000000e+00,5.000000000000000000e+00,5.000000000000000000e+00,5.000000000000000000e+00,5.000000000000000000e+00,5.000000000000000000e+00,5.000000000000000000e+00,5.000000000000000000e+00,5.000000000000000000e+00,5.000000000000000000e+00,5.000000000000000000e+00,5.000000000000000000e+00,5.000000000000000000e+00,5.000000000000000000e+00,5.000000000000000000e+00,5.000000000000000000e+00,5.000000000000000000e+00,5.000000000000000000e+00,5.000000000000000000e+00,5.000000000000000000e+00,5.000000000000000000e+00,5.000000000000000000e+00,5.000000000000000000e+00,5.000000000000000000e+00,2.712045907974243164e+00,2.736872911453247070e+00,2.236335754394531250e+00,2.216887474060058594e+00,2.238529443740844727e+00,5.000000000000000000e+00,5.000000000000000000e+00,4.852338790893554688e+00,4.662210941314697266e+00,4.486421108245849609e+00,4.323405265808105469e+00,4.171821117401123047e+00,4.030504703521728516e+00,3.898449182510375977e+00,3.774771690368652344e+00,3.658700942993164062e+00,3.549555063247680664e+00,3.446732521057128906e+00,3.349699497222900391e+00,3.257980108261108398e+00,3.171149730682373047e+00,3.088827610015869141e+00,3.010671377182006836e+00,2.936372756958007812e+00,2.865653038024902344e+00,2.798259496688842773e+00,2.733962774276733398e+00,2.672554969787597656e+00,2.613844871520996094e+00,2.557658672332763672e+00,2.503837347030639648e+00,2.452234268188476562e+00,2.402715206146240234e+00,2.355156898498535156e+00,2.309444427490234375e+00,2.265472888946533203e+00,2.223144292831420898e+00,2.182368516921997070e+00,2.143061637878417969e+00,2.105145692825317383e+00,2.068547725677490234e+00,2.033200979232788086e+00,1.999041676521301270e+00,1.966011404991149902e+00,1.934054732322692871e+00,1.903120160102844238e+00,1.873159885406494141e+00,1.844128251075744629e+00
5.000000000000000000e+00,5.000000000000000000e+00,5.000000000000000000e+00,5.000000000000000000e+00,5.000000000000000000e+00,5.000000000000000000e+00,5.000000000000000000e+00,5.000000000000000000e+00,5.000000000000000000e+00,5.000000000000000000e+00,5.000000000000000000e+00,5.000000000000000000e+00,5.000000000000000000e+00,5.000000000000000000e+00,5.000000000000000000e+00,5.000000000000000000e+00,5.000000000000000000e+00,5.000000000000000000e+00,5.000000000000000000e+00,5.000000000000000000e+00,5.000000000000000000e+00,5.000000000000000000e+00,5.000000000000000000e+00,5.000000000000000000e+00,5.000000000000000000e+00,5.000000000000000000e+00,5.000000000000000000e+00,5.000000000000000000e+00,5.000000000000000000e+00,5.000000000000000000e+00,5.000000000000000000e+00,2.772224664688110352e+00,2.737768411636352539e+00,5.000000000000000000e+00,2.240704298019409180e+00,2.214971065521240234e+00,2.230895996093750000e+00,5.000000000000000000e+00,5.000000000000000000e+00,4.852476119995117188e+00,4.662337779998779297e+00,4.486538410186767578e+00,4.323514461517333984e+00,4.171923637390136719e+00,4.030600547790527344e+00,3.898538589477539062e+00,3.774855852127075195e+00,3.658779621124267578e+00,3.549629449844360352e+00,3.446802616119384766e+00,3.349765300750732422e+00,3.258042812347412109e+00,3.171209096908569336e+00,3.088883638381958008e+00,3.010724782943725586e+00,2.936423540115356445e+00,2.865701198577880859e+00,2.798305511474609375e+00,2.734006881713867188e+00,2.672596931457519531e+00,2.613885164260864258e+00,2.557697296142578125e+00,2.503874063491821289e+00,2.452269792556762695e+00,2.402749300003051758e+00,2.355189561843872070e+00,2.309475898742675781e+00,2.265502929687500000e+00,2.223173618316650391e+00,2.182396650314331055e+00,2.143088579177856445e+00,2.105171680450439453e+00,2.068572998046875000e+00,2.033225059509277344e+00,1.999065160751342773e+00,1.966034173965454102e+00,1.934076547622680664e+00,1.903141617774963379e+00,1.873180508613586426e+00,1.844148039817810059e+00
4.875327110290527344e+00,4.874116420745849609e+00,4.872906208038330078e+00,4.871696949005126953e+00,4.870487689971923828e+00,4.869279861450195312e+00,4.868072509765625000e+00,4.866865158081054688e+00,4.865658760070800781e+00,4.864453315734863281e+00,4.863247871398925781e+00,4.862043380737304688e+00,4.860839366912841797e+00,4.859636306762695312e+00,4.858433246612548828e+00,4.857231140136718750e+00,4.856029510498046875e+00,4.854828357696533203e+00,4.853628158569335938e+00,4.852428436279296875e+00,4.851229190826416016e+00,4.850030422210693359e+00,4.848832607269287109e+00,4.847635269165039062e+00,4.846437931060791016e+00,4.845242023468017578e+00,4.844046115875244141e+00,4.842851161956787109e+00,4.841656684875488281e+00,4.840462684631347656e+00,4.839269161224365234e+00,2.783253192901611328e+00,2.815106630325317383e+00,4.835692882537841797e+00,2.245090007781982422e+00,2.219411849975585938e+00,2.223314285278320312e+00,4.830932617187500000e+00,4.829743862152099609e+00,4.828555583953857422e+00,4.662464618682861328e+00,4.486655712127685547e+00,4.323623657226562500e+00,4.172024250030517578e+00,4.030696392059326172e+00,3.898627996444702148e+00,3.774940013885498047e+00,3.658858537673950195e+00,3.549703359603881836e+00,3.446872711181640625e+00,3.349831581115722656e+00,3.258105278015136719e+00,3.171268463134765625e+00,3.088939905166625977e+00,3.010778188705444336e+00,2.936474561691284180e+00,2.865749597549438477e+00,2.798351526260375977e+00,2.734050989151000977e+00,2.672639131546020508e+00,2.613925218582153320e+00,2.557735681533813477e+00,2.503911018371582031e+00,2.452305078506469727e+00,2.402783393859863281e+00,2.355222225189208984e+00,2.309507131576538086e+00,2.265533208847045898e+00,2.223202466964721680e+00,2.182424783706665039e+00,2.143115758895874023e+00,2.105197668075561523e+00,2.068598270416259766e+00,2.033249616622924805e+00,1.999088764190673828e+00,1.966056942939758301e+00,1.934098720550537109e+00,1.903162956237792969e+00,1.873201251029968262e+00,1.844168186187744141e+00
3.778154134750366211e+00,3.777427196502685547e+00,3.776700019836425781e+00,3.775973796844482422e+00,3.775247335433959961e+00,3.774521589279174805e+00,3.773796081542968750e+00,3.773070335388183594e+00,3.772345304489135742e+00,3.771620750427246094e+00,3.770895957946777344e+00,3.770171880722045898e+00,3.769447565078735352e+00,3.768723964691162109e+00,3.768000841140747070e+00,3.767277479171752930e+00,3.766554594039916992e+00,3.765831947326660156e+00,3.765109777450561523e+00,3.764387845993041992e+00,3.763665676116943359e+00,3.762944459915161133e+00,3.762223482131958008e+00,3.761502265930175781e+00,3.760781764984130859e+00,3.760061025619506836e+00,3.759341239929199219e+00,3.758621454238891602e+00,3.757901668548583984e+00,3.757182598114013672e+00,3.756463289260864258e+00,2.744057178497314453e+00,2.758224725723266602e+00,3.754307985305786133e+00,3.753590345382690430e+00,2.235624074935913086e+00,2.253548622131347656e+00,3.751438140869140625e+00,3.750721216201782227e+00,3.750004768371582031e+00,3.749288797378540039e+00,3.748572349548339844e+00,3.747856855392456055e+00,3.747141122817993164e+00,3.746426105499267578e+00,3.745711326599121094e+00,3.744996547698974609e+00,3.658937692642211914e+00,3.549777746200561523e+00,3.446942329406738281e+00,3.349897861480712891e+00,3.258167743682861328e+00,3.171327352523803711e+00,3.088996171951293945e+00,3.010831594467163086e+00,2.936525106430053711e+00,2.865798234939575195e+00,2.798397779464721680e+00,2.734094858169555664e+00,2.672681093215942383e+00,2.613965511322021484e+00,2.557774305343627930e+00,2.503947973251342773e+00,2.452340602874755859e+00,2.402817249298095703e+00,2.355254888534545898e+00,2.309538602828979492e+00,2.265563488006591797e+00,2.223231792449951172e+00,2.182452678680419922e+00,2.143142938613891602e+00,2.105223894119262695e+00,2.068623304367065430e+00,2.033273935317993164e+00,1.999112367630004883e+00,1.966079592704772949e+00,1.934120774269104004e+00,1.903184294700622559e+00,1.873221755027770996e+00,1.844188213348388672e+00
3.084091663360595703e+00,3.083607196807861328e+00,3.083122730255126953e+00,3.082638740539550781e+00,3.082154512405395508e+00,3.081670761108398438e+00,3.081187009811401367e+00,3.080703258514404297e+00,3.080219984054565430e+00,3.079736948013305664e+00,3.079253673553466797e+00,3.078770637512207031e+00,3.078287839889526367e+00,3.077805280685424805e+00,3.077322721481323242e+00,3.076840162277221680e+00,3.076358079910278320e+00,3.075875997543334961e+00,3.075394153594970703e+00,3.074912548065185547e+00,3.074430704116821289e+00,3.073949337005615234e+00,3.073468208312988281e+00,3.072986841201782227e+00,3.072505950927734375e+00,3.072024822235107422e+00,3.071544408798217773e+00,3.071063995361328125e+00,3.070583343505859375e+00,3.070103168487548828e+00,3.069622993469238281e+00,2.704710483551025391e+00,2.687763929367065430e+00,3.068183660507202148e+00,3.067704200744628906e+00,2.228595495223999023e+00,2.206161737442016602e+00,3.066266536712646484e+00,3.065787553787231445e+00,3.065309047698974609e+00,3.064830541610717773e+00,3.064352035522460938e+00,3.063873767852783203e+00,3.063395500183105469e+00,3.062917470932006836e+00,3.062439680099487305e+00,3.061961889266967773e+00,3.061484336853027344e+00,3.061007261276245117e+00,3.060529708862304688e+00,3.060052633285522461e+00,3.059575557708740234e+00,3.059098958969116211e+00,3.058622360229492188e+00,3.010885000228881836e+00,2.936575889587402344e+00,2.865846395492553711e+00,2.798444032669067383e+00,2.734138965606689453e+00,2.672723054885864258e+00,2.614005804061889648e+00,2.557812690734863281e+00,2.503984928131103516e+00,2.452376127243041992e+00,2.402851343154907227e+00,2.355287551879882812e+00,2.309570074081420898e+00,2.265593767166137695e+00,2.223260641098022461e+00,2.182480812072753906e+00,2.143169879913330078e+00,2.105250120162963867e+00,2.068648576736450195e+00,2.033298254013061523e+00,1.999135971069335938e+00,1.966102361679077148e+00,1.934142827987670898e+00,1.903205752372741699e+00,1.873242497444152832e+00,1.844208240509033203e+00
2.605458259582519531e+00,2.605112552642822266e+00,2.604766607284545898e+00,2.604421138763427734e+00,2.604075431823730469e+00,2.603730201721191406e+00,2.603384971618652344e+00,2.603039503097534180e+00,2.602694511413574219e+00,2.602349519729614258e+00,2.602004528045654297e+00,2.601659774780273438e+00,2.601314783096313477e+00,2.600970268249511719e+00,2.600625753402709961e+00,2.600281000137329102e+00,2.599936723709106445e+00,2.599592208862304688e+00,2.599248170852661133e+00,2.598903894424438477e+00,2.598559856414794922e+00,2.598216056823730469e+00,2.597872257232666016e+00,2.597528219223022461e+00,2.597184658050537109e+00,2.596841096878051758e+00,2.596497535705566406e+00,2.596154212951660156e+00,2.595810890197753906e+00,2.595467567443847656e+00,2.595124483108520508e+00,2.594781398773193359e+00,2.594438552856445312e+00,2.594095468521118164e+00,2.593752861022949219e+00,2.209158658981323242e+00,2.165225744247436523e+00,2.154133796691894531e+00,2.135311841964721680e+00,2.592040300369262695e+00,2.591698169708251953e+00,2.591356039047241211e+00,2.591013908386230469e+00,2.590671777725219727e+00,2.590330123901367188e+00,2.589988470077514648e+00,2.589646577835083008e+00,2.589305162429809570e+00,2.588963747024536133e+00,2.588622093200683594e+00,2.588280916213989258e+00,2.587939500808715820e+00,2.587598323822021484e+00,2.587257385253906250e+00,2.586916446685791016e+00,2.586575508117675781e+00,2.586234569549560547e+00,2.585894107818603516e+00,2.585553646087646484e+00,2.585212945938110352e+00,2.584872484207153320e+00,2.557851314544677734e+00,2.504021883010864258e+00,2.452411413192749023e+00,2.402885437011718750e+00,2.355320215225219727e+00,2.309601545333862305e+00,2.265624046325683594e+00,2.223289966583251953e+00,2.182508945465087891e+00,2.143196821212768555e+00,2.105276107788085938e+00,2.068673849105834961e+00,2.033322572708129883e+00,1.999159336090087891e+00,1.966125130653381348e+00,1.934164881706237793e+00,1.903226852416992188e+00,1.873263120651245117e+00,1.844228386878967285e+00
2.255446434020996094e+00,2.255186796188354492e+00,2.254926919937133789e+00,2.254667043685913086e+00,2.254407405853271484e+00,2.254147768020629883e+00,2.253888368606567383e+00,2.253628730773925781e+00,2.253369331359863281e+00,2.253109693527221680e+00,2.252850532531738281e+00,2.252591133117675781e+00,2.252331972122192383e+00,2.252072811126708984e+00,2.251813650131225586e+00,2.251554727554321289e+00,2.251295566558837891e+00,2.251036643981933594e+00,2.250777959823608398e+00,2.250519037246704102e+00,2.250260353088378906e+00,2.250001668930053711e+00,2.249742984771728516e+00,2.249484300613403320e+00,2.249226093292236328e+00,2.248968362808227539e+00,2.248710870742797852e+00,2.248453378677368164e+00,2.248195648193359375e+00,2.247938394546508789e+00,2.247680902481079102e+00,2.247423410415649414e+00,2.247166395187377930e+00,2.246908903121948242e+00,2.246651887893676758e+00,2.246394872665405273e+00,2.125692367553710938e+00,2.140829563140869141e+00,2.245623826980590820e+00,2.245366811752319336e+00,2.245110034942626953e+00,2.244853258132934570e+00,2.244596719741821289e+00,2.244339942932128906e+00,2.244083404541015625e+00,2.243826866149902344e+00,2.243570327758789062e+00,2.243314027786254883e+00,2.243057727813720703e+00,2.242801427841186523e+00,2.242545127868652344e+00,2.242289066314697266e+00,2.242033004760742188e+00,2.241776943206787109e+00,2.241520881652832031e+00,2.241265058517456055e+00,2.241008996963500977e+00,2.240753173828125000e+00,2.240497589111328125e+00,2.240241765975952148e+00,2.239986181259155273e+00,2.239730596542358398e+00,2.239475011825561523e+00,2.239219665527343750e+00,2.238964080810546875e+00,2.238708734512329102e+00,2.238453626632690430e+00,2.238198280334472656e+00,2.223319053649902344e+00,2.182536840438842773e+00,2.143224000930786133e+00,2.105302333831787109e+00,2.068698883056640625e+00,2.033347129821777344e+00,1.999182820320129395e+00,1.966148018836975098e+00,1.934186935424804688e+00,1.903248190879821777e+00,1.873283863067626953e+00,1.844248414039611816e+00
1.988370895385742188e+00,1.988168954849243164e+00,1.987966895103454590e+00,1.987764954566955566e+00,1.987563252449035645e+00,1.987361431121826172e+00,1.987159729003906250e+00,1.986957788467407227e+00,1.986756086349487305e+00,1.986554503440856934e+00,1.986352920532226562e+00,1.986151456832885742e+00,1.985949754714965820e+00,1.985748291015625000e+00,1.985546946525573730e+00,1.985345482826232910e+00,1.985144019126892090e+00,1.984942674636840820e+00,1.984741449356079102e+00,1.984540343284606934e+00,1.984339118003845215e+00,1.984137773513793945e+00,1.983936667442321777e+00,1.983735680580139160e+00,1.983534693717956543e+00,1.983333706855773926e+00,1.983132600784301758e+00,1.982931733131408691e+00,1.982730865478515625e+00,1.982530117034912109e+00,1.982329130172729492e+00,1.982128381729125977e+00,1.981927752494812012e+00,1.981727123260498047e+00,1.981526494026184082e+00,1.981325745582580566e+00,1.981125235557556152e+00,1.980924725532531738e+00,1.980724334716796875e+00,1.980523943901062012e+00,1.980323314666748047e+00,1.980123043060302734e+00,1.979922771453857422e+00,1.979722499847412109e+00,1.979522347450256348e+00,1.979321956634521484e+00,1.979121923446655273e+00,1.978921890258789062e+00,1.978721857070922852e+00,1.978521585464477539e+00,1.978321671485900879e+00,1.978121757507324219e+00,1.977921843528747559e+00,1.977722048759460449e+00,1.977522015571594238e+00,1.977322340011596680e+00,1.977122664451599121e+00,1.976922988891601562e+00,1.976723313331604004e+00,1.976523518562316895e+00,1.976323962211608887e+00,1.976124525070190430e+00,1.975925087928771973e+00,1.975725412368774414e+00,1.975525975227355957e+00,1.975326657295227051e+00,1.975127339363098145e+00,1.974928140640258789e+00,1.974728703498840332e+00,1.974529504776000977e+00,1.974330306053161621e+00,1.974131226539611816e+00,1.973932147026062012e+00,1.973732948303222656e+00,1.973533987998962402e+00,1.966170787811279297e+00,1.934208869934082031e+00,1.903269648551940918e+00,1.873304605484008789e+00,1.844268321990966797e+00
1.777849197387695312e+00,1.777687668800354004e+00,1.777526378631591797e+00,1.777364969253540039e+00,1.777203559875488281e+00,1.777042031288146973e+00,1.776880741119384766e+00,1.776719570159912109e+00,1.776558279991149902e+00,1.776396870613098145e+00,1.776235699653625488e+00,1.776074647903442383e+00,1.775913476943969727e+00,1.775752425193786621e+00,1.775591135025024414e+00,1.775430083274841309e+00,1.775269150733947754e+00,1.775108098983764648e+00,1.774947166442871094e+00,1.774786114692687988e+00,1.774625182151794434e+00,1.774464368820190430e+00,1.774303555488586426e+00,1.774142503738403320e+00,1.773981809616088867e+00,1.773820996284484863e+00,1.773660302162170410e+00,1.773499608039855957e+00,1.773338794708251953e+00,1.773178219795227051e+00,1.773017644882202148e+00,1.772857069969177246e+00,1.772696495056152344e+00,1.772535800933837891e+00,1.772375345230102539e+00,1.772214889526367188e+00,1.772054433822631836e+00,1.771894097328186035e+00,1.771733522415161133e+00,1.771573185920715332e+00,1.771412849426269531e+00,1.771252632141113281e+00,1.771092176437377930e+00,1.770931959152221680e+00,1.770771741867065430e+00,1.770611643791198730e+00,1.770451426506042480e+00,1.770291209220886230e+00,1.770131111145019531e+00,1.769971013069152832e+00,1.769811034202575684e+00,1.769651055335998535e+00,1.769490957260131836e+00,1.769330978393554688e+00,1.769171118736267090e+00,1.769011259078979492e+00,1.768851161003112793e+00,1.768691420555114746e+00,1.768531560897827148e+00,1.768371820449829102e+00,1.768212080001831055e+00,1.768052220344543457e+00,1.767892599105834961e+00,1.767732977867126465e+00,1.767573356628417969e+00,1.767413735389709473e+00,1.767253994941711426e+00,1.767094492912292480e+00,1.766934990882873535e+00,1.766775488853454590e+00,1.766615867614746094e+00,1.766456484794616699e+00,1.766297101974487305e+00,1.766137719154357910e+00,1.765978455543518066e+00,1.765818953514099121e+00,1.765659689903259277e+00,1.765500545501708984e+00,1.765341281890869141e+00,1.765182137489318848e+00
1.607638239860534668e+00,1.607506275177001953e+00,1.607374072074890137e+00,1.607242107391357422e+00,1.607110142707824707e+00,1.606978297233581543e+00,1.606846332550048828e+00,1.606714367866516113e+00,1.606582522392272949e+00,1.606450676918029785e+00,1.606318831443786621e+00,1.606186985969543457e+00,1.606055140495300293e+00,1.605923414230346680e+00,1.605791687965393066e+00,1.605659961700439453e+00,1.605528116226196289e+00,1.605396389961242676e+00,1.605264782905578613e+00,1.605133175849914551e+00,1.605001568794250488e+00,1.604869842529296875e+00,1.604738235473632812e+00,1.604606747627258301e+00,1.604475259780883789e+00,1.604343771934509277e+00,1.604212164878845215e+00,1.604080677032470703e+00,1.603949308395385742e+00,1.603817820549011230e+00,1.603686332702636719e+00,1.603554964065551758e+00,1.603423595428466797e+00,1.603292346000671387e+00,1.603160977363586426e+00,1.603029608726501465e+00,1.602898359298706055e+00,1.602767109870910645e+00,1.602635860443115234e+00,1.602504730224609375e+00,1.602373361587524414e+00,1.602242231369018555e+00,1.602111101150512695e+00,1.601979970932006836e+00,1.601848959922790527e+00,1.601717710494995117e+00,1.601586699485778809e+00,1.601455688476562500e+00,1.601324677467346191e+00,1.601193547248840332e+00,1.601062655448913574e+00,1.600931644439697266e+00,1.600800752639770508e+00,1.600669860839843750e+00,1.600538849830627441e+00,1.600407958030700684e+00,1.600277185440063477e+00,1.600146412849426270e+00,1.600015640258789062e+00,1.599884629249572754e+00,1.599753975868225098e+00,1.599623203277587891e+00,1.599492549896240234e+00,1.599361658096313477e+00,1.599231004714965820e+00,1.599100351333618164e+00,1.598969817161560059e+00,1.598839163780212402e+00,1.598708510398864746e+00,1.598577976226806641e+00,1.598447442054748535e+00,1.598316907882690430e+00,1.598186492919921875e+00,1.598055839538574219e+00,1.597925424575805664e+00,1.597795009613037109e+00,1.597664594650268555e+00,1.597534060478210449e+00,1.597403645515441895e+00,1.597273349761962891e+00
1.467171430587768555e+00,1.467061400413513184e+00,1.466951489448547363e+00,1.466841578483581543e+00,1.466731667518615723e+00,1.466621637344360352e+00,1.466511845588684082e+00,1.466401934623718262e+00,1.466292142868041992e+00,1.466182231903076172e+00,1.466072320938110352e+00,1.465962648391723633e+00,1.465852856636047363e+00,1.465743064880371094e+00,1.465633153915405273e+00,1.465523481369018555e+00,1.465413808822631836e+00,1.465304136276245117e+00,1.465194463729858398e+00,1.465084671974182129e+00,1.464974999427795410e+00,1.464865326881408691e+00,1.464755773544311523e+00,1.464646100997924805e+00,1.464536547660827637e+00,1.464426875114440918e+00,1.464317440986633301e+00,1.464207887649536133e+00,1.464098215103149414e+00,1.463988780975341797e+00,1.463879227638244629e+00,1.463769793510437012e+00,1.463660359382629395e+00,1.463550806045532227e+00,1.463441371917724609e+00,1.463332056999206543e+00,1.463222622871398926e+00,1.463113307952880859e+00,1.463003873825073242e+00,1.462894558906555176e+00,1.462785243988037109e+00,1.462675929069519043e+00,1.462566494941711426e+00,1.462457299232482910e+00,1.462347984313964844e+00,1.462238788604736328e+00,1.462129592895507812e+00,1.462020277976989746e+00,1.461911082267761230e+00,1.461801886558532715e+00,1.461692810058593750e+00,1.461583614349365234e+00,1.461474418640136719e+00,1.461365342140197754e+00,1.461256265640258789e+00,1.461147189140319824e+00,1.461037993431091309e+00,1.460928916931152344e+00,1.460819959640502930e+00,1.460711002349853516e+00,1.460601925849914551e+00,1.460492849349975586e+00,1.460383892059326172e+00,1.460275053977966309e+00,1.460166096687316895e+00,1.460057139396667480e+00,1.459948182106018066e+00,1.459839344024658203e+00,1.459730386734008789e+00,1.459621667861938477e+00,1.459512710571289062e+00,1.459403872489929199e+00,1.459295034408569336e+00,1.459186315536499023e+00,1.459077596664428711e+00,1.458968639373779297e+00,1.458859920501708984e+00,1.458751201629638672e+00,1.458642601966857910e+00,1.458533883094787598e+00
1.349278688430786133e+00,1.349185705184936523e+00,1.349092602729797363e+00,1.348999619483947754e+00,1.348906755447387695e+00,1.348813772201538086e+00,1.348720788955688477e+00,1.348627805709838867e+00,1.348534941673278809e+00,1.348442077636718750e+00,1.348349094390869141e+00,1.348256230354309082e+00,1.348163366317749023e+00,1.348070502281188965e+00,1.347977638244628906e+00,1.347884893417358398e+00,1.347791910171508789e+00,1.347699165344238281e+00,1.347606420516967773e+00,1.347513675689697266e+00,1.347420930862426758e+00,1.347328066825866699e+00,1.347235321998596191e+00,1.347142696380615234e+00,1.347049951553344727e+00,1.346957325935363770e+00,1.346864461898803711e+00,1.346771836280822754e+00,1.346679210662841797e+00,1.346586585044860840e+00,1.346493840217590332e+00,1.346401214599609375e+00,1.346308708190917969e+00,1.346216082572937012e+00,1.346123456954956055e+00,1.346030831336975098e+00,1.345938324928283691e+00,1.345845818519592285e+00,1.345753312110900879e+00,1.345660805702209473e+00,1.345568180084228516e+00,1.345475673675537109e+00,1.345383167266845703e+00,1.345290780067443848e+00,1.345198273658752441e+00,1.345105767250061035e+00,1.345013380050659180e+00,1.344920992851257324e+00,1.344828605651855469e+00,1.344736099243164062e+00,1.344643712043762207e+00,1.344551324844360352e+00,1.344459056854248047e+00,1.344366669654846191e+00,1.344274282455444336e+00,1.344182014465332031e+00,1.344089627265930176e+00,1.343997359275817871e+00,1.343905091285705566e+00,1.343812823295593262e+00,1.343720555305480957e+00,1.343628287315368652e+00,1.343536138534545898e+00,1.343443751335144043e+00,1.343351602554321289e+00,1.343259453773498535e+00,1.343167304992675781e+00,1.343075156211853027e+00,1.342982888221740723e+00,1.342890739440917969e+00,1.342798590660095215e+00,1.342706561088562012e+00,1.342614412307739258e+00,1.342522263526916504e+00,1.342430233955383301e+00,1.342338204383850098e+00,1.342246055603027344e+00,1.342154026031494141e+00,1.342061996459960938e+00,1.341969966888427734e+00
1.248922944068908691e+00,1.248843312263488770e+00,1.248763680458068848e+00,1.248684048652648926e+00,1.248604416847229004e+00,1.248524665832519531e+00,1.248445034027099609e+00,1.248365402221679688e+00,1.248285770416259766e+00,1.248206138610839844e+00,1.248126506805419922e+00,1.248046994209289551e+00,1.247967481613159180e+00,1.247887849807739258e+00,1.247808218002319336e+00,1.247728705406188965e+00,1.247649192810058594e+00,1.247569680213928223e+00,1.247490167617797852e+00,1.247410655021667480e+00,1.247331142425537109e+00,1.247251629829406738e+00,1.247172236442565918e+00,1.247092604637145996e+00,1.247013211250305176e+00,1.246933817863464355e+00,1.246854424476623535e+00,1.246774911880493164e+00,1.246695518493652344e+00,1.246616125106811523e+00,1.246536731719970703e+00,1.246457338333129883e+00,1.246377944946289062e+00,1.246298551559448242e+00,1.246219158172607422e+00,1.246139883995056152e+00,1.246060609817504883e+00,1.245981216430664062e+00,1.245901823043823242e+00,1.245822548866271973e+00,1.245743274688720703e+00,1.245664000511169434e+00,1.245584726333618164e+00,1.245505452156066895e+00,1.245426177978515625e+00,1.245347023010253906e+00,1.245267748832702637e+00,1.245188474655151367e+00,1.245109200477600098e+00,1.245030045509338379e+00,1.244950890541076660e+00,1.244871735572814941e+00,1.244792461395263672e+00,1.244713306427001953e+00,1.244634151458740234e+00,1.244555115699768066e+00,1.244475841522216797e+00,1.244396805763244629e+00,1.244317650794982910e+00,1.244238615036010742e+00,1.244159460067749023e+00,1.244080305099487305e+00,1.244001269340515137e+00,1.243922233581542969e+00,1.243843197822570801e+00,1.243764162063598633e+00,1.243685126304626465e+00,1.243606090545654297e+00,1.243527054786682129e+00,1.243448138236999512e+00,1.243368983268737793e+00,1.243290066719055176e+00,1.243211150169372559e+00,1.243132114410400391e+00,1.243053197860717773e+00,1.242974281311035156e+00,1.242895364761352539e+00,1.242816448211669922e+00,1.242737531661987305e+00,1.242658615112304688e+00
1.162462353706359863e+00,1.162393331527709961e+00,1.162324190139770508e+00,1.162255167961120605e+00,1.162186145782470703e+00,1.162117242813110352e+00,1.162048220634460449e+00,1.161979198455810547e+00,1.161910176277160645e+00,1.161841273307800293e+00,1.161772251129150391e+00,1.161703348159790039e+00,1.161634325981140137e+00,1.161565423011779785e+00,1.161496520042419434e+00,1.161427617073059082e+00,1.161358594894409180e+00,1.161289691925048828e+00,1.161220788955688477e+00,1.161152005195617676e+00,1.161083102226257324e+00,1.161014199256896973e+00,1.160945296287536621e+00,1.160876393318176270e+00,1.160807609558105469e+00,1.160738825798034668e+00,1.160669922828674316e+00,1.160601019859313965e+00,1.160532236099243164e+00,1.160463452339172363e+00,1.160394668579101562e+00,1.160325884819030762e+00,1.160257101058959961e+00,1.160188317298889160e+00,1.160119533538818359e+00,1.160050749778747559e+00,1.159981966018676758e+00,1.159913301467895508e+00,1.159844517707824707e+00,1.159775853157043457e+00,1.159707069396972656e+00,1.159638285636901855e+00,1.159569621086120605e+00,1.159500956535339355e+00,1.159432291984558105e+00,1.159363508224487305e+00,1.159294843673706055e+00,1.159226179122924805e+00,1.159157633781433105e+00,1.159088850021362305e+00,1.159020304679870605e+00,1.158951640129089355e+00,1.158882975578308105e+00,1.158814430236816406e+00,1.158745765686035156e+00,1.158677220344543457e+00,1.158608555793762207e+00,1.158540010452270508e+00,1.158471465110778809e+00,1.158402800559997559e+00,1.158334374427795410e+00,1.158265829086303711e+00,1.158197283744812012e+00,1.158128619194030762e+00,1.158060193061828613e+00,1.157991647720336914e+00,1.157923221588134766e+00,1.157854676246643066e+00,1.157786130905151367e+00,1.157717704772949219e+00,1.157649159431457520e+00,1.157580733299255371e+00,1.157512307167053223e+00,1.157443761825561523e+00,1.157375335693359375e+00,1.157306909561157227e+00,1.157238483428955078e+00,1.157170057296752930e+00,1.157101631164550781e+00,1.157033324241638184e+00
1.087197422981262207e+00,1.087137103080749512e+00,1.087076783180236816e+00,1.087016344070434570e+00,1.086956024169921875e+00,1.086895585060119629e+00,1.086835265159606934e+00,1.086774945259094238e+00,1.086714625358581543e+00,1.086654186248779297e+00,1.086593866348266602e+00,1.086533546447753906e+00,1.086473226547241211e+00,1.086413025856018066e+00,1.086352586746215820e+00,1.086292386054992676e+00,1.086232066154479980e+00,1.086171865463256836e+00,1.086111545562744141e+00,1.086051225662231445e+00,1.085991024971008301e+00,1.085930705070495605e+00,1.085870504379272461e+00,1.085810184478759766e+00,1.085749983787536621e+00,1.085689783096313477e+00,1.085629582405090332e+00,1.085569381713867188e+00,1.085509061813354492e+00,1.085448980331420898e+00,1.085388779640197754e+00,1.085328578948974609e+00,1.085268378257751465e+00,1.085208177566528320e+00,1.085147976875305176e+00,1.085087895393371582e+00,1.085027694702148438e+00,1.084967613220214844e+00,1.084907412528991699e+00,1.084847331047058105e+00,1.084787130355834961e+00,1.084727048873901367e+00,1.084666848182678223e+00,1.084606766700744629e+00,1.084546685218811035e+00,1.084486603736877441e+00,1.084426522254943848e+00,1.084366440773010254e+00,1.084306359291076660e+00,1.084246277809143066e+00,1.084186196327209473e+00,1.084126234054565430e+00,1.084066152572631836e+00,1.084006071090698242e+00,1.083946108818054199e+00,1.083886027336120605e+00,1.083825945854187012e+00,1.083765983581542969e+00,1.083706021308898926e+00,1.083645939826965332e+00,1.083585977554321289e+00,1.083526015281677246e+00,1.083466053009033203e+00,1.083406090736389160e+00,1.083346128463745117e+00,1.083286166191101074e+00,1.083226084709167480e+00,1.083166241645812988e+00,1.083106279373168945e+00,1.083046317100524902e+00,1.082986354827880859e+00,1.082926511764526367e+00,1.082866549491882324e+00,1.082806706428527832e+00,1.082746744155883789e+00,1.082686781883239746e+00,1.082626938819885254e+00,1.082567095756530762e+00,1.082507252693176270e+00,1.082447409629821777e+00
1.021086215972900391e+00,1.021033048629760742e+00,1.020979642868041992e+00,1.020926475524902344e+00,1.020873188972473145e+00,1.020820021629333496e+00,1.020766735076904297e+00,1.020713448524475098e+00,1.020660281181335449e+00,1.020606994628906250e+00,1.020553827285766602e+00,1.020500659942626953e+00,1.020447373390197754e+00,1.020394206047058105e+00,1.020341038703918457e+00,1.020287871360778809e+00,1.020234584808349609e+00,1.020181417465209961e+00,1.020128250122070312e+00,1.020075082778930664e+00,1.020021915435791016e+00,1.019968748092651367e+00,1.019915580749511719e+00,1.019862532615661621e+00,1.019809365272521973e+00,1.019756197929382324e+00,1.019703030586242676e+00,1.019649982452392578e+00,1.019596815109252930e+00,1.019543766975402832e+00,1.019490599632263184e+00,1.019437551498413086e+00,1.019384384155273438e+00,1.019331336021423340e+00,1.019278287887573242e+00,1.019225120544433594e+00,1.019172072410583496e+00,1.019119024276733398e+00,1.019065976142883301e+00,1.019012928009033203e+00,1.018959879875183105e+00,1.018906831741333008e+00,1.018853783607482910e+00,1.018800735473632812e+00,1.018747687339782715e+00,1.018694639205932617e+00,1.018641591072082520e+00,1.018588662147521973e+00,1.018535614013671875e+00,1.018482565879821777e+00,1.018429636955261230e+00,1.018376588821411133e+00,1.018323659896850586e+00,1.018270730972290039e+00,1.018217682838439941e+00,1.018164753913879395e+00,1.018111705780029297e+00,1.018058776855468750e+00,1.018005847930908203e+00,1.017952919006347656e+00,1.017899990081787109e+00,1.017847061157226562e+00,1.017794132232666016e+00,1.017741084098815918e+00,1.017688274383544922e+00,1.017635345458984375e+00,1.017582416534423828e+00,1.017529487609863281e+00,1.017476558685302734e+00,1.017423748970031738e+00,1.017370820045471191e+00,1.017318010330200195e+00,1.017265081405639648e+00,1.017212152481079102e+00,1.017159342765808105e+00,1.017106533050537109e+00,1.017053604125976562e+00,1.017000794410705566e+00,1.016947984695434570e+00,1.016895055770874023e+00
9.625544548034667969e-01,9.625070691108703613e-01,9.624598026275634766e-01,9.624124169349670410e-01,9.623651504516601562e-01,9.623178243637084961e-01,9.622704386711120605e-01,9.622232317924499512e-01,9.621758460998535156e-01,9.621285200119018555e-01,9.620813131332397461e-01,9.620339870452880859e-01,9.619867205619812012e-01,9.619393944740295410e-01,9.618921279907226562e-01,9.618449211120605469e-01,9.617975950241088867e-01,9.617503881454467773e-01,9.617031216621398926e-01,9.616557955741882324e-01,9.616085886955261230e-01,9.615613222122192383e-01,9.615141749382019043e-01,9.614669084548950195e-01,9.614195823669433594e-01,9.613724350929260254e-01,9.613251686096191406e-01,9.612780213356018066e-01,9.612307548522949219e-01,9.611835479736328125e-01,9.611364006996154785e-01,9.610891342163085938e-01,9.610420465469360352e-01,9.609947800636291504e-01,9.609475731849670410e-01,9.609004855155944824e-01,9.608532190322875977e-01,9.608061313629150391e-01,9.607589244842529297e-01,9.607117176055908203e-01,9.606646299362182617e-01,9.606174230575561523e-01,9.605702757835388184e-01,9.605231881141662598e-01,9.604759812355041504e-01,9.604289531707763672e-01,9.603817462921142578e-01,9.603345990180969238e-01,9.602875709533691406e-01,9.602403640747070312e-01,9.601933360099792480e-01,9.601461887359619141e-01,9.600990414619445801e-01,9.600520133972167969e-01,9.600048661231994629e-01,9.599578976631164551e-01,9.599107503890991211e-01,9.598636031150817871e-01,9.598166346549987793e-01,9.597694873809814453e-01,9.597225189208984375e-01,9.596754312515258789e-01,9.596282839775085449e-01,9.595813155174255371e-01,9.595342278480529785e-01,9.594872593879699707e-01,9.594401717185974121e-01,9.593930840492248535e-01,9.593461751937866211e-01,9.592990875244140625e-01,9.592519998550415039e-01,9.592050909996032715e-01,9.591580033302307129e-01,9.591110944747924805e-01,9.590640664100646973e-01,9.590170383453369141e-01,9.589700698852539062e-01,9.589230418205261230e-01,9.588761329650878906e-01,9.588291049003601074e-01
9.103692173957824707e-01,9.103268980979919434e-01,9.102845191955566406e-01,9.102421998977661133e-01,9.101998805999755859e-01,9.101575613021850586e-01,9.101153016090393066e-01,9.100729227066040039e-01,9.100305438041687012e-01,9.099882841110229492e-01,9.099459648132324219e-01,9.099037051200866699e-01,9.098613858222961426e-01,9.098190665245056152e-01,9.097768068313598633e-01,9.097344875335693359e-01,9.096921682357788086e-01,9.096499681472778320e-01,9.096076488494873047e-01,9.095653891563415527e-01,9.095231294631958008e-01,9.094808101654052734e-01,9.094386100769042969e-01,9.093962907791137695e-01,9.093540906906127930e-01,9.093118309974670410e-01,9.092695116996765137e-01,9.092273712158203125e-01,9.091851115226745605e-01,9.091429114341735840e-01,9.091006517410278320e-01,9.090583920478820801e-01,9.090161919593811035e-01,9.089739322662353516e-01,9.089317917823791504e-01,9.088895320892333984e-01,9.088473320007324219e-01,9.088051915168762207e-01,9.087629318237304688e-01,9.087207913398742676e-01,9.086785912513732910e-01,9.086363315582275391e-01,9.085942506790161133e-01,9.085519909858703613e-01,9.085099101066589355e-01,9.084677100181579590e-01,9.084255099296569824e-01,9.083833694458007812e-01,9.083411693572998047e-01,9.082989692687988281e-01,9.082568883895874023e-01,9.082146883010864258e-01,9.081726074218750000e-01,9.081304669380187988e-01,9.080882668495178223e-01,9.080461859703063965e-01,9.080040454864501953e-01,9.079619646072387695e-01,9.079198241233825684e-01,9.078776836395263672e-01,9.078356027603149414e-01,9.077934622764587402e-01,9.077514410018920898e-01,9.077093005180358887e-01,9.076671600341796875e-01,9.076251387596130371e-01,9.075829982757568359e-01,9.075409770011901855e-01,9.074988365173339844e-01,9.074567556381225586e-01,9.074147343635559082e-01,9.073725938796997070e-01,9.073306322097778320e-01,9.072884917259216309e-01,9.072464108467102051e-01,9.072044491767883301e-01,9.071623086929321289e-01,9.071202278137207031e-01,9.070782661437988281e-01,9.070361852645874023e-01
8.635514378547668457e-01,8.635134100914001465e-01,8.634752631187438965e-01,8.634372353553771973e-01,8.633991479873657227e-01,8.633610010147094727e-01,8.633229732513427734e-01,8.632848262786865234e-01,8.632468581199645996e-01,8.632087111473083496e-01,8.631706237792968750e-01,8.631325960159301758e-01,8.630945086479187012e-01,8.630564808845520020e-01,8.630183935165405273e-01,8.629803061485290527e-01,8.629423379898071289e-01,8.629042506217956543e-01,8.628662824630737305e-01,8.628281950950622559e-01,8.627901077270507812e-01,8.627521395683288574e-01,8.627140522003173828e-01,8.626760244369506836e-01,8.626380562782287598e-01,8.625999689102172852e-01,8.625620007514953613e-01,8.625239729881286621e-01,8.624859452247619629e-01,8.624479770660400391e-01,8.624099493026733398e-01,8.623719811439514160e-01,8.623339533805847168e-01,8.622959256172180176e-01,8.622580170631408691e-01,8.622199892997741699e-01,8.621820211410522461e-01,8.621440529823303223e-01,8.621060252189636230e-01,8.620681166648864746e-01,8.620300889015197754e-01,8.619921803474426270e-01,8.619542121887207031e-01,8.619161844253540039e-01,8.618782758712768555e-01,8.618403077125549316e-01,8.618023991584777832e-01,8.617644309997558594e-01,8.617264628410339355e-01,8.616885542869567871e-01,8.616505861282348633e-01,8.616127371788024902e-01,8.615747690200805664e-01,8.615368008613586426e-01,8.614988923072814941e-01,8.614609837532043457e-01,8.614230155944824219e-01,8.613851666450500488e-01,8.613471984863281250e-01,8.613093495368957520e-01,8.612714409828186035e-01,8.612334728240966797e-01,8.611956238746643066e-01,8.611577153205871582e-01,8.611198663711547852e-01,8.610819578170776367e-01,8.610440492630004883e-01,8.610062003135681152e-01,8.609682917594909668e-01,8.609305024147033691e-01,8.608925938606262207e-01,8.608546853065490723e-01,8.608168959617614746e-01,8.607789874076843262e-01,8.607411980628967285e-01,8.607032895088195801e-01,8.606653809547424316e-01,8.606275916099548340e-01,8.605897426605224609e-01,8.605519533157348633e-01
8.213136792182922363e-01,8.212791681289672852e-01,8.212446570396423340e-01,8.212102651596069336e-01,8.211758136749267578e-01,8.211413621902465820e-01,8.211069107055664062e-01,8.210723996162414551e-01,8.210380077362060547e-01,8.210035562515258789e-01,8.209691643714904785e-01,8.209347128868103027e-01,8.209002614021301270e-01,8.208658695220947266e-01,8.208314180374145508e-01,8.207970261573791504e-01,8.207625746726989746e-01,8.207281231880187988e-01,8.206937909126281738e-01,8.206593394279479980e-01,8.206249475479125977e-01,8.205904960632324219e-01,8.205561041831970215e-01,8.205217123031616211e-01,8.204873204231262207e-01,8.204529881477355957e-01,8.204185366630554199e-01,8.203841447830200195e-01,8.203498125076293945e-01,8.203153610229492188e-01,8.202809691429138184e-01,8.202466368675231934e-01,8.202122449874877930e-01,8.201779127120971680e-01,8.201435208320617676e-01,8.201091289520263672e-01,8.200747966766357422e-01,8.200404047966003418e-01,8.200060725212097168e-01,8.199716806411743164e-01,8.199373483657836914e-01,8.199030160903930664e-01,8.198686242103576660e-01,8.198343515396118164e-01,8.197999596595764160e-01,8.197656273841857910e-01,8.197312951087951660e-01,8.196969628334045410e-01,8.196626901626586914e-01,8.196282982826232910e-01,8.195939660072326660e-01,8.195596933364868164e-01,8.195253610610961914e-01,8.194910883903503418e-01,8.194567561149597168e-01,8.194224238395690918e-01,8.193881511688232422e-01,8.193538188934326172e-01,8.193195462226867676e-01,8.192852139472961426e-01,8.192508816719055176e-01,8.192166686058044434e-01,8.191823363304138184e-01,8.191480040550231934e-01,8.191137909889221191e-01,8.190794587135314941e-01,8.190452456474304199e-01,8.190109133720397949e-01,8.189766407012939453e-01,8.189424276351928711e-01,8.189080953598022461e-01,8.188738822937011719e-01,8.188396096229553223e-01,8.188053369522094727e-01,8.187711238861083984e-01,8.187368512153625488e-01,8.187026381492614746e-01,8.186683654785156250e-01,8.186340928077697754e-01,8.185998797416687012e-01
7.830150127410888672e-01,7.829836606979370117e-01,7.829523682594299316e-01,7.829210162162780762e-01,7.828897833824157715e-01,7.828584313392639160e-01,7.828270792961120605e-01,7.827957868576049805e-01,7.827644944190979004e-01,7.827331423759460449e-01,7.827018499374389648e-01,7.826705574989318848e-01,7.826392650604248047e-01,7.826079726219177246e-01,7.825766205787658691e-01,7.825453877449035645e-01,7.825140953063964844e-01,7.824828624725341797e-01,7.824515104293823242e-01,7.824202179908752441e-01,7.823889851570129395e-01,7.823576927185058594e-01,7.823264598846435547e-01,7.822951674461364746e-01,7.822638750076293945e-01,7.822326421737670898e-01,7.822013497352600098e-01,7.821701169013977051e-01,7.821388244628906250e-01,7.821075320243835449e-01,7.820763587951660156e-01,7.820450663566589355e-01,7.820138931274414062e-01,7.819826006889343262e-01,7.819513082504272461e-01,7.819201350212097168e-01,7.818888425827026367e-01,7.818576693534851074e-01,7.818263769149780273e-01,7.817951440811157227e-01,7.817639708518981934e-01,7.817327380180358887e-01,7.817014455795288086e-01,7.816702723503112793e-01,7.816390395164489746e-01,7.816078662872314453e-01,7.815766334533691406e-01,7.815454006195068359e-01,7.815142273902893066e-01,7.814829945564270020e-01,7.814518213272094727e-01,7.814205884933471680e-01,7.813893556594848633e-01,7.813582420349121094e-01,7.813270092010498047e-01,7.812958359718322754e-01,7.812646627426147461e-01,7.812334299087524414e-01,7.812022566795349121e-01,7.811710834503173828e-01,7.811399102210998535e-01,7.811087369918823242e-01,7.810775041580200195e-01,7.810463905334472656e-01,7.810152173042297363e-01,7.809841036796569824e-01,7.809528708457946777e-01,7.809216976165771484e-01,7.808905839920043945e-01,7.808594107627868652e-01,7.808282375335693359e-01,7.807971239089965820e-01,7.807659506797790527e-01,7.807348370552062988e-01,7.807036638259887695e-01,7.806724905967712402e-01,7.806413769721984863e-01,7.806102633476257324e-01,7.805791497230529785e-01,7.805479764938354492e-01
7.481290102005004883e-01,7.481004595756530762e-01,7.480718493461608887e-01,7.480431795120239258e-01,7.480146288871765137e-01,7.479860186576843262e-01,7.479575276374816895e-01,7.479289174079895020e-01,7.479003071784973145e-01,7.478717565536499023e-01,7.478431463241577148e-01,7.478145956993103027e-01,7.477859854698181152e-01,7.477574348449707031e-01,7.477288842201232910e-01,7.477002739906311035e-01,7.476717233657836914e-01,7.476431727409362793e-01,7.476146221160888672e-01,7.475860714912414551e-01,7.475575208663940430e-01,7.475289106369018555e-01,7.475004196166992188e-01,7.474718093872070312e-01,7.474433183670043945e-01,7.474147677421569824e-01,7.473862171173095703e-01,7.473577260971069336e-01,7.473291158676147461e-01,7.473006248474121094e-01,7.472720742225646973e-01,7.472435235977172852e-01,7.472150325775146484e-01,7.471864819526672363e-01,7.471579909324645996e-01,7.471294403076171875e-01,7.471008896827697754e-01,7.470723986625671387e-01,7.470439076423645020e-01,7.470154166221618652e-01,7.469868659973144531e-01,7.469583153724670410e-01,7.469298839569091797e-01,7.469013333320617676e-01,7.468729019165039062e-01,7.468443512916564941e-01,7.468158006668090820e-01,7.467873692512512207e-01,7.467588782310485840e-01,7.467303276062011719e-01,7.467018961906433105e-01,7.466733455657958984e-01,7.466449141502380371e-01,7.466164231300354004e-01,7.465879321098327637e-01,7.465595006942749023e-01,7.465309500694274902e-01,7.465025186538696289e-01,7.464740276336669922e-01,7.464455366134643555e-01,7.464171051979064941e-01,7.463886141777038574e-01,7.463601827621459961e-01,7.463316917419433594e-01,7.463032007217407227e-01,7.462748289108276367e-01,7.462463378906250000e-01,7.462179064750671387e-01,7.461894154548645020e-01,7.461609840393066406e-01,7.461325526237487793e-01,7.461041212081909180e-01,7.460756897926330566e-01,7.460471987724304199e-01,7.460187673568725586e-01,7.459903955459594727e-01,7.459619045257568359e-01,7.459334731101989746e-01,7.459050416946411133e-01,7.458766102790832520e-01
7.162189483642578125e-01,7.161927819252014160e-01,7.161665558815002441e-01,7.161403894424438477e-01,7.161141633987426758e-01,7.160879373550415039e-01,7.160617709159851074e-01,7.160355448722839355e-01,7.160094380378723145e-01,7.159832119941711426e-01,7.159569859504699707e-01,7.159308195114135742e-01,7.159045934677124023e-01,7.158784866333007812e-01,7.158522605895996094e-01,7.158260345458984375e-01,7.157999277114868164e-01,7.157737016677856445e-01,7.157475948333740234e-01,7.157213687896728516e-01,7.156952023506164551e-01,7.156690359115600586e-01,7.156428694725036621e-01,7.156166434288024902e-01,7.155905365943908691e-01,7.155643701553344727e-01,7.155382037162780762e-01,7.155120372772216797e-01,7.154858708381652832e-01,7.154597640037536621e-01,7.154335379600524902e-01,7.154074311256408691e-01,7.153812646865844727e-01,7.153550982475280762e-01,7.153289914131164551e-01,7.153028249740600586e-01,7.152767181396484375e-01,7.152505517005920410e-01,7.152243852615356445e-01,7.151982784271240234e-01,7.151721715927124023e-01,7.151460647583007812e-01,7.151198983192443848e-01,7.150937318801879883e-01,7.150676846504211426e-01,7.150415182113647461e-01,7.150154113769531250e-01,7.149893045425415039e-01,7.149631381034851074e-01,7.149370312690734863e-01,7.149109244346618652e-01,7.148848176002502441e-01,7.148587107658386230e-01,7.148326039314270020e-01,7.148064970970153809e-01,7.147803902626037598e-01,7.147542238235473633e-01,7.147281765937805176e-01,7.147020697593688965e-01,7.146760225296020508e-01,7.146498560905456543e-01,7.146237492561340332e-01,7.145977020263671875e-01,7.145715951919555664e-01,7.145455479621887207e-01,7.145194411277770996e-01,7.144933342933654785e-01,7.144672870635986328e-01,7.144411802291870117e-01,7.144151329994201660e-01,7.143890261650085449e-01,7.143629193305969238e-01,7.143368721008300781e-01,7.143108248710632324e-01,7.142847776412963867e-01,7.142586708068847656e-01,7.142325639724731445e-01,7.142065763473510742e-01,7.141804695129394531e-01,7.141544818878173828e-01
