5.000000000000000000e+00,5.000000000000000000e+00,5.000000000000000000e+00,5.000000000000000000e+00,5.000000000000000000e+00,5.000000000000000000e+00,5.000000000000000000e+00,5.000000000000000000e+00,5.000000000000000000e+00,5.000000000000000000e+00,5.000000000000000000e+00,5.000000000000000000e+00,5.000000000000000000e+00,5.000000000000000000e+00,5.000000000000000000e+00,5.000000000000000000e+00,5.000000000000000000e+00,5.000000000000000000e+00,5.000000000000000000e+00,5.000000000000000000e+00,5.000000000000000000e+00,5.000000000000000000e+00,5.000000000000000000e+00,5.000000000000000000e+00,5.000000000000000000e+00,5.000000000000000000e+00,5.000000000000000000e+00,5.000000000000000000e+00,5.000000000000000000e+00,5.000000000000000000e+00,5.000000000000000000e+00,5.000000000000000000e+00,5.000000000000000000e+00,5.000000000000000000e+00,5.000000000000000000e+00,1.750316858291625977e+00,1.724859237670898438e+00,1.721905708312988281e+00,1.743798971176147461e+00,1.758262634277343750e+00,1.732977747917175293e+00,1.724207758903503418e+00,1.725331783294677734e+00,1.737768888473510742e+00,1.750791072845458984e+00,1.773488044738769531e+00,1.820698738098144531e+00,1.986200451850891113e+00,3.547571659088134766e+00,3.444863319396972656e+00,3.347934722900390625e+00,3.256311655044555664e+00,3.169569730758666992e+00,3.087329387664794922e+00,3.009248733520507812e+00,2.935020208358764648e+00,2.864365339279174805e+00,2.797032117843627930e+00,2.732792139053344727e+00,2.671436548233032227e+00,2.612775564193725586e+00,2.556635379791259766e+00,2.502856969833374023e+00,2.451294422149658203e+00,2.401813745498657227e+00,2.354290962219238281e+00,2.308612108230590820e+00,2.264672517776489258e+00,2.222373962402343750e+00,2.181626558303833008e+00,2.142346382141113281e+00,2.104455709457397461e+00,2.067882061004638672e+00,2.032558202743530273e+00,1.998420476913452148e+00,1.965410828590393066e+00,1.933473825454711914e+00,1.902558088302612305e+00,1.872615575790405273e+00,1.843600869178771973e+00
5.000000000000000000e+00,5.000000000000000000e+00,5.000000000000000000e+00,5.000000000000000000e+00,5.000000000000000000e+00,5.000000000000000000e+00,5.000000000000000000e+00,5.000000000000000000e+00,5.000000000000000000e+00,5.000000000000000000e+00,5.000000000000000000e+00,5.000000000000000000e+00,5.000000000000000000e+00,5.000000000000000000e+00,5.000000000000000000e+00,5.000000000000000000e+00,5.000000000000000000e+00,5.000000000000000000e+00,5.000000000000000000e+00,5.000000000000000000e+00,5.000000000000000000e+00,5.000000000000000000e+00,5.000000000000000000e+00,5.000000000000000000e+00,5.000000000000000000e+00,5.000000000000000000e+00,5.000000000000000000e+00,5.000000000000000000e+00,5.000000000000000000e+00,5.000000000000000000e+00,5.000000000000000000e+00,5.000000000000000000e+00,5.000000000000000000e+00,5.000000000000000000e+00,5.000000000000000000e+00,1.757631063461303711e+00,1.725809574127197266e+00,1.727741599082946777e+00,1.753626108169555664e+00,1.747206568717956543e+00,1.726531624794006348e+00,1.717739343643188477e+00,1.718912959098815918e+00,1.727841973304748535e+00,1.751971602439880371e+00,1.762653350830078125e+00,1.808499455451965332e+00,3.656671047210693359e+00,3.547645568847656250e+00,3.444932937622070312e+00,3.348000526428222656e+00,3.256373882293701172e+00,3.169628858566284180e+00,3.087385177612304688e+00,3.009301900863647461e+00,2.935070753097534180e+00,2.864413499832153320e+00,2.797078132629394531e+00,2.732835769653320312e+00,2.671478271484375000e+00,2.612815618515014648e+00,2.556673765182495117e+00,2.502893686294555664e+00,2.451329708099365234e+00,2.401847600936889648e+00,2.354323387145996094e+00,2.308643579483032227e+00,2.264702558517456055e+00,2.222402811050415039e+00,2.181654453277587891e+00,2.142373323440551758e+00,2.104481935501098633e+00,2.067907094955444336e+00,2.032582283020019531e+00,1.998443841934204102e+00,1.965433359146118164e+00,1.933495640754699707e+00,1.902579307556152344e+00,1.872635960578918457e+00,1.843620657920837402e+00
5.000000000000000000e+00,5.000000000000000000e+00,5.000000000000000000e+00,5.000000000000000000e+00,5.000000000000000000e+00,5.000000000000000000e+00,5.000000000000000000e+00,5.000000000000000000e+00,5.000000000000000000e+00,5.000000000000000000e+00,5.000000000000000000e+00,5.000000000000000000e+00,5.000000000000000000e+00,5.000000000000000000e+00,5.000000000000000000e+00,5.000000000000000000e+00,5.000000000000000000e+00,5.000000000000000000e+00,5.000000000000000000e+00,5.000000000000000000e+00,5.000000000000000000e+00,5.000000000000000000e+00,5.000000000000000000e+00,5.000000000000000000e+00,5.000000000000000000e+00,5.000000000000000000e+00,5.000000000000000000e+00,5.000000000000000000e+00,5.000000000000000000e+00,5.000000000000000000e+00,5.000000000000000000e+00,5.000000000000000000e+00,5.000000000000000000e+00,5.000000000000000000e+00,5.000000000000000000e+00,1.762903928756713867e+00,1.713723301887512207e+00,1.709515690803527832e+00,1.762267351150512695e+00,1.744627237319946289e+00,1.722362875938415527e+00,1.713561654090881348e+00,1.715077757835388184e+00,1.725454568862915039e+00,1.743489623069763184e+00,1.758181214332580566e+00,1.790096282958984375e+00,3.656749486923217773e+00,3.547719240188598633e+00,3.445002555847167969e+00,3.348066329956054688e+00,3.256436109542846680e+00,3.169687747955322266e+00,3.087441205978393555e+00,3.009355068206787109e+00,2.935121297836303711e+00,2.864461421966552734e+00,2.797123908996582031e+00,2.732879638671875000e+00,2.671520233154296875e+00,2.612855672836303711e+00,2.556712150573730469e+00,2.502930641174316406e+00,2.451364994049072266e+00,2.401881456375122070e+00,2.354356050491333008e+00,2.308674812316894531e+00,2.264732599258422852e+00,2.222431898117065430e+00,2.181682348251342773e+00,2.142400264739990234e+00,2.104507923126220703e+00,2.067932128906250000e+00,2.032606601715087891e+00,1.998467445373535156e+00,1.965456128120422363e+00,1.933517694473266602e+00,1.902600646018981934e+00,1.872656702995300293e+00,1.843640804290771484e+00
5.000000000000000000e+00,5.000000000000000000e+00,5.000000000000000000e+00,5.000000000000000000e+00,5.000000000000000000e+00,5.000000000000000000e+00,5.000000000000000000e+00,5.000000000000000000e+00,5.000000000000000000e+00,5.000000000000000000e+00,5.000000000000000000e+00,5.000000000000000000e+00,5.000000000000000000e+00,5.000000000000000000e+00,5.000000000000000000e+00,5.000000000000000000e+00,5.000000000000000000e+00,5.000000000000000000e+00,5.000000000000000000e+00,5.000000000000000000e+00,5.000000000000000000e+00,5.000000000000000000e+00,5.000000000000000000e+00,5.000000000000000000e+00,5.000000000000000000e+00,5.000000000000000000e+00,5.000000000000000000e+00,5.000000000000000000e+00,5.000000000000000000e+00,5.000000000000000000e+00,5.000000000000000000e+00,5.000000000000000000e+00,5.000000000000000000e+00,5.000000000000000000e+00,5.000000000000000000e+00,5.000000000000000000e+00,1.689086914062500000e+00,1.672523140907287598e+00,1.694855809211730957e+00,1.740920066833496094e+00,1.733309149742126465e+00,1.727602601051330566e+00,1.727496504783630371e+00,1.735289812088012695e+00,1.746159315109252930e+00,1.755205273628234863e+00,1.779013395309448242e+00,3.656827926635742188e+00,3.547793149948120117e+00,3.445072174072265625e+00,3.348132133483886719e+00,3.256498575210571289e+00,3.169746637344360352e+00,3.087497234344482422e+00,3.009407997131347656e+00,2.935171604156494141e+00,2.864509582519531250e+00,2.797169685363769531e+00,2.732923507690429688e+00,2.671562194824218750e+00,2.612895727157592773e+00,2.556750535964965820e+00,2.502967357635498047e+00,2.451400279998779297e+00,2.401915311813354492e+00,2.354388475418090820e+00,2.308706045150756836e+00,2.264762878417968750e+00,2.222460985183715820e+00,2.181710481643676758e+00,2.142427206039428711e+00,2.104533672332763672e+00,2.067957401275634766e+00,2.032630681991577148e+00,1.998490691184997559e+00,1.965478777885437012e+00,1.933539509773254395e+00,1.902621746063232422e+00,1.872677206993103027e+00,1.843660593032836914e+00
5.000000000000000000e+00,5.000000000000000000e+00,5.000000000000000000e+00,5.000000000000000000e+00,5.000000000000000000e+00,5.000000000000000000e+00,5.000000000000000000e+00,5.000000000000000000e+00,5.000000000000000000e+00,5.000000000000000000e+00,5.000000000000000000e+00,5.000000000000000000e+00,5.000000000000000000e+00,5.000000000000000000e+00,5.000000000000000000e+00,5.000000000000000000e+00,5.000000000000000000e+00,5.000000000000000000e+00,5.000000000000000000e+00,5.000000000000000000e+00,5.000000000000000000e+00,5.000000000000000000e+00,5.000000000000000000e+00,5.000000000000000000e+00,5.000000000000000000e+00,5.000000000000000000e+00,5.000000000000000000e+00,5.000000000000000000e+00,5.000000000000000000e+00,5.000000000000000000e+00,5.000000000000000000e+00,5.000000000000000000e+00,5.000000000000000000e+00,5.000000000000000000e+00,5.000000000000000000e+00,5.000000000000000000e+00,1.673779368400573730e+00,1.656782865524291992e+00,1.665409326553344727e+00,1.736375093460083008e+00,1.729816436767578125e+00,1.727410793304443359e+00,1.730973601341247559e+00,1.737938046455383301e+00,1.748866319656372070e+00,1.773743510246276855e+00,1.822757720947265625e+00,3.656906366348266602e+00,3.547867059707641602e+00,3.445142030715942383e+00,3.348197937011718750e+00,3.256560802459716797e+00,3.169805526733398438e+00,3.087552785873413086e+00,3.009461164474487305e+00,2.935222148895263672e+00,2.864557743072509766e+00,2.797215700149536133e+00,2.732967138290405273e+00,2.671603918075561523e+00,2.612935781478881836e+00,2.556788921356201172e+00,2.503004074096679688e+00,2.451435565948486328e+00,2.401949167251586914e+00,2.354421138763427734e+00,2.308737277984619141e+00,2.264792919158935547e+00,2.222489833831787109e+00,2.181738138198852539e+00,2.142454147338867188e+00,2.104559659957885742e+00,2.067982435226440430e+00,2.032655000686645508e+00,1.998514294624328613e+00,1.965501546859741211e+00,1.933561563491821289e+00,1.902643084526062012e+00,1.872697949409484863e+00,1.843680620193481445e+00
5.000000000000000000e+00,5.000000000000000000e+00,5.000000000000000000e+00,5.000000000000000000e+00,5.000000000000000000e+00,5.000000000000000000e+00,5.000000000000000000e+00,5.000000000000000000e+00,5.000000000000000000e+00,5.000000000000000000e+00,5.000000000000000000e+00,5.000000000000000000e+00,5.000000000000000000e+00,5.000000000000000000e+00,5.000000000000000000e+00,5.000000000000000000e+00,5.000000000000000000e+00,5.000000000000000000e+00,5.000000000000000000e+00,5.000000000000000000e+00,5.000000000000000000e+00,5.000000000000000000e+00,5.000000000000000000e+00,5.000000000000000000e+00,5.000000000000000000e+00,5.000000000000000000e+00,5.000000000000000000e+00,5.000000000000000000e+00,5.000000000000000000e+00,5.000000000000000000e+00,5.000000000000000000e+00,5.000000000000000000e+00,5.000000000000000000e+00,5.000000000000000000e+00,5.000000000000000000e+00,5.000000000000000000e+00,1.683027148246765137e+00,1.637174963951110840e+00,1.630273342132568359e+00,1.733604669570922852e+00,1.731911182403564453e+00,1.729499936103820801e+00,1.734356880187988281e+00,1.744087219238281250e+00,1.760231852531433105e+00,1.784906387329101562e+00,1.832211375236511230e+00,3.656985044479370117e+00,3.547940969467163086e+00,3.445211648941040039e+00,3.348263502120971680e+00,3.256622791290283203e+00,3.169864416122436523e+00,3.087608814239501953e+00,3.009514331817626953e+00,2.935272693634033203e+00,2.864605903625488281e+00,2.797261714935302734e+00,2.733011007308959961e+00,2.671645879745483398e+00,2.612975835800170898e+00,2.556827306747436523e+00,2.503040790557861328e+00,2.451470851898193359e+00,2.401983022689819336e+00,2.354453563690185547e+00,2.308768510818481445e+00,2.264822959899902344e+00,2.222518682479858398e+00,2.181766033172607422e+00,2.142481088638305664e+00,2.104585647583007812e+00,2.068007469177246094e+00,2.032679319381713867e+00,1.998537659645080566e+00,1.965524077415466309e+00,1.933583378791809082e+00,1.902664303779602051e+00,1.872718334197998047e+00,1.843700528144836426e+00
5.000000000000000000e+00,5.000000000000000000e+00,5.000000000000000000e+00,5.000000000000000000e+00,5.000000000000000000e+00,5.000000000000000000e+00,5.000000000000000000e+00,5.000000000000000000e+00,5.000000000000000000e+00,5.000000000000000000e+00,5.000000000000000000e+00,5.000000000000000000e+00,5.000000000000000000e+00,5.000000000000000000e+00,5.000000000000000000e+00,5.000000000000000000e+00,5.000000000000000000e+00,5.000000000000000000e+00,5.000000000000000000e+00,5.000000000000000000e+00,5.000000000000000000e+00,5.000000000000000000e+00,5.000000000000000000e+00,5.000000000000000000e+00,5.000000000000000000e+00,5.000000000000000000e+00,5.000000000000000000e+00,5.000000000000000000e+00,5.000000000000000000e+00,5.000000000000000000e+00,5.000000000000000000e+00,5.000000000000000000e+00,5.000000000000000000e+00,5.000000000000000000e+00,5.000000000000000000e+00,5.000000000000000000e+00,5.000000000000000000e+00,1.620415329933166504e+00,1.622855663299560547e+00,1.734014511108398438e+00,1.732704877853393555e+00,1.732142925262451172e+00,1.751357793807983398e+00,1.764609932899475098e+00,1.782036542892456055e+00,1.794664382934570312e+00,1.813026905059814453e+00,3.657063484191894531e+00,3.548014879226684570e+00,3.445281028747558594e+00,3.348329305648803711e+00,3.256685018539428711e+00,3.169923305511474609e+00,3.087664842605590820e+00,3.009567499160766602e+00,2.935323476791381836e+00,2.864654064178466797e+00,2.797307491302490234e+00,2.733054876327514648e+00,2.671687841415405273e+00,2.613015890121459961e+00,2.556865692138671875e+00,2.503077745437622070e+00,2.451506137847900391e+00,2.402016878128051758e+00,2.354485988616943359e+00,2.308799743652343750e+00,2.264853000640869141e+00,2.222547769546508789e+00,2.181794166564941406e+00,2.142508029937744141e+00,2.104611635208129883e+00,2.068032503128051758e+00,2.032703638076782227e+00,1.998561143875122070e+00,1.965546846389770508e+00,1.933605432510375977e+00,1.902685642242431641e+00,1.872739076614379883e+00,1.843720555305480957e+00
5.000000000000000000e+00,5.000000000000000000e+00,5.000000000000000000e+00,5.000000000000000000e+00,5.000000000000000000e+00,5.000000000000000000e+00,5.000000000000000000e+00,5.000000000000000000e+00,5.000000000000000000e+00,5.000000000000000000e+00,5.000000000000000000e+00,5.000000000000000000e+00,5.000000000000000000e+00,5.000000000000000000e+00,5.000000000000000000e+00,5.000000000000000000e+00,5.000000000000000000e+00,5.000000000000000000e+00,5.000000000000000000e+00,5.000000000000000000e+00,5.000000000000000000e+00,5.000000000000000000e+00,5.000000000000000000e+00,5.000000000000000000e+00,5.000000000000000000e+00,5.000000000000000000e+00,5.000000000000000000e+00,5.000000000000000000e+00,5.000000000000000000e+00,5.000000000000000000e+00,5.000000000000000000e+00,5.000000000000000000e+00,5.000000000000000000e+00,5.000000000000000000e+00,5.000000000000000000e+00,5.000000000000000000e+00,5.000000000000000000e+00,1.614588499069213867e+00,1.594958066940307617e+00,1.735006451606750488e+00,1.736279368400573730e+00,1.735735297203063965e+00,1.772153973579406738e+00,1.781673312187194824e+00,1.774785280227661133e+00,1.758554816246032715e+00,1.744105339050292969e+00,1.773218631744384766e+00,3.548088550567626953e+00,3.445350646972656250e+00,3.348395109176635742e+00,3.256747245788574219e+00,3.169982433319091797e+00,3.087720870971679688e+00,3.009620666503906250e+00,2.935374021530151367e+00,2.864702224731445312e+00,2.797353506088256836e+00,2.733098745346069336e+00,2.671729803085327148e+00,2.613055944442749023e+00,2.556904077529907227e+00,2.503114461898803711e+00,2.451541423797607422e+00,2.402050495147705078e+00,2.354518651962280273e+00,2.308831214904785156e+00,2.264883041381835938e+00,2.222576856613159180e+00,2.181822061538696289e+00,2.142534971237182617e+00,2.104637622833251953e+00,2.068057775497436523e+00,2.032727718353271484e+00,1.998584508895874023e+00,1.965569496154785156e+00,1.933627367019653320e+00,1.902706742286682129e+00,1.872759580612182617e+00,1.843740463256835938e+00
5.000000000000000000e+00,5.000000000000000000e+00,5.000000000000000000e+00,5.000000000000000000e+00,5.000000000000000000e+00,5.000000000000000000e+00,5.000000000000000000e+00,5.000000000000000000e+00,5.000000000000000000e+00,5.000000000000000000e+00,5.000000000000000000e+00,5.000000000000000000e+00,5.000000000000000000e+00,5.000000000000000000e+00,5.000000000000000000e+00,5.000000000000000000e+00,5.000000000000000000e+00,5.000000000000000000e+00,5.000000000000000000e+00,5.000000000000000000e+00,5.000000000000000000e+00,5.000000000000000000e+00,5.000000000000000000e+00,5.000000000000000000e+00,5.000000000000000000e+00,5.000000000000000000e+00,5.000000000000000000e+00,5.000000000000000000e+00,5.000000000000000000e+00,5.000000000000000000e+00,5.000000000000000000e+00,5.000000000000000000e+00,5.000000000000000000e+00,5.000000000000000000e+00,5.000000000000000000e+00,5.000000000000000000e+00,5.000000000000000000e+00,1.601353883743286133e+00,1.567273139953613281e+00,1.558869004249572754e+00,1.567086815834045410e+00,1.738768577575683594e+00,1.779000282287597656e+00,1.789347290992736816e+00,1.750271081924438477e+00,1.731553673744201660e+00,1.727607488632202148e+00,1.725636363029479980e+00,1.810285329818725586e+00,3.445420265197753906e+00,3.348460912704467773e+00,3.256809473037719727e+00,3.170041322708129883e+00,3.087776660919189453e+00,3.009673833847045898e+00,2.935424566268920898e+00,2.864750385284423828e+00,2.797399520874023438e+00,2.733142614364624023e+00,2.671771526336669922e+00,2.613096237182617188e+00,2.556942224502563477e+00,2.503150939941406250e+00,2.451576709747314453e+00,2.402084350585937500e+00,2.354551076889038086e+00,2.308862447738647461e+00,2.264913082122802734e+00,2.222605705261230469e+00,2.181849956512451172e+00,2.142561912536621094e+00,2.104663610458374023e+00,2.068082809448242188e+00,2.032752037048339844e+00,1.998608112335205078e+00,1.965592265129089355e+00,1.933649420738220215e+00,1.902727961540222168e+00,1.872780084609985352e+00,1.843760251998901367e+00
5.000000000000000000e+00,5.000000000000000000e+00,5.000000000000000000e+00,5.000000000000000000e+00,5.000000000000000000e+00,5.000000000000000000e+00,5.000000000000000000e+00,5.000000000000000000e+00,5.000000000000000000e+00,5.000000000000000000e+00,5.000000000000000000e+00,5.000000000000000000e+00,5.000000000000000000e+00,5.000000000000000000e+00,5.000000000000000000e+00,5.000000000000000000e+00,5.000000000000000000e+00,5.000000000000000000e+00,5.000000000000000000e+00,5.000000000000000000e+00,5.000000000000000000e+00,5.000000000000000000e+00,5.000000000000000000e+00,5.000000000000000000e+00,5.000000000000000000e+00,5.000000000000000000e+00,5.000000000000000000e+00,5.000000000000000000e+00,5.000000000000000000e+00,5.000000000000000000e+00,5.000000000000000000e+00,5.000000000000000000e+00,5.000000000000000000e+00,5.000000000000000000e+00,5.000000000000000000e+00,5.000000000000000000e+00,5.000000000000000000e+00,1.592062592506408691e+00,1.551290988922119141e+00,1.529052495956420898e+00,1.552190542221069336e+00,1.741000890731811523e+00,1.779528260231018066e+00,1.781459927558898926e+00,1.747443199157714844e+00,1.718811154365539551e+00,1.716130375862121582e+00,1.713452219963073730e+00,1.767087578773498535e+00,3.445490121841430664e+00,3.348526716232299805e+00,3.256871700286865234e+00,3.170100450515747070e+00,3.087832689285278320e+00,3.009727001190185547e+00,2.935475111007690430e+00,2.864798545837402344e+00,2.797445297241210938e+00,2.733186483383178711e+00,2.671813249588012695e+00,2.613136053085327148e+00,2.556980609893798828e+00,2.503187894821166992e+00,2.451611995697021484e+00,2.402118206024169922e+00,2.354583740234375000e+00,2.308893680572509766e+00,2.264943361282348633e+00,2.222634792327880859e+00,2.181877851486206055e+00,2.142588853836059570e+00,2.104689836502075195e+00,2.068107843399047852e+00,2.032776355743408203e+00,1.998631477355957031e+00,1.965614795684814453e+00,1.933671236038208008e+00,1.902749300003051758e+00,1.872800707817077637e+00,1.843780398368835449e+00
5.000000000000000000e+00,5.000000000000000000e+00,5.000000000000000000e+00,5.000000000000000000e+00,5.000000000000000000e+00,5.000000000000000000e+00,5.000000000000000000e+00,5.000000000000000000e+00,5.000000000000000000e+00,5.000000000000000000e+00,5.000000000000000000e+00,5.000000000000000000e+00,5.000000000000000000e+00,5.000000000000000000e+00,5.000000000000000000e+00,5.000000000000000000e+00,5.000000000000000000e+00,5.000000000000000000e+00,5.000000000000000000e+00,5.000000000000000000e+00,5.000000000000000000e+00,5.000000000000000000e+00,5.000000000000000000e+00,5.000000000000000000e+00,5.000000000000000000e+00,5.000000000000000000e+00,5.000000000000000000e+00,5.000000000000000000e+00,5.000000000000000000e+00,5.000000000000000000e+00,5.000000000000000000e+00,5.000000000000000000e+00,5.000000000000000000e+00,5.000000000000000000e+00,5.000000000000000000e+00,5.000000000000000000e+00,5.000000000000000000e+00,1.589944601058959961e+00,1.538881182670593262e+00,1.743210554122924805e+00,1.743531107902526855e+00,1.744185090065002441e+00,1.783601760864257812e+00,1.788124561309814453e+00,1.745520591735839844e+00,1.712908029556274414e+00,1.705037951469421387e+00,1.703081607818603516e+00,1.731869935989379883e+00,3.445559740066528320e+00,3.348592519760131836e+00,3.256933927536010742e+00,3.170159339904785156e+00,3.087888717651367188e+00,3.009780168533325195e+00,2.935525655746459961e+00,2.864846706390380859e+00,2.797491073608398438e+00,2.733230113983154297e+00,2.671855211257934570e+00,2.613176107406616211e+00,2.557018995285034180e+00,2.503224611282348633e+00,2.451647281646728516e+00,2.402152299880981445e+00,2.354616165161132812e+00,2.308924913406372070e+00,2.264973402023315430e+00,2.222663879394531250e+00,2.181905984878540039e+00,2.142615795135498047e+00,2.104715824127197266e+00,2.068133115768432617e+00,2.032800436019897461e+00,1.998654723167419434e+00,1.965637445449829102e+00,1.933693051338195801e+00,1.902770400047302246e+00,1.872821211814880371e+00,1.843800187110900879e+00
5.000000000000000000e+00,5.000000000000000000e+00,5.000000000000000000e+00,5.000000000000000000e+00,5.000000000000000000e+00,5.000000000000000000e+00,5.000000000000000000e+00,5.000000000000000000e+00,5.000000000000000000e+00,5.000000000000000000e+00,5.000000000000000000e+00,5.000000000000000000e+00,5.000000000000000000e+00,5.000000000000000000e+00,5.000000000000000000e+00,5.000000000000000000e+00,5.000000000000000000e+00,5.000000000000000000e+00,5.000000000000000000e+00,5.000000000000000000e+00,5.000000000000000000e+00,5.000000000000000000e+00,5.000000000000000000e+00,5.000000000000000000e+00,5.000000000000000000e+00,5.000000000000000000e+00,5.000000000000000000e+00,5.000000000000000000e+00,5.000000000000000000e+00,5.000000000000000000e+00,5.000000000000000000e+00,5.000000000000000000e+00,5.000000000000000000e+00,5.000000000000000000e+00,5.000000000000000000e+00,5.000000000000000000e+00,5.000000000000000000e+00,1.586502194404602051e+00,1.540346860885620117e+00,1.513811111450195312e+00,1.750286817550659180e+00,1.750663399696350098e+00,1.792179465293884277e+00,1.799463868141174316e+00,1.742834329605102539e+00,1.710242271423339844e+00,1.691596269607543945e+00,1.691483974456787109e+00,1.698028683662414551e+00,3.445629358291625977e+00,3.348658323287963867e+00,3.256996393203735352e+00,3.170218467712402344e+00,3.087944746017456055e+00,3.009833335876464844e+00,2.935575962066650391e+00,2.864894628524780273e+00,2.797537088394165039e+00,2.733273983001708984e+00,2.671897172927856445e+00,2.613216161727905273e+00,2.557057380676269531e+00,2.503261327743530273e+00,2.451682567596435547e+00,2.402186155319213867e+00,2.354648828506469727e+00,2.308956384658813477e+00,2.265003442764282227e+00,2.222692728042602539e+00,2.181933879852294922e+00,2.142642736434936523e+00,2.104741573333740234e+00,2.068158149719238281e+00,2.032824754714965820e+00,1.998678326606750488e+00,1.965660214424133301e+00,1.933715105056762695e+00,1.902791857719421387e+00,1.872841954231262207e+00,1.843820333480834961e+00
5.000000000000000000e+00,5.000000000000000000e+00,5.000000000000000000e+00,5.000000000000000000e+00,5.000000000000000000e+00,5.000000000000000000e+00,5.000000000000000000e+00,5.000000000000000000e+00,5.000000000000000000e+00,5.000000000000000000e+00,5.000000000000000000e+00,5.000000000000000000e+00,5.000000000000000000e+00,5.000000000000000000e+00,5.000000000000000000e+00,5.000000000000000000e+00,5.000000000000000000e+00,5.000000000000000000e+00,5.000000000000000000e+00,5.000000000000000000e+00,5.000000000000000000e+00,5.000000000000000000e+00,5.000000000000000000e+00,5.000000000000000000e+00,5.000000000000000000e+00,5.000000000000000000e+00,5.000000000000000000e+00,5.000000000000000000e+00,5.000000000000000000e+00,5.000000000000000000e+00,5.000000000000000000e+00,5.000000000000000000e+00,5.000000000000000000e+00,5.000000000000000000e+00,5.000000000000000000e+00,5.000000000000000000e+00,5.000000000000000000e+00,1.817860841751098633e+00,1.530023455619812012e+00,1.759257674217224121e+00,1.758931875228881836e+00,1.758762598037719727e+00,1.806375980377197266e+00,1.805961012840270996e+00,1.740156650543212891e+00,1.707584857940673828e+00,1.678503155708312988e+00,1.678723096847534180e+00,1.678942799568176270e+00,3.445699214935302734e+00,3.348724365234375000e+00,3.257058620452880859e+00,3.170277357101440430e+00,3.088000774383544922e+00,3.009886264801025391e+00,2.935626745223999023e+00,2.864943027496337891e+00,2.797582864761352539e+00,2.733317852020263672e+00,2.671939134597778320e+00,2.613256216049194336e+00,2.557095766067504883e+00,2.503298282623291016e+00,2.451717853546142578e+00,2.402220010757446289e+00,2.354681253433227539e+00,2.308987617492675781e+00,2.265033721923828125e+00,2.222721815109252930e+00,2.181961774826049805e+00,2.142669677734375000e+00,2.104767560958862305e+00,2.068183183670043945e+00,2.032849073410034180e+00,1.998701691627502441e+00,1.965682744979858398e+00,1.933736920356750488e+00,1.902812957763671875e+00,1.872862458229064941e+00,1.843840122222900391e+00
5.000000000000000000e+00,5.000000000000000000e+00,5.000000000000000000e+00,5.000000000000000000e+00,5.000000000000000000e+00,5.000000000000000000e+00,5.000000000000000000e+00,5.000000000000000000e+00,5.000000000000000000e+00,5.000000000000000000e+00,5.000000000000000000e+00,5.000000000000000000e+00,5.000000000000000000e+00,5.000000000000000000e+00,5.000000000000000000e+00,5.000000000000000000e+00,5.000000000000000000e+00,5.000000000000000000e+00,5.000000000000000000e+00,5.000000000000000000e+00,5.000000000000000000e+00,5.000000000000000000e+00,5.000000000000000000e+00,5.000000000000000000e+00,5.000000000000000000e+00,5.000000000000000000e+00,5.000000000000000000e+00,5.000000000000000000e+00,5.000000000000000000e+00,5.000000000000000000e+00,5.000000000000000000e+00,5.000000000000000000e+00,5.000000000000000000e+00,5.000000000000000000e+00,5.000000000000000000e+00,5.000000000000000000e+00,5.000000000000000000e+00,1.832516670227050781e+00,1.778551340103149414e+00,1.768676280975341797e+00,1.767864108085632324e+00,1.775758981704711914e+00,1.821805834770202637e+00,4.170400619506835938e+00,1.744004368782043457e+00,1.704059243202209473e+00,1.672635197639465332e+00,1.666331529617309570e+00,1.667156577110290527e+00,1.701428174972534180e+00,3.348790168762207031e+00,3.257120847702026367e+00,3.170336246490478516e+00,3.088056325912475586e+00,3.009939432144165039e+00,2.935677289962768555e+00,2.864991188049316406e+00,2.797628879547119141e+00,2.733361721038818359e+00,2.671981096267700195e+00,2.613296270370483398e+00,2.557134151458740234e+00,2.503334999084472656e+00,2.451753139495849609e+00,2.402253866195678711e+00,2.354713916778564453e+00,2.309018850326538086e+00,2.265063762664794922e+00,2.222750663757324219e+00,2.181989669799804688e+00,2.142696619033813477e+00,2.104793548583984375e+00,2.068208217620849609e+00,2.032873153686523438e+00,1.998725295066833496e+00,1.965705513954162598e+00,1.933759093284606934e+00,1.902834296226501465e+00,1.872883081436157227e+00,1.843860149383544922e+00
5.000000000000000000e+00,5.000000000000000000e+00,5.000000000000000000e+00,5.000000000000000000e+00,5.000000000000000000e+00,5.000000000000000000e+00,5.000000000000000000e+00,5.000000000000000000e+00,5.000000000000000000e+00,5.000000000000000000e+00,5.000000000000000000e+00,5.000000000000000000e+00,5.000000000000000000e+00,5.000000000000000000e+00,5.000000000000000000e+00,5.000000000000000000e+00,5.000000000000000000e+00,5.000000000000000000e+00,5.000000000000000000e+00,5.000000000000000000e+00,5.000000000000000000e+00,5.000000000000000000e+00,5.000000000000000000e+00,5.000000000000000000e+00,5.000000000000000000e+00,5.000000000000000000e+00,5.000000000000000000e+00,5.000000000000000000e+00,5.000000000000000000e+00,5.000000000000000000e+00,5.000000000000000000e+00,5.000000000000000000e+00,5.000000000000000000e+00,5.000000000000000000e+00,5.000000000000000000e+00,5.000000000000000000e+00,5.000000000000000000e+00,1.846381902694702148e+00,1.789500355720520020e+00,1.778533339500427246e+00,1.776887655258178711e+00,1.793087005615234375e+00,4.321989059448242188e+00,4.170502662658691406e+00,1.757842898368835449e+00,1.698857069015502930e+00,1.668665528297424316e+00,1.649720430374145508e+00,1.654285669326782227e+00,1.655748605728149414e+00,3.348855733871459961e+00,3.257182836532592773e+00,3.170395135879516602e+00,3.088112354278564453e+00,3.009992599487304688e+00,2.935727834701538086e+00,2.865039348602294922e+00,2.797674894332885742e+00,2.733405590057373047e+00,2.672022819519042969e+00,2.613336563110351562e+00,2.557172536849975586e+00,2.503371715545654297e+00,2.451788425445556641e+00,2.402287721633911133e+00,2.354746580123901367e+00,2.309050083160400391e+00,2.265093803405761719e+00,2.222779750823974609e+00,2.182017564773559570e+00,2.142723560333251953e+00,2.104819536209106445e+00,2.068233489990234375e+00,2.032897472381591797e+00,1.998748540878295898e+00,1.965728163719177246e+00,1.933780908584594727e+00,1.902855515480041504e+00,1.872903585433959961e+00,1.843880057334899902e+00
5.000000000000000000e+00,5.000000000000000000e+00,5.000000000000000000e+00,5.000000000000000000e+00,5.000000000000000000e+00,5.000000000000000000e+00,5.000000000000000000e+00,5.000000000000000000e+00,5.000000000000000000e+00,5.000000000000000000e+00,5.000000000000000000e+00,5.000000000000000000e+00,5.000000000000000000e+00,5.000000000000000000e+00,5.000000000000000000e+00,5.000000000000000000e+00,5.000000000000000000e+00,5.000000000000000000e+00,5.000000000000000000e+00,5.000000000000000000e+00,5.000000000000000000e+00,5.000000000000000000e+00,5.000000000000000000e+00,5.000000000000000000e+00,5.000000000000000000e+00,5.000000000000000000e+00,5.000000000000000000e+00,5.000000000000000000e+00,5.000000000000000000e+00,5.000000000000000000e+00,5.000000000000000000e+00,5.000000000000000000e+00,5.000000000000000000e+00,5.000000000000000000e+00,5.000000000000000000e+00,5.000000000000000000e+00,5.000000000000000000e+00,1.860678553581237793e+00,1.800811767578125000e+00,1.788500905036926270e+00,1.786387205123901367e+00,1.808069705963134766e+00,4.322098731994628906e+00,4.170604705810546875e+00,4.029370784759521484e+00,1.693686842918395996e+00,1.664714336395263672e+00,1.641695022583007812e+00,1.637912869453430176e+00,1.642412900924682617e+00,3.348921537399291992e+00,3.257245063781738281e+00,3.170454263687133789e+00,3.088168382644653320e+00,3.010046005249023438e+00,2.935778379440307617e+00,2.865087509155273438e+00,2.797720909118652344e+00,2.733449459075927734e+00,2.672064781188964844e+00,2.613376617431640625e+00,2.557210922241210938e+00,2.503408670425415039e+00,2.451823711395263672e+00,2.402321338653564453e+00,2.354778766632080078e+00,2.309081315994262695e+00,2.265123844146728516e+00,2.222808599472045898e+00,2.182045459747314453e+00,2.142750501632690430e+00,2.104845762252807617e+00,2.068258523941040039e+00,2.032921791076660156e+00,1.998772144317626953e+00,1.965750932693481445e+00,1.933802962303161621e+00,1.902876853942871094e+00,1.872924327850341797e+00,1.843900084495544434e+00
5.000000000000000000e+00,5.000000000000000000e+00,5.000000000000000000e+00,5.000000000000000000e+00,5.000000000000000000e+00,5.000000000000000000e+00,5.000000000000000000e+00,5.000000000000000000e+00,5.000000000000000000e+00,5.000000000000000000e+00,5.000000000000000000e+00,5.000000000000000000e+00,5.000000000000000000e+00,5.000000000000000000e+00,5.000000000000000000e+00,5.000000000000000000e+00,5.000000000000000000e+00,5.000000000000000000e+00,5.000000000000000000e+00,5.000000000000000000e+00,5.000000000000000000e+00,5.000000000000000000e+00,5.000000000000000000e+00,5.000000000000000000e+00,5.000000000000000000e+00,5.000000000000000000e+00,5.000000000000000000e+00,5.000000000000000000e+00,5.000000000000000000e+00,5.000000000000000000e+00,5.000000000000000000e+00,5.000000000000000000e+00,5.000000000000000000e+00,5.000000000000000000e+00,5.000000000000000000e+00,5.000000000000000000e+00,5.000000000000000000e+00,1.878053069114685059e+00,1.813472986221313477e+00,1.795548200607299805e+00,1.794219017028808594e+00,1.822345852851867676e+00,4.322208404541015625e+00,4.170706748962402344e+00,4.029466152191162109e+00,1.711705088615417480e+00,1.660511851310729980e+00,1.637781500816345215e+00,1.626035928726196289e+00,1.632301211357116699e+00,3.348987340927124023e+00,3.257307529449462891e+00,3.170513153076171875e+00,3.088224411010742188e+00,3.010099172592163086e+00,2.935829162597656250e+00,2.865135669708251953e+00,2.797766685485839844e+00,2.733493328094482422e+00,2.672106742858886719e+00,2.613416671752929688e+00,2.557249307632446289e+00,2.503445148468017578e+00,2.451858758926391602e+00,2.402355194091796875e+00,2.354811429977416992e+00,2.309112548828125000e+00,2.265154123306274414e+00,2.222837686538696289e+00,2.182073354721069336e+00,2.142777442932128906e+00,2.104871749877929688e+00,2.068283557891845703e+00,2.032946109771728516e+00,1.998795509338378906e+00,1.965773463249206543e+00,1.933824777603149414e+00,1.902897953987121582e+00,1.872944831848144531e+00,1.843919992446899414e+00
5.000000000000000000e+00,5.000000000000000000e+00,5.000000000000000000e+00,5.000000000000000000e+00,5.000000000000000000e+00,5.000000000000000000e+00,5.000000000000000000e+00,5.000000000000000000e+00,5.000000000000000000e+00,5.000000000000000000e+00,5.000000000000000000e+00,5.000000000000000000e+00,5.000000000000000000e+00,5.000000000000000000e+00,5.000000000000000000e+00,5.000000000000000000e+00,5.000000000000000000e+00,5.000000000000000000e+00,5.000000000000000000e+00,5.000000000000000000e+00,5.000000000000000000e+00,5.000000000000000000e+00,5.000000000000000000e+00,5.000000000000000000e+00,5.000000000000000000e+00,5.000000000000000000e+00,5.000000000000000000e+00,5.000000000000000000e+00,5.000000000000000000e+00,5.000000000000000000e+00,5.000000000000000000e+00,5.000000000000000000e+00,5.000000000000000000e+00,5.000000000000000000e+00,5.000000000000000000e+00,5.000000000000000000e+00,5.000000000000000000e+00,1.889953374862670898e+00,1.826034069061279297e+00,1.802402853965759277e+00,1.801063537597656250e+00,1.836359143257141113e+00,4.322318077087402344e+00,4.170809268951416016e+00,4.029561519622802734e+00,3.897567510604858398e+00,1.657627940177917480e+00,1.637658238410949707e+00,1.624521255493164062e+00,1.630015969276428223e+00,3.349053144454956055e+00,3.257369756698608398e+00,3.170572280883789062e+00,3.088280439376831055e+00,3.010152339935302734e+00,2.935879707336425781e+00,2.865183830261230469e+00,2.797812700271606445e+00,2.733537197113037109e+00,2.672148704528808594e+00,2.613456487655639648e+00,2.557287454605102539e+00,2.503482103347778320e+00,2.451894044876098633e+00,2.402389287948608398e+00,2.354843854904174805e+00,2.309144020080566406e+00,2.265184164047241211e+00,2.222866773605346680e+00,2.182101488113403320e+00,2.142804384231567383e+00,2.104897737503051758e+00,2.068308830261230469e+00,2.032970190048217773e+00,1.998819112777709961e+00,1.965796351432800293e+00,1.933846592903137207e+00,1.902919173240661621e+00,1.872965335845947266e+00,1.843939781188964844e+00
5.000000000000000000e+00,5.000000000000000000e+00,5.000000000000000000e+00,5.000000000000000000e+00,5.000000000000000000e+00,5.000000000000000000e+00,5.000000000000000000e+00,5.000000000000000000e+00,5.000000000000000000e+00,5.000000000000000000e+00,5.000000000000000000e+00,5.000000000000000000e+00,5.000000000000000000e+00,5.000000000000000000e+00,5.000000000000000000e+00,5.000000000000000000e+00,5.000000000000000000e+00,5.000000000000000000e+00,5.000000000000000000e+00,5.000000000000000000e+00,5.000000000000000000e+00,5.000000000000000000e+00,5.000000000000000000e+00,5.000000000000000000e+00,5.000000000000000000e+00,5.000000000000000000e+00,5.000000000000000000e+00,5.000000000000000000e+00,5.000000000000000000e+00,5.000000000000000000e+00,5.000000000000000000e+00,5.000000000000000000e+00,5.000000000000000000e+00,5.000000000000000000e+00,5.000000000000000000e+00,5.000000000000000000e+00,5.000000000000000000e+00,1.901761770248413086e+00,1.838005423545837402e+00,1.811442852020263672e+00,1.809143424034118652e+00,1.846374630928039551e+00,4.322427749633789062e+00,4.170910835266113281e+00,4.029656887054443359e+00,3.897656679153442383e+00,1.661985158920288086e+00,1.641864061355590820e+00,1.630210995674133301e+00,1.635600328445434570e+00,3.349118947982788086e+00,3.257431983947753906e+00,3.170631170272827148e+00,3.088336467742919922e+00,3.010205507278442383e+00,2.935930252075195312e+00,2.865231990814208984e+00,2.797858715057373047e+00,2.733581066131591797e+00,2.672190427780151367e+00,2.613496780395507812e+00,2.557325839996337891e+00,2.503518819808959961e+00,2.451929330825805664e+00,2.402423143386840820e+00,2.354876518249511719e+00,2.309175252914428711e+00,2.265214204788208008e+00,2.222895622253417969e+00,2.182129383087158203e+00,2.142831325531005859e+00,2.104923725128173828e+00,2.068333864212036133e+00,2.032994508743286133e+00,1.998842358589172363e+00,1.965818881988525391e+00,1.933868765830993652e+00,1.902940511703491211e+00,1.872985959053039551e+00,1.843959927558898926e+00
5.000000000000000000e+00,5.000000000000000000e+00,5.000000000000000000e+00,5.000000000000000000e+00,5.000000000000000000e+00,5.000000000000000000e+00,5.000000000000000000e+00,5.000000000000000000e+00,5.000000000000000000e+00,5.000000000000000000e+00,5.000000000000000000e+00,5.000000000000000000e+00,5.000000000000000000e+00,5.000000000000000000e+00,5.000000000000000000e+00,5.000000000000000000e+00,5.000000000000000000e+00,5.000000000000000000e+00,5.000000000000000000e+00,5.000000000000000000e+00,5.000000000000000000e+00,5.000000000000000000e+00,5.000000000000000000e+00,5.000000000000000000e+00,5.000000000000000000e+00,5.000000000000000000e+00,5.000000000000000000e+00,5.000000000000000000e+00,5.000000000000000000e+00,5.000000000000000000e+00,5.000000000000000000e+00,5.000000000000000000e+00,5.000000000000000000e+00,5.000000000000000000e+00,5.000000000000000000e+00,5.000000000000000000e+00,5.000000000000000000e+00,1.916208267211914062e+00,1.850134730339050293e+00,1.821591258049011230e+00,1.823243975639343262e+00,1.856500148773193359e+00,4.322537422180175781e+00,4.171012878417968750e+00,4.029751777648925781e+00,3.897745847702026367e+00,1.669446945190429688e+00,1.647341370582580566e+00,1.638280272483825684e+00,1.642718791961669922e+00,3.349184751510620117e+00,3.257494211196899414e+00,3.170690298080444336e+00,3.088392257690429688e+00,3.010258674621582031e+00,2.935980796813964844e+00,2.865280389785766602e+00,2.797904491424560547e+00,2.733624696731567383e+00,2.672232389450073242e+00,2.613536834716796875e+00,2.557364225387573242e+00,2.503555536270141602e+00,2.451964616775512695e+00,2.402456998825073242e+00,2.354909181594848633e+00,2.309206485748291016e+00,2.265244483947753906e+00,2.222924709320068359e+00,2.182157278060913086e+00,2.142858266830444336e+00,2.104949712753295898e+00,2.068358898162841797e+00,2.033018589019775391e+00,1.998865723609924316e+00,1.965841412544250488e+00,1.933890581130981445e+00,1.902961611747741699e+00,1.873006463050842285e+00,1.843979716300964355e+00
5.000000000000000000e+00,5.000000000000000000e+00,5.000000000000000000e+00,5.000000000000000000e+00,5.000000000000000000e+00,5.000000000000000000e+00,5.000000000000000000e+00,5.000000000000000000e+00,5.000000000000000000e+00,5.000000000000000000e+00,5.000000000000000000e+00,5.000000000000000000e+00,5.000000000000000000e+00,5.000000000000000000e+00,5.000000000000000000e+00,5.000000000000000000e+00,5.000000000000000000e+00,5.000000000000000000e+00,5.000000000000000000e+00,5.000000000000000000e+00,5.000000000000000000e+00,5.000000000000000000e+00,5.000000000000000000e+00,5.000000000000000000e+00,5.000000000000000000e+00,5.000000000000000000e+00,5.000000000000000000e+00,5.000000000000000000e+00,5.000000000000000000e+00,5.000000000000000000e+00,5.000000000000000000e+00,5.000000000000000000e+00,5.000000000000000000e+00,5.000000000000000000e+00,5.000000000000000000e+00,5.000000000000000000e+00,5.000000000000000000e+00,1.916630148887634277e+00,1.863964915275573730e+00,1.831209778785705566e+00,1.837977647781372070e+00,4.485604286193847656e+00,4.322647094726562500e+00,4.171115398406982422e+00,4.029847145080566406e+00,3.897835254669189453e+00,1.676975965499877930e+00,1.652178645133972168e+00,1.647936701774597168e+00,1.649899244308471680e+00,3.349250793457031250e+00,3.257556676864624023e+00,3.170749187469482422e+00,3.088448286056518555e+00,3.010311841964721680e+00,2.936031341552734375e+00,2.865328311920166016e+00,2.797950506210327148e+00,2.733668565750122070e+00,2.672274112701416016e+00,2.613576889038085938e+00,2.557402610778808594e+00,2.503592491149902344e+00,2.451999902725219727e+00,2.402490854263305664e+00,2.354941606521606445e+00,2.309237957000732422e+00,2.265274524688720703e+00,2.222953796386718750e+00,2.182185173034667969e+00,2.142885208129882812e+00,2.104975700378417969e+00,2.068383932113647461e+00,2.033042907714843750e+00,1.998889327049255371e+00,1.965864300727844238e+00,1.933912634849548340e+00,1.902983069419860840e+00,1.873027205467224121e+00,1.843999862670898438e+00
5.000000000000000000e+00,5.000000000000000000e+00,5.000000000000000000e+00,5.000000000000000000e+00,5.000000000000000000e+00,5.000000000000000000e+00,5.000000000000000000e+00,5.000000000000000000e+00,5.000000000000000000e+00,5.000000000000000000e+00,5.000000000000000000e+00,5.000000000000000000e+00,5.000000000000000000e+00,5.000000000000000000e+00,5.000000000000000000e+00,5.000000000000000000e+00,5.000000000000000000e+00,5.000000000000000000e+00,5.000000000000000000e+00,5.000000000000000000e+00,5.000000000000000000e+00,5.000000000000000000e+00,5.000000000000000000e+00,5.000000000000000000e+00,5.000000000000000000e+00,5.000000000000000000e+00,5.000000000000000000e+00,5.000000000000000000e+00,5.000000000000000000e+00,5.000000000000000000e+00,5.000000000000000000e+00,5.000000000000000000e+00,5.000000000000000000e+00,5.000000000000000000e+00,5.000000000000000000e+00,5.000000000000000000e+00,1.984257817268371582e+00,1.911819696426391602e+00,1.872455596923828125e+00,1.847397089004516602e+00,1.866522192955017090e+00,4.485722541809082031e+00,4.322756767272949219e+00,4.171217441558837891e+00,4.029942512512207031e+00,3.897924423217773438e+00,1.681837797164916992e+00,1.662000298500061035e+00,1.657707810401916504e+00,1.674070477485656738e+00,3.349316596984863281e+00,3.257618904113769531e+00,3.170808315277099609e+00,3.088504076004028320e+00,3.010364770889282227e+00,2.936081886291503906e+00,2.865376472473144531e+00,2.797996520996093750e+00,2.733712434768676758e+00,2.672316074371337891e+00,2.613616943359375000e+00,2.557440996170043945e+00,2.503629207611083984e+00,2.452035188674926758e+00,2.402524709701538086e+00,2.354974269866943359e+00,2.309269189834594727e+00,2.265304565429687500e+00,2.222982645034790039e+00,2.182213068008422852e+00,2.142912149429321289e+00,2.105001688003540039e+00,2.068408966064453125e+00,2.033067226409912109e+00,1.998912692070007324e+00,1.965886831283569336e+00,1.933934450149536133e+00,1.903004169464111328e+00,1.873047709465026855e+00,1.844019651412963867e+00
5.000000000000000000e+00,5.000000000000000000e+00,5.000000000000000000e+00,5.000000000000000000e+00,5.000000000000000000e+00,5.000000000000000000e+00,5.000000000000000000e+00,5.000000000000000000e+00,5.000000000000000000e+00,5.000000000000000000e+00,5.000000000000000000e+00,5.000000000000000000e+00,5.000000000000000000e+00,5.000000000000000000e+00,5.000000000000000000e+00,5.000000000000000000e+00,5.000000000000000000e+00,5.000000000000000000e+00,5.000000000000000000e+00,5.000000000000000000e+00,5.000000000000000000e+00,5.000000000000000000e+00,5.000000000000000000e+00,5.000000000000000000e+00,5.000000000000000000e+00,5.000000000000000000e+00,5.000000000000000000e+00,5.000000000000000000e+00,5.000000000000000000e+00,5.000000000000000000e+00,5.000000000000000000e+00,5.000000000000000000e+00,5.000000000000000000e+00,5.000000000000000000e+00,5.000000000000000000e+00,5.000000000000000000e+00,1.960165381431579590e+00,1.924626350402832031e+00,1.904193878173828125e+00,1.888704776763916016e+00,4.661583900451660156e+00,4.485840320587158203e+00,4.322866439819335938e+00,4.171319007873535156e+00,4.030037879943847656e+00,3.898013591766357422e+00,1.681930303573608398e+00,1.662057280540466309e+00,1.658867835998535156e+00,1.675143718719482422e+00,3.349382400512695312e+00,3.257680892944335938e+00,3.170866966247558594e+00,3.088560104370117188e+00,3.010417938232421875e+00,2.936132431030273438e+00,2.865424633026123047e+00,2.798042535781860352e+00,2.733756303787231445e+00,2.672358036041259766e+00,2.613656997680664062e+00,2.557479381561279297e+00,2.503665924072265625e+00,2.452070474624633789e+00,2.402558565139770508e+00,2.355006694793701172e+00,2.309300422668457031e+00,2.265334606170654297e+00,2.223011493682861328e+00,2.182240962982177734e+00,2.142939090728759766e+00,2.105027675628662109e+00,2.068434238433837891e+00,2.033091545104980469e+00,1.998936295509338379e+00,1.965909600257873535e+00,1.933956503868103027e+00,1.903025507926940918e+00,1.873068332672119141e+00,1.844039797782897949e+00
5.000000000000000000e+00,5.000000000000000000e+00,5.000000000000000000e+00,5.000000000000000000e+00,5.000000000000000000e+00,5.000000000000000000e+00,5.000000000000000000e+00,5.000000000000000000e+00,5.000000000000000000e+00,5.000000000000000000e+00,5.000000000000000000e+00,5.000000000000000000e+00,5.000000000000000000e+00,5.000000000000000000e+00,5.000000000000000000e+00,5.000000000000000000e+00,5.000000000000000000e+00,5.000000000000000000e+00,5.000000000000000000e+00,5.000000000000000000e+00,5.000000000000000000e+00,5.000000000000000000e+00,5.000000000000000000e+00,5.000000000000000000e+00,5.000000000000000000e+00,5.000000000000000000e+00,5.000000000000000000e+00,5.000000000000000000e+00,5.000000000000000000e+00,5.000000000000000000e+00,5.000000000000000000e+00,5.000000000000000000e+00,5.000000000000000000e+00,5.000000000000000000e+00,5.000000000000000000e+00,5.000000000000000000e+00,1.979017019271850586e+00,1.948697566986083984e+00,1.937631607055664062e+00,4.851797103881835938e+00,4.661711692810058594e+00,4.485958576202392578e+00,4.322976112365722656e+00,4.171421527862548828e+00,4.030133247375488281e+00,3.898102760314941406e+00,1.680374860763549805e+00,1.659422874450683594e+00,1.657123446464538574e+00,1.667639017105102539e+00,3.349447965621948242e+00,3.257743120193481445e+00,3.170926094055175781e+00,3.088616132736206055e+00,3.010471343994140625e+00,2.936182975769042969e+00,2.865472793579101562e+00,2.798088312149047852e+00,2.733800172805786133e+00,2.672399997711181641e+00,2.613697290420532227e+00,2.557517766952514648e+00,2.503702878952026367e+00,2.452105760574340820e+00,2.402592420578002930e+00,2.355039119720458984e+00,2.309331655502319336e+00,2.265364646911621094e+00,2.223040580749511719e+00,2.182269096374511719e+00,2.142966032028198242e+00,2.105053663253784180e+00,2.068459272384643555e+00,2.033115863800048828e+00,1.998959541320800781e+00,1.965932250022888184e+00,1.933978438377380371e+00,1.903046727180480957e+00,1.873088836669921875e+00,1.844059586524963379e+00
5.000000000000000000e+00,5.000000000000000000e+00,5.000000000000000000e+00,5.000000000000000000e+00,5.000000000000000000e+00,5.000000000000000000e+00,5.000000000000000000e+00,5.000000000000000000e+00,5.000000000000000000e+00,5.000000000000000000e+00,5.000000000000000000e+00,5.000000000000000000e+00,5.000000000000000000e+00,5.000000000000000000e+00,5.000000000000000000e+00,5.000000000000000000e+00,5.000000000000000000e+00,5.000000000000000000e+00,5.000000000000000000e+00,5.000000000000000000e+00,5.000000000000000000e+00,5.000000000000000000e+00,5.000000000000000000e+00,5.000000000000000000e+00,5.000000000000000000e+00,5.000000000000000000e+00,5.000000000000000000e+00,5.000000000000000000e+00,5.000000000000000000e+00,5.000000000000000000e+00,5.000000000000000000e+00,5.000000000000000000e+00,5.000000000000000000e+00,5.000000000000000000e+00,5.000000000000000000e+00,5.000000000000000000e+00,1.998763322830200195e+00,1.970885157585144043e+00,1.972732901573181152e+00,4.851934909820556641e+00,4.661839008331298828e+00,4.486076354980468750e+00,4.323085784912109375e+00,4.171523571014404297e+00,4.030228614807128906e+00,3.898191928863525391e+00,1.678822159767150879e+00,1.656796693801879883e+00,1.655273795127868652e+00,1.660201072692871094e+00,3.349513769149780273e+00,3.257805585861206055e+00,3.170984983444213867e+00,3.088672161102294922e+00,3.010524511337280273e+00,2.936233758926391602e+00,2.865520954132080078e+00,2.798134326934814453e+00,2.733844041824340820e+00,2.672441959381103516e+00,2.613737344741821289e+00,2.557556390762329102e+00,2.503739595413208008e+00,2.452141046524047852e+00,2.402626276016235352e+00,2.355071783065795898e+00,2.309362888336181641e+00,2.265394926071166992e+00,2.223069667816162109e+00,2.182296991348266602e+00,2.142992973327636719e+00,2.105079650878906250e+00,2.068484306335449219e+00,2.033139944076538086e+00,1.998983144760131836e+00,1.965955018997192383e+00,1.934000492095947266e+00,1.903068065643310547e+00,1.873109579086303711e+00,1.844079494476318359e+00
5.000000000000000000e+00,5.000000000000000000e+00,5.000000000000000000e+00,5.000000000000000000e+00,5.000000000000000000e+00,5.000000000000000000e+00,5.000000000000000000e+00,5.000000000000000000e+00,5.000000000000000000e+00,5.000000000000000000e+00,5.000000000000000000e+00,5.000000000000000000e+00,5.000000000000000000e+00,5.000000000000000000e+00,5.000000000000000000e+00,5.000000000000000000e+00,5.000000000000000000e+00,5.000000000000000000e+00,5.000000000000000000e+00,5.000000000000000000e+00,5.000000000000000000e+00,5.000000000000000000e+00,5.000000000000000000e+00,5.000000000000000000e+00,5.000000000000000000e+00,5.000000000000000000e+00,5.000000000000000000e+00,5.000000000000000000e+00,5.000000000000000000e+00,5.000000000000000000e+00,5.000000000000000000e+00,5.000000000000000000e+00,5.000000000000000000e+00,5.000000000000000000e+00,5.000000000000000000e+00,2.090816497802734375e+00,2.019475936889648438e+00,1.993602514266967773e+00,2.023869991302490234e+00,4.852073192596435547e+00,4.661965847015380859e+00,4.486194610595703125e+00,4.323195457458496094e+00,4.171625614166259766e+00,4.030323982238769531e+00,3.898281335830688477e+00,1.677663207054138184e+00,1.654178857803344727e+00,1.652660727500915527e+00,1.652828931808471680e+00,3.349579811096191406e+00,3.257867813110351562e+00,3.171044111251831055e+00,3.088728189468383789e+00,3.010577678680419922e+00,2.936284303665161133e+00,2.865569353103637695e+00,2.798180341720581055e+00,2.733887910842895508e+00,2.672483921051025391e+00,2.613777399063110352e+00,2.557594776153564453e+00,2.503776311874389648e+00,2.452176332473754883e+00,2.402660131454467773e+00,2.355104207992553711e+00,2.309394359588623047e+00,2.265424966812133789e+00,2.223098516464233398e+00,2.182324886322021484e+00,2.143019914627075195e+00,2.105105638504028320e+00,2.068509578704833984e+00,2.033164262771606445e+00,1.999006509780883789e+00,1.965977549552917480e+00,1.934022307395935059e+00,1.903089284896850586e+00,1.873130083084106445e+00,1.844099521636962891e+00
5.000000000000000000e+00,5.000000000000000000e+00,5.000000000000000000e+00,5.000000000000000000e+00,5.000000000000000000e+00,5.000000000000000000e+00,5.000000000000000000e+00,5.000000000000000000e+00,5.000000000000000000e+00,5.000000000000000000e+00,5.000000000000000000e+00,5.000000000000000000e+00,5.000000000000000000e+00,5.000000000000000000e+00,5.000000000000000000e+00,5.000000000000000000e+00,5.000000000000000000e+00,5.000000000000000000e+00,5.000000000000000000e+00,5.000000000000000000e+00,5.000000000000000000e+00,5.000000000000000000e+00,5.000000000000000000e+00,5.000000000000000000e+00,5.000000000000000000e+00,5.000000000000000000e+00,5.000000000000000000e+00,5.000000000000000000e+00,5.000000000000000000e+00,5.000000000000000000e+00,5.000000000000000000e+00,5.000000000000000000e+00,5.000000000000000000e+00,5.000000000000000000e+00,5.000000000000000000e+00,2.079347133636474609e+00,2.041100978851318359e+00,2.017450332641601562e+00,5.000000000000000000e+00,4.852210998535156250e+00,4.662093162536621094e+00,4.486312389373779297e+00,4.323305130004882812e+00,4.171728134155273438e+00,4.030418872833251953e+00,3.898370027542114258e+00,1.677486777305603027e+00,1.651853561401367188e+00,1.650233507156372070e+00,1.648616433143615723e+00,3.349645614624023438e+00,3.257930040359497070e+00,3.171103239059448242e+00,3.088784217834472656e+00,3.010630846023559570e+00,2.936334848403930664e+00,2.865617513656616211e+00,2.798226356506347656e+00,2.733931779861450195e+00,2.672525882720947266e+00,2.613817214965820312e+00,2.557632923126220703e+00,2.503813028335571289e+00,2.452211618423461914e+00,2.402693986892700195e+00,2.355136871337890625e+00,2.309425592422485352e+00,2.265455245971679688e+00,2.223127603530883789e+00,2.182352781295776367e+00,2.143046855926513672e+00,2.105131626129150391e+00,2.068534612655639648e+00,2.033188581466674805e+00,1.999030113220214844e+00,1.966000437736511230e+00,1.934044122695922852e+00,1.903110384941101074e+00,1.873150587081909180e+00,1.844119429588317871e+00
5.000000000000000000e+00,5.000000000000000000e+00,5.000000000000000000e+00,5.000000000000000000e+00,5.000000000000000000e+00,5.000000000000000000e+00,5.000000000000000000e+00,5.000000000000000000e+00,5.000000000000000000e+00,5.000000000000000000e+00,5.000000000000000000e+00,5.000000000000000000e+00,5.000000000000000000e+00,5.000000000000000000e+00,5.000000000000000000e+00,5.000000000000000000e+00,5.000000000000000000e+00,5.000000000000000000e+00,5.000000000000000000e+00,5.000000000000000000e+00,5.000000000000000000e+00,5.000000000000000000e+00,5.000000000000000000e+00,5.000000000000000000e+00,5.000000000000000000e+00,5.000000000000000000e+00,5.000000000000000000e+00,5.000000000000000000e+00,5.000000000000000000e+00,5.000000000000000000e+00,5.000000000000000000e+00,5.000000000000000000e+00,5.000000000000000000e+00,5.000000000000000000e+00,5.000000000000000000e+00,2.103997468948364258e+00,2.065358400344848633e+00,2.053281068801879883e+00,5.000000000000000000e+00,4.852348804473876953e+00,4.662220954895019531e+00,4.486430168151855469e+00,4.323414325714111328e+00,4.171829700469970703e+00,4.030514240264892578e+00,3.898459196090698242e+00,1.679084897041320801e+00,1.652091741561889648e+00,1.648497223854064941e+00,1.669510841369628906e+00,3.349711418151855469e+00,3.257992506027221680e+00,3.171162128448486328e+00,3.088840246200561523e+00,3.010684013366699219e+00,2.936385631561279297e+00,2.865665674209594727e+00,2.798272371292114258e+00,2.733975648880004883e+00,2.672567605972290039e+00,2.613857507705688477e+00,2.557671308517456055e+00,2.503849744796752930e+00,2.452246904373168945e+00,2.402727842330932617e+00,2.355169296264648438e+00,2.309456825256347656e+00,2.265485286712646484e+00,2.223156690597534180e+00,2.182380914688110352e+00,2.143073797225952148e+00,2.105157613754272461e+00,2.068559885025024414e+00,2.033212900161743164e+00,1.999053359031677246e+00,1.966022968292236328e+00,1.934066176414489746e+00,1.903131723403930664e+00,1.873171210289001465e+00,1.844139456748962402e+00
5.000000000000000000e+00,5.000000000000000000e+00,5.000000000000000000e+00,5.000000000000000000e+00,5.000000000000000000e+00,5.000000000000000000e+00,5.000000000000000000e+00,5.000000000000000000e+00,5.000000000000000000e+00,5.000000000000000000e+00,5.000000000000000000e+00,5.000000000000000000e+00,5.000000000000000000e+00,5.000000000000000000e+00,5.000000000000000000e+00,5.000000000000000000e+00,5.000000000000000000e+00,5.000000000000000000e+00,5.000000000000000000e+00,5.000000000000000000e+00,5.000000000000000000e+00,5.000000000000000000e+00,5.000000000000000000e+00,5.000000000000000000e+00,5.000000000000000000e+00,5.000000000000000000e+00,5.000000000000000000e+00,5.000000000000000000e+00,5.000000000000000000e+00,5.000000000000000000e+00,5.000000000000000000e+00,5.000000000000000000e+00,5.000000000000000000e+00,5.000000000000000000e+00,5.000000000000000000e+00,2.129625082015991211e+00,2.091866731643676758e+00,2.111032009124755859e+00,5.000000000000000000e+00,4.852487087249755859e+00,4.662348270416259766e+00,4.486547946929931641e+00,4.323523998260498047e+00,4.171932220458984375e+00,4.030609607696533203e+00,3.898548364639282227e+00,1.680685997009277344e+00,1.653538703918457031e+00,1.646764516830444336e+00,1.668044805526733398e+00,3.349777460098266602e+00,3.258054733276367188e+00,3.171221256256103516e+00,3.088896036148071289e+00,3.010737180709838867e+00,2.936436176300048828e+00,2.865713596343994141e+00,2.798317909240722656e+00,2.734019517898559570e+00,2.672609567642211914e+00,2.613897562026977539e+00,2.557709693908691406e+00,2.503886699676513672e+00,2.452282190322875977e+00,2.402761697769165039e+00,2.355201959609985352e+00,2.309488296508789062e+00,2.265515327453613281e+00,2.223185777664184570e+00,2.182408809661865234e+00,2.143100738525390625e+00,2.105183839797973633e+00,2.068584680557250977e+00,2.033236980438232422e+00,1.999076724052429199e+00,1.966045618057250977e+00,1.934088110923767090e+00,1.903152942657470703e+00,1.873191714286804199e+00,1.844159364700317383e+00
4.875537872314453125e+00,4.874327659606933594e+00,4.873117923736572266e+00,4.871908664703369141e+00,4.870699882507324219e+00,4.869492053985595703e+00,4.868284702301025391e+00,4.867077827453613281e+00,4.865871429443359375e+00,4.864666461944580078e+00,4.863461017608642578e+00,4.862257003784179688e+00,4.861052989959716797e+00,4.859849929809570312e+00,4.858647346496582031e+00,4.857445240020751953e+00,4.856243610382080078e+00,4.855042934417724609e+00,4.853842735290527344e+00,4.852643013000488281e+00,4.851444244384765625e+00,4.850245475769042969e+00,4.849047660827636719e+00,4.847850322723388672e+00,4.846653938293457031e+00,4.845457553863525391e+00,4.844262123107910156e+00,4.843067169189453125e+00,4.841872692108154297e+00,4.840679168701171875e+00,4.839486122131347656e+00,4.838293552398681641e+00,4.837101459503173828e+00,4.835909843444824219e+00,4.834719181060791016e+00,2.163179397583007812e+00,2.142301082611083984e+00,4.831150054931640625e+00,4.829961776733398438e+00,4.828773975372314453e+00,4.662475585937500000e+00,4.486666202545166016e+00,4.323633193969726562e+00,4.172033786773681641e+00,4.030704975128173828e+00,3.898637771606445312e+00,1.686536431312561035e+00,1.654988288879394531e+00,1.645035505294799805e+00,3.446883916854858398e+00,3.349843263626098633e+00,3.258117198944091797e+00,3.171280384063720703e+00,3.088952064514160156e+00,3.010790348052978516e+00,2.936486482620239258e+00,2.865761995315551758e+00,2.798363924026489258e+00,2.734063386917114258e+00,2.672651290893554688e+00,2.613937616348266602e+00,2.557748079299926758e+00,2.503923416137695312e+00,2.452317476272583008e+00,2.402795791625976562e+00,2.355234622955322266e+00,2.309519529342651367e+00,2.265545368194580078e+00,2.223214626312255859e+00,2.182436704635620117e+00,2.143127679824829102e+00,2.105209589004516602e+00,2.068609952926635742e+00,2.033261299133300781e+00,1.999100327491760254e+00,1.966068387031555176e+00,1.934110164642333984e+00,1.903174281120300293e+00,1.873212456703186035e+00,1.844179391860961914e+00
3.778391361236572266e+00,3.777664422988891602e+00,3.776937723159790039e+00,3.776211261749267578e+00,3.775485038757324219e+00,3.774759292602539062e+00,3.774033784866333008e+00,3.773308277130126953e+00,3.772583246231079102e+00,3.771858692169189453e+00,3.771134138107299805e+00,3.770409822463989258e+00,3.769685983657836914e+00,3.768962383270263672e+00,3.768239021301269531e+00,3.767515897750854492e+00,3.766793251037597656e+00,3.766070604324340820e+00,3.765348434448242188e+00,3.764626502990722656e+00,3.763904809951782227e+00,3.763183355331420898e+00,3.762462139129638672e+00,3.761741399765014648e+00,3.761020660400390625e+00,3.760300397872924805e+00,3.759580373764038086e+00,3.758860588073730469e+00,3.758141279220581055e+00,3.757421970367431641e+00,3.756703138351440430e+00,3.755984306335449219e+00,3.755265951156616211e+00,3.754547834396362305e+00,3.753829956054687500e+00,2.158896923065185547e+00,2.139065504074096680e+00,3.751678228378295898e+00,3.750961303710937500e+00,3.750244855880737305e+00,3.749528646469116211e+00,3.748812913894653320e+00,3.748097181320190430e+00,3.747382164001464844e+00,3.746666669845581055e+00,3.745952367782592773e+00,1.709228277206420898e+00,1.656440496444702148e+00,1.643310070037841797e+00,3.446953535079956055e+00,3.349909067153930664e+00,3.258179426193237305e+00,3.171339035034179688e+00,3.089007854461669922e+00,3.010843515396118164e+00,2.936537265777587891e+00,2.865810155868530273e+00,2.798409938812255859e+00,2.734107255935668945e+00,2.672693252563476562e+00,2.613977670669555664e+00,2.557786464691162109e+00,2.503960371017456055e+00,2.452352762222290039e+00,2.402829647064208984e+00,2.355267047882080078e+00,2.309550762176513672e+00,2.265575647354125977e+00,2.223243474960327148e+00,2.182464599609375000e+00,2.143154621124267578e+00,2.105235576629638672e+00,2.068634986877441406e+00,2.033285617828369141e+00,1.999123692512512207e+00,1.966090917587280273e+00,1.934131979942321777e+00,1.903195500373840332e+00,1.873232960700988770e+00,1.844199299812316895e+00
3.084323167800903320e+00,3.083838701248168945e+00,3.083354473114013672e+00,3.082870244979858398e+00,3.082386255264282227e+00,3.081902503967285156e+00,3.081418752670288086e+00,3.080935239791870117e+00,3.080451965332031250e+00,3.079968929290771484e+00,3.079485893249511719e+00,3.079003095626831055e+00,3.078520298004150391e+00,3.078037500381469727e+00,3.077555179595947266e+00,3.077072858810424805e+00,3.076590538024902344e+00,3.076108694076538086e+00,3.075626611709594727e+00,3.075145006179809570e+00,3.074663400650024414e+00,3.074182033538818359e+00,3.073700666427612305e+00,3.073219537734985352e+00,3.072738647460937500e+00,3.072257757186889648e+00,3.071777105331420898e+00,3.071296691894531250e+00,3.070816278457641602e+00,3.070336103439331055e+00,3.069855928421020508e+00,3.069375991821289062e+00,3.068896293640136719e+00,3.068416833877563477e+00,3.067937374114990234e+00,2.139941215515136719e+00,2.128295421600341797e+00,2.136262893676757812e+00,3.066020965576171875e+00,3.065542221069335938e+00,3.065063714981079102e+00,3.064585447311401367e+00,3.064107179641723633e+00,3.063628911972045898e+00,3.063150882720947266e+00,3.062673091888427734e+00,3.062195539474487305e+00,1.669234156608581543e+00,1.654417276382446289e+00,3.060763359069824219e+00,3.060286283493041992e+00,3.059809446334838867e+00,3.059332609176635742e+00,3.058856010437011719e+00,3.010896682739257812e+00,2.936587810516357422e+00,2.865858316421508789e+00,2.798455953598022461e+00,2.734151124954223633e+00,2.672735214233398438e+00,2.614017963409423828e+00,2.557824850082397461e+00,2.503997087478637695e+00,2.452388048171997070e+00,2.402863502502441406e+00,2.355299711227416992e+00,2.309582233428955078e+00,2.265605449676513672e+00,2.223272562026977539e+00,2.182492494583129883e+00,2.143181562423706055e+00,2.105261564254760742e+00,2.068660259246826172e+00,2.033309698104858398e+00,1.999147295951843262e+00,1.966113805770874023e+00,1.934154033660888672e+00,1.903216838836669922e+00,1.873253703117370605e+00,1.844219326972961426e+00
2.605676174163818359e+00,2.605330228805541992e+00,2.604984760284423828e+00,2.604639053344726562e+00,2.604293584823608398e+00,2.603948116302490234e+00,2.603602886199951172e+00,2.603257656097412109e+00,2.602912664413452148e+00,2.602567434310913086e+00,2.602222681045532227e+00,2.601877689361572266e+00,2.601532936096191406e+00,2.601188421249389648e+00,2.600843667984008789e+00,2.600499391555786133e+00,2.600154876708984375e+00,2.599810600280761719e+00,2.599466323852539062e+00,2.599122285842895508e+00,2.598778247833251953e+00,2.598434209823608398e+00,2.598090410232543945e+00,2.597746610641479492e+00,2.597403049468994141e+00,2.597059488296508789e+00,2.596715927124023438e+00,2.596372604370117188e+00,2.596029281616210938e+00,2.595686197280883789e+00,2.595342874526977539e+00,2.595000028610229492e+00,2.594656944274902344e+00,2.594314098358154297e+00,2.593971490859985352e+00,2.124489307403564453e+00,2.110552549362182617e+00,2.120730876922607422e+00,2.592601299285888672e+00,2.592258930206298828e+00,2.591916799545288086e+00,2.591574668884277344e+00,2.591232776641845703e+00,2.590890884399414062e+00,2.590548992156982422e+00,2.590207338333129883e+00,2.589865684509277344e+00,1.661683559417724609e+00,1.644164681434631348e+00,2.588841199874877930e+00,2.588499784469604492e+00,2.588158607482910156e+00,2.587817668914794922e+00,2.587476491928100586e+00,2.587135553359985352e+00,2.586794614791870117e+00,2.586453914642333984e+00,2.586113214492797852e+00,2.585772752761840820e+00,2.585432291030883789e+00,2.585091829299926758e+00,2.557863235473632812e+00,2.504033803939819336e+00,2.452423334121704102e+00,2.402897357940673828e+00,2.355332136154174805e+00,2.309613227844238281e+00,2.265635728836059570e+00,2.223301649093627930e+00,2.182520627975463867e+00,2.143208503723144531e+00,2.105287790298461914e+00,2.068685293197631836e+00,2.033334016799926758e+00,1.999170660972595215e+00,1.966136336326599121e+00,1.934175968170166016e+00,1.903237938880920410e+00,1.873274207115173340e+00,1.844239234924316406e+00
2.255638122558593750e+00,2.255378723144531250e+00,2.255119323730468750e+00,2.254860162734985352e+00,2.254601001739501953e+00,2.254341840744018555e+00,2.254082679748535156e+00,2.253823518753051758e+00,2.253564596176147461e+00,2.253305673599243164e+00,2.253046751022338867e+00,2.252788066864013672e+00,2.252529144287109375e+00,2.252270460128784180e+00,2.252012014389038086e+00,2.251753330230712891e+00,2.251494884490966797e+00,2.251236438751220703e+00,2.250977993011474609e+00,2.250719547271728516e+00,2.250461339950561523e+00,2.250203132629394531e+00,2.249944925308227539e+00,2.249686956405639648e+00,2.249429225921630859e+00,2.249171495437622070e+00,2.248913764953613281e+00,2.248656272888183594e+00,2.248398780822753906e+00,2.248141288757324219e+00,2.247884035110473633e+00,2.247626543045043945e+00,2.247369289398193359e+00,2.247112035751342773e+00,2.246855020523071289e+00,2.246597766876220703e+00,2.246340751647949219e+00,2.086773633956909180e+00,2.094666719436645508e+00,2.245569944381713867e+00,2.245313167572021484e+00,2.245056390762329102e+00,2.244799852371215820e+00,2.244543075561523438e+00,2.244286537170410156e+00,2.244030237197875977e+00,2.243773698806762695e+00,1.649047851562500000e+00,1.611810326576232910e+00,1.611376404762268066e+00,2.242748498916625977e+00,2.242492198944091797e+00,2.242236137390136719e+00,2.241980075836181641e+00,2.241724252700805664e+00,2.241468191146850586e+00,2.241212368011474609e+00,2.240956544876098633e+00,2.240700960159301758e+00,2.240445137023925781e+00,2.240189552307128906e+00,2.239933967590332031e+00,2.239678382873535156e+00,2.239423036575317383e+00,2.239167690277099609e+00,2.238912343978881836e+00,2.238656997680664062e+00,2.238401651382446289e+00,2.223330736160278320e+00,2.182548522949218750e+00,2.143235445022583008e+00,2.105313777923583984e+00,2.068710327148437500e+00,2.033358335494995117e+00,1.999194145202636719e+00,1.966159105300903320e+00,1.934198021888732910e+00,1.903259396553039551e+00,1.873294830322265625e+00,1.844259142875671387e+00
1.988522171974182129e+00,1.988320469856262207e+00,1.988119006156921387e+00,1.987917423248291016e+00,1.987716078758239746e+00,1.987514495849609375e+00,1.987313151359558105e+00,1.987111687660217285e+00,1.986910462379455566e+00,1.986709117889404297e+00,1.986508011817932129e+00,1.986306667327880859e+00,1.986105561256408691e+00,1.985904335975646973e+00,1.985703349113464355e+00,1.985502243041992188e+00,1.985301375389099121e+00,1.985100269317626953e+00,1.984899520874023438e+00,1.984698534011840820e+00,1.984497785568237305e+00,1.984296798706054688e+00,1.984095931053161621e+00,1.983895421028137207e+00,1.983694553375244141e+00,1.983494043350219727e+00,1.983293414115905762e+00,1.983092904090881348e+00,1.982892274856567383e+00,1.982692003250122070e+00,1.982491374015808105e+00,1.982291102409362793e+00,1.982090711593627930e+00,1.981890439987182617e+00,1.981690049171447754e+00,1.981490015983581543e+00,1.981289625167846680e+00,1.981089711189270020e+00,1.980889439582824707e+00,1.980689525604248047e+00,1.980489373207092285e+00,1.980289459228515625e+00,1.980089426040649414e+00,1.979889631271362305e+00,1.979689598083496094e+00,1.979489922523498535e+00,1.979290008544921875e+00,1.659278512001037598e+00,1.581307768821716309e+00,1.551921129226684570e+00,1.573835015296936035e+00,1.978291749954223633e+00,1.978092074394226074e+00,1.977892756462097168e+00,1.977693200111389160e+00,1.977493882179260254e+00,1.977294325828552246e+00,1.977095127105712891e+00,1.976895689964294434e+00,1.976696610450744629e+00,1.976497173309326172e+00,1.976298093795776367e+00,1.976098895072937012e+00,1.975899934768676758e+00,1.975700736045837402e+00,1.975501775741577148e+00,1.975302696228027344e+00,1.975103855133056641e+00,1.974904894828796387e+00,1.974706053733825684e+00,1.974507212638854980e+00,1.974308490753173828e+00,1.974109649658203125e+00,1.973911046981811523e+00,1.973712325096130371e+00,1.966181755065917969e+00,1.934219837188720703e+00,1.903280496597290039e+00,1.873315334320068359e+00,1.844279170036315918e+00
1.777971982955932617e+00,1.777810811996459961e+00,1.777649641036987305e+00,1.777488470077514648e+00,1.777327418327331543e+00,1.777166366577148438e+00,1.777005434036254883e+00,1.776844263076782227e+00,1.776683449745178223e+00,1.776522397994995117e+00,1.776361584663391113e+00,1.776200532913208008e+00,1.776039838790893555e+00,1.775878906250000000e+00,1.775718212127685547e+00,1.775557279586791992e+00,1.775396704673767090e+00,1.775235891342163086e+00,1.775075316429138184e+00,1.774914503097534180e+00,1.774753928184509277e+00,1.774593353271484375e+00,1.774432778358459473e+00,1.774272203445434570e+00,1.774111747741699219e+00,1.773951172828674316e+00,1.773790836334228516e+00,1.773630380630493164e+00,1.773470044136047363e+00,1.773309588432312012e+00,1.773149371147155762e+00,1.772988915443420410e+00,1.772828698158264160e+00,1.772668361663818359e+00,1.772508263587951660e+00,1.772347927093505859e+00,1.772187948226928711e+00,1.772027611732482910e+00,1.771867632865905762e+00,1.771707534790039062e+00,1.771547555923461914e+00,1.771387457847595215e+00,1.771227478981018066e+00,1.771067500114440918e+00,1.770907640457153320e+00,1.770747661590576172e+00,1.770587801933288574e+00,1.770427942276000977e+00,1.770268201828002930e+00,1.530777573585510254e+00,1.501765966415405273e+00,1.528150081634521484e+00,1.769629240036010742e+00,1.769469499588012695e+00,1.769309878349304199e+00,1.769150137901306152e+00,1.768990635871887207e+00,1.768831014633178711e+00,1.768671631813049316e+00,1.768512010574340820e+00,1.768352627754211426e+00,1.768193125724792480e+00,1.768033742904663086e+00,1.767874360084533691e+00,1.767715096473693848e+00,1.767555594444274902e+00,1.767396211624145508e+00,1.767237067222595215e+00,1.767077684402465820e+00,1.766918659210205078e+00,1.766759276390075684e+00,1.766600251197814941e+00,1.766441106796264648e+00,1.766282081604003906e+00,1.766122937202453613e+00,1.765963912010192871e+00,1.765804886817932129e+00,1.765645980834960938e+00,1.765486955642700195e+00,1.765328168869018555e+00
1.607740044593811035e+00,1.607608318328857422e+00,1.607476472854614258e+00,1.607344865798950195e+00,1.607213020324707031e+00,1.607081413269042969e+00,1.606949687004089355e+00,1.606818079948425293e+00,1.606686353683471680e+00,1.606554746627807617e+00,1.606423139572143555e+00,1.606291651725769043e+00,1.606159925460815430e+00,1.606028556823730469e+00,1.605896949768066406e+00,1.605765461921691895e+00,1.605633974075317383e+00,1.605502605438232422e+00,1.605371117591857910e+00,1.605239748954772949e+00,1.605108261108398438e+00,1.604977011680603027e+00,1.604845643043518066e+00,1.604714155197143555e+00,1.604583024978637695e+00,1.604451656341552734e+00,1.604320406913757324e+00,1.604189157485961914e+00,1.604058027267456055e+00,1.603926658630371094e+00,1.603795647621154785e+00,1.603664398193359375e+00,1.603533387184143066e+00,1.603402137756347656e+00,1.603271126747131348e+00,1.603139996528625488e+00,1.603009104728698730e+00,1.602877974510192871e+00,1.602747082710266113e+00,1.602615952491760254e+00,1.602485060691833496e+00,1.602354049682617188e+00,1.602223277091979980e+00,1.602092266082763672e+00,1.601961493492126465e+00,1.601830601692199707e+00,1.601699829101562500e+00,1.601568937301635742e+00,1.601438283920288086e+00,1.601307392120361328e+00,1.601176738739013672e+00,1.601045966148376465e+00,1.600915312767028809e+00,1.600784540176391602e+00,1.600654006004333496e+00,1.600523233413696289e+00,1.600392699241638184e+00,1.600262045860290527e+00,1.600131630897521973e+00,1.600000977516174316e+00,1.599870443344116211e+00,1.599739909172058105e+00,1.599609494209289551e+00,1.599478960037231445e+00,1.599348545074462891e+00,1.599218130111694336e+00,1.599087715148925781e+00,1.598957300186157227e+00,1.598827004432678223e+00,1.598696589469909668e+00,1.598566412925720215e+00,1.598435997962951660e+00,1.598305821418762207e+00,1.598175525665283203e+00,1.598045349121093750e+00,1.597915053367614746e+00,1.597784876823425293e+00,1.597654700279235840e+00,1.597524642944335938e+00,1.597394466400146484e+00
1.467257499694824219e+00,1.467147827148437500e+00,1.467037916183471680e+00,1.466928243637084961e+00,1.466818451881408691e+00,1.466708898544311523e+00,1.466599106788635254e+00,1.466489553451538086e+00,1.466379761695861816e+00,1.466270208358764648e+00,1.466160535812377930e+00,1.466050982475280762e+00,1.465941309928894043e+00,1.465831875801086426e+00,1.465722203254699707e+00,1.465612769126892090e+00,1.465503096580505371e+00,1.465393662452697754e+00,1.465284109115600586e+00,1.465174674987792969e+00,1.465065240859985352e+00,1.464955806732177734e+00,1.464846372604370117e+00,1.464736938476562500e+00,1.464627504348754883e+00,1.464518189430236816e+00,1.464408755302429199e+00,1.464299559593200684e+00,1.464190125465393066e+00,1.464080810546875000e+00,1.463971495628356934e+00,1.463862299919128418e+00,1.463752985000610352e+00,1.463643789291381836e+00,1.463534474372863770e+00,1.463425278663635254e+00,1.463316082954406738e+00,1.463207006454467773e+00,1.463097691535949707e+00,1.462988615036010742e+00,1.462879419326782227e+00,1.462770462036132812e+00,1.462661266326904297e+00,1.462552189826965332e+00,1.462443113327026367e+00,1.462334156036376953e+00,1.462225079536437988e+00,1.462116122245788574e+00,1.462007045745849609e+00,1.461898088455200195e+00,1.461789011955261230e+00,1.461680173873901367e+00,1.461571216583251953e+00,1.461462259292602539e+00,1.461353302001953125e+00,1.461244583129882812e+00,1.461135625839233398e+00,1.461026787757873535e+00,1.460917949676513672e+00,1.460809111595153809e+00,1.460700273513793945e+00,1.460591554641723633e+00,1.460482716560363770e+00,1.460373997688293457e+00,1.460265159606933594e+00,1.460156559944152832e+00,1.460047721862792969e+00,1.459939002990722656e+00,1.459830403327941895e+00,1.459721684455871582e+00,1.459613084793090820e+00,1.459504365921020508e+00,1.459395885467529297e+00,1.459287166595458984e+00,1.459178686141967773e+00,1.459070086479187012e+00,1.458961606025695801e+00,1.458853006362915039e+00,1.458744525909423828e+00,1.458635926246643066e+00
1.349352598190307617e+00,1.349259734153747559e+00,1.349166870117187500e+00,1.349074006080627441e+00,1.348981261253356934e+00,1.348888516426086426e+00,1.348795771598815918e+00,1.348702907562255859e+00,1.348610281944274902e+00,1.348517417907714844e+00,1.348424792289733887e+00,1.348332047462463379e+00,1.348239421844482422e+00,1.348146677017211914e+00,1.348054051399230957e+00,1.347961306571960449e+00,1.347868680953979492e+00,1.347776055335998535e+00,1.347683429718017578e+00,1.347590804100036621e+00,1.347498297691345215e+00,1.347405672073364258e+00,1.347313046455383301e+00,1.347220540046691895e+00,1.347127914428710938e+00,1.347035527229309082e+00,1.346942901611328125e+00,1.346850514411926270e+00,1.346757888793945312e+00,1.346665501594543457e+00,1.346572995185852051e+00,1.346480607986450195e+00,1.346388101577758789e+00,1.346295714378356934e+00,1.346203207969665527e+00,1.346110820770263672e+00,1.346018433570861816e+00,1.345926165580749512e+00,1.345833659172058105e+00,1.345741391181945801e+00,1.345649003982543945e+00,1.345556735992431641e+00,1.345464348793029785e+00,1.345372080802917480e+00,1.345279812812805176e+00,1.345187544822692871e+00,1.345095157623291016e+00,1.345003008842468262e+00,1.344910740852355957e+00,1.344818592071533203e+00,1.344726324081420898e+00,1.344634175300598145e+00,1.344541907310485840e+00,1.344449758529663086e+00,1.344357490539550781e+00,1.344265460968017578e+00,1.344173192977905273e+00,1.344081163406372070e+00,1.343989014625549316e+00,1.343896985054016113e+00,1.343804836273193359e+00,1.343712806701660156e+00,1.343620657920837402e+00,1.343528628349304199e+00,1.343436598777770996e+00,1.343344569206237793e+00,1.343252539634704590e+00,1.343160629272460938e+00,1.343068599700927734e+00,1.342976689338684082e+00,1.342884659767150879e+00,1.342792749404907227e+00,1.342700719833374023e+00,1.342608809471130371e+00,1.342516899108886719e+00,1.342424988746643066e+00,1.342333078384399414e+00,1.342241287231445312e+00,1.342149376869201660e+00,1.342057585716247559e+00
1.248987197875976562e+00,1.248907685279846191e+00,1.248828172683715820e+00,1.248748660087585449e+00,1.248669147491455078e+00,1.248589634895324707e+00,1.248510122299194336e+00,1.248430609703063965e+00,1.248351216316223145e+00,1.248271703720092773e+00,1.248192310333251953e+00,1.248112797737121582e+00,1.248033404350280762e+00,1.247954010963439941e+00,1.247874617576599121e+00,1.247795104980468750e+00,1.247715830802917480e+00,1.247636437416076660e+00,1.247557044029235840e+00,1.247477650642395020e+00,1.247398376464843750e+00,1.247318983078002930e+00,1.247239708900451660e+00,1.247160315513610840e+00,1.247081041336059570e+00,1.247001767158508301e+00,1.246922492980957031e+00,1.246843099594116211e+00,1.246763944625854492e+00,1.246684670448303223e+00,1.246605396270751953e+00,1.246526122093200684e+00,1.246446967124938965e+00,1.246367692947387695e+00,1.246288537979125977e+00,1.246209263801574707e+00,1.246130108833312988e+00,1.246050953865051270e+00,1.245971798896789551e+00,1.245892643928527832e+00,1.245813488960266113e+00,1.245734333992004395e+00,1.245655179023742676e+00,1.245576024055480957e+00,1.245496988296508789e+00,1.245417833328247070e+00,1.245338797569274902e+00,1.245259761810302734e+00,1.245180726051330566e+00,1.245101571083068848e+00,1.245022535324096680e+00,1.244943499565124512e+00,1.244864463806152344e+00,1.244785428047180176e+00,1.244706511497497559e+00,1.244627475738525391e+00,1.244548559188842773e+00,1.244469523429870605e+00,1.244390606880187988e+00,1.244311571121215820e+00,1.244232654571533203e+00,1.244153738021850586e+00,1.244074821472167969e+00,1.243995904922485352e+00,1.243916988372802734e+00,1.243838071823120117e+00,1.243759155273437500e+00,1.243680238723754883e+00,1.243601322174072266e+00,1.243522524833679199e+00,1.243443727493286133e+00,1.243364930152893066e+00,1.243286013603210449e+00,1.243207216262817383e+00,1.243128418922424316e+00,1.243049621582031250e+00,1.242970824241638184e+00,1.242892146110534668e+00,1.242813229560852051e+00,1.242734551429748535e+00
1.162518739700317383e+00,1.162449836730957031e+00,1.162380933761596680e+00,1.162312030792236328e+00,1.162243127822875977e+00,1.162174224853515625e+00,1.162105321884155273e+00,1.162036538124084473e+00,1.161967635154724121e+00,1.161898851394653320e+00,1.161829948425292969e+00,1.161761164665222168e+00,1.161692380905151367e+00,1.161623597145080566e+00,1.161554694175720215e+00,1.161485910415649414e+00,1.161417126655578613e+00,1.161348342895507812e+00,1.161279559135437012e+00,1.161210894584655762e+00,1.161142110824584961e+00,1.161073327064514160e+00,1.161004543304443359e+00,1.160935759544372559e+00,1.160867094993591309e+00,1.160798430442810059e+00,1.160729765892028809e+00,1.160660982131958008e+00,1.160592317581176758e+00,1.160523653030395508e+00,1.160454988479614258e+00,1.160386204719543457e+00,1.160317659378051758e+00,1.160248994827270508e+00,1.160180330276489258e+00,1.160111665725708008e+00,1.160043120384216309e+00,1.159974455833435059e+00,1.159905910491943359e+00,1.159837245941162109e+00,1.159768700599670410e+00,1.159700036048889160e+00,1.159631490707397461e+00,1.159562945365905762e+00,1.159494400024414062e+00,1.159425854682922363e+00,1.159357309341430664e+00,1.159288763999938965e+00,1.159220218658447266e+00,1.159151673316955566e+00,1.159083247184753418e+00,1.159014701843261719e+00,1.158946156501770020e+00,1.158877611160278320e+00,1.158809185028076172e+00,1.158740758895874023e+00,1.158672332763671875e+00,1.158603787422180176e+00,1.158535361289978027e+00,1.158466935157775879e+00,1.158398509025573730e+00,1.158330082893371582e+00,1.158261775970458984e+00,1.158193230628967285e+00,1.158124923706054688e+00,1.158056497573852539e+00,1.157988190650939941e+00,1.157919764518737793e+00,1.157851457595825195e+00,1.157783031463623047e+00,1.157714724540710449e+00,1.157646298408508301e+00,1.157577991485595703e+00,1.157509684562683105e+00,1.157441377639770508e+00,1.157373070716857910e+00,1.157304763793945312e+00,1.157236456871032715e+00,1.157168269157409668e+00,1.157099843025207520e+00
1.087247490882873535e+00,1.087187290191650391e+00,1.087126970291137695e+00,1.087066769599914551e+00,1.087006449699401855e+00,1.086946249008178711e+00,1.086885929107666016e+00,1.086825728416442871e+00,1.086765527725219727e+00,1.086705327033996582e+00,1.086645007133483887e+00,1.086584925651550293e+00,1.086524605751037598e+00,1.086464524269104004e+00,1.086404204368591309e+00,1.086344122886657715e+00,1.086283922195434570e+00,1.086223721504211426e+00,1.086163640022277832e+00,1.086103439331054688e+00,1.086043238639831543e+00,1.085983157157897949e+00,1.085922956466674805e+00,1.085862874984741211e+00,1.085802793502807617e+00,1.085742712020874023e+00,1.085682511329650879e+00,1.085622429847717285e+00,1.085562348365783691e+00,1.085502266883850098e+00,1.085442185401916504e+00,1.085382103919982910e+00,1.085322022438049316e+00,1.085262060165405273e+00,1.085201978683471680e+00,1.085141897201538086e+00,1.085081815719604492e+00,1.085021853446960449e+00,1.084961771965026855e+00,1.084901809692382812e+00,1.084841728210449219e+00,1.084781765937805176e+00,1.084721684455871582e+00,1.084661722183227539e+00,1.084601759910583496e+00,1.084541797637939453e+00,1.084481835365295410e+00,1.084421873092651367e+00,1.084361910820007324e+00,1.084301948547363281e+00,1.084241986274719238e+00,1.084182024002075195e+00,1.084122061729431152e+00,1.084062218666076660e+00,1.084002256393432617e+00,1.083942413330078125e+00,1.083882451057434082e+00,1.083822488784790039e+00,1.083762645721435547e+00,1.083702802658081055e+00,1.083642840385437012e+00,1.083582997322082520e+00,1.083523154258728027e+00,1.083463311195373535e+00,1.083403348922729492e+00,1.083343625068664551e+00,1.083283662796020508e+00,1.083223819732666016e+00,1.083163976669311523e+00,1.083104133605957031e+00,1.083044409751892090e+00,1.082984566688537598e+00,1.082924723625183105e+00,1.082864999771118164e+00,1.082805156707763672e+00,1.082745313644409180e+00,1.082685589790344238e+00,1.082625865936279297e+00,1.082566142082214355e+00,1.082506299018859863e+00
1.021131038665771484e+00,1.021077752113342285e+00,1.021024703979492188e+00,1.020971536636352539e+00,1.020918369293212891e+00,1.020865201950073242e+00,1.020812034606933594e+00,1.020758867263793945e+00,1.020705819129943848e+00,1.020652651786804199e+00,1.020599603652954102e+00,1.020546436309814453e+00,1.020493388175964355e+00,1.020440220832824707e+00,1.020387172698974609e+00,1.020334005355834961e+00,1.020280957221984863e+00,1.020227909088134766e+00,1.020174860954284668e+00,1.020121693611145020e+00,1.020068764686584473e+00,1.020015597343444824e+00,1.019962549209594727e+00,1.019909501075744629e+00,1.019856452941894531e+00,1.019803524017333984e+00,1.019750356674194336e+00,1.019697427749633789e+00,1.019644379615783691e+00,1.019591331481933594e+00,1.019538402557373047e+00,1.019485354423522949e+00,1.019432306289672852e+00,1.019379377365112305e+00,1.019326329231262207e+00,1.019273400306701660e+00,1.019220471382141113e+00,1.019167542457580566e+00,1.019114494323730469e+00,1.019061565399169922e+00,1.019008636474609375e+00,1.018955707550048828e+00,1.018902659416198730e+00,1.018849849700927734e+00,1.018796801567077637e+00,1.018743991851806641e+00,1.018690943717956543e+00,1.018638134002685547e+00,1.018585205078125000e+00,1.018532276153564453e+00,1.018479347229003906e+00,1.018426537513732910e+00,1.018373608589172363e+00,1.018320798873901367e+00,1.018267869949340820e+00,1.018215060234069824e+00,1.018162131309509277e+00,1.018109321594238281e+00,1.018056392669677734e+00,1.018003582954406738e+00,1.017950773239135742e+00,1.017897963523864746e+00,1.017845034599304199e+00,1.017792224884033203e+00,1.017739415168762207e+00,1.017686605453491211e+00,1.017633795738220215e+00,1.017580986022949219e+00,1.017528176307678223e+00,1.017475366592407227e+00,1.017422556877136230e+00,1.017369866371154785e+00,1.017317056655883789e+00,1.017264366149902344e+00,1.017211556434631348e+00,1.017158746719360352e+00,1.017106056213378906e+00,1.017053246498107910e+00,1.017000555992126465e+00,1.016947746276855469e+00
9.625947475433349609e-01,9.625474810600280762e-01,9.625002145767211914e-01,9.624529480934143066e-01,9.624058008193969727e-01,9.623585343360900879e-01,9.623112678527832031e-01,9.622640609741210938e-01,9.622169137001037598e-01,9.621697068214416504e-01,9.621224403381347656e-01,9.620752334594726562e-01,9.620280861854553223e-01,9.619808793067932129e-01,9.619336724281311035e-01,9.618864655494689941e-01,9.618393778800964355e-01,9.617921710014343262e-01,9.617449641227722168e-01,9.616978168487548828e-01,9.616507291793823242e-01,9.616035223007202148e-01,9.615563750267028809e-01,9.615091681480407715e-01,9.614621400833129883e-01,9.614149928092956543e-01,9.613678455352783203e-01,9.613206982612609863e-01,9.612736105918884277e-01,9.612264633178710938e-01,9.611793756484985352e-01,9.611322283744812012e-01,9.610852003097534180e-01,9.610380530357360840e-01,9.609909653663635254e-01,9.609438180923461914e-01,9.608968496322631836e-01,9.608497023582458496e-01,9.608026146888732910e-01,9.607555270195007324e-01,9.607085585594177246e-01,9.606614708900451660e-01,9.606143832206726074e-01,9.605672955513000488e-01,9.605203270912170410e-01,9.604732394218444824e-01,9.604262113571166992e-01,9.603791236877441406e-01,9.603321552276611328e-01,9.602851271629333496e-01,9.602380990982055664e-01,9.601910114288330078e-01,9.601441025733947754e-01,9.600970745086669922e-01,9.600500464439392090e-01,9.600030183792114258e-01,9.599561095237731934e-01,9.599090814590454102e-01,9.598621129989624023e-01,9.598150849342346191e-01,9.597681760787963867e-01,9.597212076187133789e-01,9.596741795539855957e-01,9.596272110939025879e-01,9.595803618431091309e-01,9.595333337783813477e-01,9.594863653182983398e-01,9.594393968582153320e-01,9.593924283981323242e-01,9.593455791473388672e-01,9.592986702919006348e-01,9.592517018318176270e-01,9.592047333717346191e-01,9.591579437255859375e-01,9.591109752655029297e-01,9.590640664100646973e-01,9.590170979499816895e-01,9.589703083038330078e-01,9.589233994483947754e-01,9.588764905929565430e-01
9.104057550430297852e-01,9.103634953498840332e-01,9.103211760520935059e-01,9.102790355682373047e-01,9.102367162704467773e-01,9.101944565773010254e-01,9.101521968841552734e-01,9.101100564002990723e-01,9.100677967071533203e-01,9.100255370140075684e-01,9.099832773208618164e-01,9.099411368370056152e-01,9.098988771438598633e-01,9.098566174507141113e-01,9.098144173622131348e-01,9.097722768783569336e-01,9.097300171852111816e-01,9.096878170967102051e-01,9.096456170082092285e-01,9.096034765243530273e-01,9.095612764358520508e-01,9.095190763473510742e-01,9.094768762588500977e-01,9.094346761703491211e-01,9.093925356864929199e-01,9.093503952026367188e-01,9.093081951141357422e-01,9.092659950256347656e-01,9.092239141464233398e-01,9.091817140579223633e-01,9.091395735740661621e-01,9.090973734855651855e-01,9.090553522109985352e-01,9.090131521224975586e-01,9.089710116386413574e-01,9.089288711547851562e-01,9.088867902755737305e-01,9.088446497917175293e-01,9.088025093078613281e-01,9.087603688240051270e-01,9.087183475494384766e-01,9.086762070655822754e-01,9.086340665817260742e-01,9.085919857025146484e-01,9.085499644279479980e-01,9.085078239440917969e-01,9.084657430648803711e-01,9.084236025810241699e-01,9.083816409111022949e-01,9.083395004272460938e-01,9.082974195480346680e-01,9.082553386688232422e-01,9.082133173942565918e-01,9.081712365150451660e-01,9.081291556358337402e-01,9.080870747566223145e-01,9.080451130867004395e-01,9.080030322074890137e-01,9.079610109329223633e-01,9.079189300537109375e-01,9.078769683837890625e-01,9.078349471092224121e-01,9.077928662300109863e-01,9.077508449554443359e-01,9.077088832855224609e-01,9.076668620109558105e-01,9.076248407363891602e-01,9.075828194618225098e-01,9.075408577919006348e-01,9.074988365173339844e-01,9.074568152427673340e-01,9.074147939682006836e-01,9.073728919029235840e-01,9.073309302330017090e-01,9.072889089584350586e-01,9.072468876838684082e-01,9.072049856185913086e-01,9.071630239486694336e-01,9.071210622787475586e-01,9.070790410041809082e-01
8.635848164558410645e-01,8.635467290878295898e-01,8.635087013244628906e-01,8.634707331657409668e-01,8.634327054023742676e-01,8.633946776390075684e-01,8.633566498756408691e-01,8.633186817169189453e-01,8.632806539535522461e-01,8.632426261901855469e-01,8.632046580314636230e-01,8.631666898727416992e-01,8.631287217140197754e-01,8.630906939506530762e-01,8.630526661872863770e-01,8.630147576332092285e-01,8.629767894744873047e-01,8.629387617111206055e-01,8.629007935523986816e-01,8.628628849983215332e-01,8.628249168395996094e-01,8.627868890762329102e-01,8.627489209175109863e-01,8.627110719680786133e-01,8.626731038093566895e-01,8.626351356506347656e-01,8.625971674919128418e-01,8.625592589378356934e-01,8.625212907791137695e-01,8.624833822250366211e-01,8.624454140663146973e-01,8.624075651168823242e-01,8.623695969581604004e-01,8.623316287994384766e-01,8.622937202453613281e-01,8.622558712959289551e-01,8.622179627418518066e-01,8.621799945831298828e-01,8.621420860290527344e-01,8.621042370796203613e-01,8.620663285255432129e-01,8.620284199714660645e-01,8.619905114173889160e-01,8.619526624679565430e-01,8.619147539138793945e-01,8.618768453598022461e-01,8.618389964103698730e-01,8.618011474609375000e-01,8.617632985115051270e-01,8.617253899574279785e-01,8.616874814033508301e-01,8.616496920585632324e-01,8.616118431091308594e-01,8.615739345550537109e-01,8.615360856056213379e-01,8.614982962608337402e-01,8.614604473114013672e-01,8.614225983619689941e-01,8.613846898078918457e-01,8.613469600677490234e-01,8.613091111183166504e-01,8.612712621688842773e-01,8.612334132194519043e-01,8.611956238746643066e-01,8.611578345298767090e-01,8.611199855804443359e-01,8.610821366310119629e-01,8.610442876815795898e-01,8.610065579414367676e-01,8.609687685966491699e-01,8.609309196472167969e-01,8.608931303024291992e-01,8.608554005622863770e-01,8.608176112174987793e-01,8.607797622680664062e-01,8.607419729232788086e-01,8.607042431831359863e-01,8.606664538383483887e-01,8.606286644935607910e-01,8.605908751487731934e-01
8.213441371917724609e-01,8.213097453117370605e-01,8.212754130363464355e-01,8.212409615516662598e-01,8.212065696716308594e-01,8.211721777915954590e-01,8.211378455162048340e-01,8.211034536361694336e-01,8.210690617561340332e-01,8.210346698760986328e-01,8.210003376007080078e-01,8.209659457206726074e-01,8.209315538406372070e-01,8.208971619606018066e-01,8.208628892898559570e-01,8.208284974098205566e-01,8.207941651344299316e-01,8.207597732543945312e-01,8.207255005836486816e-01,8.206911087036132812e-01,8.206567764282226562e-01,8.206223845481872559e-01,8.205880522727966309e-01,8.205537796020507812e-01,8.205193877220153809e-01,8.204850554466247559e-01,8.204507231712341309e-01,8.204164505004882812e-01,8.203821182250976562e-01,8.203477859497070312e-01,8.203134536743164062e-01,8.202791810035705566e-01,8.202448487281799316e-01,8.202105164527893066e-01,8.201762437820434570e-01,8.201419711112976074e-01,8.201076388359069824e-01,8.200733661651611328e-01,8.200390338897705078e-01,8.200048208236694336e-01,8.199704885482788086e-01,8.199362158775329590e-01,8.199018836021423340e-01,8.198676705360412598e-01,8.198333978652954102e-01,8.197990655899047852e-01,8.197647929191589355e-01,8.197305798530578613e-01,8.196963071823120117e-01,8.196620345115661621e-01,8.196277618408203125e-01,8.195935487747192383e-01,8.195592761039733887e-01,8.195250034332275391e-01,8.194907307624816895e-01,8.194565773010253906e-01,8.194223046302795410e-01,8.193880319595336914e-01,8.193538188934326172e-01,8.193196058273315430e-01,8.192853927612304688e-01,8.192511200904846191e-01,8.192169070243835449e-01,8.191827535629272461e-01,8.191484808921813965e-01,8.191142678260803223e-01,8.190800547599792480e-01,8.190459012985229492e-01,8.190116286277770996e-01,8.189774155616760254e-01,8.189432024955749512e-01,8.189090490341186523e-01,8.188748359680175781e-01,8.188406229019165039e-01,8.188064694404602051e-01,8.187723159790039062e-01,8.187381029129028320e-01,8.187038898468017578e-01,8.186697363853454590e-01,8.186355829238891602e-01
