5.000000000000000000e+00,5.000000000000000000e+00,5.000000000000000000e+00,5.000000000000000000e+00,5.000000000000000000e+00,5.000000000000000000e+00,5.000000000000000000e+00,5.000000000000000000e+00,5.000000000000000000e+00,5.000000000000000000e+00,5.000000000000000000e+00,5.000000000000000000e+00,5.000000000000000000e+00,5.000000000000000000e+00,5.000000000000000000e+00,5.000000000000000000e+00,5.000000000000000000e+00,5.000000000000000000e+00,5.000000000000000000e+00,5.000000000000000000e+00,5.000000000000000000e+00,5.000000000000000000e+00,5.000000000000000000e+00,5.000000000000000000e+00,5.000000000000000000e+00,5.000000000000000000e+00,5.000000000000000000e+00,5.000000000000000000e+00,5.000000000000000000e+00,5.000000000000000000e+00,5.000000000000000000e+00,5.000000000000000000e+00,5.000000000000000000e+00,5.000000000000000000e+00,5.000000000000000000e+00,5.000000000000000000e+00,5.000000000000000000e+00,5.000000000000000000e+00,5.000000000000000000e+00,4.864902496337890625e+00,4.673697948455810547e+00,4.496953964233398438e+00,4.333091259002685547e+00,4.180750370025634766e+00,4.038757801055908203e+00,3.906093358993530273e+00,3.781867265701293945e+00,3.665299177169799805e+00,3.555702209472656250e+00,3.452468872070312500e+00,3.355061054229736328e+00,3.262998580932617188e+00,3.175853729248046875e+00,3.093242645263671875e+00,3.014820337295532227e+00,2.940276145935058594e+00,2.869329452514648438e+00,2.801725864410400391e+00,2.737234354019165039e+00,2.675645351409912109e+00,2.616766691207885742e+00,2.560423612594604492e+00,2.506455421447753906e+00,2.454715490341186523e+00,2.405068635940551758e+00,2.357390165328979492e+00,2.311565160751342773e+00,2.267487764358520508e+00,2.225059986114501953e+00,2.184190750122070312e+00,2.144795894622802734e+00,2.106796741485595703e+00,2.070120573043823242e+00,2.034699678421020508e+00,2.000470638275146484e+00,1.967373967170715332e+00,1.935354709625244141e+00,1.904360890388488770e+00,1.874344229698181152e+00,1.845259070396423340e+00
5.000000000000000000e+00,5.000000000000000000e+00,5.000000000000000000e+00,5.000000000000000000e+00,5.000000000000000000e+00,5.000000000000000000e+00,5.000000000000000000e+00,5.000000000000000000e+00,5.000000000000000000e+00,5.000000000000000000e+00,5.000000000000000000e+00,5.000000000000000000e+00,5.000000000000000000e+00,5.000000000000000000e+00,5.000000000000000000e+00,5.000000000000000000e+00,5.000000000000000000e+00,5.000000000000000000e+00,5.000000000000000000e+00,5.000000000000000000e+00,5.000000000000000000e+00,5.000000000000000000e+00,5.000000000000000000e+00,5.000000000000000000e+00,5.000000000000000000e+00,5.000000000000000000e+00,5.000000000000000000e+00,5.000000000000000000e+00,5.000000000000000000e+00,5.000000000000000000e+00,5.000000000000000000e+00,5.000000000000000000e+00,5.000000000000000000e+00,5.000000000000000000e+00,5.000000000000000000e+00,5.000000000000000000e+00,5.000000000000000000e+00,5.000000000000000000e+00,5.000000000000000000e+00,4.865042686462402344e+00,4.673827171325683594e+00,4.497074127197265625e+00,4.333202362060546875e+00,4.180853843688964844e+00,4.038854122161865234e+00,3.906183958053588867e+00,3.781952142715454102e+00,3.665378808975219727e+00,3.555776834487915039e+00,3.452539205551147461e+00,3.355127573013305664e+00,3.263061761856079102e+00,3.175913572311401367e+00,3.093299388885498047e+00,3.014874219894409180e+00,2.940327644348144531e+00,2.869378328323364258e+00,2.801772356033325195e+00,2.737278699874877930e+00,2.675687551498413086e+00,2.616806983947753906e+00,2.560462236404418945e+00,2.506492614746093750e+00,2.454751253128051758e+00,2.405102968215942383e+00,2.357423067092895508e+00,2.311596870422363281e+00,2.267518281936645508e+00,2.225089311599731445e+00,2.184218883514404297e+00,2.144823074340820312e+00,2.106822967529296875e+00,2.070145845413208008e+00,2.034724235534667969e+00,2.000494241714477539e+00,1.967397093772888184e+00,1.935377001762390137e+00,1.904382586479187012e+00,1.874365210533142090e+00,1.845279335975646973e+00
5.000000000000000000e+00,5.000000000000000000e+00,5.000000000000000000e+00,5.000000000000000000e+00,5.000000000000000000e+00,5.000000000000000000e+00,5.000000000000000000e+00,5.000000000000000000e+00,5.000000000000000000e+00,5.000000000000000000e+00,5.000000000000000000e+00,5.000000000000000000e+00,5.000000000000000000e+00,5.000000000000000000e+00,5.000000000000000000e+00,5.000000000000000000e+00,5.000000000000000000e+00,5.000000000000000000e+00,5.000000000000000000e+00,5.000000000000000000e+00,5.000000000000000000e+00,5.000000000000000000e+00,5.000000000000000000e+00,5.000000000000000000e+00,5.000000000000000000e+00,5.000000000000000000e+00,5.000000000000000000e+00,5.000000000000000000e+00,5.000000000000000000e+00,5.000000000000000000e+00,5.000000000000000000e+00,5.000000000000000000e+00,5.000000000000000000e+00,5.000000000000000000e+00,5.000000000000000000e+00,5.000000000000000000e+00,5.000000000000000000e+00,5.000000000000000000e+00,5.000000000000000000e+00,4.865182399749755859e+00,4.673956394195556641e+00,4.497193813323974609e+00,4.333313941955566406e+00,4.180957794189453125e+00,4.038950920104980469e+00,3.906273841857910156e+00,3.782036542892456055e+00,3.665458202362060547e+00,3.555851697921752930e+00,3.452610015869140625e+00,3.355194330215454102e+00,3.263124942779541016e+00,3.175973415374755859e+00,3.093356132507324219e+00,3.014927864074707031e+00,2.940378427505493164e+00,2.869426965713500977e+00,2.801818609237670898e+00,2.737323045730590820e+00,2.675729990005493164e+00,2.616847753524780273e+00,2.560501098632812500e+00,2.506530046463012695e+00,2.454787015914916992e+00,2.405137062072753906e+00,2.357455968856811523e+00,2.311628341674804688e+00,2.267548561096191406e+00,2.225118637084960938e+00,2.184247255325317383e+00,2.144850254058837891e+00,2.106849431991577148e+00,2.070171356201171875e+00,2.034748792648315430e+00,2.000518083572387695e+00,1.967419862747192383e+00,1.935399055480957031e+00,1.904403924942016602e+00,1.874385833740234375e+00,1.845299482345581055e+00
5.000000000000000000e+00,5.000000000000000000e+00,5.000000000000000000e+00,5.000000000000000000e+00,5.000000000000000000e+00,5.000000000000000000e+00,5.000000000000000000e+00,5.000000000000000000e+00,5.000000000000000000e+00,5.000000000000000000e+00,5.000000000000000000e+00,5.000000000000000000e+00,5.000000000000000000e+00,5.000000000000000000e+00,5.000000000000000000e+00,5.000000000000000000e+00,5.000000000000000000e+00,5.000000000000000000e+00,5.000000000000000000e+00,5.000000000000000000e+00,5.000000000000000000e+00,5.000000000000000000e+00,5.000000000000000000e+00,5.000000000000000000e+00,5.000000000000000000e+00,5.000000000000000000e+00,5.000000000000000000e+00,5.000000000000000000e+00,5.000000000000000000e+00,5.000000000000000000e+00,5.000000000000000000e+00,5.000000000000000000e+00,5.000000000000000000e+00,5.000000000000000000e+00,5.000000000000000000e+00,5.000000000000000000e+00,5.000000000000000000e+00,5.000000000000000000e+00,5.000000000000000000e+00,4.865323066711425781e+00,4.674085617065429688e+00,4.497313499450683594e+00,4.333425045013427734e+00,4.181061267852783203e+00,4.039047718048095703e+00,3.906364440917968750e+00,3.782121419906616211e+00,3.665537834167480469e+00,3.555926799774169922e+00,3.452680587768554688e+00,3.355260610580444336e+00,3.263187646865844727e+00,3.176033020019531250e+00,3.093412637710571289e+00,3.014981746673583984e+00,2.940429925918579102e+00,2.869475603103637695e+00,2.801865339279174805e+00,2.737367391586303711e+00,2.675772428512573242e+00,2.616888284683227539e+00,2.560539722442626953e+00,2.506567001342773438e+00,2.454822540283203125e+00,2.405171394348144531e+00,2.357488870620727539e+00,2.311660051345825195e+00,2.267579078674316406e+00,2.225147962570190430e+00,2.184275627136230469e+00,2.144877433776855469e+00,2.106875658035278320e+00,2.070196628570556641e+00,2.034773349761962891e+00,2.000541687011718750e+00,1.967442750930786133e+00,1.935421228408813477e+00,1.904425382614135742e+00,1.874406576156616211e+00,1.845319628715515137e+00
5.000000000000000000e+00,5.000000000000000000e+00,5.000000000000000000e+00,5.000000000000000000e+00,5.000000000000000000e+00,5.000000000000000000e+00,5.000000000000000000e+00,5.000000000000000000e+00,5.000000000000000000e+00,5.000000000000000000e+00,5.000000000000000000e+00,5.000000000000000000e+00,5.000000000000000000e+00,5.000000000000000000e+00,5.000000000000000000e+00,5.000000000000000000e+00,5.000000000000000000e+00,5.000000000000000000e+00,5.000000000000000000e+00,5.000000000000000000e+00,5.000000000000000000e+00,5.000000000000000000e+00,5.000000000000000000e+00,5.000000000000000000e+00,4.032275676727294922e+00,3.990800142288208008e+00,4.086960792541503906e+00,5.000000000000000000e+00,5.000000000000000000e+00,5.000000000000000000e+00,5.000000000000000000e+00,5.000000000000000000e+00,5.000000000000000000e+00,5.000000000000000000e+00,5.000000000000000000e+00,5.000000000000000000e+00,5.000000000000000000e+00,5.000000000000000000e+00,5.000000000000000000e+00,4.865462779998779297e+00,4.674214839935302734e+00,4.497433185577392578e+00,4.333536148071289062e+00,4.181164264678955078e+00,4.039144039154052734e+00,3.906455039978027344e+00,3.782205820083618164e+00,3.665616989135742188e+00,3.556001424789428711e+00,3.452750921249389648e+00,3.355327367782592773e+00,3.263250827789306641e+00,3.176092863082885742e+00,3.093469381332397461e+00,3.015035629272460938e+00,2.940481185913085938e+00,2.869524478912353516e+00,2.801911592483520508e+00,2.737411737442016602e+00,2.675814628601074219e+00,2.616928815841674805e+00,2.560578584671020508e+00,2.506604194641113281e+00,2.454858303070068359e+00,2.405205726623535156e+00,2.357521772384643555e+00,2.311691761016845703e+00,2.267609596252441406e+00,2.225177049636840820e+00,2.184303760528564453e+00,2.144904613494873047e+00,2.106901884078979492e+00,2.070222139358520508e+00,2.034797906875610352e+00,2.000565290451049805e+00,1.967465758323669434e+00,1.935443520545959473e+00,1.904446959495544434e+00,1.874427318572998047e+00,1.845339655876159668e+00
5.000000000000000000e+00,5.000000000000000000e+00,5.000000000000000000e+00,5.000000000000000000e+00,5.000000000000000000e+00,5.000000000000000000e+00,5.000000000000000000e+00,5.000000000000000000e+00,5.000000000000000000e+00,5.000000000000000000e+00,5.000000000000000000e+00,5.000000000000000000e+00,5.000000000000000000e+00,5.000000000000000000e+00,5.000000000000000000e+00,5.000000000000000000e+00,5.000000000000000000e+00,5.000000000000000000e+00,5.000000000000000000e+00,5.000000000000000000e+00,5.000000000000000000e+00,5.000000000000000000e+00,5.000000000000000000e+00,5.000000000000000000e+00,4.102137565612792969e+00,3.992863178253173828e+00,4.069520473480224609e+00,5.000000000000000000e+00,5.000000000000000000e+00,5.000000000000000000e+00,5.000000000000000000e+00,5.000000000000000000e+00,5.000000000000000000e+00,5.000000000000000000e+00,5.000000000000000000e+00,5.000000000000000000e+00,5.000000000000000000e+00,5.000000000000000000e+00,5.000000000000000000e+00,4.865602970123291016e+00,4.674344539642333984e+00,4.497552871704101562e+00,4.333647251129150391e+00,4.181267738342285156e+00,4.039240360260009766e+00,3.906544923782348633e+00,3.782290697097778320e+00,3.665696859359741211e+00,3.556076288223266602e+00,3.452821731567382812e+00,3.355394124984741211e+00,3.263314008712768555e+00,3.176152706146240234e+00,3.093525886535644531e+00,3.015089273452758789e+00,2.940532207489013672e+00,2.869573116302490234e+00,2.801958084106445312e+00,2.737456083297729492e+00,2.675857067108154297e+00,2.616969347000122070e+00,2.560617446899414062e+00,2.506641626358032227e+00,2.454894065856933594e+00,2.405239820480346680e+00,2.357554674148559570e+00,2.311723232269287109e+00,2.267639875411987305e+00,2.225206613540649414e+00,2.184332132339477539e+00,2.144932031631469727e+00,2.106928110122680664e+00,2.070247411727905273e+00,2.034822463989257812e+00,2.000588893890380859e+00,1.967488646507263184e+00,1.935465693473815918e+00,1.904468417167663574e+00,1.874448299407958984e+00,1.845359921455383301e+00
5.000000000000000000e+00,5.000000000000000000e+00,5.000000000000000000e+00,5.000000000000000000e+00,5.000000000000000000e+00,5.000000000000000000e+00,5.000000000000000000e+00,5.000000000000000000e+00,5.000000000000000000e+00,5.000000000000000000e+00,5.000000000000000000e+00,5.000000000000000000e+00,5.000000000000000000e+00,5.000000000000000000e+00,5.000000000000000000e+00,5.000000000000000000e+00,5.000000000000000000e+00,5.000000000000000000e+00,5.000000000000000000e+00,5.000000000000000000e+00,5.000000000000000000e+00,5.000000000000000000e+00,5.000000000000000000e+00,5.000000000000000000e+00,5.000000000000000000e+00,4.016572952270507812e+00,4.115901947021484375e+00,5.000000000000000000e+00,5.000000000000000000e+00,5.000000000000000000e+00,5.000000000000000000e+00,5.000000000000000000e+00,5.000000000000000000e+00,5.000000000000000000e+00,5.000000000000000000e+00,5.000000000000000000e+00,5.000000000000000000e+00,5.000000000000000000e+00,5.000000000000000000e+00,4.865743160247802734e+00,4.674473762512207031e+00,4.497672557830810547e+00,4.333758354187011719e+00,4.181371688842773438e+00,4.039337158203125000e+00,3.906635522842407227e+00,3.782375335693359375e+00,3.665776491165161133e+00,3.556151390075683594e+00,3.452892065048217773e+00,3.355460643768310547e+00,3.263376712799072266e+00,3.176212072372436523e+00,3.093582630157470703e+00,3.015143156051635742e+00,2.940583467483520508e+00,2.869621992111206055e+00,2.802004814147949219e+00,2.737500667572021484e+00,2.675899744033813477e+00,2.617009639739990234e+00,2.560656309127807617e+00,2.506678581237792969e+00,2.454929590225219727e+00,2.405274152755737305e+00,2.357587575912475586e+00,2.311754941940307617e+00,2.267670392990112305e+00,2.225235939025878906e+00,2.184360265731811523e+00,2.144959211349487305e+00,2.106954336166381836e+00,2.070272684097290039e+00,2.034846782684326172e+00,2.000612735748291016e+00,1.967511534690856934e+00,1.935487747192382812e+00,1.904489755630493164e+00,1.874469041824340820e+00,1.845380067825317383e+00
5.000000000000000000e+00,5.000000000000000000e+00,5.000000000000000000e+00,5.000000000000000000e+00,5.000000000000000000e+00,5.000000000000000000e+00,5.000000000000000000e+00,5.000000000000000000e+00,5.000000000000000000e+00,5.000000000000000000e+00,5.000000000000000000e+00,5.000000000000000000e+00,5.000000000000000000e+00,5.000000000000000000e+00,5.000000000000000000e+00,5.000000000000000000e+00,5.000000000000000000e+00,5.000000000000000000e+00,5.000000000000000000e+00,5.000000000000000000e+00,5.000000000000000000e+00,5.000000000000000000e+00,5.000000000000000000e+00,5.000000000000000000e+00,4.029190540313720703e+00,4.090111255645751953e+00,4.037592411041259766e+00,4.082418918609619141e+00,4.084720611572265625e+00,5.000000000000000000e+00,5.000000000000000000e+00,5.000000000000000000e+00,5.000000000000000000e+00,5.000000000000000000e+00,5.000000000000000000e+00,5.000000000000000000e+00,5.000000000000000000e+00,5.000000000000000000e+00,5.000000000000000000e+00,4.865883350372314453e+00,4.674602985382080078e+00,4.497792243957519531e+00,4.333869457244873047e+00,4.181475162506103516e+00,4.039433956146240234e+00,3.906725645065307617e+00,3.782459974288940430e+00,3.665855646133422852e+00,3.556226015090942383e+00,3.452962875366210938e+00,3.355527400970458984e+00,3.263439893722534180e+00,3.176271915435791016e+00,3.093639373779296875e+00,3.015197277069091797e+00,2.940634727478027344e+00,2.869670629501342773e+00,2.802051067352294922e+00,2.737544775009155273e+00,2.675941944122314453e+00,2.617050409317016602e+00,2.560695171356201172e+00,2.506715774536132812e+00,2.454965353012084961e+00,2.405308485031127930e+00,2.357620477676391602e+00,2.311786413192749023e+00,2.267700910568237305e+00,2.225265026092529297e+00,2.184388399124145508e+00,2.144986391067504883e+00,2.106980800628662109e+00,2.070298194885253906e+00,2.034871339797973633e+00,2.000636339187622070e+00,1.967534542083740234e+00,1.935510039329528809e+00,1.904511213302612305e+00,1.874489784240722656e+00,1.845400214195251465e+00
5.000000000000000000e+00,5.000000000000000000e+00,5.000000000000000000e+00,5.000000000000000000e+00,5.000000000000000000e+00,5.000000000000000000e+00,5.000000000000000000e+00,5.000000000000000000e+00,5.000000000000000000e+00,5.000000000000000000e+00,5.000000000000000000e+00,5.000000000000000000e+00,5.000000000000000000e+00,5.000000000000000000e+00,5.000000000000000000e+00,5.000000000000000000e+00,5.000000000000000000e+00,5.000000000000000000e+00,5.000000000000000000e+00,5.000000000000000000e+00,5.000000000000000000e+00,5.000000000000000000e+00,4.035251140594482422e+00,4.019202709197998047e+00,4.005015373229980469e+00,4.000468730926513672e+00,4.005981922149658203e+00,4.038400650024414062e+00,4.092370510101318359e+00,4.157242774963378906e+00,5.000000000000000000e+00,5.000000000000000000e+00,5.000000000000000000e+00,5.000000000000000000e+00,5.000000000000000000e+00,5.000000000000000000e+00,5.000000000000000000e+00,5.000000000000000000e+00,5.000000000000000000e+00,4.866023540496826172e+00,4.674732208251953125e+00,4.497911930084228516e+00,4.333980560302734375e+00,4.181578636169433594e+00,4.039530277252197266e+00,3.906816005706787109e+00,3.782544612884521484e+00,3.665935516357421875e+00,3.556300878524780273e+00,3.453033447265625000e+00,3.355594158172607422e+00,3.263503074645996094e+00,3.176331520080566406e+00,3.093695878982543945e+00,3.015250921249389648e+00,2.940685749053955078e+00,2.869719505310058594e+00,2.802097558975219727e+00,2.737589120864868164e+00,2.675984382629394531e+00,2.617090940475463867e+00,2.560734033584594727e+00,2.506752967834472656e+00,2.455000877380371094e+00,2.405342578887939453e+00,2.357653379440307617e+00,2.311818122863769531e+00,2.267731428146362305e+00,2.225294351577758789e+00,2.184416770935058594e+00,2.145013809204101562e+00,2.107007026672363281e+00,2.070323705673217773e+00,2.034895896911621094e+00,2.000660181045532227e+00,1.967557430267333984e+00,1.935532212257385254e+00,1.904532790184020996e+00,1.874510765075683594e+00,1.845420479774475098e+00
5.000000000000000000e+00,5.000000000000000000e+00,5.000000000000000000e+00,5.000000000000000000e+00,5.000000000000000000e+00,5.000000000000000000e+00,5.000000000000000000e+00,5.000000000000000000e+00,5.000000000000000000e+00,5.000000000000000000e+00,5.000000000000000000e+00,5.000000000000000000e+00,5.000000000000000000e+00,5.000000000000000000e+00,5.000000000000000000e+00,5.000000000000000000e+00,5.000000000000000000e+00,5.000000000000000000e+00,5.000000000000000000e+00,5.000000000000000000e+00,5.000000000000000000e+00,5.000000000000000000e+00,4.063705444335937500e+00,4.024290084838867188e+00,3.977191686630249023e+00,3.979338169097900391e+00,3.992303848266601562e+00,4.035446643829345703e+00,4.090834617614746094e+00,4.135087966918945312e+00,5.000000000000000000e+00,5.000000000000000000e+00,5.000000000000000000e+00,5.000000000000000000e+00,5.000000000000000000e+00,5.000000000000000000e+00,5.000000000000000000e+00,5.000000000000000000e+00,5.000000000000000000e+00,4.866163730621337891e+00,4.674861907958984375e+00,4.498032093048095703e+00,4.334091663360595703e+00,4.181682109832763672e+00,4.039627075195312500e+00,3.906906604766845703e+00,3.782629489898681641e+00,3.666015148162841797e+00,3.556375503540039062e+00,3.453103780746459961e+00,3.355660676956176758e+00,3.263566017150878906e+00,3.176391363143920898e+00,3.093752622604370117e+00,3.015304803848266602e+00,2.940737009048461914e+00,2.869768142700195312e+00,2.802144050598144531e+00,2.737633466720581055e+00,2.676026582717895508e+00,2.617131471633911133e+00,2.560772657394409180e+00,2.506790161132812500e+00,2.455036640167236328e+00,2.405376911163330078e+00,2.357686281204223633e+00,2.311849832534790039e+00,2.267761707305908203e+00,2.225323915481567383e+00,2.184444904327392578e+00,2.145040750503540039e+00,2.107033252716064453e+00,2.070348978042602539e+00,2.034920454025268555e+00,2.000683784484863281e+00,1.967580199241638184e+00,1.935554265975952148e+00,1.904554247856140137e+00,1.874531388282775879e+00,1.845440506935119629e+00
5.000000000000000000e+00,5.000000000000000000e+00,5.000000000000000000e+00,5.000000000000000000e+00,5.000000000000000000e+00,5.000000000000000000e+00,5.000000000000000000e+00,5.000000000000000000e+00,5.000000000000000000e+00,5.000000000000000000e+00,5.000000000000000000e+00,5.000000000000000000e+00,5.000000000000000000e+00,5.000000000000000000e+00,5.000000000000000000e+00,5.000000000000000000e+00,5.000000000000000000e+00,5.000000000000000000e+00,5.000000000000000000e+00,5.000000000000000000e+00,5.000000000000000000e+00,5.000000000000000000e+00,5.000000000000000000e+00,4.078404903411865234e+00,3.979115486145019531e+00,3.973416090011596680e+00,3.995341300964355469e+00,4.046534061431884766e+00,4.082880496978759766e+00,4.116288185119628906e+00,5.000000000000000000e+00,5.000000000000000000e+00,5.000000000000000000e+00,5.000000000000000000e+00,5.000000000000000000e+00,5.000000000000000000e+00,5.000000000000000000e+00,5.000000000000000000e+00,5.000000000000000000e+00,4.866303920745849609e+00,4.674991130828857422e+00,4.498151779174804688e+00,4.334203243255615234e+00,4.181785583496093750e+00,4.039723396301269531e+00,3.906996726989746094e+00,3.782714128494262695e+00,3.666094541549682617e+00,3.556450605392456055e+00,3.453174591064453125e+00,3.355727434158325195e+00,3.263629198074340820e+00,3.176451206207275391e+00,3.093809366226196289e+00,3.015358448028564453e+00,2.940788030624389648e+00,2.869816780090332031e+00,2.802190542221069336e+00,2.737677812576293945e+00,2.676069021224975586e+00,2.617172002792358398e+00,2.560811519622802734e+00,2.506827592849731445e+00,2.455072402954101562e+00,2.405411243438720703e+00,2.357719182968139648e+00,2.311881542205810547e+00,2.267792224884033203e+00,2.225353002548217773e+00,2.184473276138305664e+00,2.145068168640136719e+00,2.107059478759765625e+00,2.070374250411987305e+00,2.034945011138916016e+00,2.000707626342773438e+00,1.967603325843811035e+00,1.935576438903808594e+00,1.904575586318969727e+00,1.874552130699157715e+00,1.845460653305053711e+00
5.000000000000000000e+00,5.000000000000000000e+00,5.000000000000000000e+00,5.000000000000000000e+00,5.000000000000000000e+00,5.000000000000000000e+00,5.000000000000000000e+00,5.000000000000000000e+00,5.000000000000000000e+00,5.000000000000000000e+00,5.000000000000000000e+00,5.000000000000000000e+00,5.000000000000000000e+00,5.000000000000000000e+00,5.000000000000000000e+00,5.000000000000000000e+00,5.000000000000000000e+00,5.000000000000000000e+00,5.000000000000000000e+00,5.000000000000000000e+00,5.000000000000000000e+00,5.000000000000000000e+00,5.000000000000000000e+00,4.078978061676025391e+00,3.977902650833129883e+00,3.974745512008666992e+00,3.996781587600708008e+00,4.066695690155029297e+00,4.099263191223144531e+00,4.116412162780761719e+00,5.000000000000000000e+00,5.000000000000000000e+00,5.000000000000000000e+00,5.000000000000000000e+00,5.000000000000000000e+00,5.000000000000000000e+00,5.000000000000000000e+00,5.000000000000000000e+00,5.000000000000000000e+00,4.866444110870361328e+00,4.675120353698730469e+00,4.498271465301513672e+00,4.334314346313476562e+00,4.181889057159423828e+00,4.039820194244384766e+00,3.907087087631225586e+00,3.782798767089843750e+00,3.666174173355102539e+00,3.556525707244873047e+00,3.453245401382446289e+00,3.355793952941894531e+00,3.263691902160644531e+00,3.176510810852050781e+00,3.093865871429443359e+00,3.015412330627441406e+00,2.940839290618896484e+00,2.869865655899047852e+00,2.802237033843994141e+00,2.737722396850585938e+00,2.676111459732055664e+00,2.617212533950805664e+00,2.560850381851196289e+00,2.506864547729492188e+00,2.455107927322387695e+00,2.405445337295532227e+00,2.357752084732055664e+00,2.311913251876831055e+00,2.267822742462158203e+00,2.225382328033447266e+00,2.184501647949218750e+00,2.145095348358154297e+00,2.107085943222045898e+00,2.070399522781372070e+00,2.034969329833984375e+00,2.000731229782104492e+00,1.967626214027404785e+00,1.935598731040954590e+00,1.904597282409667969e+00,1.874573111534118652e+00,1.845480918884277344e+00
5.000000000000000000e+00,5.000000000000000000e+00,5.000000000000000000e+00,5.000000000000000000e+00,5.000000000000000000e+00,5.000000000000000000e+00,5.000000000000000000e+00,5.000000000000000000e+00,5.000000000000000000e+00,5.000000000000000000e+00,5.000000000000000000e+00,5.000000000000000000e+00,5.000000000000000000e+00,5.000000000000000000e+00,5.000000000000000000e+00,5.000000000000000000e+00,5.000000000000000000e+00,5.000000000000000000e+00,5.000000000000000000e+00,5.000000000000000000e+00,5.000000000000000000e+00,5.000000000000000000e+00,5.000000000000000000e+00,4.039215564727783203e+00,3.960684776306152344e+00,3.969864845275878906e+00,3.985580444335937500e+00,4.057737827301025391e+00,4.122884273529052734e+00,4.098260879516601562e+00,5.000000000000000000e+00,5.000000000000000000e+00,5.000000000000000000e+00,5.000000000000000000e+00,5.000000000000000000e+00,5.000000000000000000e+00,5.000000000000000000e+00,5.000000000000000000e+00,5.000000000000000000e+00,4.866584300994873047e+00,4.675250053405761719e+00,4.498391151428222656e+00,4.334425449371337891e+00,4.181992530822753906e+00,4.039916992187500000e+00,3.907177686691284180e+00,3.782883405685424805e+00,3.666253566741943359e+00,3.556600332260131836e+00,3.453315734863281250e+00,3.355860710144042969e+00,3.263755083084106445e+00,3.176570653915405273e+00,3.093922615051269531e+00,3.015466213226318359e+00,2.940890550613403320e+00,2.869914531707763672e+00,2.802283525466918945e+00,2.737766504287719727e+00,2.676153898239135742e+00,2.617253065109252930e+00,2.560889244079589844e+00,2.506901741027832031e+00,2.455143690109252930e+00,2.405479669570922852e+00,2.357784986495971680e+00,2.311944723129272461e+00,2.267853260040283203e+00,2.225411653518676758e+00,2.184529781341552734e+00,2.145122528076171875e+00,2.107112169265747070e+00,2.070425033569335938e+00,2.034993886947631836e+00,2.000754833221435547e+00,1.967648983001708984e+00,1.935620784759521484e+00,1.904618620872497559e+00,1.874593853950500488e+00,1.845501065254211426e+00
5.000000000000000000e+00,5.000000000000000000e+00,5.000000000000000000e+00,5.000000000000000000e+00,5.000000000000000000e+00,5.000000000000000000e+00,5.000000000000000000e+00,5.000000000000000000e+00,5.000000000000000000e+00,5.000000000000000000e+00,5.000000000000000000e+00,5.000000000000000000e+00,5.000000000000000000e+00,5.000000000000000000e+00,5.000000000000000000e+00,5.000000000000000000e+00,5.000000000000000000e+00,5.000000000000000000e+00,5.000000000000000000e+00,5.000000000000000000e+00,5.000000000000000000e+00,5.000000000000000000e+00,5.000000000000000000e+00,4.050949573516845703e+00,3.975973606109619141e+00,3.970072269439697266e+00,3.996869087219238281e+00,4.049264907836914062e+00,5.000000000000000000e+00,4.055194854736328125e+00,5.000000000000000000e+00,5.000000000000000000e+00,5.000000000000000000e+00,5.000000000000000000e+00,5.000000000000000000e+00,5.000000000000000000e+00,5.000000000000000000e+00,5.000000000000000000e+00,5.000000000000000000e+00,4.866724491119384766e+00,4.675379276275634766e+00,4.498511314392089844e+00,4.334536552429199219e+00,4.182096004486083984e+00,4.040013313293457031e+00,3.907267808914184570e+00,3.782968282699584961e+00,3.666333198547363281e+00,3.556675195693969727e+00,3.453386306762695312e+00,3.355927467346191406e+00,3.263818264007568359e+00,3.176630496978759766e+00,3.093979120254516602e+00,3.015519857406616211e+00,2.940941572189331055e+00,2.869963169097900391e+00,2.802330017089843750e+00,2.737811088562011719e+00,2.676196336746215820e+00,2.617293596267700195e+00,2.560928106307983398e+00,2.506939172744750977e+00,2.455179452896118164e+00,2.405513763427734375e+00,2.357817888259887695e+00,2.311976432800292969e+00,2.267883539199829102e+00,2.225440979003906250e+00,2.184557914733886719e+00,2.145149946212768555e+00,2.107138395309448242e+00,2.070450544357299805e+00,2.035018444061279297e+00,2.000778436660766602e+00,1.967671871185302734e+00,1.935642957687377930e+00,1.904640078544616699e+00,1.874614596366882324e+00,1.845521092414855957e+00
5.000000000000000000e+00,5.000000000000000000e+00,5.000000000000000000e+00,5.000000000000000000e+00,5.000000000000000000e+00,5.000000000000000000e+00,5.000000000000000000e+00,5.000000000000000000e+00,5.000000000000000000e+00,5.000000000000000000e+00,5.000000000000000000e+00,5.000000000000000000e+00,5.000000000000000000e+00,5.000000000000000000e+00,5.000000000000000000e+00,5.000000000000000000e+00,5.000000000000000000e+00,5.000000000000000000e+00,5.000000000000000000e+00,5.000000000000000000e+00,5.000000000000000000e+00,5.000000000000000000e+00,5.000000000000000000e+00,3.972493886947631836e+00,3.962605476379394531e+00,3.999021768569946289e+00,4.017794609069824219e+00,4.043892860412597656e+00,5.000000000000000000e+00,4.021280288696289062e+00,5.000000000000000000e+00,5.000000000000000000e+00,5.000000000000000000e+00,5.000000000000000000e+00,5.000000000000000000e+00,5.000000000000000000e+00,5.000000000000000000e+00,5.000000000000000000e+00,5.000000000000000000e+00,4.866864681243896484e+00,4.675508499145507812e+00,4.498631000518798828e+00,4.334648132324218750e+00,4.182199954986572266e+00,4.040110111236572266e+00,3.907358407974243164e+00,3.783053159713745117e+00,3.666412830352783203e+00,3.556750297546386719e+00,3.453456878662109375e+00,3.355993986129760742e+00,3.263881206512451172e+00,3.176689863204956055e+00,3.094035863876342773e+00,3.015573740005493164e+00,2.940992832183837891e+00,2.870012044906616211e+00,2.802376508712768555e+00,2.737855434417724609e+00,2.676238775253295898e+00,2.617334127426147461e+00,2.560966730117797852e+00,2.506976127624511719e+00,2.455214977264404297e+00,2.405548095703125000e+00,2.357850790023803711e+00,2.312008142471313477e+00,2.267914056777954102e+00,2.225470304489135742e+00,2.184586286544799805e+00,2.145177125930786133e+00,2.107164621353149414e+00,2.070475816726684570e+00,2.035043001174926758e+00,2.000802278518676758e+00,1.967694878578186035e+00,1.935665249824523926e+00,1.904661655426025391e+00,1.874635577201843262e+00,1.845541477203369141e+00
5.000000000000000000e+00,5.000000000000000000e+00,5.000000000000000000e+00,5.000000000000000000e+00,5.000000000000000000e+00,5.000000000000000000e+00,5.000000000000000000e+00,5.000000000000000000e+00,5.000000000000000000e+00,5.000000000000000000e+00,5.000000000000000000e+00,5.000000000000000000e+00,5.000000000000000000e+00,5.000000000000000000e+00,5.000000000000000000e+00,5.000000000000000000e+00,5.000000000000000000e+00,5.000000000000000000e+00,5.000000000000000000e+00,5.000000000000000000e+00,5.000000000000000000e+00,5.000000000000000000e+00,5.000000000000000000e+00,3.935876369476318359e+00,3.915778160095214844e+00,3.984560012817382812e+00,4.010550498962402344e+00,4.035926818847656250e+00,5.000000000000000000e+00,3.961471557617187500e+00,5.000000000000000000e+00,5.000000000000000000e+00,5.000000000000000000e+00,5.000000000000000000e+00,5.000000000000000000e+00,5.000000000000000000e+00,5.000000000000000000e+00,5.000000000000000000e+00,5.000000000000000000e+00,4.867004871368408203e+00,4.675637722015380859e+00,4.498750686645507812e+00,4.334759235382080078e+00,4.182303428649902344e+00,4.040206909179687500e+00,3.907448530197143555e+00,3.783137559890747070e+00,3.666492223739624023e+00,3.556824922561645508e+00,3.453527450561523438e+00,3.356060743331909180e+00,3.263944387435913086e+00,3.176749706268310547e+00,3.094092607498168945e+00,3.015627861022949219e+00,2.941044330596923828e+00,2.870060682296752930e+00,2.802423000335693359e+00,2.737899780273437500e+00,2.676280975341796875e+00,2.617374658584594727e+00,2.561005592346191406e+00,2.507013559341430664e+00,2.455250740051269531e+00,2.405582427978515625e+00,2.357883691787719727e+00,2.312039613723754883e+00,2.267944335937500000e+00,2.225499629974365234e+00,2.184614419937133789e+00,2.145204305648803711e+00,2.107190847396850586e+00,2.070501089096069336e+00,2.035067558288574219e+00,2.000826120376586914e+00,1.967717766761779785e+00,1.935687422752380371e+00,1.904683113098144531e+00,1.874656319618225098e+00,1.845561504364013672e+00
5.000000000000000000e+00,5.000000000000000000e+00,5.000000000000000000e+00,5.000000000000000000e+00,5.000000000000000000e+00,5.000000000000000000e+00,5.000000000000000000e+00,5.000000000000000000e+00,5.000000000000000000e+00,5.000000000000000000e+00,5.000000000000000000e+00,5.000000000000000000e+00,5.000000000000000000e+00,5.000000000000000000e+00,5.000000000000000000e+00,5.000000000000000000e+00,5.000000000000000000e+00,5.000000000000000000e+00,5.000000000000000000e+00,5.000000000000000000e+00,5.000000000000000000e+00,5.000000000000000000e+00,5.000000000000000000e+00,3.918784618377685547e+00,3.898349523544311523e+00,3.970435857772827148e+00,4.010352611541748047e+00,4.041859626770019531e+00,5.000000000000000000e+00,3.914823055267333984e+00,5.000000000000000000e+00,5.000000000000000000e+00,5.000000000000000000e+00,5.000000000000000000e+00,5.000000000000000000e+00,5.000000000000000000e+00,5.000000000000000000e+00,5.000000000000000000e+00,5.000000000000000000e+00,4.867145061492919922e+00,4.675767421722412109e+00,4.498870372772216797e+00,4.334870338439941406e+00,4.182406902313232422e+00,4.040303230285644531e+00,3.907538890838623047e+00,3.783222436904907227e+00,3.666571855545043945e+00,3.556900024414062500e+00,3.453598260879516602e+00,3.356127500534057617e+00,3.264007568359375000e+00,3.176809310913085938e+00,3.094149112701416016e+00,3.015681505203247070e+00,2.941095352172851562e+00,2.870109319686889648e+00,2.802469491958618164e+00,2.737944126129150391e+00,2.676323413848876953e+00,2.617415428161621094e+00,2.561044454574584961e+00,2.507050514221191406e+00,2.455286264419555664e+00,2.405616521835327148e+00,2.357916593551635742e+00,2.312071323394775391e+00,2.267974853515625000e+00,2.225528955459594727e+00,2.184642791748046875e+00,2.145231723785400391e+00,2.107217311859130859e+00,2.070526599884033203e+00,2.035091876983642578e+00,2.000849723815917969e+00,1.967740654945373535e+00,1.935709476470947266e+00,1.904704451560974121e+00,1.874677062034606934e+00,1.845581650733947754e+00
5.000000000000000000e+00,5.000000000000000000e+00,5.000000000000000000e+00,5.000000000000000000e+00,5.000000000000000000e+00,5.000000000000000000e+00,5.000000000000000000e+00,5.000000000000000000e+00,5.000000000000000000e+00,5.000000000000000000e+00,5.000000000000000000e+00,5.000000000000000000e+00,5.000000000000000000e+00,5.000000000000000000e+00,5.000000000000000000e+00,5.000000000000000000e+00,5.000000000000000000e+00,5.000000000000000000e+00,5.000000000000000000e+00,5.000000000000000000e+00,5.000000000000000000e+00,5.000000000000000000e+00,5.000000000000000000e+00,3.958828926086425781e+00,3.878861427307128906e+00,3.952136516571044922e+00,4.025953292846679688e+00,4.055710315704345703e+00,5.000000000000000000e+00,5.000000000000000000e+00,5.000000000000000000e+00,5.000000000000000000e+00,5.000000000000000000e+00,5.000000000000000000e+00,5.000000000000000000e+00,5.000000000000000000e+00,5.000000000000000000e+00,5.000000000000000000e+00,5.000000000000000000e+00,4.867285251617431641e+00,4.675896644592285156e+00,4.498990535736083984e+00,4.334981918334960938e+00,4.182510375976562500e+00,4.040400028228759766e+00,3.907629489898681641e+00,3.783307313919067383e+00,3.666651725769042969e+00,3.556974649429321289e+00,3.453668594360351562e+00,3.356194019317626953e+00,3.264070510864257812e+00,3.176869153976440430e+00,3.094205856323242188e+00,3.015735387802124023e+00,2.941146612167358398e+00,2.870158195495605469e+00,2.802515983581542969e+00,2.737988710403442383e+00,2.676365852355957031e+00,2.617455720901489258e+00,2.561083316802978516e+00,2.507087945938110352e+00,2.455322027206420898e+00,2.405650854110717773e+00,2.357949495315551758e+00,2.312103033065795898e+00,2.268005371093750000e+00,2.225558280944824219e+00,2.184670925140380859e+00,2.145258665084838867e+00,2.107243537902832031e+00,2.070551872253417969e+00,2.035116434097290039e+00,2.000873327255249023e+00,1.967763662338256836e+00,1.935731768608093262e+00,1.904726147651672363e+00,1.874697923660278320e+00,1.845601916313171387e+00
5.000000000000000000e+00,5.000000000000000000e+00,5.000000000000000000e+00,5.000000000000000000e+00,5.000000000000000000e+00,5.000000000000000000e+00,5.000000000000000000e+00,5.000000000000000000e+00,5.000000000000000000e+00,5.000000000000000000e+00,5.000000000000000000e+00,5.000000000000000000e+00,5.000000000000000000e+00,5.000000000000000000e+00,5.000000000000000000e+00,5.000000000000000000e+00,5.000000000000000000e+00,5.000000000000000000e+00,5.000000000000000000e+00,5.000000000000000000e+00,5.000000000000000000e+00,5.000000000000000000e+00,5.000000000000000000e+00,5.000000000000000000e+00,3.858087062835693359e+00,3.922594785690307617e+00,4.039453029632568359e+00,4.069101333618164062e+00,5.000000000000000000e+00,5.000000000000000000e+00,5.000000000000000000e+00,5.000000000000000000e+00,5.000000000000000000e+00,5.000000000000000000e+00,5.000000000000000000e+00,5.000000000000000000e+00,5.000000000000000000e+00,5.000000000000000000e+00,5.000000000000000000e+00,4.867425441741943359e+00,4.676026344299316406e+00,4.499110221862792969e+00,4.335093021392822266e+00,4.182613849639892578e+00,4.040496349334716797e+00,3.907719612121582031e+00,3.783391714096069336e+00,3.666731119155883789e+00,3.557049751281738281e+00,3.453739404678344727e+00,3.356260776519775391e+00,3.264133691787719727e+00,3.176928997039794922e+00,3.094262599945068359e+00,3.015789270401000977e+00,2.941197633743286133e+00,2.870206832885742188e+00,2.802562475204467773e+00,2.738033056259155273e+00,2.676408290863037109e+00,2.617496490478515625e+00,2.561122179031372070e+00,2.507125139236450195e+00,2.455357789993286133e+00,2.405685186386108398e+00,2.357982397079467773e+00,2.312134504318237305e+00,2.268035650253295898e+00,2.225587606430053711e+00,2.184699296951293945e+00,2.145286083221435547e+00,2.107269763946533203e+00,2.070577383041381836e+00,2.035140991210937500e+00,2.000897169113159180e+00,1.967786550521850586e+00,1.935753941535949707e+00,1.904747486114501953e+00,1.874718666076660156e+00,1.845622062683105469e+00
5.000000000000000000e+00,5.000000000000000000e+00,5.000000000000000000e+00,5.000000000000000000e+00,5.000000000000000000e+00,5.000000000000000000e+00,5.000000000000000000e+00,5.000000000000000000e+00,5.000000000000000000e+00,5.000000000000000000e+00,5.000000000000000000e+00,5.000000000000000000e+00,5.000000000000000000e+00,5.000000000000000000e+00,5.000000000000000000e+00,5.000000000000000000e+00,5.000000000000000000e+00,5.000000000000000000e+00,5.000000000000000000e+00,5.000000000000000000e+00,5.000000000000000000e+00,5.000000000000000000e+00,5.000000000000000000e+00,5.000000000000000000e+00,3.841336965560913086e+00,3.905337333679199219e+00,4.052949428558349609e+00,4.085575103759765625e+00,5.000000000000000000e+00,5.000000000000000000e+00,5.000000000000000000e+00,5.000000000000000000e+00,5.000000000000000000e+00,5.000000000000000000e+00,5.000000000000000000e+00,5.000000000000000000e+00,5.000000000000000000e+00,5.000000000000000000e+00,5.000000000000000000e+00,4.867566108703613281e+00,4.676155567169189453e+00,4.499229907989501953e+00,4.335204124450683594e+00,4.182717323303222656e+00,4.040593147277832031e+00,3.907810211181640625e+00,3.783476591110229492e+00,3.666810750961303711e+00,3.557124614715576172e+00,3.453810214996337891e+00,3.356327533721923828e+00,3.264196395874023438e+00,3.176988601684570312e+00,3.094319105148315430e+00,3.015842914581298828e+00,2.941248893737792969e+00,2.870255708694458008e+00,2.802608966827392578e+00,2.738077402114868164e+00,2.676450729370117188e+00,2.617537021636962891e+00,2.561160802841186523e+00,2.507162332534790039e+00,2.455393552780151367e+00,2.405719280242919922e+00,2.358015298843383789e+00,2.312166213989257812e+00,2.268066167831420898e+00,2.225616931915283203e+00,2.184727430343627930e+00,2.145313262939453125e+00,2.107296228408813477e+00,2.070602655410766602e+00,2.035165548324584961e+00,2.000920772552490234e+00,1.967809438705444336e+00,1.935775995254516602e+00,1.904768943786621094e+00,1.874739408493041992e+00,1.845642209053039551e+00
5.000000000000000000e+00,5.000000000000000000e+00,5.000000000000000000e+00,5.000000000000000000e+00,5.000000000000000000e+00,5.000000000000000000e+00,5.000000000000000000e+00,5.000000000000000000e+00,5.000000000000000000e+00,5.000000000000000000e+00,5.000000000000000000e+00,5.000000000000000000e+00,5.000000000000000000e+00,5.000000000000000000e+00,5.000000000000000000e+00,5.000000000000000000e+00,5.000000000000000000e+00,5.000000000000000000e+00,5.000000000000000000e+00,5.000000000000000000e+00,5.000000000000000000e+00,5.000000000000000000e+00,5.000000000000000000e+00,5.000000000000000000e+00,3.858859062194824219e+00,3.926397562026977539e+00,4.066789150238037109e+00,4.188825607299804688e+00,5.000000000000000000e+00,5.000000000000000000e+00,5.000000000000000000e+00,5.000000000000000000e+00,5.000000000000000000e+00,5.000000000000000000e+00,5.000000000000000000e+00,5.000000000000000000e+00,5.000000000000000000e+00,5.000000000000000000e+00,5.000000000000000000e+00,4.867705821990966797e+00,4.676285266876220703e+00,4.499349594116210938e+00,4.335315227508544922e+00,4.182820796966552734e+00,4.040689945220947266e+00,3.907900810241699219e+00,3.783561468124389648e+00,3.666890144348144531e+00,3.557199239730834961e+00,3.453880548477172852e+00,3.356394052505493164e+00,3.264259576797485352e+00,3.177048444747924805e+00,3.094376087188720703e+00,3.015896797180175781e+00,2.941300153732299805e+00,2.870304584503173828e+00,2.802655220031738281e+00,2.738121747970581055e+00,2.676492929458618164e+00,2.617577552795410156e+00,2.561199665069580078e+00,2.507199525833129883e+00,2.455429315567016602e+00,2.405753612518310547e+00,2.358048200607299805e+00,2.312197923660278320e+00,2.268096685409545898e+00,2.225646257400512695e+00,2.184755802154541016e+00,2.145340442657470703e+00,2.107322454452514648e+00,2.070628166198730469e+00,2.035190105438232422e+00,2.000944375991821289e+00,1.967832446098327637e+00,1.935798406600952148e+00,1.904790520668029785e+00,1.874760389328002930e+00,1.845662236213684082e+00
5.000000000000000000e+00,5.000000000000000000e+00,5.000000000000000000e+00,5.000000000000000000e+00,5.000000000000000000e+00,5.000000000000000000e+00,5.000000000000000000e+00,5.000000000000000000e+00,5.000000000000000000e+00,5.000000000000000000e+00,5.000000000000000000e+00,5.000000000000000000e+00,5.000000000000000000e+00,5.000000000000000000e+00,5.000000000000000000e+00,5.000000000000000000e+00,5.000000000000000000e+00,5.000000000000000000e+00,5.000000000000000000e+00,5.000000000000000000e+00,5.000000000000000000e+00,5.000000000000000000e+00,5.000000000000000000e+00,5.000000000000000000e+00,3.885230302810668945e+00,3.941158294677734375e+00,4.153574943542480469e+00,4.214628696441650391e+00,5.000000000000000000e+00,5.000000000000000000e+00,5.000000000000000000e+00,5.000000000000000000e+00,5.000000000000000000e+00,5.000000000000000000e+00,5.000000000000000000e+00,5.000000000000000000e+00,5.000000000000000000e+00,5.000000000000000000e+00,5.000000000000000000e+00,4.867844581604003906e+00,4.676414489746093750e+00,4.499469757080078125e+00,4.335426807403564453e+00,4.182924270629882812e+00,4.040786266326904297e+00,3.907990932464599609e+00,3.783646106719970703e+00,3.666969776153564453e+00,3.557274341583251953e+00,3.453951358795166016e+00,3.356460809707641602e+00,3.264322996139526367e+00,3.177108287811279297e+00,3.094432353973388672e+00,3.015950679779052734e+00,2.941351175308227539e+00,2.870353221893310547e+00,2.802701950073242188e+00,2.738166093826293945e+00,2.676535367965698242e+00,2.617618083953857422e+00,2.561238765716552734e+00,2.507236719131469727e+00,2.455465078353881836e+00,2.405787706375122070e+00,2.358081102371215820e+00,2.312229633331298828e+00,2.268127202987670898e+00,2.225675582885742188e+00,2.184783935546875000e+00,2.145367860794067383e+00,2.107348680496215820e+00,2.070653438568115234e+00,2.035214662551879883e+00,2.000968217849731445e+00,1.967855334281921387e+00,1.935820460319519043e+00,1.904811978340148926e+00,1.874781131744384766e+00,1.845682501792907715e+00
5.000000000000000000e+00,5.000000000000000000e+00,5.000000000000000000e+00,5.000000000000000000e+00,5.000000000000000000e+00,5.000000000000000000e+00,5.000000000000000000e+00,5.000000000000000000e+00,5.000000000000000000e+00,5.000000000000000000e+00,5.000000000000000000e+00,5.000000000000000000e+00,5.000000000000000000e+00,5.000000000000000000e+00,5.000000000000000000e+00,5.000000000000000000e+00,5.000000000000000000e+00,5.000000000000000000e+00,5.000000000000000000e+00,5.000000000000000000e+00,5.000000000000000000e+00,5.000000000000000000e+00,5.000000000000000000e+00,5.000000000000000000e+00,3.888796567916870117e+00,3.930411100387573242e+00,4.262469291687011719e+00,4.304184913635253906e+00,5.000000000000000000e+00,5.000000000000000000e+00,5.000000000000000000e+00,5.000000000000000000e+00,5.000000000000000000e+00,5.000000000000000000e+00,5.000000000000000000e+00,5.000000000000000000e+00,5.000000000000000000e+00,5.000000000000000000e+00,5.000000000000000000e+00,4.867983818054199219e+00,4.676542758941650391e+00,4.499589443206787109e+00,4.335537910461425781e+00,4.183028221130371094e+00,4.040883064270019531e+00,3.908081531524658203e+00,3.783730983734130859e+00,3.667049646377563477e+00,3.557349443435668945e+00,3.454021692276000977e+00,3.356527328491210938e+00,3.264385700225830078e+00,3.177167892456054688e+00,3.094489336013793945e+00,3.016004562377929688e+00,2.941402673721313477e+00,2.870402097702026367e+00,2.802748441696166992e+00,2.738210678100585938e+00,2.676578044891357422e+00,2.617658615112304688e+00,2.561277389526367188e+00,2.507273912429809570e+00,2.455500602722167969e+00,2.405822038650512695e+00,2.358114004135131836e+00,2.312261343002319336e+00,2.268157720565795898e+00,2.225704908370971680e+00,2.184812307357788086e+00,2.145395040512084961e+00,2.107374906539916992e+00,2.070678710937500000e+00,2.035238981246948242e+00,2.000991821289062500e+00,1.967878222465515137e+00,1.935842633247375488e+00,1.904833436012268066e+00,1.874801874160766602e+00,1.845702648162841797e+00
5.000000000000000000e+00,5.000000000000000000e+00,5.000000000000000000e+00,5.000000000000000000e+00,5.000000000000000000e+00,5.000000000000000000e+00,5.000000000000000000e+00,5.000000000000000000e+00,5.000000000000000000e+00,5.000000000000000000e+00,5.000000000000000000e+00,5.000000000000000000e+00,5.000000000000000000e+00,5.000000000000000000e+00,5.000000000000000000e+00,5.000000000000000000e+00,5.000000000000000000e+00,5.000000000000000000e+00,5.000000000000000000e+00,5.000000000000000000e+00,5.000000000000000000e+00,5.000000000000000000e+00,5.000000000000000000e+00,5.000000000000000000e+00,3.898082017898559570e+00,3.925450325012207031e+00,4.340983390808105469e+00,4.403100490570068359e+00,5.000000000000000000e+00,5.000000000000000000e+00,5.000000000000000000e+00,5.000000000000000000e+00,5.000000000000000000e+00,5.000000000000000000e+00,5.000000000000000000e+00,5.000000000000000000e+00,5.000000000000000000e+00,5.000000000000000000e+00,5.000000000000000000e+00,4.868122577667236328e+00,4.676671028137207031e+00,4.499708652496337891e+00,4.335649013519287109e+00,4.183131694793701172e+00,4.040979862213134766e+00,3.908171653747558594e+00,3.783815383911132812e+00,3.667129039764404297e+00,3.557424068450927734e+00,3.454092502593994141e+00,3.356594085693359375e+00,3.264448881149291992e+00,3.177227735519409180e+00,3.094546079635620117e+00,3.016058444976806641e+00,2.941453933715820312e+00,2.870450735092163086e+00,2.802794933319091797e+00,2.738254785537719727e+00,2.676620244979858398e+00,2.617699146270751953e+00,2.561316251754760742e+00,2.507311105728149414e+00,2.455536365509033203e+00,2.405856370925903320e+00,2.358147144317626953e+00,2.312293052673339844e+00,2.268187999725341797e+00,2.225734233856201172e+00,2.184840440750122070e+00,2.145422220230102539e+00,2.107401132583618164e+00,2.070704221725463867e+00,2.035263538360595703e+00,2.001015663146972656e+00,1.967901229858398438e+00,1.935864925384521484e+00,1.904854774475097656e+00,1.874822616577148438e+00,1.845722794532775879e+00
5.000000000000000000e+00,5.000000000000000000e+00,5.000000000000000000e+00,5.000000000000000000e+00,5.000000000000000000e+00,5.000000000000000000e+00,5.000000000000000000e+00,5.000000000000000000e+00,5.000000000000000000e+00,5.000000000000000000e+00,5.000000000000000000e+00,5.000000000000000000e+00,5.000000000000000000e+00,5.000000000000000000e+00,5.000000000000000000e+00,5.000000000000000000e+00,5.000000000000000000e+00,5.000000000000000000e+00,5.000000000000000000e+00,5.000000000000000000e+00,5.000000000000000000e+00,5.000000000000000000e+00,5.000000000000000000e+00,5.000000000000000000e+00,3.923434495925903320e+00,3.926489353179931641e+00,4.455725193023681641e+00,5.000000000000000000e+00,5.000000000000000000e+00,5.000000000000000000e+00,5.000000000000000000e+00,5.000000000000000000e+00,5.000000000000000000e+00,5.000000000000000000e+00,5.000000000000000000e+00,5.000000000000000000e+00,5.000000000000000000e+00,5.000000000000000000e+00,5.000000000000000000e+00,4.868261337280273438e+00,4.676799297332763672e+00,4.499827384948730469e+00,4.335760116577148438e+00,4.183235168457031250e+00,4.041076660156250000e+00,3.908262252807617188e+00,3.783900260925292969e+00,3.667208671569824219e+00,3.557499170303344727e+00,3.454163074493408203e+00,3.356661081314086914e+00,3.264512062072753906e+00,3.177287340164184570e+00,3.094602584838867188e+00,3.016112089157104492e+00,2.941504955291748047e+00,2.870499610900878906e+00,2.802841424942016602e+00,2.738299369812011719e+00,2.676662683486938477e+00,2.617739915847778320e+00,2.561355113983154297e+00,2.507348537445068359e+00,2.455571889877319336e+00,2.405890703201293945e+00,2.358179807662963867e+00,2.312324523925781250e+00,2.268218517303466797e+00,2.225763559341430664e+00,2.184868812561035156e+00,2.145449638366699219e+00,2.107427597045898438e+00,2.070729732513427734e+00,2.035288095474243164e+00,2.001039266586303711e+00,1.967924118041992188e+00,1.935887098312377930e+00,1.904876470565795898e+00,1.874843597412109375e+00,1.845743060111999512e+00
5.000000000000000000e+00,5.000000000000000000e+00,5.000000000000000000e+00,5.000000000000000000e+00,5.000000000000000000e+00,5.000000000000000000e+00,5.000000000000000000e+00,5.000000000000000000e+00,5.000000000000000000e+00,5.000000000000000000e+00,5.000000000000000000e+00,5.000000000000000000e+00,5.000000000000000000e+00,5.000000000000000000e+00,5.000000000000000000e+00,5.000000000000000000e+00,5.000000000000000000e+00,5.000000000000000000e+00,5.000000000000000000e+00,5.000000000000000000e+00,5.000000000000000000e+00,5.000000000000000000e+00,5.000000000000000000e+00,5.000000000000000000e+00,5.000000000000000000e+00,3.947926759719848633e+00,4.429182529449462891e+00,5.000000000000000000e+00,5.000000000000000000e+00,5.000000000000000000e+00,5.000000000000000000e+00,5.000000000000000000e+00,5.000000000000000000e+00,5.000000000000000000e+00,5.000000000000000000e+00,5.000000000000000000e+00,5.000000000000000000e+00,5.000000000000000000e+00,5.000000000000000000e+00,4.868400573730468750e+00,4.676927566528320312e+00,4.499946117401123047e+00,4.335870742797851562e+00,4.183339118957519531e+00,4.041172981262207031e+00,3.908352851867675781e+00,3.783985137939453125e+00,3.667288541793823242e+00,3.557573795318603516e+00,3.454233646392822266e+00,3.356727600097656250e+00,3.264575004577636719e+00,3.177347183227539062e+00,3.094659328460693359e+00,3.016166210174560547e+00,2.941556215286254883e+00,2.870548486709594727e+00,2.802888154983520508e+00,2.738343715667724609e+00,2.676705121994018555e+00,2.617780208587646484e+00,2.561393976211547852e+00,2.507385492324829102e+00,2.455607652664184570e+00,2.405925035476684570e+00,2.358212947845458984e+00,2.312356233596801758e+00,2.268249034881591797e+00,2.225792884826660156e+00,2.184896945953369141e+00,2.145476818084716797e+00,2.107453823089599609e+00,2.070755004882812500e+00,2.035312652587890625e+00,2.001062870025634766e+00,1.967947006225585938e+00,1.935909152030944824e+00,1.904897809028625488e+00,1.874864339828491211e+00,1.845763206481933594e+00
4.875046253204345703e+00,4.873834609985351562e+00,4.872623920440673828e+00,4.871413707733154297e+00,4.870203971862792969e+00,4.868995189666748047e+00,4.867786407470703125e+00,4.866579055786132812e+00,4.865371704101562500e+00,4.864165306091308594e+00,4.862959384918212891e+00,4.861753940582275391e+00,4.860548973083496094e+00,4.859344959259033203e+00,4.858141422271728516e+00,4.856938362121582031e+00,4.855735778808593750e+00,4.854534149169921875e+00,4.853332996368408203e+00,4.852132797241210938e+00,4.850932598114013672e+00,4.849733352661132812e+00,4.848534107208251953e+00,4.847335815429687500e+00,4.846138000488281250e+00,3.875836610794067383e+00,4.408247947692871094e+00,4.842548847198486328e+00,4.841353893280029297e+00,4.840158939361572266e+00,4.838964939117431641e+00,4.837771415710449219e+00,4.836578369140625000e+00,4.835385799407958984e+00,4.834194183349609375e+00,4.833003044128417969e+00,4.831812381744384766e+00,4.830622673034667969e+00,4.829432964324951172e+00,4.828244209289550781e+00,4.677055835723876953e+00,4.500064849853515625e+00,4.335980415344238281e+00,4.183441638946533203e+00,4.041269779205322266e+00,3.908442974090576172e+00,3.784069776535034180e+00,3.667367935180664062e+00,3.557648897171020508e+00,3.454304456710815430e+00,3.356794357299804688e+00,3.264638185501098633e+00,3.177407026290893555e+00,3.094716072082519531e+00,3.016220092773437500e+00,2.941607236862182617e+00,2.870597124099731445e+00,2.802934408187866211e+00,2.738388061523437500e+00,2.676747560501098633e+00,2.617820978164672852e+00,2.561432838439941406e+00,2.507422924041748047e+00,2.455643415451049805e+00,2.405959367752075195e+00,2.358245611190795898e+00,2.312387704849243164e+00,2.268279314041137695e+00,2.225822210311889648e+00,2.184925317764282227e+00,2.145503997802734375e+00,2.107480049133300781e+00,2.070780515670776367e+00,2.035337209701538086e+00,2.001086711883544922e+00,1.967970013618469238e+00,1.935931324958801270e+00,1.904919266700744629e+00,1.874885082244873047e+00,1.845783233642578125e+00
3.777811527252197266e+00,3.777083873748779297e+00,3.776357173919677734e+00,3.775629997253417969e+00,3.774903297424316406e+00,3.774176836013793945e+00,3.773450851440429688e+00,3.772725105285644531e+00,3.771999359130859375e+00,3.771274089813232422e+00,3.770549297332763672e+00,3.769824504852294922e+00,3.769099950790405273e+00,3.768376111984252930e+00,3.767652273178100586e+00,3.766928434371948242e+00,3.766205072402954102e+00,3.765482425689697266e+00,3.764759540557861328e+00,3.764036893844604492e+00,3.763314962387084961e+00,3.762593030929565430e+00,3.761871099472045898e+00,3.761149644851684570e+00,3.760428905487060547e+00,3.759708166122436523e+00,3.758987426757812500e+00,3.758267402648925781e+00,3.757547378540039062e+00,3.756827592849731445e+00,3.756108045578002930e+00,3.755389213562011719e+00,3.754670143127441406e+00,3.753951311111450195e+00,3.753232955932617188e+00,3.752515077590942383e+00,3.751797199249267578e+00,3.751079559326171875e+00,3.750362634658813477e+00,3.749645709991455078e+00,3.748928785324096680e+00,3.748212337493896484e+00,3.747496366500854492e+00,3.746780395507812500e+00,3.746064901351928711e+00,3.745349884033203125e+00,3.744634628295898438e+00,3.667447566986083984e+00,3.557723999023437500e+00,3.454375028610229492e+00,3.356861114501953125e+00,3.264701128005981445e+00,3.177466630935668945e+00,3.094772577285766602e+00,3.016273736953735352e+00,2.941658735275268555e+00,2.870645999908447266e+00,2.802980899810791016e+00,2.738432407379150391e+00,2.676789999008178711e+00,2.617861509323120117e+00,2.561471462249755859e+00,2.507459878921508789e+00,2.455678939819335938e+00,2.405993461608886719e+00,2.358278751373291016e+00,2.312419414520263672e+00,2.268309831619262695e+00,2.225851535797119141e+00,2.184953689575195312e+00,2.145531415939331055e+00,2.107506513595581055e+00,2.070805788040161133e+00,2.035361528396606445e+00,2.001110315322875977e+00,1.967992901802062988e+00,1.935953617095947266e+00,1.904940843582153320e+00,1.874906063079833984e+00,1.845803618431091309e+00
3.083747386932373047e+00,3.083262920379638672e+00,3.082778215408325195e+00,3.082293748855590820e+00,3.081809282302856445e+00,3.081325531005859375e+00,3.080841302871704102e+00,3.080357551574707031e+00,3.079873800277709961e+00,3.079390287399291992e+00,3.078907012939453125e+00,3.078423500061035156e+00,3.077940702438354492e+00,3.077457666397094727e+00,3.076974868774414062e+00,3.076492071151733398e+00,3.076009988784790039e+00,3.075527429580688477e+00,3.075045347213745117e+00,3.074563503265380859e+00,3.074081420898437500e+00,3.073599576950073242e+00,3.073117971420288086e+00,3.072636842727661133e+00,3.072155475616455078e+00,3.071674346923828125e+00,3.071193218231201172e+00,3.070712566375732422e+00,3.070231914520263672e+00,3.069751262664794922e+00,3.069271087646484375e+00,3.068790912628173828e+00,3.068310737609863281e+00,3.067830562591552734e+00,3.067351102828979492e+00,3.066871404647827148e+00,3.066391944885253906e+00,3.065912723541259766e+00,3.065433740615844727e+00,3.064954519271850586e+00,3.064475536346435547e+00,3.063997030258178711e+00,3.063518524169921875e+00,3.063040018081665039e+00,3.062561988830566406e+00,3.062083721160888672e+00,3.061605691909790039e+00,3.061127901077270508e+00,3.060650348663330078e+00,3.060172796249389648e+00,3.059695243835449219e+00,3.059217929840087891e+00,3.058741092681884766e+00,3.058264017105102539e+00,3.016327619552612305e+00,2.941709995269775391e+00,2.870694875717163086e+00,2.803027391433715820e+00,2.738476753234863281e+00,2.676832199096679688e+00,2.617902040481567383e+00,2.561510562896728516e+00,2.507497310638427734e+00,2.455714702606201172e+00,2.406027793884277344e+00,2.358311653137207031e+00,2.312451124191284180e+00,2.268340349197387695e+00,2.225880861282348633e+00,2.184981822967529297e+00,2.145558595657348633e+00,2.107532739639282227e+00,2.070831060409545898e+00,2.035386323928833008e+00,2.001134157180786133e+00,1.968015789985656738e+00,1.935975790023803711e+00,1.904962301254272461e+00,1.874926805496215820e+00,1.845823645591735840e+00
2.605129957199096680e+00,2.604784011840820312e+00,2.604438066482543945e+00,2.604092359542846680e+00,2.603746652603149414e+00,2.603401184082031250e+00,2.603055477142333984e+00,2.602710008621215820e+00,2.602364778518676758e+00,2.602019548416137695e+00,2.601674318313598633e+00,2.601329565048217773e+00,2.600984573364257812e+00,2.600639581680297852e+00,2.600294828414916992e+00,2.599950313568115234e+00,2.599605560302734375e+00,2.599261045455932617e+00,2.598916769027709961e+00,2.598572254180908203e+00,2.598227977752685547e+00,2.597883939743041992e+00,2.597539901733398438e+00,2.597195863723754883e+00,2.596852064132690430e+00,2.596508264541625977e+00,2.596164703369140625e+00,2.595821142196655273e+00,2.595477581024169922e+00,2.595134258270263672e+00,2.594790935516357422e+00,2.594447612762451172e+00,2.594104290008544922e+00,2.593761444091796875e+00,2.593418598175048828e+00,2.593075513839721680e+00,2.592732906341552734e+00,2.592390298843383789e+00,2.592047452926635742e+00,2.591705083847045898e+00,2.591362714767456055e+00,2.591020345687866211e+00,2.590677976608276367e+00,2.590335845947265625e+00,2.589993953704833984e+00,2.589652061462402344e+00,2.589310169219970703e+00,2.588968515396118164e+00,2.588626623153686523e+00,2.588284969329833984e+00,2.587943553924560547e+00,2.587602138519287109e+00,2.587260961532592773e+00,2.586919546127319336e+00,2.586578607559204102e+00,2.586237430572509766e+00,2.585896492004394531e+00,2.585555553436279297e+00,2.585214853286743164e+00,2.584874153137207031e+00,2.584533452987670898e+00,2.561549425125122070e+00,2.507534503936767578e+00,2.455750465393066406e+00,2.406061887741088867e+00,2.358344554901123047e+00,2.312482833862304688e+00,2.268370866775512695e+00,2.225910186767578125e+00,2.185010194778442383e+00,2.145585775375366211e+00,2.107558965682983398e+00,2.070856571197509766e+00,2.035410881042480469e+00,2.001157760620117188e+00,1.968038558959960938e+00,1.935997843742370605e+00,1.904983758926391602e+00,1.874947547912597656e+00,1.845843791961669922e+00
2.255156040191650391e+00,2.254895210266113281e+00,2.254634380340576172e+00,2.254373788833618164e+00,2.254113197326660156e+00,2.253852605819702148e+00,2.253591775894165039e+00,2.253331422805786133e+00,2.253071069717407227e+00,2.252810716629028320e+00,2.252550363540649414e+00,2.252290010452270508e+00,2.252029895782470703e+00,2.251769781112670898e+00,2.251509904861450195e+00,2.251249790191650391e+00,2.250989675521850586e+00,2.250729799270629883e+00,2.250470161437988281e+00,2.250210285186767578e+00,2.249950647354125977e+00,2.249691009521484375e+00,2.249431371688842773e+00,2.249172925949096680e+00,2.248914957046508789e+00,2.248657226562500000e+00,2.248399496078491211e+00,2.248141765594482422e+00,2.247884273529052734e+00,2.247626543045043945e+00,2.247369050979614258e+00,2.247111558914184570e+00,2.246854305267333984e+00,2.246596813201904297e+00,2.246339559555053711e+00,2.246082305908203125e+00,2.245825052261352539e+00,2.245568037033081055e+00,2.245310783386230469e+00,2.245054006576538086e+00,2.244796991348266602e+00,2.244539976119995117e+00,2.244283199310302734e+00,2.244026422500610352e+00,2.243769884109497070e+00,2.243513107299804688e+00,2.243256568908691406e+00,2.243000030517578125e+00,2.242743492126464844e+00,2.242486953735351562e+00,2.242230892181396484e+00,2.241974592208862305e+00,2.241718292236328125e+00,2.241462230682373047e+00,2.241205930709838867e+00,2.240949869155883789e+00,2.240693807601928711e+00,2.240437984466552734e+00,2.240182161331176758e+00,2.239926099777221680e+00,2.239670276641845703e+00,2.239414691925048828e+00,2.239159107208251953e+00,2.238903522491455078e+00,2.238647937774658203e+00,2.238392591476440430e+00,2.238137006759643555e+00,2.237881660461425781e+00,2.225939512252807617e+00,2.185038328170776367e+00,2.145613193511962891e+00,2.107585191726684570e+00,2.070881843566894531e+00,2.035435199737548828e+00,2.001181364059448242e+00,1.968061685562133789e+00,1.936020135879516602e+00,1.905005335807800293e+00,1.874968409538269043e+00,1.845864057540893555e+00
1.988147258758544922e+00,1.987944722175598145e+00,1.987741947174072266e+00,1.987539410591125488e+00,1.987336754798889160e+00,1.987134099006652832e+00,1.986931681632995605e+00,1.986729025840759277e+00,1.986526727676391602e+00,1.986324310302734375e+00,1.986121773719787598e+00,1.985919594764709473e+00,1.985717296600341797e+00,1.985515236854553223e+00,1.985312938690185547e+00,1.985110640525817871e+00,1.984908699989318848e+00,1.984706521034240723e+00,1.984504580497741699e+00,1.984302520751953125e+00,1.984100461006164551e+00,1.983898639678955078e+00,1.983696699142456055e+00,1.983494997024536133e+00,1.983293175697326660e+00,1.983091592788696289e+00,1.982889771461486816e+00,1.982687950134277344e+00,1.982486486434936523e+00,1.982284784317016602e+00,1.982083439826965332e+00,1.981881856918334961e+00,1.981680274009704590e+00,1.981479048728942871e+00,1.981277465820312500e+00,1.981076359748840332e+00,1.980874896049499512e+00,1.980673551559448242e+00,1.980472445487976074e+00,1.980271220207214355e+00,1.980070233345031738e+00,1.979869008064270020e+00,1.979667901992797852e+00,1.979467034339904785e+00,1.979265928268432617e+00,1.979065179824829102e+00,1.978864192962646484e+00,1.978663206100463867e+00,1.978462576866149902e+00,1.978261709213256836e+00,1.978061079978942871e+00,1.977860331535339355e+00,1.977659583091735840e+00,1.977459073066711426e+00,1.977258443832397461e+00,1.977058053016662598e+00,1.976857542991638184e+00,1.976656913757324219e+00,1.976456642150878906e+00,1.976256251335144043e+00,1.976056098937988281e+00,1.975855708122253418e+00,1.975655317306518555e+00,1.975455284118652344e+00,1.975255012512207031e+00,1.975055098533630371e+00,1.974854826927185059e+00,1.974654793739318848e+00,1.974454879760742188e+00,1.974254846572875977e+00,1.974055051803588867e+00,1.973855137825012207e+00,1.973655343055725098e+00,1.973455548286437988e+00,1.973255634307861328e+00,1.968084573745727539e+00,1.936042308807373047e+00,1.905026793479919434e+00,1.874989151954650879e+00,1.845884203910827637e+00
1.777672529220581055e+00,1.777510285377502441e+00,1.777348399162292480e+00,1.777186274528503418e+00,1.777024149894714355e+00,1.776862382888793945e+00,1.776700377464294434e+00,1.776538491249084473e+00,1.776376605033874512e+00,1.776214718818664551e+00,1.776052951812744141e+00,1.775891065597534180e+00,1.775729417800903320e+00,1.775567650794982910e+00,1.775406002998352051e+00,1.775244355201721191e+00,1.775082588195800781e+00,1.774921059608459473e+00,1.774759411811828613e+00,1.774598002433776855e+00,1.774436354637145996e+00,1.774274826049804688e+00,1.774113416671752930e+00,1.773952007293701172e+00,1.773790597915649414e+00,1.773629188537597656e+00,1.773467779159545898e+00,1.773306608200073242e+00,1.773145198822021484e+00,1.772984027862548828e+00,1.772822737693786621e+00,1.772661447525024414e+00,1.772500395774841309e+00,1.772339224815368652e+00,1.772178173065185547e+00,1.772017002105712891e+00,1.771855831146240234e+00,1.771695017814636230e+00,1.771533846855163574e+00,1.771373033523559570e+00,1.771211981773376465e+00,1.771051049232482910e+00,1.770890235900878906e+00,1.770729303359985352e+00,1.770568609237670898e+00,1.770407795906066895e+00,1.770246863365173340e+00,1.770086288452148438e+00,1.769925475120544434e+00,1.769764900207519531e+00,1.769604206085205078e+00,1.769443511962890625e+00,1.769283056259155273e+00,1.769122362136840820e+00,1.768961906433105469e+00,1.768801450729370117e+00,1.768640875816345215e+00,1.768480539321899414e+00,1.768319964408874512e+00,1.768159747123718262e+00,1.767999291419982910e+00,1.767838954925537109e+00,1.767678737640380859e+00,1.767518401145935059e+00,1.767358303070068359e+00,1.767197966575622559e+00,1.767037868499755859e+00,1.766877651214599609e+00,1.766717433929443359e+00,1.766557455062866211e+00,1.766397356986999512e+00,1.766237378120422363e+00,1.766077399253845215e+00,1.765917301177978516e+00,1.765757441520690918e+00,1.765597462654113770e+00,1.765437722206115723e+00,1.765277743339538574e+00,1.765117883682250977e+00,1.764958143234252930e+00
1.607495188713073730e+00,1.607362747192382812e+00,1.607230067253112793e+00,1.607097744941711426e+00,1.606965184211730957e+00,1.606832623481750488e+00,1.606700301170349121e+00,1.606567859649658203e+00,1.606435537338256836e+00,1.606303095817565918e+00,1.606170773506164551e+00,1.606038451194763184e+00,1.605906128883361816e+00,1.605773925781250000e+00,1.605641603469848633e+00,1.605509400367736816e+00,1.605377197265625000e+00,1.605244994163513184e+00,1.605112910270690918e+00,1.604980707168579102e+00,1.604848504066467285e+00,1.604716539382934570e+00,1.604584336280822754e+00,1.604452371597290039e+00,1.604320287704467773e+00,1.604188203811645508e+00,1.604056358337402344e+00,1.603924274444580078e+00,1.603792428970336914e+00,1.603660464286804199e+00,1.603528499603271484e+00,1.603396654129028320e+00,1.603264689445495605e+00,1.603132963180541992e+00,1.603001117706298828e+00,1.602869272232055664e+00,1.602737545967102051e+00,1.602605700492858887e+00,1.602474093437194824e+00,1.602342367172241211e+00,1.602210521697998047e+00,1.602079033851623535e+00,1.601947307586669922e+00,1.601815700531005859e+00,1.601684093475341797e+00,1.601552486419677734e+00,1.601420998573303223e+00,1.601289391517639160e+00,1.601157903671264648e+00,1.601026415824890137e+00,1.600894808769226074e+00,1.600763440132141113e+00,1.600631952285766602e+00,1.600500702857971191e+00,1.600369215011596680e+00,1.600237965583801270e+00,1.600106596946716309e+00,1.599975109100341797e+00,1.599843859672546387e+00,1.599712610244750977e+00,1.599581360816955566e+00,1.599450111389160156e+00,1.599318861961364746e+00,1.599187731742858887e+00,1.599056482315063477e+00,1.598925471305847168e+00,1.598794221878051758e+00,1.598663091659545898e+00,1.598532080650329590e+00,1.598400950431823730e+00,1.598270058631896973e+00,1.598138928413391113e+00,1.598007917404174805e+00,1.597877025604248047e+00,1.597746014595031738e+00,1.597615122795104980e+00,1.597484111785888672e+00,1.597353219985961914e+00,1.597222447395324707e+00,1.597091555595397949e+00
1.467053651809692383e+00,1.466943144798278809e+00,1.466832876205444336e+00,1.466722488403320312e+00,1.466612100601196289e+00,1.466501832008361816e+00,1.466391444206237793e+00,1.466281175613403320e+00,1.466170907020568848e+00,1.466060638427734375e+00,1.465950369834899902e+00,1.465840101242065430e+00,1.465729951858520508e+00,1.465619802474975586e+00,1.465509533882141113e+00,1.465399503707885742e+00,1.465289235115051270e+00,1.465179204940795898e+00,1.465069055557250977e+00,1.464958906173706055e+00,1.464848875999450684e+00,1.464738726615905762e+00,1.464628815650939941e+00,1.464518666267395020e+00,1.464408636093139648e+00,1.464298725128173828e+00,1.464188694953918457e+00,1.464078783988952637e+00,1.463968873023986816e+00,1.463858842849731445e+00,1.463749051094055176e+00,1.463639020919799805e+00,1.463529229164123535e+00,1.463419318199157715e+00,1.463309407234191895e+00,1.463199734687805176e+00,1.463089823722839355e+00,1.462980151176452637e+00,1.462870240211486816e+00,1.462760448455810547e+00,1.462650775909423828e+00,1.462540984153747559e+00,1.462431430816650391e+00,1.462321639060974121e+00,1.462211966514587402e+00,1.462102293968200684e+00,1.461992621421813965e+00,1.461883068084716797e+00,1.461773395538330078e+00,1.461663842201232910e+00,1.461554288864135742e+00,1.461444616317749023e+00,1.461335182189941406e+00,1.461225509643554688e+00,1.461116075515747070e+00,1.461006522178649902e+00,1.460897088050842285e+00,1.460787653923034668e+00,1.460678100585937500e+00,1.460568785667419434e+00,1.460459351539611816e+00,1.460349917411804199e+00,1.460240602493286133e+00,1.460131168365478516e+00,1.460021853446960449e+00,1.459912419319152832e+00,1.459803104400634766e+00,1.459693908691406250e+00,1.459584474563598633e+00,1.459475278854370117e+00,1.459366083145141602e+00,1.459256768226623535e+00,1.459147572517395020e+00,1.459038376808166504e+00,1.458929181098937988e+00,1.458819985389709473e+00,1.458710789680480957e+00,1.458601713180541992e+00,1.458492517471313477e+00,1.458383560180664062e+00
1.349180102348327637e+00,1.349086761474609375e+00,1.348993301391601562e+00,1.348899960517883301e+00,1.348806738853454590e+00,1.348713397979736328e+00,1.348620057106018066e+00,1.348526835441589355e+00,1.348433494567871094e+00,1.348340272903442383e+00,1.348246932029724121e+00,1.348153829574584961e+00,1.348060488700866699e+00,1.347967267036437988e+00,1.347874164581298828e+00,1.347780942916870117e+00,1.347687840461730957e+00,1.347594618797302246e+00,1.347501397132873535e+00,1.347408294677734375e+00,1.347315192222595215e+00,1.347222208976745605e+00,1.347128987312316895e+00,1.347035884857177734e+00,1.346942901611328125e+00,1.346849799156188965e+00,1.346756815910339355e+00,1.346663713455200195e+00,1.346570730209350586e+00,1.346477746963500977e+00,1.346384763717651367e+00,1.346291780471801758e+00,1.346198797225952148e+00,1.346105933189392090e+00,1.346012949943542480e+00,1.345919966697692871e+00,1.345827102661132812e+00,1.345734119415283203e+00,1.345641374588012695e+00,1.345548391342163086e+00,1.345455527305603027e+00,1.345362663269042969e+00,1.345269799232482910e+00,1.345177054405212402e+00,1.345084190368652344e+00,1.344991326332092285e+00,1.344898700714111328e+00,1.344805836677551270e+00,1.344713091850280762e+00,1.344620347023010254e+00,1.344527602195739746e+00,1.344434857368469238e+00,1.344342112541198730e+00,1.344249486923217773e+00,1.344156742095947266e+00,1.344063997268676758e+00,1.343971490859985352e+00,1.343878746032714844e+00,1.343786239624023438e+00,1.343693494796752930e+00,1.343600869178771973e+00,1.343508362770080566e+00,1.343415737152099609e+00,1.343323230743408203e+00,1.343230605125427246e+00,1.343137979507446289e+00,1.343045592308044434e+00,1.342952966690063477e+00,1.342860579490661621e+00,1.342767953872680664e+00,1.342675447463989258e+00,1.342583060264587402e+00,1.342490553855895996e+00,1.342398166656494141e+00,1.342305660247802734e+00,1.342213273048400879e+00,1.342120885848999023e+00,1.342028498649597168e+00,1.341936111450195312e+00,1.341843724250793457e+00
1.248839497566223145e+00,1.248759508132934570e+00,1.248679518699645996e+00,1.248599529266357422e+00,1.248519539833068848e+00,1.248439669609069824e+00,1.248359680175781250e+00,1.248279690742492676e+00,1.248199820518493652e+00,1.248119831085205078e+00,1.248040080070495605e+00,1.247960090637207031e+00,1.247880220413208008e+00,1.247800350189208984e+00,1.247720479965209961e+00,1.247640609741210938e+00,1.247560739517211914e+00,1.247480869293212891e+00,1.247401118278503418e+00,1.247321248054504395e+00,1.247241497039794922e+00,1.247161746025085449e+00,1.247081875801086426e+00,1.247002243995666504e+00,1.246922373771667480e+00,1.246842741966247559e+00,1.246762871742248535e+00,1.246683239936828613e+00,1.246603488922119141e+00,1.246523737907409668e+00,1.246444106101989746e+00,1.246364355087280273e+00,1.246284723281860352e+00,1.246205091476440430e+00,1.246125340461730957e+00,1.246045708656311035e+00,1.245966076850891113e+00,1.245886445045471191e+00,1.245806813240051270e+00,1.245727181434631348e+00,1.245647668838500977e+00,1.245568037033081055e+00,1.245488524436950684e+00,1.245408892631530762e+00,1.245329260826110840e+00,1.245249867439270020e+00,1.245170235633850098e+00,1.245090723037719727e+00,1.245011210441589355e+00,1.244931697845458984e+00,1.244852185249328613e+00,1.244772672653198242e+00,1.244693279266357422e+00,1.244613766670227051e+00,1.244534254074096680e+00,1.244454860687255859e+00,1.244375467300415039e+00,1.244296073913574219e+00,1.244216561317443848e+00,1.244137167930603027e+00,1.244057893753051758e+00,1.243978381156921387e+00,1.243899106979370117e+00,1.243819713592529297e+00,1.243740320205688477e+00,1.243661046028137207e+00,1.243581652641296387e+00,1.243502378463745117e+00,1.243422985076904297e+00,1.243343710899353027e+00,1.243264436721801758e+00,1.243185162544250488e+00,1.243105888366699219e+00,1.243026614189147949e+00,1.242947340011596680e+00,1.242868185043334961e+00,1.242788910865783691e+00,1.242709755897521973e+00,1.242630481719970703e+00,1.242551326751708984e+00
1.162390708923339844e+00,1.162321329116821289e+00,1.162252068519592285e+00,1.162182807922363281e+00,1.162113547325134277e+00,1.162044286727905273e+00,1.161975026130676270e+00,1.161905765533447266e+00,1.161836504936218262e+00,1.161767244338989258e+00,1.161697983741760254e+00,1.161628842353820801e+00,1.161559581756591797e+00,1.161490440368652344e+00,1.161421179771423340e+00,1.161352038383483887e+00,1.161282896995544434e+00,1.161213636398315430e+00,1.161144495010375977e+00,1.161075353622436523e+00,1.161006212234497070e+00,1.160937070846557617e+00,1.160867929458618164e+00,1.160798788070678711e+00,1.160729765892028809e+00,1.160660624504089355e+00,1.160591483116149902e+00,1.160522341728210449e+00,1.160453319549560547e+00,1.160384297370910645e+00,1.160315155982971191e+00,1.160246133804321289e+00,1.160177111625671387e+00,1.160107970237731934e+00,1.160038948059082031e+00,1.159969925880432129e+00,1.159901022911071777e+00,1.159831881523132324e+00,1.159762859344482422e+00,1.159693956375122070e+00,1.159624934196472168e+00,1.159556031227111816e+00,1.159487009048461914e+00,1.159417986869812012e+00,1.159349083900451660e+00,1.159280180931091309e+00,1.159211277961730957e+00,1.159142255783081055e+00,1.159073352813720703e+00,1.159004449844360352e+00,1.158935546875000000e+00,1.158866643905639648e+00,1.158797740936279297e+00,1.158728837966918945e+00,1.158660054206848145e+00,1.158591151237487793e+00,1.158522367477416992e+00,1.158453464508056641e+00,1.158384561538696289e+00,1.158315896987915039e+00,1.158246994018554688e+00,1.158178210258483887e+00,1.158109426498413086e+00,1.158040642738342285e+00,1.157971858978271484e+00,1.157903075218200684e+00,1.157834291458129883e+00,1.157765507698059082e+00,1.157696843147277832e+00,1.157628059387207031e+00,1.157559275627136230e+00,1.157490611076354980e+00,1.157421827316284180e+00,1.157353162765502930e+00,1.157284379005432129e+00,1.157215714454650879e+00,1.157147049903869629e+00,1.157078385353088379e+00,1.157009720802307129e+00,1.156941056251525879e+00
1.087135553359985352e+00,1.087074995040893555e+00,1.087014317512512207e+00,1.086953759193420410e+00,1.086893081665039062e+00,1.086832523345947266e+00,1.086771965026855469e+00,1.086711406707763672e+00,1.086650848388671875e+00,1.086590170860290527e+00,1.086529731750488281e+00,1.086469173431396484e+00,1.086408495903015137e+00,1.086348056793212891e+00,1.086287498474121094e+00,1.086227059364318848e+00,1.086166501045227051e+00,1.086105942726135254e+00,1.086045503616333008e+00,1.085984945297241211e+00,1.085924506187438965e+00,1.085863947868347168e+00,1.085803508758544922e+00,1.085743069648742676e+00,1.085682511329650879e+00,1.085622072219848633e+00,1.085561633110046387e+00,1.085501194000244141e+00,1.085440754890441895e+00,1.085380315780639648e+00,1.085319876670837402e+00,1.085259437561035156e+00,1.085198998451232910e+00,1.085138678550720215e+00,1.085078239440917969e+00,1.085017919540405273e+00,1.084957480430603027e+00,1.084897041320800781e+00,1.084836721420288086e+00,1.084776401519775391e+00,1.084716081619262695e+00,1.084655642509460449e+00,1.084595322608947754e+00,1.084535002708435059e+00,1.084474682807922363e+00,1.084414362907409668e+00,1.084354043006896973e+00,1.084293723106384277e+00,1.084233403205871582e+00,1.084173083305358887e+00,1.084112882614135742e+00,1.084052562713623047e+00,1.083992242813110352e+00,1.083932042121887207e+00,1.083871722221374512e+00,1.083811521530151367e+00,1.083751201629638672e+00,1.083691000938415527e+00,1.083630681037902832e+00,1.083570480346679688e+00,1.083510279655456543e+00,1.083450078964233398e+00,1.083389878273010254e+00,1.083329677581787109e+00,1.083269476890563965e+00,1.083209276199340820e+00,1.083149075508117676e+00,1.083088874816894531e+00,1.083028674125671387e+00,1.082968592643737793e+00,1.082908391952514648e+00,1.082848191261291504e+00,1.082788109779357910e+00,1.082728028297424316e+00,1.082667827606201172e+00,1.082607746124267578e+00,1.082547545433044434e+00,1.082487463951110840e+00,1.082427382469177246e+00,1.082367300987243652e+00
1.021032214164733887e+00,1.020978808403015137e+00,1.020925283432006836e+00,1.020871877670288086e+00,1.020818471908569336e+00,1.020764946937561035e+00,1.020711421966552734e+00,1.020658016204833984e+00,1.020604610443115234e+00,1.020551204681396484e+00,1.020497798919677734e+00,1.020444273948669434e+00,1.020390987396240234e+00,1.020337581634521484e+00,1.020284175872802734e+00,1.020230770111083984e+00,1.020177364349365234e+00,1.020123958587646484e+00,1.020070552825927734e+00,1.020017266273498535e+00,1.019963860511779785e+00,1.019910454750061035e+00,1.019857168197631836e+00,1.019803762435913086e+00,1.019750475883483887e+00,1.019697070121765137e+00,1.019643783569335938e+00,1.019590497016906738e+00,1.019537091255187988e+00,1.019483804702758789e+00,1.019430518150329590e+00,1.019377112388610840e+00,1.019323945045471191e+00,1.019270539283752441e+00,1.019217371940612793e+00,1.019163966178894043e+00,1.019110679626464844e+00,1.019057512283325195e+00,1.019004225730895996e+00,1.018950939178466797e+00,1.018897652626037598e+00,1.018844366073608398e+00,1.018791198730468750e+00,1.018737912178039551e+00,1.018684744834899902e+00,1.018631458282470703e+00,1.018578290939331055e+00,1.018525123596191406e+00,1.018471837043762207e+00,1.018418669700622559e+00,1.018365502357482910e+00,1.018312335014343262e+00,1.018259048461914062e+00,1.018205881118774414e+00,1.018152713775634766e+00,1.018099546432495117e+00,1.018046379089355469e+00,1.017993211746215820e+00,1.017940044403076172e+00,1.017886877059936523e+00,1.017833709716796875e+00,1.017780661582946777e+00,1.017727494239807129e+00,1.017674326896667480e+00,1.017621278762817383e+00,1.017568111419677734e+00,1.017515063285827637e+00,1.017461895942687988e+00,1.017408728599548340e+00,1.017355680465698242e+00,1.017302632331848145e+00,1.017249584197998047e+00,1.017196416854858398e+00,1.017143368721008301e+00,1.017090320587158203e+00,1.017037272453308105e+00,1.016984224319458008e+00,1.016931176185607910e+00,1.016878128051757812e+00,1.016825079917907715e+00
9.625069499015808105e-01,9.624595046043395996e-01,9.624119997024536133e-01,9.623644948005676270e-01,9.623169302940368652e-01,9.622694253921508789e-01,9.622219800949096680e-01,9.621744155883789062e-01,9.621269702911376953e-01,9.620795249938964844e-01,9.620319604873657227e-01,9.619845151901245117e-01,9.619371294975280762e-01,9.618896842002868652e-01,9.618421196937561035e-01,9.617947340011596680e-01,9.617472887039184570e-01,9.616997838020324707e-01,9.616523981094360352e-01,9.616049528121948242e-01,9.615574479103088379e-01,9.615100622177124023e-01,9.614626765251159668e-01,9.614152908325195312e-01,9.613678455352783203e-01,9.613204598426818848e-01,9.612730741500854492e-01,9.612256288528442383e-01,9.611782431602478027e-01,9.611309170722961426e-01,9.610834121704101562e-01,9.610360860824584961e-01,9.609887599945068359e-01,9.609414339065551758e-01,9.608939886093139648e-01,9.608466625213623047e-01,9.607993364334106445e-01,9.607518911361694336e-01,9.607045650482177734e-01,9.606572389602661133e-01,9.606099724769592285e-01,9.605625867843627930e-01,9.605152606964111328e-01,9.604679942131042480e-01,9.604206085205078125e-01,9.603732824325561523e-01,9.603260159492492676e-01,9.602786302566528320e-01,9.602313637733459473e-01,9.601840972900390625e-01,9.601368904113769531e-01,9.600895047187805176e-01,9.600422382354736328e-01,9.599950313568115234e-01,9.599476456642150879e-01,9.599004387855529785e-01,9.598531723022460938e-01,9.598058462142944336e-01,9.597586393356323242e-01,9.597114324569702148e-01,9.596642255783081055e-01,9.596168994903564453e-01,9.595696926116943359e-01,9.595224857330322266e-01,9.594752192497253418e-01,9.594280123710632324e-01,9.593808054924011230e-01,9.593335390090942383e-01,9.592863321304321289e-01,9.592391848564147949e-01,9.591920375823974609e-01,9.591447710990905762e-01,9.590976238250732422e-01,9.590504765510559082e-01,9.590032100677490234e-01,9.589560627937316895e-01,9.589089155197143555e-01,9.588616490364074707e-01,9.588145613670349121e-01,9.587674140930175781e-01
9.103273153305053711e-01,9.102847576141357422e-01,9.102422595024108887e-01,9.101998209953308105e-01,9.101572632789611816e-01,9.101147651672363281e-01,9.100723266601562500e-01,9.100298881530761719e-01,9.099873304367065430e-01,9.099448919296264648e-01,9.099024534225463867e-01,9.098598957061767578e-01,9.098174571990966797e-01,9.097750186920166016e-01,9.097325205802917480e-01,9.096900820732116699e-01,9.096476435661315918e-01,9.096052646636962891e-01,9.095627665519714355e-01,9.095203280448913574e-01,9.094779491424560547e-01,9.094354510307312012e-01,9.093930721282958984e-01,9.093506336212158203e-01,9.093081951141357422e-01,9.092658162117004395e-01,9.092234373092651367e-01,9.091810584068298340e-01,9.091385602951049805e-01,9.090961813926696777e-01,9.090538620948791504e-01,9.090113639831542969e-01,9.089690446853637695e-01,9.089266657829284668e-01,9.088843464851379395e-01,9.088419079780578613e-01,9.087995886802673340e-01,9.087572097778320312e-01,9.087147712707519531e-01,9.086724519729614258e-01,9.086301326751708984e-01,9.085877537727355957e-01,9.085454344749450684e-01,9.085031151771545410e-01,9.084607958793640137e-01,9.084184169769287109e-01,9.083760976791381836e-01,9.083338379859924316e-01,9.082913994789123535e-01,9.082491397857666016e-01,9.082068204879760742e-01,9.081645011901855469e-01,9.081221818923950195e-01,9.080799221992492676e-01,9.080376625061035156e-01,9.079952836036682129e-01,9.079530239105224609e-01,9.079107642173767090e-01,9.078684449195861816e-01,9.078261852264404297e-01,9.077839255332946777e-01,9.077416062355041504e-01,9.076993465423583984e-01,9.076571464538574219e-01,9.076148867607116699e-01,9.075725674629211426e-01,9.075303673744201660e-01,9.074881672859191895e-01,9.074458479881286621e-01,9.074036478996276855e-01,9.073614478111267090e-01,9.073191285133361816e-01,9.072769284248352051e-01,9.072347283363342285e-01,9.071925282478332520e-01,9.071502685546875000e-01,9.071080684661865234e-01,9.070659279823303223e-01,9.070236682891845703e-01,9.069814682006835938e-01
8.635142445564270020e-01,8.634759783744812012e-01,8.634377121925354004e-01,8.633995056152343750e-01,8.633612394332885742e-01,8.633229732513427734e-01,8.632847666740417480e-01,8.632465600967407227e-01,8.632082939147949219e-01,8.631700873374938965e-01,8.631318807601928711e-01,8.630937337875366211e-01,8.630554080009460449e-01,8.630172610282897949e-01,8.629790544509887695e-01,8.629407882690429688e-01,8.629026412963867188e-01,8.628644943237304688e-01,8.628263473510742188e-01,8.627880811691284180e-01,8.627499341964721680e-01,8.627117872238159180e-01,8.626735210418701172e-01,8.626353740692138672e-01,8.625972270965576172e-01,8.625590205192565918e-01,8.625208735466003418e-01,8.624827265739440918e-01,8.624445796012878418e-01,8.624063730239868164e-01,8.623682856559753418e-01,8.623301386833190918e-01,8.622919321060180664e-01,8.622538447380065918e-01,8.622156977653503418e-01,8.621775507926940918e-01,8.621394038200378418e-01,8.621013164520263672e-01,8.620632290840148926e-01,8.620250225067138672e-01,8.619869351387023926e-01,8.619488477706909180e-01,8.619107007980346680e-01,8.618726134300231934e-01,8.618345260620117188e-01,8.617963790893554688e-01,8.617582917213439941e-01,8.617202639579772949e-01,8.616821765899658203e-01,8.616440296173095703e-01,8.616060018539428711e-01,8.615679144859313965e-01,8.615297675132751465e-01,8.614917397499084473e-01,8.614537119865417480e-01,8.614155650138854980e-01,8.613775372505187988e-01,8.613395094871520996e-01,8.613014817237854004e-01,8.612633943557739258e-01,8.612253665924072266e-01,8.611873388290405273e-01,8.611492514610290527e-01,8.611112236976623535e-01,8.610731959342956543e-01,8.610351085662841797e-01,8.609971404075622559e-01,8.609591126441955566e-01,8.609211444854736328e-01,8.608830571174621582e-01,8.608450293540954590e-01,8.608070611953735352e-01,8.607689738273620605e-01,8.607310056686401367e-01,8.606930375099182129e-01,8.606550693511962891e-01,8.606170415878295898e-01,8.605790734291076660e-01,8.605411052703857422e-01,8.605030775070190430e-01
8.212803006172180176e-01,8.212457299232482910e-01,8.212110996246337891e-01,8.211765289306640625e-01,8.211419582366943359e-01,8.211073875427246094e-01,8.210727572441101074e-01,8.210381865501403809e-01,8.210036158561706543e-01,8.209689855575561523e-01,8.209344744682312012e-01,8.208999037742614746e-01,8.208653926849365234e-01,8.208307623863220215e-01,8.207962512969970703e-01,8.207616806030273438e-01,8.207271099090576172e-01,8.206925392150878906e-01,8.206580281257629395e-01,8.206234574317932129e-01,8.205889463424682617e-01,8.205543756484985352e-01,8.205198645591735840e-01,8.204852938652038574e-01,8.204507827758789062e-01,8.204162716865539551e-01,8.203817009925842285e-01,8.203472495079040527e-01,8.203127384185791016e-01,8.202781677246093750e-01,8.202436566352844238e-01,8.202092051506042480e-01,8.201746940612792969e-01,8.201401233673095703e-01,8.201056718826293945e-01,8.200711607933044434e-01,8.200366497039794922e-01,8.200021386146545410e-01,8.199676871299743652e-01,8.199331760406494141e-01,8.198986649513244629e-01,8.198642134666442871e-01,8.198297619819641113e-01,8.197952508926391602e-01,8.197607994079589844e-01,8.197263479232788086e-01,8.196918368339538574e-01,8.196573853492736816e-01,8.196229338645935059e-01,8.195884227752685547e-01,8.195540308952331543e-01,8.195195794105529785e-01,8.194851279258728027e-01,8.194506764411926270e-01,8.194162249565124512e-01,8.193818330764770508e-01,8.193473219871520996e-01,8.193129301071166992e-01,8.192784786224365234e-01,8.192440867424011230e-01,8.192096352577209473e-01,8.191752433776855469e-01,8.191407918930053711e-01,8.191063404083251953e-01,8.190719485282897949e-01,8.190375566482543945e-01,8.190031051635742188e-01,8.189687132835388184e-01,8.189343214035034180e-01,8.188999891281127930e-01,8.188655376434326172e-01,8.188311457633972168e-01,8.187967538833618164e-01,8.187623023986816406e-01,8.187279701232910156e-01,8.186935782432556152e-01,8.186591863632202148e-01,8.186247944831848145e-01,8.185904622077941895e-01,8.185561299324035645e-01
7.829850316047668457e-01,7.829536199569702148e-01,7.829222083091735840e-01,7.828906774520874023e-01,7.828592658042907715e-01,7.828278541564941406e-01,7.827964425086975098e-01,7.827649712562561035e-01,7.827335596084594727e-01,7.827021479606628418e-01,7.826706767082214355e-01,7.826392650604248047e-01,7.826079130172729492e-01,7.825764417648315430e-01,7.825450301170349121e-01,7.825136184692382812e-01,7.824822664260864258e-01,7.824507951736450195e-01,7.824194431304931641e-01,7.823880314826965332e-01,7.823565602302551270e-01,7.823252081871032715e-01,7.822938561439514160e-01,7.822623848915100098e-01,7.822310328483581543e-01,7.821996808052062988e-01,7.821683287620544434e-01,7.821368575096130371e-01,7.821055054664611816e-01,7.820741534233093262e-01,7.820427417755126953e-01,7.820113897323608398e-01,7.819800376892089844e-01,7.819486260414123535e-01,7.819172739982604980e-01,7.818859219551086426e-01,7.818546295166015625e-01,7.818232178688049316e-01,7.817918658256530762e-01,7.817605137825012207e-01,7.817291617393493652e-01,7.816978096961975098e-01,7.816665172576904297e-01,7.816351056098937988e-01,7.816038131713867188e-01,7.815724611282348633e-01,7.815411686897277832e-01,7.815097570419311523e-01,7.814784646034240723e-01,7.814471721649169922e-01,7.814158201217651367e-01,7.813844680786132812e-01,7.813531756401062012e-01,7.813218832015991211e-01,7.812905311584472656e-01,7.812592387199401855e-01,7.812279462814331055e-01,7.811965942382812500e-01,7.811653017997741699e-01,7.811340689659118652e-01,7.811027169227600098e-01,7.810714244842529297e-01,7.810401320457458496e-01,7.810088992118835449e-01,7.809775471687316895e-01,7.809462547302246094e-01,7.809150218963623047e-01,7.808836698532104492e-01,7.808524370193481445e-01,7.808212041854858398e-01,7.807898521423339844e-01,7.807586193084716797e-01,7.807273864746093750e-01,7.806960940361022949e-01,7.806648015975952148e-01,7.806335687637329102e-01,7.806023359298706055e-01,7.805710434913635254e-01,7.805398106575012207e-01,7.805085778236389160e-01
7.481020689010620117e-01,7.480732798576354980e-01,7.480446100234985352e-01,7.480159401893615723e-01,7.479871511459350586e-01,7.479584813117980957e-01,7.479298114776611328e-01,7.479010820388793945e-01,7.478724122047424316e-01,7.478437423706054688e-01,7.478150725364685059e-01,7.477863430976867676e-01,7.477576732635498047e-01,7.477290034294128418e-01,7.477002739906311035e-01,7.476716637611389160e-01,7.476429939270019531e-01,7.476142644882202148e-01,7.475855946540832520e-01,7.475569844245910645e-01,7.475283145904541016e-01,7.474996447563171387e-01,7.474709749221801758e-01,7.474423646926879883e-01,7.474136352539062500e-01,7.473850250244140625e-01,7.473563551902770996e-01,7.473276853561401367e-01,7.472990155220031738e-01,7.472704052925109863e-01,7.472417950630187988e-01,7.472131252288818359e-01,7.471844553947448730e-01,7.471558451652526855e-01,7.471271753311157227e-01,7.470985651016235352e-01,7.470699548721313477e-01,7.470412850379943848e-01,7.470126748085021973e-01,7.469840645790100098e-01,7.469554543495178223e-01,7.469267845153808594e-01,7.468982338905334473e-01,7.468696236610412598e-01,7.468409538269042969e-01,7.468123435974121094e-01,7.467837929725646973e-01,7.467551827430725098e-01,7.467265725135803223e-01,7.466979622840881348e-01,7.466694116592407227e-01,7.466407418251037598e-01,7.466121912002563477e-01,7.465835809707641602e-01,7.465549707412719727e-01,7.465263605117797852e-01,7.464978098869323730e-01,7.464692592620849609e-01,7.464406490325927734e-01,7.464120388031005859e-01,7.463834881782531738e-01,7.463548779487609863e-01,7.463263273239135742e-01,7.462977766990661621e-01,7.462691664695739746e-01,7.462406158447265625e-01,7.462120652198791504e-01,7.461835145950317383e-01,7.461549043655395508e-01,7.461264133453369141e-01,7.460978627204895020e-01,7.460692524909973145e-01,7.460407018661499023e-01,7.460122108459472656e-01,7.459836006164550781e-01,7.459550499916076660e-01,7.459265589714050293e-01,7.458980083465576172e-01,7.458694577217102051e-01,7.458409070968627930e-01
7.161945700645446777e-01,7.161682248115539551e-01,7.161419391632080078e-01,7.161156535148620605e-01,7.160893678665161133e-01,7.160630226135253906e-01,7.160367369651794434e-01,7.160104513168334961e-01,7.159841060638427734e-01,7.159578204154968262e-01,7.159315347671508789e-01,7.159052491188049316e-01,7.158789634704589844e-01,7.158526778221130371e-01,7.158264517784118652e-01,7.158001065254211426e-01,7.157738208770751953e-01,7.157475948333740234e-01,7.157212495803833008e-01,7.156949639320373535e-01,7.156687378883361816e-01,7.156424522399902344e-01,7.156161665916442871e-01,7.155899405479431152e-01,7.155636548995971680e-01,7.155373692512512207e-01,7.155111432075500488e-01,7.154848575592041016e-01,7.154585719108581543e-01,7.154323458671569824e-01,7.154061198234558105e-01,7.153798937797546387e-01,7.153536081314086914e-01,7.153273820877075195e-01,7.153010964393615723e-01,7.152748107910156250e-01,7.152485847473144531e-01,7.152224183082580566e-01,7.151961326599121094e-01,7.151699066162109375e-01,7.151436805725097656e-01,7.151174545288085938e-01,7.150911688804626465e-01,7.150650024414062500e-01,7.150387763977050781e-01,7.150124907493591309e-01,7.149862647056579590e-01,7.149600982666015625e-01,7.149338126182556152e-01,7.149076461791992188e-01,7.148814201354980469e-01,7.148552536964416504e-01,7.148289680480957031e-01,7.148028016090393066e-01,7.147765755653381348e-01,7.147503495216369629e-01,7.147241830825805664e-01,7.146979570388793945e-01,7.146717309951782227e-01,7.146455645561218262e-01,7.146193981170654297e-01,7.145931720733642578e-01,7.145669460296630859e-01,7.145407795906066895e-01,7.145146131515502930e-01,7.144883871078491211e-01,7.144622206687927246e-01,7.144360542297363281e-01,7.144098281860351562e-01,7.143836617469787598e-01,7.143574953079223633e-01,7.143313884735107422e-01,7.143051624298095703e-01,7.142789959907531738e-01,7.142528295516967773e-01,7.142266035079956055e-01,7.142004966735839844e-01,7.141743302345275879e-01,7.141481041908264160e-01,7.141219973564147949e-01
