5.000000000000000000e+00,5.000000000000000000e+00,5.000000000000000000e+00,5.000000000000000000e+00,5.000000000000000000e+00,5.000000000000000000e+00,5.000000000000000000e+00,5.000000000000000000e+00,5.000000000000000000e+00,5.000000000000000000e+00,5.000000000000000000e+00,5.000000000000000000e+00,5.000000000000000000e+00,5.000000000000000000e+00,5.000000000000000000e+00,5.000000000000000000e+00,5.000000000000000000e+00,5.000000000000000000e+00,5.000000000000000000e+00,5.000000000000000000e+00,5.000000000000000000e+00,5.000000000000000000e+00,5.000000000000000000e+00,5.000000000000000000e+00,5.000000000000000000e+00,5.000000000000000000e+00,5.000000000000000000e+00,5.000000000000000000e+00,5.000000000000000000e+00,1.166258096694946289e+00,1.144968152046203613e+00,1.144425272941589355e+00,1.179328560829162598e+00,1.268703222274780273e+00,1.259430646896362305e+00,1.254815459251403809e+00,1.251009345054626465e+00,1.256670594215393066e+00,1.262383341789245605e+00,1.268148183822631836e+00,1.274724841117858887e+00,1.285367846488952637e+00,1.296190142631530762e+00,1.297189950942993164e+00,1.334585666656494141e+00,1.486761450767517090e+00,3.775232315063476562e+00,3.659112930297851562e+00,3.549923658370971680e+00,3.447061538696289062e+00,3.349992990493774414e+00,3.258241653442382812e+00,3.171382188796997070e+00,3.089033126831054688e+00,3.010852813720703125e+00,2.936532258987426758e+00,2.865792274475097656e+00,2.798380136489868164e+00,2.734066724777221680e+00,2.672643184661865234e+00,2.613918781280517578e+00,2.557719230651855469e+00,2.503885746002197266e+00,2.452271699905395508e+00,2.402742385864257812e+00,2.355174303054809570e+00,2.309453010559082031e+00,2.265473127365112305e+00,2.223137140274047852e+00,2.182354211807250977e+00,2.143040657043457031e+00,2.105118513107299805e+00,2.068515062332153320e+00,2.033163070678710938e+00,1.998998880386352539e+00,1.965963959693908691e+00,1.934002995491027832e+00,1.903064489364624023e+00,1.873100399971008301e+00,1.844065427780151367e+00
5.000000000000000000e+00,5.000000000000000000e+00,5.000000000000000000e+00,5.000000000000000000e+00,5.000000000000000000e+00,5.000000000000000000e+00,5.000000000000000000e+00,5.000000000000000000e+00,5.000000000000000000e+00,5.000000000000000000e+00,5.000000000000000000e+00,5.000000000000000000e+00,5.000000000000000000e+00,5.000000000000000000e+00,5.000000000000000000e+00,5.000000000000000000e+00,5.000000000000000000e+00,5.000000000000000000e+00,5.000000000000000000e+00,5.000000000000000000e+00,5.000000000000000000e+00,5.000000000000000000e+00,5.000000000000000000e+00,5.000000000000000000e+00,5.000000000000000000e+00,5.000000000000000000e+00,5.000000000000000000e+00,5.000000000000000000e+00,5.000000000000000000e+00,1.156633138656616211e+00,1.142799854278564453e+00,1.148020863533020020e+00,1.175805807113647461e+00,1.266162872314453125e+00,1.260304927825927734e+00,1.256594777107238770e+00,1.253553152084350586e+00,1.269260406494140625e+00,1.275088310241699219e+00,1.273936033248901367e+00,1.287445306777954102e+00,1.298302769660949707e+00,1.284328341484069824e+00,1.264403700828552246e+00,1.281656742095947266e+00,1.479379057884216309e+00,1.498760581016540527e+00,3.659192323684692383e+00,3.549998521804809570e+00,3.447132349014282227e+00,3.350059509277343750e+00,3.258304834365844727e+00,3.171441793441772461e+00,3.089090108871459961e+00,3.010906696319580078e+00,2.936583518981933594e+00,2.865840911865234375e+00,2.798426866531372070e+00,2.734111070632934570e+00,2.672685384750366211e+00,2.613959312438964844e+00,2.557758331298828125e+00,2.503922939300537109e+00,2.452307224273681641e+00,2.402776718139648438e+00,2.355207204818725586e+00,2.309484481811523438e+00,2.265503406524658203e+00,2.223166465759277344e+00,2.182382583618164062e+00,2.143067836761474609e+00,2.105144977569580078e+00,2.068540573120117188e+00,2.033187627792358398e+00,1.999022483825683594e+00,1.965986847877502441e+00,1.934025049209594727e+00,1.903086066246032715e+00,1.873121380805969238e+00,1.844085693359375000e+00
5.000000000000000000e+00,5.000000000000000000e+00,5.000000000000000000e+00,5.000000000000000000e+00,5.000000000000000000e+00,5.000000000000000000e+00,5.000000000000000000e+00,5.000000000000000000e+00,5.000000000000000000e+00,5.000000000000000000e+00,5.000000000000000000e+00,5.000000000000000000e+00,5.000000000000000000e+00,5.000000000000000000e+00,5.000000000000000000e+00,5.000000000000000000e+00,5.000000000000000000e+00,5.000000000000000000e+00,5.000000000000000000e+00,5.000000000000000000e+00,5.000000000000000000e+00,5.000000000000000000e+00,5.000000000000000000e+00,5.000000000000000000e+00,5.000000000000000000e+00,5.000000000000000000e+00,5.000000000000000000e+00,5.000000000000000000e+00,5.000000000000000000e+00,1.149408221244812012e+00,1.105399250984191895e+00,1.099670886993408203e+00,1.103158831596374512e+00,1.264300227165222168e+00,1.262609124183654785e+00,1.259239912033081055e+00,1.255536198616027832e+00,1.275127649307250977e+00,1.288051843643188477e+00,1.289503455162048340e+00,1.281237125396728516e+00,1.259140014648437500e+00,1.239924311637878418e+00,1.232686161994934082e+00,1.227737545967102051e+00,1.266320347785949707e+00,1.495539903640747070e+00,3.659271717071533203e+00,3.550073146820068359e+00,3.447202920913696289e+00,3.350126504898071289e+00,3.258367776870727539e+00,3.171501398086547852e+00,3.089146614074707031e+00,3.010960817337036133e+00,2.936634540557861328e+00,2.865889549255371094e+00,2.798473119735717773e+00,2.734155654907226562e+00,2.672727823257446289e+00,2.613999843597412109e+00,2.557796955108642578e+00,2.503960371017456055e+00,2.452342987060546875e+00,2.402810811996459961e+00,2.355240106582641602e+00,2.309516429901123047e+00,2.265533924102783203e+00,2.223195791244506836e+00,2.182410717010498047e+00,2.143095254898071289e+00,2.105171203613281250e+00,2.068565845489501953e+00,2.033212184906005859e+00,1.999046325683593750e+00,1.966009855270385742e+00,1.934047341346740723e+00,1.903107643127441406e+00,1.873142242431640625e+00,1.844105720520019531e+00
5.000000000000000000e+00,5.000000000000000000e+00,5.000000000000000000e+00,5.000000000000000000e+00,5.000000000000000000e+00,5.000000000000000000e+00,5.000000000000000000e+00,5.000000000000000000e+00,5.000000000000000000e+00,5.000000000000000000e+00,5.000000000000000000e+00,5.000000000000000000e+00,5.000000000000000000e+00,5.000000000000000000e+00,5.000000000000000000e+00,5.000000000000000000e+00,5.000000000000000000e+00,5.000000000000000000e+00,5.000000000000000000e+00,5.000000000000000000e+00,5.000000000000000000e+00,5.000000000000000000e+00,5.000000000000000000e+00,5.000000000000000000e+00,5.000000000000000000e+00,5.000000000000000000e+00,5.000000000000000000e+00,5.000000000000000000e+00,5.000000000000000000e+00,1.127451896667480469e+00,1.082507252693176270e+00,1.079217672348022461e+00,1.099676251411437988e+00,1.083503603935241699e+00,1.263429403305053711e+00,1.261075019836425781e+00,1.257911562919616699e+00,1.276287913322448730e+00,1.297894954681396484e+00,1.315071105957031250e+00,1.267750501632690430e+00,1.234787940979003906e+00,1.227647542953491211e+00,1.220589280128479004e+00,1.214396953582763672e+00,1.241090178489685059e+00,1.281060934066772461e+00,3.659351587295532227e+00,3.550148010253906250e+00,3.447273254394531250e+00,3.350193023681640625e+00,3.258430957794189453e+00,3.171561241149902344e+00,3.089203357696533203e+00,3.011014461517333984e+00,2.936686038970947266e+00,2.865938425064086914e+00,2.798519611358642578e+00,2.734199762344360352e+00,2.672770500183105469e+00,2.614040374755859375e+00,2.557835817337036133e+00,2.503997325897216797e+00,2.452378749847412109e+00,2.402845144271850586e+00,2.355273008346557617e+00,2.309547901153564453e+00,2.265564441680908203e+00,2.223225116729736328e+00,2.182439088821411133e+00,2.143122673034667969e+00,2.105197668075561523e+00,2.068591356277465820e+00,2.033236742019653320e+00,1.999070048332214355e+00,1.966032862663269043e+00,1.934069395065307617e+00,1.903129100799560547e+00,1.873162984848022461e+00,1.844125986099243164e+00
5.000000000000000000e+00,5.000000000000000000e+00,5.000000000000000000e+00,5.000000000000000000e+00,5.000000000000000000e+00,5.000000000000000000e+00,5.000000000000000000e+00,5.000000000000000000e+00,5.000000000000000000e+00,5.000000000000000000e+00,5.000000000000000000e+00,5.000000000000000000e+00,5.000000000000000000e+00,5.000000000000000000e+00,5.000000000000000000e+00,5.000000000000000000e+00,5.000000000000000000e+00,5.000000000000000000e+00,5.000000000000000000e+00,5.000000000000000000e+00,5.000000000000000000e+00,5.000000000000000000e+00,5.000000000000000000e+00,5.000000000000000000e+00,5.000000000000000000e+00,5.000000000000000000e+00,5.000000000000000000e+00,5.000000000000000000e+00,5.000000000000000000e+00,1.104429244995117188e+00,1.085629940032958984e+00,1.049083709716796875e+00,1.297368764877319336e+00,1.067465543746948242e+00,1.263476371765136719e+00,1.262559890747070312e+00,1.259544730186462402e+00,1.276642322540283203e+00,1.298658847808837891e+00,1.303088545799255371e+00,1.259842991828918457e+00,1.226411461830139160e+00,1.218165159225463867e+00,1.212318181991577148e+00,1.206526994705200195e+00,1.222523212432861328e+00,1.258069872856140137e+00,3.659430980682373047e+00,3.550223112106323242e+00,3.447343826293945312e+00,3.350259542465209961e+00,3.258493900299072266e+00,3.171621084213256836e+00,3.089259862899780273e+00,3.011068344116210938e+00,2.936737060546875000e+00,2.865987300872802734e+00,2.798566102981567383e+00,2.734244108200073242e+00,2.672812700271606445e+00,2.614080905914306641e+00,2.557874679565429688e+00,2.504034519195556641e+00,2.452414512634277344e+00,2.402879476547241211e+00,2.355305910110473633e+00,2.309579610824584961e+00,2.265594959259033203e+00,2.223254442214965820e+00,2.182467222213745117e+00,2.143149852752685547e+00,2.105223894119262695e+00,2.068616867065429688e+00,2.033261060714721680e+00,1.999093651771545410e+00,1.966055750846862793e+00,1.934091806411743164e+00,1.903150677680969238e+00,1.873183846473693848e+00,1.844146251678466797e+00
5.000000000000000000e+00,5.000000000000000000e+00,5.000000000000000000e+00,5.000000000000000000e+00,5.000000000000000000e+00,5.000000000000000000e+00,5.000000000000000000e+00,5.000000000000000000e+00,5.000000000000000000e+00,5.000000000000000000e+00,5.000000000000000000e+00,5.000000000000000000e+00,5.000000000000000000e+00,5.000000000000000000e+00,5.000000000000000000e+00,5.000000000000000000e+00,5.000000000000000000e+00,5.000000000000000000e+00,5.000000000000000000e+00,5.000000000000000000e+00,5.000000000000000000e+00,5.000000000000000000e+00,5.000000000000000000e+00,5.000000000000000000e+00,5.000000000000000000e+00,5.000000000000000000e+00,5.000000000000000000e+00,5.000000000000000000e+00,5.000000000000000000e+00,1.103197574615478516e+00,1.068719744682312012e+00,1.028959751129150391e+00,1.297334551811218262e+00,1.267073392868041992e+00,1.264232277870178223e+00,1.262606620788574219e+00,1.261182069778442383e+00,1.276514291763305664e+00,1.299252152442932129e+00,1.294969439506530762e+00,1.258705973625183105e+00,1.224219202995300293e+00,1.209734797477722168e+00,1.204474925994873047e+00,1.198758244514465332e+00,1.204861164093017578e+00,1.239373683929443359e+00,3.659510374069213867e+00,3.550297737121582031e+00,3.447414636611938477e+00,3.350326299667358398e+00,3.258556842803955078e+00,3.171680688858032227e+00,3.089316844940185547e+00,3.011121988296508789e+00,2.936788320541381836e+00,2.866035938262939453e+00,2.798612833023071289e+00,2.734288454055786133e+00,2.672855138778686523e+00,2.614121437072753906e+00,2.557913541793823242e+00,2.504071712493896484e+00,2.452450037002563477e+00,2.402913808822631836e+00,2.355339050292968750e+00,2.309611320495605469e+00,2.265625476837158203e+00,2.223283767700195312e+00,2.182495594024658203e+00,2.143177032470703125e+00,2.105250120162963867e+00,2.068642139434814453e+00,2.033285856246948242e+00,1.999117493629455566e+00,1.966078758239746094e+00,1.934114098548889160e+00,1.903172254562377930e+00,1.873204588890075684e+00,1.844166278839111328e+00
5.000000000000000000e+00,5.000000000000000000e+00,5.000000000000000000e+00,5.000000000000000000e+00,5.000000000000000000e+00,5.000000000000000000e+00,5.000000000000000000e+00,5.000000000000000000e+00,5.000000000000000000e+00,5.000000000000000000e+00,5.000000000000000000e+00,5.000000000000000000e+00,5.000000000000000000e+00,5.000000000000000000e+00,5.000000000000000000e+00,5.000000000000000000e+00,5.000000000000000000e+00,5.000000000000000000e+00,5.000000000000000000e+00,5.000000000000000000e+00,5.000000000000000000e+00,5.000000000000000000e+00,5.000000000000000000e+00,5.000000000000000000e+00,5.000000000000000000e+00,5.000000000000000000e+00,5.000000000000000000e+00,5.000000000000000000e+00,5.000000000000000000e+00,1.088960528373718262e+00,1.050381183624267578e+00,5.000000000000000000e+00,1.300515651702880859e+00,1.272017598152160645e+00,1.268989682197570801e+00,1.266161680221557617e+00,1.263442158699035645e+00,1.277957320213317871e+00,1.301507234573364258e+00,1.313315868377685547e+00,1.256892681121826172e+00,1.221658468246459961e+00,1.199569344520568848e+00,1.195645332336425781e+00,1.191089034080505371e+00,1.187702178955078125e+00,1.221905231475830078e+00,3.659590005874633789e+00,3.550372600555419922e+00,3.447485208511352539e+00,3.350393056869506836e+00,3.258619785308837891e+00,3.171740531921386719e+00,3.089373350143432617e+00,3.011176109313964844e+00,2.936839342117309570e+00,2.866084814071655273e+00,2.798659324645996094e+00,2.734333038330078125e+00,2.672897577285766602e+00,2.614161968231201172e+00,2.557952404022216797e+00,2.504109144210815430e+00,2.452485799789428711e+00,2.402947902679443359e+00,2.355371952056884766e+00,2.309643030166625977e+00,2.265655755996704102e+00,2.223313093185424805e+00,2.182523965835571289e+00,2.143204450607299805e+00,2.105276346206665039e+00,2.068667650222778320e+00,2.033310413360595703e+00,1.999141335487365723e+00,1.966101527214050293e+00,1.934136152267456055e+00,1.903193593025207520e+00,1.873225569725036621e+00,1.844186544418334961e+00
5.000000000000000000e+00,5.000000000000000000e+00,5.000000000000000000e+00,5.000000000000000000e+00,5.000000000000000000e+00,5.000000000000000000e+00,5.000000000000000000e+00,5.000000000000000000e+00,5.000000000000000000e+00,5.000000000000000000e+00,5.000000000000000000e+00,5.000000000000000000e+00,5.000000000000000000e+00,5.000000000000000000e+00,5.000000000000000000e+00,5.000000000000000000e+00,5.000000000000000000e+00,5.000000000000000000e+00,5.000000000000000000e+00,5.000000000000000000e+00,5.000000000000000000e+00,5.000000000000000000e+00,5.000000000000000000e+00,5.000000000000000000e+00,5.000000000000000000e+00,5.000000000000000000e+00,5.000000000000000000e+00,5.000000000000000000e+00,5.000000000000000000e+00,1.072600245475769043e+00,1.035906672477722168e+00,5.000000000000000000e+00,1.294178366661071777e+00,1.277000546455383301e+00,1.273948907852172852e+00,1.270911812782287598e+00,1.268096923828125000e+00,1.282446265220642090e+00,1.304559826850891113e+00,1.332044482231140137e+00,1.254286527633666992e+00,1.219098329544067383e+00,1.189573407173156738e+00,1.185714483261108398e+00,1.181880354881286621e+00,1.177997231483459473e+00,1.206234931945800781e+00,1.245089411735534668e+00,3.550447225570678711e+00,3.447555780410766602e+00,3.350459575653076172e+00,3.258683204650878906e+00,3.171800136566162109e+00,3.089429855346679688e+00,3.011229753494262695e+00,2.936890840530395508e+00,2.866133451461791992e+00,2.798705577850341797e+00,2.734377384185791016e+00,2.672940015792846680e+00,2.614202499389648438e+00,2.557991266250610352e+00,2.504146337509155273e+00,2.452521562576293945e+00,2.402982234954833984e+00,2.355404853820800781e+00,2.309674739837646484e+00,2.265686511993408203e+00,2.223342418670654297e+00,2.182552099227905273e+00,2.143231630325317383e+00,2.105302810668945312e+00,2.068692922592163086e+00,2.033334732055664062e+00,1.999164938926696777e+00,1.966124653816223145e+00,1.934158444404602051e+00,1.903215169906616211e+00,1.873246431350708008e+00,1.844206929206848145e+00
5.000000000000000000e+00,5.000000000000000000e+00,5.000000000000000000e+00,5.000000000000000000e+00,5.000000000000000000e+00,5.000000000000000000e+00,5.000000000000000000e+00,5.000000000000000000e+00,5.000000000000000000e+00,5.000000000000000000e+00,5.000000000000000000e+00,5.000000000000000000e+00,5.000000000000000000e+00,5.000000000000000000e+00,5.000000000000000000e+00,5.000000000000000000e+00,5.000000000000000000e+00,5.000000000000000000e+00,5.000000000000000000e+00,5.000000000000000000e+00,5.000000000000000000e+00,5.000000000000000000e+00,5.000000000000000000e+00,5.000000000000000000e+00,5.000000000000000000e+00,5.000000000000000000e+00,5.000000000000000000e+00,5.000000000000000000e+00,5.000000000000000000e+00,1.063159823417663574e+00,5.000000000000000000e+00,5.000000000000000000e+00,1.303757786750793457e+00,1.283074855804443359e+00,1.279628038406372070e+00,1.276199579238891602e+00,1.272839665412902832e+00,1.287866115570068359e+00,1.311250686645507812e+00,1.348350524902343750e+00,1.251691222190856934e+00,1.216548800468444824e+00,1.182825088500976562e+00,1.176070570945739746e+00,1.172595739364624023e+00,1.169141411781311035e+00,1.188133358955383301e+00,1.228822708129882812e+00,3.550522565841674805e+00,3.447626113891601562e+00,3.350526332855224609e+00,3.258746147155761719e+00,3.171859979629516602e+00,3.089486598968505859e+00,3.011283636093139648e+00,2.936941862106323242e+00,2.866182327270507812e+00,2.798752069473266602e+00,2.734421730041503906e+00,2.672982454299926758e+00,2.614243268966674805e+00,2.558030128479003906e+00,2.504183530807495117e+00,2.452557325363159180e+00,2.403016567230224609e+00,2.355437755584716797e+00,2.309706211090087891e+00,2.265716791152954102e+00,2.223371982574462891e+00,2.182580471038818359e+00,2.143258810043334961e+00,2.105329036712646484e+00,2.068718433380126953e+00,2.033359289169311523e+00,1.999188661575317383e+00,1.966147661209106445e+00,1.934180736541748047e+00,1.903236627578735352e+00,1.873267173767089844e+00,1.844226956367492676e+00
5.000000000000000000e+00,5.000000000000000000e+00,5.000000000000000000e+00,5.000000000000000000e+00,5.000000000000000000e+00,5.000000000000000000e+00,5.000000000000000000e+00,5.000000000000000000e+00,5.000000000000000000e+00,5.000000000000000000e+00,5.000000000000000000e+00,5.000000000000000000e+00,5.000000000000000000e+00,5.000000000000000000e+00,5.000000000000000000e+00,5.000000000000000000e+00,5.000000000000000000e+00,5.000000000000000000e+00,5.000000000000000000e+00,5.000000000000000000e+00,5.000000000000000000e+00,5.000000000000000000e+00,5.000000000000000000e+00,5.000000000000000000e+00,5.000000000000000000e+00,5.000000000000000000e+00,5.000000000000000000e+00,5.000000000000000000e+00,5.000000000000000000e+00,5.000000000000000000e+00,5.000000000000000000e+00,5.000000000000000000e+00,1.316959500312805176e+00,1.289926409721374512e+00,1.286114811897277832e+00,1.282651543617248535e+00,1.279206991195678711e+00,1.296033143997192383e+00,1.318759799003601074e+00,4.854619026184082031e+00,1.255643129348754883e+00,1.214010119438171387e+00,1.178716778755187988e+00,1.166978716850280762e+00,1.164026141166687012e+00,1.160622119903564453e+00,1.164262294769287109e+00,1.206558585166931152e+00,3.550597190856933594e+00,3.447696924209594727e+00,3.350592851638793945e+00,3.258809089660644531e+00,3.171919822692871094e+00,3.089543581008911133e+00,3.011337280273437500e+00,2.936993122100830078e+00,2.866231203079223633e+00,2.798798799514770508e+00,2.734466075897216797e+00,2.673024892807006836e+00,2.614283800125122070e+00,2.558068990707397461e+00,2.504220724105834961e+00,2.452593088150024414e+00,2.403050899505615234e+00,2.355470895767211914e+00,2.309737920761108398e+00,2.265747308731079102e+00,2.223401069641113281e+00,2.182608842849731445e+00,2.143286228179931641e+00,2.105355501174926758e+00,2.068743705749511719e+00,2.033384084701538086e+00,1.999212265014648438e+00,1.966170430183410645e+00,1.934202790260314941e+00,1.903258204460144043e+00,1.873288035392761230e+00,1.844247221946716309e+00
5.000000000000000000e+00,5.000000000000000000e+00,5.000000000000000000e+00,5.000000000000000000e+00,5.000000000000000000e+00,5.000000000000000000e+00,5.000000000000000000e+00,5.000000000000000000e+00,5.000000000000000000e+00,5.000000000000000000e+00,5.000000000000000000e+00,5.000000000000000000e+00,5.000000000000000000e+00,5.000000000000000000e+00,5.000000000000000000e+00,5.000000000000000000e+00,5.000000000000000000e+00,5.000000000000000000e+00,5.000000000000000000e+00,5.000000000000000000e+00,5.000000000000000000e+00,5.000000000000000000e+00,5.000000000000000000e+00,5.000000000000000000e+00,5.000000000000000000e+00,5.000000000000000000e+00,5.000000000000000000e+00,5.000000000000000000e+00,5.000000000000000000e+00,5.000000000000000000e+00,5.000000000000000000e+00,5.000000000000000000e+00,1.330431103706359863e+00,1.297202944755554199e+00,1.292667627334594727e+00,1.289169073104858398e+00,1.285689592361450195e+00,1.305174827575683594e+00,1.327736616134643555e+00,4.854758739471435547e+00,1.265708923339843750e+00,1.210331082344055176e+00,1.174826383590698242e+00,1.155020117759704590e+00,1.154613018035888672e+00,1.152225971221923828e+00,1.148890495300292969e+00,1.181949019432067871e+00,3.550672054290771484e+00,3.447767496109008789e+00,3.350659847259521484e+00,3.258872032165527344e+00,3.171979427337646484e+00,3.089600086212158203e+00,3.011391401290893555e+00,2.937044382095336914e+00,2.866279840469360352e+00,2.798845291137695312e+00,2.734510660171508789e+00,2.673067092895507812e+00,2.614324331283569336e+00,2.558107852935791016e+00,2.504258155822753906e+00,2.452628612518310547e+00,2.403085231781005859e+00,2.355503797531127930e+00,2.309769868850708008e+00,2.265777826309204102e+00,2.223430395126342773e+00,2.182636976242065430e+00,2.143313407897949219e+00,2.105381727218627930e+00,2.068769216537475586e+00,2.033408403396606445e+00,1.999236106872558594e+00,1.966193437576293945e+00,1.934225082397460938e+00,1.903279781341552734e+00,1.873309016227722168e+00,1.844267249107360840e+00
5.000000000000000000e+00,5.000000000000000000e+00,5.000000000000000000e+00,5.000000000000000000e+00,5.000000000000000000e+00,5.000000000000000000e+00,5.000000000000000000e+00,5.000000000000000000e+00,5.000000000000000000e+00,5.000000000000000000e+00,5.000000000000000000e+00,5.000000000000000000e+00,5.000000000000000000e+00,5.000000000000000000e+00,5.000000000000000000e+00,5.000000000000000000e+00,5.000000000000000000e+00,5.000000000000000000e+00,5.000000000000000000e+00,5.000000000000000000e+00,5.000000000000000000e+00,5.000000000000000000e+00,5.000000000000000000e+00,5.000000000000000000e+00,5.000000000000000000e+00,5.000000000000000000e+00,5.000000000000000000e+00,5.000000000000000000e+00,5.000000000000000000e+00,5.000000000000000000e+00,5.000000000000000000e+00,5.000000000000000000e+00,1.344181418418884277e+00,1.304561972618103027e+00,1.299691915512084961e+00,1.295753240585327148e+00,1.292237997055053711e+00,1.314446330070495605e+00,1.335654139518737793e+00,4.854898929595947266e+00,1.286342859268188477e+00,1.205233812332153320e+00,1.171371817588806152e+00,1.147895216941833496e+00,1.142905235290527344e+00,1.142506718635559082e+00,1.140662670135498047e+00,1.158323287963867188e+00,3.550746679306030273e+00,3.447838068008422852e+00,3.350726366043090820e+00,3.258935451507568359e+00,3.172039031982421875e+00,3.089656591415405273e+00,3.011445283889770508e+00,2.937095642089843750e+00,2.866328716278076172e+00,2.798891782760620117e+00,2.734555006027221680e+00,2.673109769821166992e+00,2.614364862442016602e+00,2.558146715164184570e+00,2.504295349121093750e+00,2.452664613723754883e+00,2.403119325637817383e+00,2.355536699295043945e+00,2.309801340103149414e+00,2.265808343887329102e+00,2.223459720611572266e+00,2.182665348052978516e+00,2.143340826034545898e+00,2.105408191680908203e+00,2.068794488906860352e+00,2.033432960510253906e+00,1.999259948730468750e+00,1.966216564178466797e+00,1.934247136116027832e+00,1.903301119804382324e+00,1.873329639434814453e+00,1.844287514686584473e+00
5.000000000000000000e+00,5.000000000000000000e+00,5.000000000000000000e+00,5.000000000000000000e+00,5.000000000000000000e+00,5.000000000000000000e+00,5.000000000000000000e+00,5.000000000000000000e+00,5.000000000000000000e+00,5.000000000000000000e+00,5.000000000000000000e+00,5.000000000000000000e+00,5.000000000000000000e+00,5.000000000000000000e+00,5.000000000000000000e+00,5.000000000000000000e+00,5.000000000000000000e+00,5.000000000000000000e+00,5.000000000000000000e+00,5.000000000000000000e+00,5.000000000000000000e+00,5.000000000000000000e+00,5.000000000000000000e+00,5.000000000000000000e+00,5.000000000000000000e+00,5.000000000000000000e+00,5.000000000000000000e+00,5.000000000000000000e+00,5.000000000000000000e+00,5.000000000000000000e+00,5.000000000000000000e+00,5.000000000000000000e+00,1.358218908309936523e+00,1.312005043029785156e+00,1.307079315185546875e+00,1.302404999732971191e+00,1.300949692726135254e+00,1.323031306266784668e+00,1.343666672706604004e+00,4.855038642883300781e+00,4.664668560028076172e+00,1.200179219245910645e+00,1.167937517166137695e+00,1.144596934318542480e+00,1.131432533264160156e+00,1.131041884422302246e+00,1.130651593208312988e+00,1.138441562652587891e+00,3.550821781158447266e+00,3.447908401489257812e+00,3.350792884826660156e+00,3.258998394012451172e+00,3.172099113464355469e+00,3.089713335037231445e+00,3.011498928070068359e+00,2.937146902084350586e+00,2.866377592086791992e+00,2.798938274383544922e+00,2.734599351882934570e+00,2.673152208328247070e+00,2.614405632019042969e+00,2.558185577392578125e+00,2.504332542419433594e+00,2.452700138092041016e+00,2.403153896331787109e+00,2.355569601058959961e+00,2.309833049774169922e+00,2.265838861465454102e+00,2.223489284515380859e+00,2.182693481445312500e+00,2.143368005752563477e+00,2.105434417724609375e+00,2.068819999694824219e+00,2.033457517623901367e+00,1.999283552169799805e+00,1.966239333152770996e+00,1.934269428253173828e+00,1.903322696685791016e+00,1.873350620269775391e+00,1.844307780265808105e+00
5.000000000000000000e+00,5.000000000000000000e+00,5.000000000000000000e+00,5.000000000000000000e+00,5.000000000000000000e+00,5.000000000000000000e+00,5.000000000000000000e+00,5.000000000000000000e+00,5.000000000000000000e+00,5.000000000000000000e+00,5.000000000000000000e+00,5.000000000000000000e+00,5.000000000000000000e+00,5.000000000000000000e+00,5.000000000000000000e+00,5.000000000000000000e+00,5.000000000000000000e+00,5.000000000000000000e+00,5.000000000000000000e+00,5.000000000000000000e+00,5.000000000000000000e+00,5.000000000000000000e+00,5.000000000000000000e+00,5.000000000000000000e+00,5.000000000000000000e+00,5.000000000000000000e+00,5.000000000000000000e+00,5.000000000000000000e+00,5.000000000000000000e+00,5.000000000000000000e+00,5.000000000000000000e+00,5.000000000000000000e+00,1.377915382385253906e+00,1.319533586502075195e+00,1.314551234245300293e+00,1.309606313705444336e+00,1.310160994529724121e+00,1.330892562866210938e+00,5.000000000000000000e+00,4.855178833007812500e+00,4.664797306060791016e+00,1.204805374145507812e+00,1.164523124694824219e+00,1.141317605972290039e+00,1.121648430824279785e+00,1.122439861297607422e+00,1.122671008110046387e+00,1.122902393341064453e+00,3.550896644592285156e+00,3.447979450225830078e+00,3.350859403610229492e+00,3.259061336517333984e+00,3.172158718109130859e+00,3.089770317077636719e+00,3.011552810668945312e+00,2.937197923660278320e+00,2.866426229476928711e+00,2.798985004425048828e+00,2.734643697738647461e+00,2.673194646835327148e+00,2.614446163177490234e+00,2.558224439620971680e+00,2.504369735717773438e+00,2.452735900878906250e+00,2.403187990188598633e+00,2.355602502822875977e+00,2.309864759445190430e+00,2.265869379043579102e+00,2.223518610000610352e+00,2.182722091674804688e+00,2.143395185470581055e+00,2.105460643768310547e+00,2.068845510482788086e+00,2.033482313156127930e+00,1.999307394027709961e+00,1.966262340545654297e+00,1.934291720390319824e+00,1.903344273567199707e+00,1.873371362686157227e+00,1.844327926635742188e+00
5.000000000000000000e+00,5.000000000000000000e+00,5.000000000000000000e+00,5.000000000000000000e+00,5.000000000000000000e+00,5.000000000000000000e+00,5.000000000000000000e+00,5.000000000000000000e+00,5.000000000000000000e+00,5.000000000000000000e+00,5.000000000000000000e+00,5.000000000000000000e+00,5.000000000000000000e+00,5.000000000000000000e+00,5.000000000000000000e+00,5.000000000000000000e+00,5.000000000000000000e+00,5.000000000000000000e+00,5.000000000000000000e+00,5.000000000000000000e+00,5.000000000000000000e+00,5.000000000000000000e+00,5.000000000000000000e+00,5.000000000000000000e+00,5.000000000000000000e+00,5.000000000000000000e+00,5.000000000000000000e+00,5.000000000000000000e+00,5.000000000000000000e+00,5.000000000000000000e+00,5.000000000000000000e+00,5.000000000000000000e+00,1.414330959320068359e+00,1.326279044151306152e+00,1.320560812950134277e+00,1.316088318824768066e+00,1.318389654159545898e+00,1.338857412338256836e+00,5.000000000000000000e+00,4.855318546295166016e+00,4.664927005767822266e+00,1.251393675804138184e+00,1.160674452781677246e+00,1.137630701065063477e+00,1.117074966430664062e+00,1.114523291587829590e+00,1.115462183952331543e+00,1.116885781288146973e+00,3.550971508026123047e+00,3.448049783706665039e+00,3.350926399230957031e+00,3.259124279022216797e+00,3.172218322753906250e+00,3.089826822280883789e+00,3.011606931686401367e+00,2.937249183654785156e+00,2.866475105285644531e+00,2.799031257629394531e+00,2.734688282012939453e+00,2.673236846923828125e+00,2.614486694335937500e+00,2.558263301849365234e+00,2.504407167434692383e+00,2.452771425247192383e+00,2.403222322463989258e+00,2.355635404586791992e+00,2.309896469116210938e+00,2.265899658203125000e+00,2.223547935485839844e+00,2.182750225067138672e+00,2.143422603607177734e+00,2.105487108230590820e+00,2.068870782852172852e+00,2.033506631851196289e+00,1.999331235885620117e+00,1.966285228729248047e+00,1.934313893318176270e+00,1.903365731239318848e+00,1.873392224311828613e+00,1.844348192214965820e+00
5.000000000000000000e+00,5.000000000000000000e+00,5.000000000000000000e+00,5.000000000000000000e+00,5.000000000000000000e+00,5.000000000000000000e+00,5.000000000000000000e+00,5.000000000000000000e+00,5.000000000000000000e+00,5.000000000000000000e+00,5.000000000000000000e+00,5.000000000000000000e+00,5.000000000000000000e+00,5.000000000000000000e+00,5.000000000000000000e+00,5.000000000000000000e+00,5.000000000000000000e+00,5.000000000000000000e+00,5.000000000000000000e+00,5.000000000000000000e+00,5.000000000000000000e+00,5.000000000000000000e+00,5.000000000000000000e+00,5.000000000000000000e+00,5.000000000000000000e+00,5.000000000000000000e+00,5.000000000000000000e+00,5.000000000000000000e+00,5.000000000000000000e+00,5.000000000000000000e+00,5.000000000000000000e+00,5.000000000000000000e+00,5.000000000000000000e+00,1.336794257164001465e+00,1.325712442398071289e+00,1.321204900741577148e+00,1.326335430145263672e+00,1.347052693367004395e+00,5.000000000000000000e+00,4.855458736419677734e+00,4.665055751800537109e+00,4.489023208618164062e+00,1.156438350677490234e+00,1.137359023094177246e+00,1.117570281028747559e+00,1.115389943122863770e+00,1.116090655326843262e+00,1.117515802383422852e+00,3.551046133041381836e+00,3.448120355606079102e+00,3.350993156433105469e+00,3.259187698364257812e+00,3.172278165817260742e+00,3.089883327484130859e+00,3.011660575866699219e+00,2.937300682067871094e+00,2.866523742675781250e+00,2.799077749252319336e+00,2.734732627868652344e+00,2.673279523849487305e+00,2.614527225494384766e+00,2.558302164077758789e+00,2.504444360733032227e+00,2.452807426452636719e+00,2.403256654739379883e+00,2.355668306350708008e+00,2.309928178787231445e+00,2.265930414199829102e+00,2.223577260971069336e+00,2.182778596878051758e+00,2.143449783325195312e+00,2.105513334274291992e+00,2.068896293640136719e+00,2.033531188964843750e+00,1.999354720115661621e+00,1.966308236122131348e+00,1.934336185455322266e+00,1.903387308120727539e+00,1.873413205146789551e+00,1.844368457794189453e+00
5.000000000000000000e+00,5.000000000000000000e+00,5.000000000000000000e+00,5.000000000000000000e+00,5.000000000000000000e+00,5.000000000000000000e+00,5.000000000000000000e+00,5.000000000000000000e+00,5.000000000000000000e+00,5.000000000000000000e+00,5.000000000000000000e+00,5.000000000000000000e+00,5.000000000000000000e+00,5.000000000000000000e+00,5.000000000000000000e+00,5.000000000000000000e+00,5.000000000000000000e+00,5.000000000000000000e+00,5.000000000000000000e+00,5.000000000000000000e+00,5.000000000000000000e+00,5.000000000000000000e+00,5.000000000000000000e+00,5.000000000000000000e+00,5.000000000000000000e+00,5.000000000000000000e+00,5.000000000000000000e+00,5.000000000000000000e+00,5.000000000000000000e+00,5.000000000000000000e+00,5.000000000000000000e+00,5.000000000000000000e+00,5.000000000000000000e+00,1.352698683738708496e+00,1.330904126167297363e+00,1.326361417770385742e+00,1.334377646446228027e+00,1.354769706726074219e+00,5.000000000000000000e+00,4.855598449707031250e+00,4.665185451507568359e+00,4.489142417907714844e+00,1.159421920776367188e+00,1.138814568519592285e+00,1.119684696197509766e+00,1.118405580520629883e+00,1.119017481803894043e+00,1.119630098342895508e+00,3.551121473312377930e+00,3.448190927505493164e+00,3.351059675216674805e+00,3.259250640869140625e+00,3.172338008880615234e+00,3.089940071105957031e+00,3.011714458465576172e+00,2.937351703643798828e+00,2.866572856903076172e+00,2.799124240875244141e+00,2.734776973724365234e+00,2.673321962356567383e+00,2.614567995071411133e+00,2.558341026306152344e+00,2.504481554031372070e+00,2.452843189239501953e+00,2.403290987014770508e+00,2.355701446533203125e+00,2.309959888458251953e+00,2.265960693359375000e+00,2.223606824874877930e+00,2.182806730270385742e+00,2.143477201461791992e+00,2.105539798736572266e+00,2.068921804428100586e+00,2.033555746078491211e+00,1.999378561973571777e+00,1.966331243515014648e+00,1.934358477592468262e+00,1.903408646583557129e+00,1.873433828353881836e+00,1.844388484954833984e+00
5.000000000000000000e+00,5.000000000000000000e+00,5.000000000000000000e+00,5.000000000000000000e+00,5.000000000000000000e+00,5.000000000000000000e+00,5.000000000000000000e+00,5.000000000000000000e+00,5.000000000000000000e+00,5.000000000000000000e+00,5.000000000000000000e+00,5.000000000000000000e+00,5.000000000000000000e+00,5.000000000000000000e+00,5.000000000000000000e+00,5.000000000000000000e+00,5.000000000000000000e+00,5.000000000000000000e+00,5.000000000000000000e+00,5.000000000000000000e+00,5.000000000000000000e+00,5.000000000000000000e+00,5.000000000000000000e+00,5.000000000000000000e+00,5.000000000000000000e+00,5.000000000000000000e+00,5.000000000000000000e+00,5.000000000000000000e+00,5.000000000000000000e+00,5.000000000000000000e+00,5.000000000000000000e+00,5.000000000000000000e+00,5.000000000000000000e+00,1.368986129760742188e+00,1.338095784187316895e+00,1.331558346748352051e+00,1.342517971992492676e+00,1.360780119895935059e+00,5.000000000000000000e+00,4.855738639831542969e+00,4.665314197540283203e+00,4.489262580871582031e+00,1.164061784744262695e+00,1.144581794738769531e+00,1.125766396522521973e+00,1.122986197471618652e+00,1.123603105545043945e+00,1.134262681007385254e+00,3.551196098327636719e+00,3.448261737823486328e+00,3.351126194000244141e+00,3.259313583374023438e+00,3.172397851943969727e+00,3.089997053146362305e+00,3.011768102645874023e+00,2.937402963638305664e+00,2.866621494293212891e+00,2.799170970916748047e+00,2.734821319580078125e+00,2.673364400863647461e+00,2.614608526229858398e+00,2.558379888534545898e+00,2.504518747329711914e+00,2.452878713607788086e+00,2.403325319290161133e+00,2.355734348297119141e+00,2.309991359710693359e+00,2.265991210937500000e+00,2.223636150360107422e+00,2.182835102081298828e+00,2.143504381179809570e+00,2.105566024780273438e+00,2.068947076797485352e+00,2.033580303192138672e+00,1.999402165412902832e+00,1.966354131698608398e+00,1.934380531311035156e+00,1.903430223464965820e+00,1.873454809188842773e+00,1.844408750534057617e+00
5.000000000000000000e+00,5.000000000000000000e+00,5.000000000000000000e+00,5.000000000000000000e+00,5.000000000000000000e+00,5.000000000000000000e+00,5.000000000000000000e+00,5.000000000000000000e+00,5.000000000000000000e+00,5.000000000000000000e+00,5.000000000000000000e+00,5.000000000000000000e+00,5.000000000000000000e+00,5.000000000000000000e+00,5.000000000000000000e+00,5.000000000000000000e+00,5.000000000000000000e+00,5.000000000000000000e+00,5.000000000000000000e+00,5.000000000000000000e+00,5.000000000000000000e+00,5.000000000000000000e+00,5.000000000000000000e+00,5.000000000000000000e+00,5.000000000000000000e+00,5.000000000000000000e+00,5.000000000000000000e+00,5.000000000000000000e+00,5.000000000000000000e+00,5.000000000000000000e+00,5.000000000000000000e+00,5.000000000000000000e+00,5.000000000000000000e+00,1.385670542716979980e+00,1.346392512321472168e+00,1.336796164512634277e+00,1.350037097930908203e+00,1.366844177246093750e+00,5.000000000000000000e+00,4.855878829956054688e+00,4.665443897247314453e+00,4.489381790161132812e+00,1.170223236083984375e+00,1.150538206100463867e+00,1.132470488548278809e+00,1.127604603767395020e+00,1.128226637840270996e+00,1.154230237007141113e+00,3.551270961761474609e+00,3.448332309722900391e+00,3.351193189620971680e+00,3.259376764297485352e+00,3.172457456588745117e+00,3.090053558349609375e+00,3.011822223663330078e+00,2.937454223632812500e+00,2.866670131683349609e+00,2.799217462539672852e+00,2.734865903854370117e+00,2.673406600952148438e+00,2.614649057388305664e+00,2.558418750762939453e+00,2.504556179046630859e+00,2.452914476394653320e+00,2.403359413146972656e+00,2.355767250061035156e+00,2.310023307800292969e+00,2.266021728515625000e+00,2.223665475845336914e+00,2.182863473892211914e+00,2.143531799316406250e+00,2.105592250823974609e+00,2.068972587585449219e+00,2.033604860305786133e+00,1.999426007270812988e+00,1.966377139091491699e+00,1.934402823448181152e+00,1.903451919555664062e+00,1.873475670814514160e+00,1.844428896903991699e+00
5.000000000000000000e+00,5.000000000000000000e+00,5.000000000000000000e+00,5.000000000000000000e+00,5.000000000000000000e+00,5.000000000000000000e+00,5.000000000000000000e+00,5.000000000000000000e+00,5.000000000000000000e+00,5.000000000000000000e+00,5.000000000000000000e+00,5.000000000000000000e+00,5.000000000000000000e+00,5.000000000000000000e+00,5.000000000000000000e+00,5.000000000000000000e+00,5.000000000000000000e+00,5.000000000000000000e+00,5.000000000000000000e+00,5.000000000000000000e+00,5.000000000000000000e+00,5.000000000000000000e+00,5.000000000000000000e+00,5.000000000000000000e+00,5.000000000000000000e+00,5.000000000000000000e+00,5.000000000000000000e+00,5.000000000000000000e+00,5.000000000000000000e+00,5.000000000000000000e+00,5.000000000000000000e+00,5.000000000000000000e+00,5.000000000000000000e+00,1.402804017066955566e+00,1.354792714118957520e+00,1.342075347900390625e+00,1.356005549430847168e+00,1.372962594032287598e+00,5.000000000000000000e+00,4.856019020080566406e+00,4.665573120117187500e+00,4.489501476287841797e+00,1.176450252532958984e+00,1.154637813568115234e+00,1.139254927635192871e+00,1.133390307426452637e+00,1.132888317108154297e+00,1.160019636154174805e+00,3.551345825195312500e+00,3.448402881622314453e+00,3.351259708404541016e+00,3.259439945220947266e+00,3.172517061233520508e+00,3.090110301971435547e+00,3.011876106262207031e+00,2.937505483627319336e+00,2.866719007492065430e+00,2.799263954162597656e+00,2.734910249710083008e+00,2.673449277877807617e+00,2.614689588546752930e+00,2.558457612991333008e+00,2.504593372344970703e+00,2.452950239181518555e+00,2.403393745422363281e+00,2.355800151824951172e+00,2.310054779052734375e+00,2.266052246093750000e+00,2.223694801330566406e+00,2.182891607284545898e+00,2.143558979034423828e+00,2.105618715286254883e+00,2.068997859954833984e+00,2.033629417419433594e+00,1.999449849128723145e+00,1.966400146484375000e+00,1.934424877166748047e+00,1.903473258018493652e+00,1.873496413230895996e+00,1.844449162483215332e+00
5.000000000000000000e+00,5.000000000000000000e+00,5.000000000000000000e+00,5.000000000000000000e+00,5.000000000000000000e+00,5.000000000000000000e+00,5.000000000000000000e+00,5.000000000000000000e+00,5.000000000000000000e+00,5.000000000000000000e+00,5.000000000000000000e+00,5.000000000000000000e+00,5.000000000000000000e+00,5.000000000000000000e+00,5.000000000000000000e+00,5.000000000000000000e+00,5.000000000000000000e+00,5.000000000000000000e+00,5.000000000000000000e+00,5.000000000000000000e+00,5.000000000000000000e+00,5.000000000000000000e+00,5.000000000000000000e+00,5.000000000000000000e+00,5.000000000000000000e+00,5.000000000000000000e+00,5.000000000000000000e+00,5.000000000000000000e+00,5.000000000000000000e+00,5.000000000000000000e+00,5.000000000000000000e+00,5.000000000000000000e+00,5.000000000000000000e+00,1.421023964881896973e+00,1.364100694656372070e+00,1.349616408348083496e+00,1.365689039230346680e+00,1.381763815879821777e+00,5.000000000000000000e+00,4.856158733367919922e+00,4.665702342987060547e+00,4.489621162414550781e+00,1.182743906974792480e+00,1.157441139221191406e+00,1.146121144294738770e+00,1.140185832977294922e+00,1.137588739395141602e+00,1.165867328643798828e+00,3.551420927047729492e+00,3.448473453521728516e+00,3.351326465606689453e+00,3.259503126144409180e+00,3.172577142715454102e+00,3.090166807174682617e+00,3.011929988861083984e+00,2.937556743621826172e+00,2.866767883300781250e+00,2.799310445785522461e+00,2.734954595565795898e+00,2.673491716384887695e+00,2.614730358123779297e+00,2.558496475219726562e+00,2.504630565643310547e+00,2.452986001968383789e+00,2.403428316116333008e+00,2.355833053588867188e+00,2.310086488723754883e+00,2.266082763671875000e+00,2.223724126815795898e+00,2.182919979095458984e+00,2.143586158752441406e+00,2.105644941329956055e+00,2.069023370742797852e+00,2.033653974533081055e+00,1.999473452568054199e+00,1.966423034667968750e+00,1.934447169303894043e+00,1.903494834899902344e+00,1.873517274856567383e+00,1.844469428062438965e+00
5.000000000000000000e+00,5.000000000000000000e+00,5.000000000000000000e+00,5.000000000000000000e+00,5.000000000000000000e+00,5.000000000000000000e+00,5.000000000000000000e+00,5.000000000000000000e+00,5.000000000000000000e+00,5.000000000000000000e+00,5.000000000000000000e+00,5.000000000000000000e+00,5.000000000000000000e+00,5.000000000000000000e+00,5.000000000000000000e+00,5.000000000000000000e+00,5.000000000000000000e+00,5.000000000000000000e+00,5.000000000000000000e+00,5.000000000000000000e+00,5.000000000000000000e+00,5.000000000000000000e+00,5.000000000000000000e+00,5.000000000000000000e+00,5.000000000000000000e+00,5.000000000000000000e+00,5.000000000000000000e+00,5.000000000000000000e+00,5.000000000000000000e+00,5.000000000000000000e+00,5.000000000000000000e+00,5.000000000000000000e+00,5.000000000000000000e+00,1.419933319091796875e+00,1.378347516059875488e+00,1.360829830169677734e+00,1.378239631652832031e+00,1.408371925354003906e+00,5.000000000000000000e+00,4.856298923492431641e+00,4.665831565856933594e+00,4.489741325378417969e+00,1.188871264457702637e+00,1.160258173942565918e+00,1.153070688247680664e+00,1.147063255310058594e+00,1.142328143119812012e+00,1.171774387359619141e+00,3.551495790481567383e+00,3.448544263839721680e+00,3.351392984390258789e+00,3.259566068649291992e+00,3.172636747360229492e+00,3.090223789215087891e+00,3.011983633041381836e+00,2.937608003616333008e+00,2.866816759109497070e+00,2.799357175827026367e+00,2.734998941421508789e+00,2.673534154891967773e+00,2.614770889282226562e+00,2.558535337448120117e+00,2.504667758941650391e+00,2.453021764755249023e+00,2.403462409973144531e+00,2.355866193771362305e+00,2.310118198394775391e+00,2.266113281250000000e+00,2.223753452301025391e+00,2.182948350906372070e+00,2.143613576889038086e+00,2.105671405792236328e+00,2.069048881530761719e+00,2.033678770065307617e+00,1.999497294425964355e+00,1.966446042060852051e+00,1.934469580650329590e+00,1.903516411781311035e+00,1.873538017272949219e+00,1.844489455223083496e+00
5.000000000000000000e+00,5.000000000000000000e+00,5.000000000000000000e+00,5.000000000000000000e+00,5.000000000000000000e+00,5.000000000000000000e+00,5.000000000000000000e+00,5.000000000000000000e+00,5.000000000000000000e+00,5.000000000000000000e+00,5.000000000000000000e+00,5.000000000000000000e+00,5.000000000000000000e+00,5.000000000000000000e+00,5.000000000000000000e+00,5.000000000000000000e+00,5.000000000000000000e+00,5.000000000000000000e+00,5.000000000000000000e+00,5.000000000000000000e+00,5.000000000000000000e+00,5.000000000000000000e+00,5.000000000000000000e+00,5.000000000000000000e+00,5.000000000000000000e+00,5.000000000000000000e+00,5.000000000000000000e+00,5.000000000000000000e+00,5.000000000000000000e+00,5.000000000000000000e+00,5.000000000000000000e+00,5.000000000000000000e+00,1.480277776718139648e+00,1.429212450981140137e+00,1.401183009147644043e+00,1.386588215827941895e+00,1.408492445945739746e+00,5.000000000000000000e+00,5.000000000000000000e+00,4.856438636779785156e+00,4.665960788726806641e+00,4.489860534667968750e+00,1.190669655799865723e+00,1.160225987434387207e+00,1.154238224029541016e+00,1.148792862892150879e+00,1.143859505653381348e+00,1.175252437591552734e+00,3.551570653915405273e+00,3.448614835739135742e+00,3.351459980010986328e+00,3.259629011154174805e+00,3.172696590423583984e+00,3.090280532836914062e+00,3.012037754058837891e+00,2.937659025192260742e+00,2.866865396499633789e+00,2.799403667449951172e+00,2.735043764114379883e+00,2.673576354980468750e+00,2.614811420440673828e+00,2.558574199676513672e+00,2.504705190658569336e+00,2.453057289123535156e+00,2.403496742248535156e+00,2.355899095535278320e+00,2.310149908065795898e+00,2.266143560409545898e+00,2.223782777786254883e+00,2.182976722717285156e+00,2.143640995025634766e+00,2.105697631835937500e+00,2.069074153900146484e+00,2.033703088760375977e+00,1.999521136283874512e+00,1.966468930244445801e+00,1.934491634368896484e+00,1.903537869453430176e+00,1.873558998107910156e+00,1.844509840011596680e+00
5.000000000000000000e+00,5.000000000000000000e+00,5.000000000000000000e+00,5.000000000000000000e+00,5.000000000000000000e+00,5.000000000000000000e+00,5.000000000000000000e+00,5.000000000000000000e+00,5.000000000000000000e+00,5.000000000000000000e+00,5.000000000000000000e+00,5.000000000000000000e+00,5.000000000000000000e+00,5.000000000000000000e+00,5.000000000000000000e+00,5.000000000000000000e+00,5.000000000000000000e+00,5.000000000000000000e+00,5.000000000000000000e+00,5.000000000000000000e+00,5.000000000000000000e+00,5.000000000000000000e+00,5.000000000000000000e+00,5.000000000000000000e+00,5.000000000000000000e+00,5.000000000000000000e+00,5.000000000000000000e+00,5.000000000000000000e+00,5.000000000000000000e+00,5.000000000000000000e+00,5.000000000000000000e+00,5.000000000000000000e+00,1.488235592842102051e+00,1.449541807174682617e+00,1.432857036590576172e+00,1.426875710487365723e+00,1.466737389564514160e+00,5.000000000000000000e+00,5.000000000000000000e+00,4.856578826904296875e+00,4.666090011596679688e+00,4.489980697631835938e+00,1.189220905303955078e+00,1.159389138221740723e+00,1.152996182441711426e+00,1.147562503814697266e+00,1.142179727554321289e+00,1.172299265861511230e+00,3.551645278930664062e+00,3.448685169219970703e+00,3.351526498794555664e+00,3.259692430496215820e+00,3.172756195068359375e+00,3.090337038040161133e+00,3.012091636657714844e+00,2.937710523605346680e+00,2.866914272308349609e+00,2.799450159072875977e+00,2.735088109970092773e+00,2.673619031906127930e+00,2.614851951599121094e+00,2.558613061904907227e+00,2.504742383956909180e+00,2.453093290328979492e+00,2.403531074523925781e+00,2.355931997299194336e+00,2.310181617736816406e+00,2.266174316406250000e+00,2.223812103271484375e+00,2.183004856109619141e+00,2.143668174743652344e+00,2.105724096298217773e+00,2.069099664688110352e+00,2.033727645874023438e+00,1.999544620513916016e+00,1.966491937637329102e+00,1.934513926506042480e+00,1.903559446334838867e+00,1.873579859733581543e+00,1.844530105590820312e+00
5.000000000000000000e+00,5.000000000000000000e+00,5.000000000000000000e+00,5.000000000000000000e+00,5.000000000000000000e+00,5.000000000000000000e+00,5.000000000000000000e+00,5.000000000000000000e+00,5.000000000000000000e+00,5.000000000000000000e+00,5.000000000000000000e+00,5.000000000000000000e+00,5.000000000000000000e+00,5.000000000000000000e+00,5.000000000000000000e+00,5.000000000000000000e+00,5.000000000000000000e+00,5.000000000000000000e+00,5.000000000000000000e+00,5.000000000000000000e+00,5.000000000000000000e+00,5.000000000000000000e+00,5.000000000000000000e+00,5.000000000000000000e+00,5.000000000000000000e+00,5.000000000000000000e+00,5.000000000000000000e+00,5.000000000000000000e+00,5.000000000000000000e+00,5.000000000000000000e+00,5.000000000000000000e+00,5.000000000000000000e+00,1.508665680885314941e+00,1.477568507194519043e+00,1.464098215103149414e+00,1.479968070983886719e+00,5.000000000000000000e+00,5.000000000000000000e+00,5.000000000000000000e+00,4.856719017028808594e+00,4.666219234466552734e+00,4.490099906921386719e+00,1.187775611877441406e+00,1.158553600311279297e+00,1.151310205459594727e+00,1.146334767341613770e+00,1.140963554382324219e+00,1.172164797782897949e+00,3.551720619201660156e+00,3.448755741119384766e+00,3.351593255996704102e+00,3.259755373001098633e+00,3.172816276550292969e+00,3.090393781661987305e+00,3.012145280838012695e+00,2.937761783599853516e+00,2.866963148117065430e+00,2.799496650695800781e+00,2.735132455825805664e+00,2.673661470413208008e+00,2.614892721176147461e+00,2.558651924133300781e+00,2.504779577255249023e+00,2.453128814697265625e+00,2.403565406799316406e+00,2.355964899063110352e+00,2.310213327407836914e+00,2.266204833984375000e+00,2.223841667175292969e+00,2.183033227920532227e+00,2.143695354461669922e+00,2.105750322341918945e+00,2.069125175476074219e+00,2.033752202987670898e+00,1.999568462371826172e+00,1.966514945030212402e+00,1.934536218643188477e+00,1.903580784797668457e+00,1.873600602149963379e+00,1.844550132751464844e+00
5.000000000000000000e+00,5.000000000000000000e+00,5.000000000000000000e+00,5.000000000000000000e+00,5.000000000000000000e+00,5.000000000000000000e+00,5.000000000000000000e+00,5.000000000000000000e+00,5.000000000000000000e+00,5.000000000000000000e+00,5.000000000000000000e+00,5.000000000000000000e+00,5.000000000000000000e+00,5.000000000000000000e+00,5.000000000000000000e+00,5.000000000000000000e+00,5.000000000000000000e+00,5.000000000000000000e+00,5.000000000000000000e+00,5.000000000000000000e+00,5.000000000000000000e+00,5.000000000000000000e+00,5.000000000000000000e+00,5.000000000000000000e+00,5.000000000000000000e+00,5.000000000000000000e+00,5.000000000000000000e+00,5.000000000000000000e+00,5.000000000000000000e+00,5.000000000000000000e+00,5.000000000000000000e+00,5.000000000000000000e+00,1.528738856315612793e+00,1.498255968093872070e+00,1.488009095191955566e+00,1.517342209815979004e+00,5.000000000000000000e+00,5.000000000000000000e+00,5.000000000000000000e+00,4.856857299804687500e+00,4.666348457336425781e+00,4.490220069885253906e+00,1.186333894729614258e+00,1.157719254493713379e+00,1.149468779563903809e+00,1.145109653472900391e+00,1.139749884605407715e+00,1.191588044166564941e+00,3.551795482635498047e+00,3.448826789855957031e+00,3.351659774780273438e+00,3.259818315505981445e+00,3.172875881195068359e+00,3.090450525283813477e+00,3.012199163436889648e+00,2.937812805175781250e+00,2.867011785507202148e+00,2.799543142318725586e+00,2.735176801681518555e+00,2.673703908920288086e+00,2.614933252334594727e+00,2.558691024780273438e+00,2.504816770553588867e+00,2.453164577484130859e+00,2.403599739074707031e+00,2.355998039245605469e+00,2.310245037078857422e+00,2.266235113143920898e+00,2.223870992660522461e+00,2.183061599731445312e+00,2.143722772598266602e+00,2.105776548385620117e+00,2.069150447845458984e+00,2.033776998519897461e+00,1.999592065811157227e+00,1.966537833213806152e+00,1.934558272361755371e+00,1.903602361679077148e+00,1.873621582984924316e+00,1.844570398330688477e+00
5.000000000000000000e+00,5.000000000000000000e+00,5.000000000000000000e+00,5.000000000000000000e+00,5.000000000000000000e+00,5.000000000000000000e+00,5.000000000000000000e+00,5.000000000000000000e+00,5.000000000000000000e+00,5.000000000000000000e+00,5.000000000000000000e+00,5.000000000000000000e+00,5.000000000000000000e+00,5.000000000000000000e+00,5.000000000000000000e+00,5.000000000000000000e+00,5.000000000000000000e+00,5.000000000000000000e+00,5.000000000000000000e+00,5.000000000000000000e+00,5.000000000000000000e+00,5.000000000000000000e+00,5.000000000000000000e+00,5.000000000000000000e+00,5.000000000000000000e+00,5.000000000000000000e+00,5.000000000000000000e+00,5.000000000000000000e+00,5.000000000000000000e+00,5.000000000000000000e+00,5.000000000000000000e+00,5.000000000000000000e+00,1.549552559852600098e+00,1.516839861869812012e+00,1.506511569023132324e+00,1.543843984603881836e+00,5.000000000000000000e+00,5.000000000000000000e+00,5.000000000000000000e+00,4.856995582580566406e+00,4.666478157043457031e+00,4.490339756011962891e+00,1.184895634651184082e+00,1.156886100769042969e+00,1.147633075714111328e+00,1.143481612205505371e+00,1.138538718223571777e+00,3.661181211471557617e+00,3.551870107650756836e+00,3.448897361755371094e+00,3.351726770401000977e+00,3.259881496429443359e+00,3.172935724258422852e+00,3.090507268905639648e+00,3.012253284454345703e+00,2.937864065170288086e+00,2.867060661315917969e+00,2.799589633941650391e+00,2.735221385955810547e+00,2.673746347427368164e+00,2.614974021911621094e+00,2.558729648590087891e+00,2.504854202270507812e+00,2.453200340270996094e+00,2.403633832931518555e+00,2.356030941009521484e+00,2.310276746749877930e+00,2.266265630722045898e+00,2.223900318145751953e+00,2.183089733123779297e+00,2.143749952316284180e+00,2.105803012847900391e+00,2.069175958633422852e+00,2.033801317214965820e+00,1.999615907669067383e+00,1.966560840606689453e+00,1.934580564498901367e+00,1.903623938560485840e+00,1.873642444610595703e+00,1.844590544700622559e+00
5.000000000000000000e+00,5.000000000000000000e+00,5.000000000000000000e+00,5.000000000000000000e+00,5.000000000000000000e+00,5.000000000000000000e+00,5.000000000000000000e+00,5.000000000000000000e+00,5.000000000000000000e+00,5.000000000000000000e+00,5.000000000000000000e+00,5.000000000000000000e+00,5.000000000000000000e+00,5.000000000000000000e+00,5.000000000000000000e+00,5.000000000000000000e+00,5.000000000000000000e+00,5.000000000000000000e+00,5.000000000000000000e+00,5.000000000000000000e+00,5.000000000000000000e+00,5.000000000000000000e+00,5.000000000000000000e+00,5.000000000000000000e+00,5.000000000000000000e+00,5.000000000000000000e+00,5.000000000000000000e+00,5.000000000000000000e+00,5.000000000000000000e+00,5.000000000000000000e+00,5.000000000000000000e+00,5.000000000000000000e+00,1.571315765380859375e+00,1.537536859512329102e+00,1.533679485321044922e+00,1.570276737213134766e+00,5.000000000000000000e+00,5.000000000000000000e+00,5.000000000000000000e+00,4.857134342193603516e+00,4.666604518890380859e+00,4.490459442138671875e+00,1.183460831642150879e+00,1.156054019927978516e+00,1.145803213119506836e+00,1.141665101051330566e+00,1.137330412864685059e+00,3.661261081695556641e+00,3.551944971084594727e+00,3.448967695236206055e+00,3.351793289184570312e+00,3.259944677352905273e+00,3.172995328903198242e+00,3.090564012527465820e+00,3.012307167053222656e+00,2.937915563583374023e+00,2.867109298706054688e+00,2.799636125564575195e+00,2.735265731811523438e+00,2.673788785934448242e+00,2.615014553070068359e+00,2.558768510818481445e+00,2.504891395568847656e+00,2.453236103057861328e+00,2.403668165206909180e+00,2.356063842773437500e+00,2.310308456420898438e+00,2.266296386718750000e+00,2.223929643630981445e+00,2.183118104934692383e+00,2.143777370452880859e+00,2.105829477310180664e+00,2.069201231002807617e+00,2.033825874328613281e+00,1.999639749526977539e+00,1.966583967208862305e+00,1.934602737426757812e+00,1.903645396232604980e+00,1.873663187026977539e+00,1.844610810279846191e+00
5.000000000000000000e+00,5.000000000000000000e+00,5.000000000000000000e+00,5.000000000000000000e+00,5.000000000000000000e+00,5.000000000000000000e+00,5.000000000000000000e+00,5.000000000000000000e+00,5.000000000000000000e+00,5.000000000000000000e+00,5.000000000000000000e+00,5.000000000000000000e+00,5.000000000000000000e+00,5.000000000000000000e+00,5.000000000000000000e+00,5.000000000000000000e+00,5.000000000000000000e+00,5.000000000000000000e+00,5.000000000000000000e+00,5.000000000000000000e+00,5.000000000000000000e+00,5.000000000000000000e+00,5.000000000000000000e+00,5.000000000000000000e+00,5.000000000000000000e+00,5.000000000000000000e+00,5.000000000000000000e+00,5.000000000000000000e+00,5.000000000000000000e+00,5.000000000000000000e+00,5.000000000000000000e+00,5.000000000000000000e+00,1.594416379928588867e+00,1.558806538581848145e+00,1.561031937599182129e+00,1.598886847496032715e+00,5.000000000000000000e+00,5.000000000000000000e+00,5.000000000000000000e+00,4.857272624969482422e+00,4.666732311248779297e+00,4.490577220916748047e+00,1.182791948318481445e+00,1.155801534652709961e+00,1.144092559814453125e+00,1.139891982078552246e+00,1.135758876800537109e+00,3.661340475082397461e+00,3.552020311355590820e+00,3.449038267135620117e+00,3.351860046386718750e+00,3.260007858276367188e+00,3.173055410385131836e+00,3.090620517730712891e+00,3.012360811233520508e+00,2.937966823577880859e+00,2.867158412933349609e+00,2.799682617187500000e+00,2.735310077667236328e+00,2.673831224441528320e+00,2.615055322647094727e+00,2.558807373046875000e+00,2.504928588867187500e+00,2.453271865844726562e+00,2.403702735900878906e+00,2.356096744537353516e+00,2.310340166091918945e+00,2.266326665878295898e+00,2.223959207534790039e+00,2.183146238327026367e+00,2.143804550170898438e+00,2.105855703353881836e+00,2.069226741790771484e+00,2.033850431442260742e+00,1.999663352966308594e+00,1.966606736183166504e+00,1.934625029563903809e+00,1.903666973114013672e+00,1.873684048652648926e+00,1.844631075859069824e+00
5.000000000000000000e+00,5.000000000000000000e+00,5.000000000000000000e+00,5.000000000000000000e+00,5.000000000000000000e+00,5.000000000000000000e+00,5.000000000000000000e+00,5.000000000000000000e+00,5.000000000000000000e+00,5.000000000000000000e+00,5.000000000000000000e+00,5.000000000000000000e+00,5.000000000000000000e+00,5.000000000000000000e+00,5.000000000000000000e+00,5.000000000000000000e+00,5.000000000000000000e+00,5.000000000000000000e+00,5.000000000000000000e+00,5.000000000000000000e+00,5.000000000000000000e+00,5.000000000000000000e+00,5.000000000000000000e+00,5.000000000000000000e+00,5.000000000000000000e+00,5.000000000000000000e+00,5.000000000000000000e+00,5.000000000000000000e+00,5.000000000000000000e+00,5.000000000000000000e+00,5.000000000000000000e+00,5.000000000000000000e+00,1.619894742965698242e+00,1.587740421295166016e+00,1.590009570121765137e+00,5.000000000000000000e+00,5.000000000000000000e+00,5.000000000000000000e+00,5.000000000000000000e+00,4.857410907745361328e+00,4.666860103607177734e+00,4.490695476531982422e+00,4.327346324920654297e+00,1.157174944877624512e+00,1.142876982688903809e+00,1.138685226440429688e+00,1.134524106979370117e+00,3.661420106887817383e+00,3.552094936370849609e+00,3.449109315872192383e+00,3.351926565170288086e+00,3.260070800781250000e+00,3.173115015029907227e+00,3.090677499771118164e+00,3.012414693832397461e+00,2.938017845153808594e+00,2.867207050323486328e+00,2.799729347229003906e+00,2.735354423522949219e+00,2.673873662948608398e+00,2.615095853805541992e+00,2.558846473693847656e+00,2.504965782165527344e+00,2.453307628631591797e+00,2.403736829757690430e+00,2.356129884719848633e+00,2.310371637344360352e+00,2.266357183456420898e+00,2.223988533020019531e+00,2.183174848556518555e+00,2.143831729888916016e+00,2.105881929397583008e+00,2.069252252578735352e+00,2.033875226974487305e+00,1.999687194824218750e+00,1.966629743576049805e+00,1.934647321701049805e+00,1.903688549995422363e+00,1.873704791069030762e+00,1.844651103019714355e+00
5.000000000000000000e+00,5.000000000000000000e+00,5.000000000000000000e+00,5.000000000000000000e+00,5.000000000000000000e+00,5.000000000000000000e+00,5.000000000000000000e+00,5.000000000000000000e+00,5.000000000000000000e+00,5.000000000000000000e+00,5.000000000000000000e+00,5.000000000000000000e+00,5.000000000000000000e+00,5.000000000000000000e+00,5.000000000000000000e+00,5.000000000000000000e+00,5.000000000000000000e+00,5.000000000000000000e+00,5.000000000000000000e+00,5.000000000000000000e+00,5.000000000000000000e+00,5.000000000000000000e+00,5.000000000000000000e+00,5.000000000000000000e+00,5.000000000000000000e+00,5.000000000000000000e+00,5.000000000000000000e+00,5.000000000000000000e+00,5.000000000000000000e+00,5.000000000000000000e+00,5.000000000000000000e+00,5.000000000000000000e+00,1.646562576293945312e+00,1.616361737251281738e+00,1.620878934860229492e+00,5.000000000000000000e+00,5.000000000000000000e+00,5.000000000000000000e+00,5.000000000000000000e+00,4.857549667358398438e+00,4.666987895965576172e+00,4.490813732147216797e+00,4.327456474304199219e+00,1.158551454544067383e+00,1.141664028167724609e+00,1.137481093406677246e+00,1.133328795433044434e+00,3.661499500274658203e+00,3.552169799804687500e+00,3.449179887771606445e+00,3.351993560791015625e+00,3.260133743286132812e+00,3.173174858093261719e+00,3.090734243392944336e+00,3.012468814849853516e+00,2.938069105148315430e+00,2.867255926132202148e+00,2.799775838851928711e+00,2.735399007797241211e+00,2.673916101455688477e+00,2.615136384963989258e+00,2.558885335922241211e+00,2.505003213882446289e+00,2.453343152999877930e+00,2.403771162033081055e+00,2.356162786483764648e+00,2.310403585433959961e+00,2.266387701034545898e+00,2.224017858505249023e+00,2.183202981948852539e+00,2.143859148025512695e+00,2.105908393859863281e+00,2.069277524948120117e+00,2.033899784088134766e+00,1.999711036682128906e+00,1.966652631759643555e+00,1.934669375419616699e+00,1.903710007667541504e+00,1.873725771903991699e+00,1.844671368598937988e+00
4.874736309051513672e+00,4.873525619506835938e+00,4.872315406799316406e+00,4.871105670928955078e+00,4.869896411895751953e+00,4.868688106536865234e+00,4.867480278015136719e+00,4.866272926330566406e+00,4.865066528320312500e+00,4.863860607147216797e+00,4.862655162811279297e+00,4.861450195312500000e+00,4.860246181488037109e+00,4.859042644500732422e+00,4.857839107513427734e+00,4.856637001037597656e+00,4.855435371398925781e+00,4.854234218597412109e+00,4.853033065795898438e+00,4.851833343505859375e+00,4.850634098052978516e+00,4.849434852600097656e+00,4.848236560821533203e+00,4.847039222717285156e+00,4.845842361450195312e+00,4.844645500183105469e+00,4.843449592590332031e+00,4.842254161834716797e+00,4.841059684753417969e+00,4.839865207672119141e+00,4.838671684265136719e+00,4.837479114532470703e+00,1.674395561218261719e+00,1.642688632011413574e+00,1.654172420501708984e+00,4.832713127136230469e+00,4.831522464752197266e+00,4.830333232879638672e+00,4.829144477844238281e+00,4.827956199645996094e+00,4.667116165161132812e+00,4.490931987762451172e+00,4.327566146850585938e+00,1.159929513931274414e+00,1.140722155570983887e+00,1.136279582977294922e+00,1.142623901367187500e+00,3.661579370498657227e+00,3.552244663238525391e+00,3.449250459671020508e+00,3.352060317993164062e+00,3.260197162628173828e+00,3.173234462738037109e+00,3.090790748596191406e+00,3.012522697448730469e+00,2.938120603561401367e+00,2.867304563522338867e+00,2.799822330474853516e+00,2.735443353652954102e+00,2.673958778381347656e+00,2.615176916122436523e+00,2.558924198150634766e+00,2.505040407180786133e+00,2.453379154205322266e+00,2.403805494308471680e+00,2.356195688247680664e+00,2.310435295104980469e+00,2.266418218612670898e+00,2.224047183990478516e+00,2.183231353759765625e+00,2.143886566162109375e+00,2.105934619903564453e+00,2.069303035736083984e+00,2.033924102783203125e+00,1.999734640121459961e+00,1.966675639152526855e+00,1.934691667556762695e+00,1.903731584548950195e+00,1.873746633529663086e+00,1.844691753387451172e+00
3.777536392211914062e+00,3.776809215545654297e+00,3.776082515716552734e+00,3.775355577468872070e+00,3.774629354476928711e+00,3.773903369903564453e+00,3.773177623748779297e+00,3.772452354431152344e+00,3.771727085113525391e+00,3.771002292633056641e+00,3.770277261734008789e+00,3.769552946090698242e+00,3.768829107284545898e+00,3.768105268478393555e+00,3.767381906509399414e+00,3.766658782958984375e+00,3.765935897827148438e+00,3.765213251113891602e+00,3.764490365982055664e+00,3.763768434524536133e+00,3.763046503067016602e+00,3.762325048446655273e+00,3.761603832244873047e+00,3.760882854461669922e+00,3.760162115097045898e+00,3.759441375732421875e+00,3.758721351623535156e+00,3.758001327514648438e+00,3.757281780242919922e+00,3.756562471389770508e+00,3.755843639373779297e+00,3.755124807357788086e+00,1.710446596145629883e+00,1.685435533523559570e+00,1.725987553596496582e+00,3.752252101898193359e+00,3.751534700393676758e+00,3.750817537307739258e+00,3.750100851058959961e+00,3.749384164810180664e+00,3.748667478561401367e+00,3.747951507568359375e+00,3.747235774993896484e+00,1.161220908164978027e+00,1.140458822250366211e+00,1.135080575942993164e+00,1.145806670188903809e+00,3.661659002304077148e+00,3.552320003509521484e+00,3.449321031570434570e+00,3.352126836776733398e+00,3.260260343551635742e+00,3.173294544219970703e+00,3.090847492218017578e+00,3.012576341629028320e+00,2.938171863555908203e+00,2.867353677749633789e+00,2.799868822097778320e+00,2.735487699508666992e+00,2.674000978469848633e+00,2.615217685699462891e+00,2.558963060379028320e+00,2.505077600479125977e+00,2.453414916992187500e+00,2.403839826583862305e+00,2.356228590011596680e+00,2.310466766357421875e+00,2.266448736190795898e+00,2.224076509475708008e+00,2.183259487152099609e+00,2.143913745880126953e+00,2.105961084365844727e+00,2.069328546524047852e+00,2.033948659896850586e+00,1.999758481979370117e+00,1.966698765754699707e+00,1.934713959693908691e+00,1.903752923011779785e+00,1.873767375946044922e+00,1.844711780548095703e+00
3.083504676818847656e+00,3.083020210266113281e+00,3.082535982131958008e+00,3.082051753997802734e+00,3.081567764282226562e+00,3.081083774566650391e+00,3.080599784851074219e+00,3.080116271972656250e+00,3.079632997512817383e+00,3.079149723052978516e+00,3.078666448593139648e+00,3.078183650970458984e+00,3.077700853347778320e+00,3.077218055725097656e+00,3.076735258102416992e+00,3.076252937316894531e+00,3.075770854949951172e+00,3.075288772583007812e+00,3.074806928634643555e+00,3.074325084686279297e+00,3.073843479156494141e+00,3.073361873626708984e+00,3.072880506515502930e+00,3.072399377822875977e+00,3.071918249130249023e+00,3.071437597274780273e+00,3.070956707000732422e+00,3.070476293563842773e+00,3.069995880126953125e+00,3.069515466690063477e+00,3.069035291671752930e+00,3.068555355072021484e+00,1.707101345062255859e+00,1.683779954910278320e+00,1.697778701782226562e+00,3.066637039184570312e+00,3.066157579421997070e+00,3.065678596496582031e+00,3.065199851989746094e+00,3.064721107482910156e+00,3.064242601394653320e+00,3.063764095306396484e+00,3.063285827636718750e+00,1.162515163421630859e+00,1.140195369720458984e+00,1.133883953094482422e+00,1.144976615905761719e+00,3.060896396636962891e+00,3.060418844223022461e+00,3.059941530227661133e+00,3.059464454650878906e+00,3.058987617492675781e+00,3.058510541915893555e+00,3.058033943176269531e+00,3.012630224227905273e+00,2.938222885131835938e+00,2.867402553558349609e+00,2.799915552139282227e+00,2.735532283782958984e+00,2.674043416976928711e+00,2.615258216857910156e+00,2.559001922607421875e+00,2.505114793777465820e+00,2.453450441360473633e+00,2.403874158859252930e+00,2.356261730194091797e+00,2.310498476028442383e+00,2.266479253768920898e+00,2.224105834960937500e+00,2.183287858963012695e+00,2.143940925598144531e+00,2.105987310409545898e+00,2.069353818893432617e+00,2.033973455429077148e+00,1.999782085418701172e+00,1.966721534729003906e+00,1.934736132621765137e+00,1.903774499893188477e+00,1.873788356781005859e+00,1.844732046127319336e+00
2.604914188385009766e+00,2.604568481445312500e+00,2.604222774505615234e+00,2.603877067565917969e+00,2.603531599044799805e+00,2.603186130523681641e+00,2.602840900421142578e+00,2.602495670318603516e+00,2.602150440216064453e+00,2.601805448532104492e+00,2.601460456848144531e+00,2.601115465164184570e+00,2.600770711898803711e+00,2.600426197052001953e+00,2.600081443786621094e+00,2.599737167358398438e+00,2.599392652511596680e+00,2.599048376083374023e+00,2.598703861236572266e+00,2.598359823226928711e+00,2.598015785217285156e+00,2.597671985626220703e+00,2.597327947616577148e+00,2.596984386444091797e+00,2.596640586853027344e+00,2.596296787261962891e+00,2.595953464508056641e+00,2.595609903335571289e+00,2.595266819000244141e+00,2.594923496246337891e+00,2.594580411911010742e+00,2.594237327575683594e+00,1.692461967468261719e+00,1.675581932067871094e+00,1.678282141685485840e+00,2.592865943908691406e+00,2.592523336410522461e+00,2.592180967330932617e+00,2.591838598251342773e+00,2.591496229171752930e+00,2.591153860092163086e+00,2.590811729431152344e+00,2.590469598770141602e+00,1.163812279701232910e+00,1.139932274818420410e+00,1.132689952850341797e+00,1.144147872924804688e+00,2.588760852813720703e+00,2.588419198989868164e+00,2.588077783584594727e+00,2.587736606597900391e+00,2.587395429611206055e+00,2.587054252624511719e+00,2.586713075637817383e+00,2.586372137069702148e+00,2.586031198501586914e+00,2.585690498352050781e+00,2.585349798202514648e+00,2.585009098052978516e+00,2.584668636322021484e+00,2.584328174591064453e+00,2.559040784835815430e+00,2.505152225494384766e+00,2.453486204147338867e+00,2.403908491134643555e+00,2.356294631958007812e+00,2.310530424118041992e+00,2.266509771347045898e+00,2.224135160446166992e+00,2.183316230773925781e+00,2.143968343734741211e+00,2.106013536453247070e+00,2.069379329681396484e+00,2.033998012542724609e+00,1.999805927276611328e+00,1.966744542121887207e+00,1.934758424758911133e+00,1.903796195983886719e+00,1.873809218406677246e+00,1.844752192497253418e+00
2.254972219467163086e+00,2.254711151123046875e+00,2.254450082778930664e+00,2.254189014434814453e+00,2.253928184509277344e+00,2.253667354583740234e+00,2.253406524658203125e+00,2.253145933151245117e+00,2.252885341644287109e+00,2.252624750137329102e+00,2.252364158630371094e+00,2.252103567123413086e+00,2.251843214035034180e+00,2.251582860946655273e+00,2.251322507858276367e+00,2.251062393188476562e+00,2.250802278518676758e+00,2.250542163848876953e+00,2.250282049179077148e+00,2.250022172927856445e+00,2.249762058258056641e+00,2.249502182006835938e+00,2.249242305755615234e+00,2.248982667922973633e+00,2.248724937438964844e+00,2.248467206954956055e+00,2.248209476470947266e+00,2.247951984405517578e+00,2.247694492340087891e+00,2.247437000274658203e+00,2.247179508209228516e+00,2.246922254562377930e+00,1.671339869499206543e+00,1.663662552833557129e+00,1.663341879844665527e+00,2.245893478393554688e+00,2.245636463165283203e+00,2.245379447937011719e+00,2.245122432708740234e+00,2.244865655899047852e+00,2.244608879089355469e+00,2.244352102279663086e+00,2.244095325469970703e+00,1.165112257003784180e+00,1.158147096633911133e+00,1.131498456001281738e+00,1.143320202827453613e+00,2.242812871932983398e+00,2.242556571960449219e+00,2.242300271987915039e+00,2.242043972015380859e+00,2.241787910461425781e+00,2.241531610488891602e+00,2.241275548934936523e+00,2.241019725799560547e+00,2.240763664245605469e+00,2.240507841110229492e+00,2.240252017974853516e+00,2.239996433258056641e+00,2.239740610122680664e+00,2.239484786987304688e+00,2.239229202270507812e+00,2.238973855972290039e+00,2.238718271255493164e+00,2.238462924957275391e+00,2.238207578659057617e+00,2.237952470779418945e+00,2.237697124481201172e+00,2.224164485931396484e+00,2.183344602584838867e+00,2.143995761871337891e+00,2.106040000915527344e+00,2.069404602050781250e+00,2.034022569656372070e+00,1.999829769134521484e+00,1.966767668724060059e+00,1.934780478477478027e+00,1.903817534446716309e+00,1.873829960823059082e+00,1.844772458076477051e+00
1.988002896308898926e+00,1.987800121307373047e+00,1.987597107887268066e+00,1.987394332885742188e+00,1.987191438674926758e+00,1.986988902091979980e+00,1.986786007881164551e+00,1.986583471298217773e+00,1.986380696296691895e+00,1.986178278923034668e+00,1.985975623130798340e+00,1.985773205757141113e+00,1.985570669174194336e+00,1.985368371009826660e+00,1.985165834426879883e+00,1.984963655471801758e+00,1.984761238098144531e+00,1.984558820724487305e+00,1.984356760978698730e+00,1.984154462814331055e+00,1.983952403068542480e+00,1.983750224113464355e+00,1.983548283576965332e+00,1.983346104621887207e+00,1.983144283294677734e+00,1.982942223548889160e+00,1.982740521430969238e+00,1.982538461685180664e+00,1.982336759567260742e+00,1.982134938240051270e+00,1.981933355331420898e+00,1.981731534004211426e+00,1.658689022064208984e+00,1.656063795089721680e+00,1.642893552780151367e+00,1.651969790458679199e+00,1.980723619461059570e+00,1.980522274971008301e+00,1.980320811271667480e+00,1.980119585990905762e+00,1.979918122291564941e+00,1.979716897010803223e+00,1.979515552520751953e+00,1.194128870964050293e+00,1.154219865798950195e+00,1.141539335250854492e+00,1.978711128234863281e+00,1.978510141372680664e+00,1.978309035301208496e+00,1.978108167648315430e+00,1.977907180786132812e+00,1.977706193923950195e+00,1.977505445480346680e+00,1.977304577827453613e+00,1.977103948593139648e+00,1.976903200149536133e+00,1.976702570915222168e+00,1.976501822471618652e+00,1.976301431655883789e+00,1.976100802421569824e+00,1.975900411605834961e+00,1.975699782371520996e+00,1.975499510765075684e+00,1.975299000740051270e+00,1.975098729133605957e+00,1.974898338317871094e+00,1.974698185920715332e+00,1.974497914314270020e+00,1.974297881126403809e+00,1.974097609519958496e+00,1.973897337913513184e+00,1.973697423934936523e+00,1.973497271537780762e+00,1.973297476768493652e+00,1.973097443580627441e+00,1.966790437698364258e+00,1.934802770614624023e+00,1.903839111328125000e+00,1.873850822448730469e+00,1.844792723655700684e+00
1.777555704116821289e+00,1.777393579483032227e+00,1.777231216430664062e+00,1.777069211006164551e+00,1.776906967163085938e+00,1.776744961738586426e+00,1.776582717895507812e+00,1.776420831680297852e+00,1.776258707046508789e+00,1.776096820831298828e+00,1.775934696197509766e+00,1.775772690773010254e+00,1.775610923767089844e+00,1.775448918342590332e+00,1.775287151336669922e+00,1.775125265121459961e+00,1.774963498115539551e+00,1.774801731109619141e+00,1.774640083312988281e+00,1.774478197097778320e+00,1.774316668510437012e+00,1.774154901504516602e+00,1.773993372917175293e+00,1.773831725120544434e+00,1.773670315742492676e+00,1.773508667945861816e+00,1.773347258567810059e+00,1.773185729980468750e+00,1.773024320602416992e+00,1.772862792015075684e+00,1.772701382637023926e+00,1.772540092468261719e+00,1.772378683090209961e+00,1.632668018341064453e+00,1.623538136482238770e+00,1.618652462959289551e+00,1.771733641624450684e+00,1.771572589874267578e+00,1.771411418914794922e+00,1.771250367164611816e+00,1.771089196205139160e+00,1.770928144454956055e+00,1.770767092704772949e+00,1.190072655677795410e+00,1.143996715545654297e+00,1.134481906890869141e+00,1.168522000312805176e+00,1.769962310791015625e+00,1.769801497459411621e+00,1.769640564918518066e+00,1.769479870796203613e+00,1.769319057464599609e+00,1.769158363342285156e+00,1.768997550010681152e+00,1.768836975097656250e+00,1.768676280975341797e+00,1.768515706062316895e+00,1.768355011940002441e+00,1.768194556236267090e+00,1.768033981323242188e+00,1.767873525619506836e+00,1.767712950706481934e+00,1.767552614212036133e+00,1.767392158508300781e+00,1.767231702804565430e+00,1.767071366310119629e+00,1.766911029815673828e+00,1.766750812530517578e+00,1.766590356826782227e+00,1.766430258750915527e+00,1.766269922256469727e+00,1.766109824180603027e+00,1.765949606895446777e+00,1.765789628028869629e+00,1.765629410743713379e+00,1.765469551086425781e+00,1.765309333801269531e+00,1.765149474143981934e+00,1.764989376068115234e+00,1.764829516410827637e+00
1.607398748397827148e+00,1.607266187667846680e+00,1.607133388519287109e+00,1.607000946998596191e+00,1.606868267059326172e+00,1.606735706329345703e+00,1.606603145599365234e+00,1.606470465660095215e+00,1.606338024139404297e+00,1.606205463409423828e+00,1.606073141098022461e+00,1.605940580368041992e+00,1.605808258056640625e+00,1.605675697326660156e+00,1.605543494224548340e+00,1.605411052703857422e+00,1.605278730392456055e+00,1.605146408081054688e+00,1.605014204978942871e+00,1.604881763458251953e+00,1.604749679565429688e+00,1.604617357254028320e+00,1.604485273361206055e+00,1.604352951049804688e+00,1.604220747947692871e+00,1.604088664054870605e+00,1.603956460952758789e+00,1.603824496269226074e+00,1.603692293167114258e+00,1.603560328483581543e+00,1.603428244590759277e+00,1.603296279907226562e+00,1.603164196014404297e+00,1.603032350540161133e+00,1.602900266647338867e+00,1.602768421173095703e+00,1.602636456489562988e+00,1.602504730224609375e+00,1.602372765541076660e+00,1.602241039276123047e+00,1.602109074592590332e+00,1.601977467536926270e+00,1.601845622062683105e+00,1.193374395370483398e+00,1.124407172203063965e+00,1.107548832893371582e+00,1.115765690803527832e+00,1.601186990737915039e+00,1.601055383682250977e+00,1.600923776626586914e+00,1.600792169570922852e+00,1.600660562515258789e+00,1.600529074668884277e+00,1.600397467613220215e+00,1.600266098976135254e+00,1.600134491920471191e+00,1.600003123283386230e+00,1.599871516227722168e+00,1.599740147590637207e+00,1.599608659744262695e+00,1.599477291107177734e+00,1.599346041679382324e+00,1.599214553833007812e+00,1.599083304405212402e+00,1.598951935768127441e+00,1.598820805549621582e+00,1.598689436912536621e+00,1.598558306694030762e+00,1.598427057266235352e+00,1.598295927047729492e+00,1.598164677619934082e+00,1.598033547401428223e+00,1.597902417182922363e+00,1.597771406173706055e+00,1.597640275955200195e+00,1.597509264945983887e+00,1.597378134727478027e+00,1.597247242927551270e+00,1.597116112709045410e+00,1.596985101699829102e+00
1.466972470283508301e+00,1.466861963272094727e+00,1.466751456260681152e+00,1.466640949249267578e+00,1.466530561447143555e+00,1.466420054435729980e+00,1.466309666633605957e+00,1.466199159622192383e+00,1.466088891029357910e+00,1.465978503227233887e+00,1.465868234634399414e+00,1.465757846832275391e+00,1.465647578239440918e+00,1.465537190437316895e+00,1.465426921844482422e+00,1.465316653251647949e+00,1.465206503868103027e+00,1.465096116065979004e+00,1.464985966682434082e+00,1.464875698089599609e+00,1.464765548706054688e+00,1.464655399322509766e+00,1.464545130729675293e+00,1.464435100555419922e+00,1.464324951171875000e+00,1.464214920997619629e+00,1.464104771614074707e+00,1.463994741439819336e+00,1.463884592056274414e+00,1.463774681091308594e+00,1.463664650917053223e+00,1.463554620742797852e+00,1.463444590568542480e+00,1.463334679603576660e+00,1.463224649429321289e+00,1.463114857673645020e+00,1.463004827499389648e+00,1.462895035743713379e+00,1.462785124778747559e+00,1.462675094604492188e+00,1.462565302848815918e+00,1.462455511093139648e+00,1.462345719337463379e+00,1.182328939437866211e+00,1.103844404220581055e+00,1.080738186836242676e+00,1.083759546279907227e+00,1.461796879768371582e+00,1.461687207221984863e+00,1.461577415466308594e+00,1.461467742919921875e+00,1.461358070373535156e+00,1.461248517036437988e+00,1.461138725280761719e+00,1.461029171943664551e+00,1.460919499397277832e+00,1.460809946060180664e+00,1.460700392723083496e+00,1.460590839385986328e+00,1.460481286048889160e+00,1.460371732711791992e+00,1.460262298583984375e+00,1.460152745246887207e+00,1.460043311119079590e+00,1.459933757781982422e+00,1.459824442863464355e+00,1.459715008735656738e+00,1.459605574607849121e+00,1.459496140480041504e+00,1.459386825561523438e+00,1.459277391433715820e+00,1.459168195724487305e+00,1.459058761596679688e+00,1.458949565887451172e+00,1.458840131759643555e+00,1.458730816841125488e+00,1.458621621131896973e+00,1.458512306213378906e+00,1.458403229713439941e+00,1.458293914794921875e+00
1.349110722541809082e+00,1.349017262458801270e+00,1.348923802375793457e+00,1.348830342292785645e+00,1.348737001419067383e+00,1.348643541336059570e+00,1.348550200462341309e+00,1.348456740379333496e+00,1.348363399505615234e+00,1.348270058631896973e+00,1.348176717758178711e+00,1.348083376884460449e+00,1.347990155220031738e+00,1.347896814346313477e+00,1.347803592681884766e+00,1.347710251808166504e+00,1.347616910934448242e+00,1.347523689270019531e+00,1.347430467605590820e+00,1.347337245941162109e+00,1.347244024276733398e+00,1.347150921821594238e+00,1.347057700157165527e+00,1.346964597702026367e+00,1.346871376037597656e+00,1.346778273582458496e+00,1.346685051918029785e+00,1.346591949462890625e+00,1.346498847007751465e+00,1.346405744552612305e+00,1.346312642097473145e+00,1.346219658851623535e+00,1.346126556396484375e+00,1.346033573150634766e+00,1.345940470695495605e+00,1.345847368240356445e+00,1.345754504203796387e+00,1.345661401748657227e+00,1.345568537712097168e+00,1.345475435256958008e+00,1.345382571220397949e+00,1.345289587974548340e+00,1.345196723937988281e+00,1.183386206626892090e+00,1.076651215553283691e+00,1.050616145133972168e+00,1.053763031959533691e+00,1.064292550086975098e+00,1.344639420509338379e+00,1.344546556472778320e+00,1.344453692436218262e+00,1.344360828399658203e+00,1.344268083572387695e+00,1.344175338745117188e+00,1.344082474708557129e+00,1.343989729881286621e+00,1.343896985054016113e+00,1.343804240226745605e+00,1.343711495399475098e+00,1.343618869781494141e+00,1.343526124954223633e+00,1.343433499336242676e+00,1.343340754508972168e+00,1.343248128890991211e+00,1.343155384063720703e+00,1.343062877655029297e+00,1.342970132827758789e+00,1.342877626419067383e+00,1.342785000801086426e+00,1.342692375183105469e+00,1.342599868774414062e+00,1.342507243156433105e+00,1.342414736747741699e+00,1.342322111129760742e+00,1.342229723930358887e+00,1.342137098312377930e+00,1.342044711112976074e+00,1.341952204704284668e+00,1.341859698295593262e+00,1.341767191886901855e+00
1.248779416084289551e+00,1.248699307441711426e+00,1.248619318008422852e+00,1.248539209365844727e+00,1.248459219932556152e+00,1.248379230499267578e+00,1.248299241065979004e+00,1.248219132423400879e+00,1.248139142990112305e+00,1.248059153556823730e+00,1.247979164123535156e+00,1.247899174690246582e+00,1.247819185256958008e+00,1.247739315032958984e+00,1.247659325599670410e+00,1.247579455375671387e+00,1.247499465942382812e+00,1.247419595718383789e+00,1.247339606285095215e+00,1.247259855270385742e+00,1.247179865837097168e+00,1.247100114822387695e+00,1.247020125389099121e+00,1.246940374374389648e+00,1.246860504150390625e+00,1.246780753135681152e+00,1.246700882911682129e+00,1.246621131896972656e+00,1.246541261672973633e+00,1.246461391448974609e+00,1.246381640434265137e+00,1.246301889419555664e+00,1.246222138404846191e+00,1.246142387390136719e+00,1.246062636375427246e+00,1.245982885360717773e+00,1.245903253555297852e+00,1.245823502540588379e+00,1.245743870735168457e+00,1.245664119720458984e+00,1.245584487915039062e+00,1.245504736900329590e+00,1.245425224304199219e+00,1.245345473289489746e+00,1.067966461181640625e+00,1.018294453620910645e+00,9.884588718414306641e-01,1.009999990463256836e+00,1.017034292221069336e+00,1.244867801666259766e+00,1.244788289070129395e+00,1.244708657264709473e+00,1.244629144668579102e+00,1.244549632072448730e+00,1.244470000267028809e+00,1.244390606880187988e+00,1.244310975074768066e+00,1.244231581687927246e+00,1.244152069091796875e+00,1.244072556495666504e+00,1.243993043899536133e+00,1.243913650512695312e+00,1.243834137916564941e+00,1.243754744529724121e+00,1.243675351142883301e+00,1.243595838546752930e+00,1.243516445159912109e+00,1.243437051773071289e+00,1.243357658386230469e+00,1.243278264999389648e+00,1.243198990821838379e+00,1.243119597434997559e+00,1.243040204048156738e+00,1.242960929870605469e+00,1.242881536483764648e+00,1.242802262306213379e+00,1.242722988128662109e+00,1.242643594741821289e+00,1.242564439773559570e+00,1.242485046386718750e+00
1.162338256835937500e+00,1.162268757820129395e+00,1.162199497222900391e+00,1.162130117416381836e+00,1.162060737609863281e+00,1.161991357803344727e+00,1.161921977996826172e+00,1.161852717399597168e+00,1.161783337593078613e+00,1.161714076995849609e+00,1.161644816398620605e+00,1.161575555801391602e+00,1.161506175994873047e+00,1.161437034606933594e+00,1.161367654800415039e+00,1.161298513412475586e+00,1.161229133605957031e+00,1.161159992218017578e+00,1.161090731620788574e+00,1.161021590232849121e+00,1.160952329635620117e+00,1.160883069038391113e+00,1.160813927650451660e+00,1.160744786262512207e+00,1.160675525665283203e+00,1.160606265068054199e+00,1.160537123680114746e+00,1.160467982292175293e+00,1.160398840904235840e+00,1.160329699516296387e+00,1.160260558128356934e+00,1.160191416740417480e+00,1.160122394561767578e+00,1.160053253173828125e+00,1.159984111785888672e+00,1.159914970397949219e+00,1.159845948219299316e+00,1.159776806831359863e+00,1.159707784652709961e+00,1.159638762474060059e+00,1.159569740295410156e+00,1.159500598907470703e+00,1.159431576728820801e+00,1.159362554550170898e+00,1.159293532371520996e+00,1.033009171485900879e+00,9.905578494071960449e-01,1.045994281768798828e+00,1.159017562866210938e+00,1.035229444503784180e+00,1.158879637718200684e+00,1.158810615539550781e+00,1.158741712570190430e+00,1.158672809600830078e+00,1.158603787422180176e+00,1.158534884452819824e+00,1.158465981483459473e+00,1.158397078514099121e+00,1.158328175544738770e+00,1.158259272575378418e+00,1.158190369606018066e+00,1.158121466636657715e+00,1.158052682876586914e+00,1.157983779907226562e+00,1.157914996147155762e+00,1.157846093177795410e+00,1.157777309417724609e+00,1.157708406448364258e+00,1.157639622688293457e+00,1.157570719718933105e+00,1.157502055168151855e+00,1.157433152198791504e+00,1.157364487648010254e+00,1.157295584678649902e+00,1.157226920127868652e+00,1.157158136367797852e+00,1.157089352607727051e+00,1.157020568847656250e+00,1.156951785087585449e+00,1.156883120536804199e+00
1.087089180946350098e+00,1.087028503417968750e+00,1.086967825889587402e+00,1.086907148361206055e+00,1.086846470832824707e+00,1.086785793304443359e+00,1.086725115776062012e+00,1.086664557456970215e+00,1.086603879928588867e+00,1.086543321609497070e+00,1.086482644081115723e+00,1.086422085762023926e+00,1.086361408233642578e+00,1.086300849914550781e+00,1.086240291595458984e+00,1.086179733276367188e+00,1.086119055747985840e+00,1.086058497428894043e+00,1.085997939109802246e+00,1.085937380790710449e+00,1.085876822471618652e+00,1.085816264152526855e+00,1.085755705833435059e+00,1.085695147514343262e+00,1.085634708404541016e+00,1.085574150085449219e+00,1.085513710975646973e+00,1.085453152656555176e+00,1.085392713546752930e+00,1.085332155227661133e+00,1.085271716117858887e+00,1.085211157798767090e+00,1.085150718688964844e+00,1.085090279579162598e+00,1.085029840469360352e+00,1.084969401359558105e+00,1.084908962249755859e+00,1.084848523139953613e+00,1.084787964820861816e+00,1.084727644920349121e+00,1.084667205810546875e+00,1.084606766700744629e+00,1.084546327590942383e+00,1.084486007690429688e+00,1.084425568580627441e+00,1.084365248680114746e+00,1.084304809570312500e+00,1.084244489669799805e+00,1.084184050559997559e+00,1.084123730659484863e+00,1.084063410758972168e+00,1.084003090858459473e+00,1.083942651748657227e+00,1.083882451057434082e+00,1.083822011947631836e+00,1.083761811256408691e+00,1.083701491355895996e+00,1.083641052246093750e+00,1.083580851554870605e+00,1.083520531654357910e+00,1.083460211753845215e+00,1.083400011062622070e+00,1.083339691162109375e+00,1.083279371261596680e+00,1.083219170570373535e+00,1.083158969879150391e+00,1.083098769187927246e+00,1.083038449287414551e+00,1.082978248596191406e+00,1.082918047904968262e+00,1.082857847213745117e+00,1.082797527313232422e+00,1.082737445831298828e+00,1.082677125930786133e+00,1.082616925239562988e+00,1.082556843757629395e+00,1.082496643066406250e+00,1.082436442375183105e+00,1.082376241683959961e+00,1.082316160202026367e+00
1.020990848541259766e+00,1.020937323570251465e+00,1.020883798599243164e+00,1.020830392837524414e+00,1.020776748657226562e+00,1.020723342895507812e+00,1.020669817924499512e+00,1.020616292953491211e+00,1.020562767982482910e+00,1.020509362220764160e+00,1.020455837249755859e+00,1.020402431488037109e+00,1.020348906517028809e+00,1.020295500755310059e+00,1.020241975784301758e+00,1.020188570022583008e+00,1.020135164260864258e+00,1.020081639289855957e+00,1.020028233528137207e+00,1.019974827766418457e+00,1.019921422004699707e+00,1.019868016242980957e+00,1.019814610481262207e+00,1.019761204719543457e+00,1.019707798957824707e+00,1.019654393196105957e+00,1.019601106643676758e+00,1.019547700881958008e+00,1.019494295120239258e+00,1.019440889358520508e+00,1.019387602806091309e+00,1.019334197044372559e+00,1.019280910491943359e+00,1.019227504730224609e+00,1.019174098968505859e+00,1.019120812416076660e+00,1.019067406654357910e+00,1.019014120101928711e+00,1.018960833549499512e+00,1.018907546997070312e+00,1.018854141235351562e+00,1.018800973892211914e+00,1.018747568130493164e+00,1.018694281578063965e+00,1.018640995025634766e+00,1.018587827682495117e+00,1.018534421920776367e+00,1.018481254577636719e+00,1.018427968025207520e+00,1.018374681472778320e+00,1.018321394920349121e+00,1.018268108367919922e+00,1.018214941024780273e+00,1.018161654472351074e+00,1.018108487129211426e+00,1.018055200576782227e+00,1.018002033233642578e+00,1.017948746681213379e+00,1.017895579338073730e+00,1.017842411994934082e+00,1.017789244651794434e+00,1.017735958099365234e+00,1.017682909965515137e+00,1.017629623413085938e+00,1.017576456069946289e+00,1.017523288726806641e+00,1.017470121383666992e+00,1.017416954040527344e+00,1.017363905906677246e+00,1.017310738563537598e+00,1.017257571220397949e+00,1.017204403877258301e+00,1.017151236534118652e+00,1.017098188400268555e+00,1.017045021057128906e+00,1.016991972923278809e+00,1.016938805580139160e+00,1.016885757446289062e+00,1.016832590103149414e+00,1.016779541969299316e+00
9.624698758125305176e-01,9.624223709106445312e-01,9.623747467994689941e-01,9.623271822929382324e-01,9.622796177864074707e-01,9.622321724891662598e-01,9.621845483779907227e-01,9.621370434761047363e-01,9.620894789695739746e-01,9.620420336723327637e-01,9.619944691658020020e-01,9.619469046592712402e-01,9.618993997573852539e-01,9.618518352508544922e-01,9.618044495582580566e-01,9.617568850517272949e-01,9.617093801498413086e-01,9.616618752479553223e-01,9.616144299507141113e-01,9.615669250488281250e-01,9.615194201469421387e-01,9.614719748497009277e-01,9.614245891571044922e-01,9.613770842552185059e-01,9.613295793533325195e-01,9.612821340560913086e-01,9.612347483634948730e-01,9.611873030662536621e-01,9.611397981643676758e-01,9.610923528671264648e-01,9.610449075698852539e-01,9.609975814819335938e-01,9.609501361846923828e-01,9.609026908874511719e-01,9.608552455902099609e-01,9.608079195022583008e-01,9.607604742050170898e-01,9.607130289077758789e-01,9.606656432151794434e-01,9.606183171272277832e-01,9.605709314346313477e-01,9.605234861373901367e-01,9.604761004447937012e-01,9.604288339614868164e-01,9.603814482688903809e-01,9.603340625762939453e-01,9.602866768836975098e-01,9.602392911911010742e-01,9.601920247077941895e-01,9.601446390151977539e-01,9.600973129272460938e-01,9.600499272346496582e-01,9.600027203559875488e-01,9.599553346633911133e-01,9.599080085754394531e-01,9.598606824874877930e-01,9.598134160041809082e-01,9.597660899162292480e-01,9.597187638282775879e-01,9.596714377403259277e-01,9.596242308616638184e-01,9.595769643783569336e-01,9.595296382904052734e-01,9.594823122024536133e-01,9.594350457191467285e-01,9.593878388404846191e-01,9.593405723571777344e-01,9.592932462692260742e-01,9.592459797859191895e-01,9.591988325119018555e-01,9.591515660285949707e-01,9.591042995452880859e-01,9.590570330619812012e-01,9.590098857879638672e-01,9.589626193046569824e-01,9.589154124259948730e-01,9.588681459426879883e-01,9.588209986686706543e-01,9.587737917900085449e-01,9.587265849113464355e-01
9.102937579154968262e-01,9.102512598037719727e-01,9.102087020874023438e-01,9.101661443710327148e-01,9.101235866546630859e-01,9.100810885429382324e-01,9.100385308265686035e-01,9.099960327148437500e-01,9.099534749984741211e-01,9.099109172821044922e-01,9.098684787750244141e-01,9.098259210586547852e-01,9.097834229469299316e-01,9.097409248352050781e-01,9.096984863281250000e-01,9.096559286117553711e-01,9.096134305000305176e-01,9.095709323883056641e-01,9.095285534858703613e-01,9.094860553741455078e-01,9.094435572624206543e-01,9.094010591506958008e-01,9.093586206436157227e-01,9.093161821365356445e-01,9.092736840248107910e-01,9.092311859130859375e-01,9.091887474060058594e-01,9.091463685035705566e-01,9.091038703918457031e-01,9.090614318847656250e-01,9.090189933776855469e-01,9.089766144752502441e-01,9.089341759681701660e-01,9.088917374610900879e-01,9.088492989540100098e-01,9.088069200515747070e-01,9.087644815444946289e-01,9.087221026420593262e-01,9.086796641349792480e-01,9.086373448371887207e-01,9.085949063301086426e-01,9.085525274276733398e-01,9.085100889205932617e-01,9.084677100181579590e-01,9.084253907203674316e-01,9.083830118179321289e-01,9.083405733108520508e-01,9.082981944084167480e-01,9.082559347152709961e-01,9.082135558128356934e-01,9.081711769104003906e-01,9.081287980079650879e-01,9.080865383148193359e-01,9.080441594123840332e-01,9.080017805099487305e-01,9.079594016075134277e-01,9.079172015190124512e-01,9.078748226165771484e-01,9.078325033187866211e-01,9.077901244163513184e-01,9.077478051185607910e-01,9.077055454254150391e-01,9.076632261276245117e-01,9.076209068298339844e-01,9.075785875320434570e-01,9.075363278388977051e-01,9.074940681457519531e-01,9.074517488479614258e-01,9.074094295501708984e-01,9.073672294616699219e-01,9.073249101638793945e-01,9.072826504707336426e-01,9.072403311729431152e-01,9.071981310844421387e-01,9.071558713912963867e-01,9.071135520935058594e-01,9.070712924003601074e-01,9.070291519165039062e-01,9.069868922233581543e-01,9.069446325302124023e-01
