5.000000000000000000e+00,5.000000000000000000e+00,5.000000000000000000e+00,5.000000000000000000e+00,5.000000000000000000e+00,5.000000000000000000e+00,5.000000000000000000e+00,5.000000000000000000e+00,5.000000000000000000e+00,5.000000000000000000e+00,5.000000000000000000e+00,5.000000000000000000e+00,5.000000000000000000e+00,5.000000000000000000e+00,5.000000000000000000e+00,5.000000000000000000e+00,5.000000000000000000e+00,5.000000000000000000e+00,5.000000000000000000e+00,5.000000000000000000e+00,5.000000000000000000e+00,5.000000000000000000e+00,5.000000000000000000e+00,5.000000000000000000e+00,5.000000000000000000e+00,5.000000000000000000e+00,5.000000000000000000e+00,5.000000000000000000e+00,5.000000000000000000e+00,5.000000000000000000e+00,5.000000000000000000e+00,5.000000000000000000e+00,5.000000000000000000e+00,5.000000000000000000e+00,5.000000000000000000e+00,5.000000000000000000e+00,5.000000000000000000e+00,5.000000000000000000e+00,5.000000000000000000e+00,1.544705986976623535e+00,1.498646378517150879e+00,1.617269873619079590e+00,1.615006566047668457e+00,1.483517289161682129e+00,1.611082911491394043e+00,1.651282429695129395e+00,1.674612879753112793e+00,1.647047519683837891e+00,1.622925519943237305e+00,1.624120950698852539e+00,1.623519301414489746e+00,1.679703474044799805e+00,3.170103788375854492e+00,3.087835788726806641e+00,3.009730100631713867e+00,2.935477972030639648e+00,2.864801406860351562e+00,2.797447919845581055e+00,2.733188867568969727e+00,2.671815872192382812e+00,2.613138437271118164e+00,2.556982994079589844e+00,2.503190040588378906e+00,2.451613903045654297e+00,2.402120113372802734e+00,2.354585409164428711e+00,2.308895349502563477e+00,2.264944791793823242e+00,2.222636222839355469e+00,2.181879281997680664e+00,2.142590284347534180e+00,2.104691028594970703e+00,2.068109273910522461e+00,2.032777547836303711e+00,1.998632788658142090e+00,1.965616106986999512e+00,1.933672428131103516e+00,1.902750492095947266e+00,1.872801899909973145e+00,1.843781471252441406e+00
5.000000000000000000e+00,5.000000000000000000e+00,5.000000000000000000e+00,5.000000000000000000e+00,5.000000000000000000e+00,5.000000000000000000e+00,5.000000000000000000e+00,5.000000000000000000e+00,5.000000000000000000e+00,5.000000000000000000e+00,5.000000000000000000e+00,5.000000000000000000e+00,5.000000000000000000e+00,5.000000000000000000e+00,5.000000000000000000e+00,5.000000000000000000e+00,5.000000000000000000e+00,5.000000000000000000e+00,5.000000000000000000e+00,5.000000000000000000e+00,5.000000000000000000e+00,5.000000000000000000e+00,5.000000000000000000e+00,5.000000000000000000e+00,5.000000000000000000e+00,5.000000000000000000e+00,5.000000000000000000e+00,5.000000000000000000e+00,5.000000000000000000e+00,5.000000000000000000e+00,5.000000000000000000e+00,5.000000000000000000e+00,5.000000000000000000e+00,5.000000000000000000e+00,5.000000000000000000e+00,5.000000000000000000e+00,5.000000000000000000e+00,5.000000000000000000e+00,5.000000000000000000e+00,4.850010871887207031e+00,1.498205184936523438e+00,1.473229169845581055e+00,1.441030979156494141e+00,1.614571213722229004e+00,1.613342523574829102e+00,1.653797149658203125e+00,1.675563335418701172e+00,1.644751548767089844e+00,1.617560863494873047e+00,1.615684866905212402e+00,1.616872668266296387e+00,1.658381104469299316e+00,3.170162916183471680e+00,3.087892055511474609e+00,3.009783506393432617e+00,2.935528755187988281e+00,2.864849805831909180e+00,2.797494173049926758e+00,2.733232975006103516e+00,2.671858072280883789e+00,2.613178730010986328e+00,2.557021379470825195e+00,2.503226757049560547e+00,2.451649188995361328e+00,2.402154207229614258e+00,2.354618072509765625e+00,2.308926820755004883e+00,2.264975070953369141e+00,2.222665548324584961e+00,2.181907415390014648e+00,2.142617464065551758e+00,2.104717254638671875e+00,2.068134546279907227e+00,2.032801866531372070e+00,1.998656272888183594e+00,1.965638875961303711e+00,1.933694481849670410e+00,1.902771830558776855e+00,1.872822523117065430e+00,1.843801498413085938e+00
5.000000000000000000e+00,5.000000000000000000e+00,5.000000000000000000e+00,5.000000000000000000e+00,5.000000000000000000e+00,5.000000000000000000e+00,5.000000000000000000e+00,5.000000000000000000e+00,5.000000000000000000e+00,5.000000000000000000e+00,5.000000000000000000e+00,5.000000000000000000e+00,5.000000000000000000e+00,5.000000000000000000e+00,5.000000000000000000e+00,5.000000000000000000e+00,5.000000000000000000e+00,5.000000000000000000e+00,5.000000000000000000e+00,5.000000000000000000e+00,5.000000000000000000e+00,5.000000000000000000e+00,5.000000000000000000e+00,5.000000000000000000e+00,5.000000000000000000e+00,5.000000000000000000e+00,5.000000000000000000e+00,5.000000000000000000e+00,5.000000000000000000e+00,5.000000000000000000e+00,5.000000000000000000e+00,5.000000000000000000e+00,5.000000000000000000e+00,5.000000000000000000e+00,5.000000000000000000e+00,5.000000000000000000e+00,5.000000000000000000e+00,5.000000000000000000e+00,5.000000000000000000e+00,4.850148677825927734e+00,1.483436107635498047e+00,1.450706243515014648e+00,1.618654966354370117e+00,1.616103053092956543e+00,1.617929100990295410e+00,1.657572507858276367e+00,1.678014516830444336e+00,1.642423987388610840e+00,1.615236878395080566e+00,1.606569528579711914e+00,1.608508348464965820e+00,1.637593388557434082e+00,3.170222043991088867e+00,3.087948083877563477e+00,3.009836673736572266e+00,2.935579299926757812e+00,2.864897966384887695e+00,2.797539949417114258e+00,2.733276844024658203e+00,2.671899795532226562e+00,2.613218784332275391e+00,2.557059764862060547e+00,2.503263711929321289e+00,2.451684474945068359e+00,2.402188062667846680e+00,2.354650735855102539e+00,2.308958053588867188e+00,2.265005350112915039e+00,2.222694396972656250e+00,2.181935548782348633e+00,2.142644405364990234e+00,2.104743242263793945e+00,2.068159580230712891e+00,2.032826185226440430e+00,1.998679876327514648e+00,1.965661644935607910e+00,1.933716535568237305e+00,1.902793169021606445e+00,1.872843265533447266e+00,1.843821525573730469e+00
5.000000000000000000e+00,5.000000000000000000e+00,5.000000000000000000e+00,5.000000000000000000e+00,5.000000000000000000e+00,5.000000000000000000e+00,5.000000000000000000e+00,5.000000000000000000e+00,5.000000000000000000e+00,5.000000000000000000e+00,5.000000000000000000e+00,5.000000000000000000e+00,5.000000000000000000e+00,5.000000000000000000e+00,5.000000000000000000e+00,5.000000000000000000e+00,5.000000000000000000e+00,5.000000000000000000e+00,5.000000000000000000e+00,5.000000000000000000e+00,5.000000000000000000e+00,5.000000000000000000e+00,5.000000000000000000e+00,5.000000000000000000e+00,5.000000000000000000e+00,5.000000000000000000e+00,5.000000000000000000e+00,5.000000000000000000e+00,5.000000000000000000e+00,5.000000000000000000e+00,5.000000000000000000e+00,5.000000000000000000e+00,5.000000000000000000e+00,5.000000000000000000e+00,5.000000000000000000e+00,5.000000000000000000e+00,5.000000000000000000e+00,5.000000000000000000e+00,5.000000000000000000e+00,4.850287437438964844e+00,1.676868200302124023e+00,1.631188511848449707e+00,1.621081352233886719e+00,1.617637753486633301e+00,1.622541904449462891e+00,1.659739375114440918e+00,1.681146740913391113e+00,1.640028238296508789e+00,1.612199783325195312e+00,1.598278999328613281e+00,1.600441217422485352e+00,1.603854537010192871e+00,3.170280933380126953e+00,3.088004112243652344e+00,3.009889841079711914e+00,2.935630083084106445e+00,2.864946126937866211e+00,2.797585964202880859e+00,2.733320713043212891e+00,2.671941757202148438e+00,2.613258600234985352e+00,2.557097911834716797e+00,2.503300428390502930e+00,2.451719760894775391e+00,2.402221918106079102e+00,2.354683160781860352e+00,2.308989524841308594e+00,2.265035390853881836e+00,2.222723484039306641e+00,2.181963443756103516e+00,2.142671346664428711e+00,2.104769229888916016e+00,2.068184614181518555e+00,2.032850503921508789e+00,1.998703241348266602e+00,1.965684294700622559e+00,1.933738470077514648e+00,1.902814388275146484e+00,1.872863769531250000e+00,1.843841433525085449e+00
5.000000000000000000e+00,5.000000000000000000e+00,5.000000000000000000e+00,5.000000000000000000e+00,5.000000000000000000e+00,5.000000000000000000e+00,5.000000000000000000e+00,5.000000000000000000e+00,5.000000000000000000e+00,5.000000000000000000e+00,5.000000000000000000e+00,5.000000000000000000e+00,5.000000000000000000e+00,5.000000000000000000e+00,5.000000000000000000e+00,5.000000000000000000e+00,5.000000000000000000e+00,5.000000000000000000e+00,5.000000000000000000e+00,5.000000000000000000e+00,5.000000000000000000e+00,5.000000000000000000e+00,5.000000000000000000e+00,5.000000000000000000e+00,5.000000000000000000e+00,5.000000000000000000e+00,5.000000000000000000e+00,5.000000000000000000e+00,5.000000000000000000e+00,5.000000000000000000e+00,5.000000000000000000e+00,5.000000000000000000e+00,5.000000000000000000e+00,5.000000000000000000e+00,5.000000000000000000e+00,5.000000000000000000e+00,5.000000000000000000e+00,5.000000000000000000e+00,5.000000000000000000e+00,4.850425243377685547e+00,1.689080476760864258e+00,1.637997746467590332e+00,1.623514890670776367e+00,1.620042324066162109e+00,1.626464962959289551e+00,1.661911606788635254e+00,1.689641356468200684e+00,1.635940670967102051e+00,1.607626438140869141e+00,1.586828112602233887e+00,1.592602014541625977e+00,1.594704627990722656e+00,3.170340061187744141e+00,3.088060140609741211e+00,3.009943008422851562e+00,2.935680627822875977e+00,2.864994287490844727e+00,2.797631978988647461e+00,2.733364582061767578e+00,2.671983718872070312e+00,2.613298892974853516e+00,2.557136297225952148e+00,2.503337144851684570e+00,2.451755046844482422e+00,2.402255773544311523e+00,2.354715824127197266e+00,2.309020757675170898e+00,2.265065431594848633e+00,2.222752571105957031e+00,2.181991338729858398e+00,2.142698287963867188e+00,2.104795217514038086e+00,2.068209886550903320e+00,2.032874822616577148e+00,1.998726844787597656e+00,1.965707063674926758e+00,1.933760523796081543e+00,1.902835726737976074e+00,1.872884511947631836e+00,1.843861460685729980e+00
5.000000000000000000e+00,5.000000000000000000e+00,5.000000000000000000e+00,5.000000000000000000e+00,5.000000000000000000e+00,5.000000000000000000e+00,5.000000000000000000e+00,5.000000000000000000e+00,5.000000000000000000e+00,5.000000000000000000e+00,5.000000000000000000e+00,5.000000000000000000e+00,5.000000000000000000e+00,5.000000000000000000e+00,5.000000000000000000e+00,5.000000000000000000e+00,5.000000000000000000e+00,5.000000000000000000e+00,5.000000000000000000e+00,5.000000000000000000e+00,5.000000000000000000e+00,5.000000000000000000e+00,5.000000000000000000e+00,5.000000000000000000e+00,5.000000000000000000e+00,5.000000000000000000e+00,5.000000000000000000e+00,5.000000000000000000e+00,5.000000000000000000e+00,5.000000000000000000e+00,5.000000000000000000e+00,5.000000000000000000e+00,5.000000000000000000e+00,5.000000000000000000e+00,5.000000000000000000e+00,5.000000000000000000e+00,5.000000000000000000e+00,5.000000000000000000e+00,5.000000000000000000e+00,4.850564002990722656e+00,1.701276540756225586e+00,1.645774245262145996e+00,1.623855233192443848e+00,1.620644330978393555e+00,1.629331707954406738e+00,1.664366602897644043e+00,3.773701667785644531e+00,1.631500005722045898e+00,1.603606104850769043e+00,1.583970665931701660e+00,1.581146240234375000e+00,1.586921691894531250e+00,3.170399427413940430e+00,3.088116407394409180e+00,3.009996414184570312e+00,2.935731410980224609e+00,2.865042686462402344e+00,2.797678232192993164e+00,2.733408451080322266e+00,2.672025680541992188e+00,2.613339185714721680e+00,2.557174921035766602e+00,2.503374099731445312e+00,2.451790571212768555e+00,2.402289867401123047e+00,2.354748487472534180e+00,2.309052228927612305e+00,2.265095710754394531e+00,2.222781658172607422e+00,2.182019472122192383e+00,2.142725229263305664e+00,2.104821443557739258e+00,2.068235158920288086e+00,2.032899141311645508e+00,1.998750329017639160e+00,1.965729832649230957e+00,1.933782577514648438e+00,1.902857065200805664e+00,1.872905135154724121e+00,1.843881607055664062e+00
5.000000000000000000e+00,5.000000000000000000e+00,5.000000000000000000e+00,5.000000000000000000e+00,5.000000000000000000e+00,5.000000000000000000e+00,5.000000000000000000e+00,5.000000000000000000e+00,5.000000000000000000e+00,5.000000000000000000e+00,5.000000000000000000e+00,5.000000000000000000e+00,5.000000000000000000e+00,5.000000000000000000e+00,5.000000000000000000e+00,5.000000000000000000e+00,5.000000000000000000e+00,5.000000000000000000e+00,5.000000000000000000e+00,5.000000000000000000e+00,5.000000000000000000e+00,5.000000000000000000e+00,5.000000000000000000e+00,5.000000000000000000e+00,5.000000000000000000e+00,5.000000000000000000e+00,5.000000000000000000e+00,5.000000000000000000e+00,5.000000000000000000e+00,5.000000000000000000e+00,5.000000000000000000e+00,5.000000000000000000e+00,5.000000000000000000e+00,5.000000000000000000e+00,5.000000000000000000e+00,5.000000000000000000e+00,5.000000000000000000e+00,5.000000000000000000e+00,5.000000000000000000e+00,4.850701808929443359e+00,1.714551448822021484e+00,1.653690814971923828e+00,1.624371886253356934e+00,1.620852112770080566e+00,1.632673859596252441e+00,1.664761304855346680e+00,3.773785352706909180e+00,1.637610673904418945e+00,1.600687861442565918e+00,1.581123471260070801e+00,1.569509863853454590e+00,1.575937271118164062e+00,3.170458316802978516e+00,3.088172435760498047e+00,3.010049581527709961e+00,2.935781955718994141e+00,2.865090847015380859e+00,2.797724008560180664e+00,2.733452320098876953e+00,2.672067642211914062e+00,2.613379240036010742e+00,2.557213306427001953e+00,2.503411054611206055e+00,2.451825857162475586e+00,2.402323722839355469e+00,2.354781150817871094e+00,2.309083461761474609e+00,2.265125989913940430e+00,2.222810506820678711e+00,2.182047367095947266e+00,2.142752170562744141e+00,2.104847431182861328e+00,2.068260192871093750e+00,2.032923460006713867e+00,1.998773694038391113e+00,1.965752482414245605e+00,1.933804392814636230e+00,1.902878284454345703e+00,1.872925639152526855e+00,1.843901395797729492e+00
5.000000000000000000e+00,5.000000000000000000e+00,5.000000000000000000e+00,5.000000000000000000e+00,5.000000000000000000e+00,5.000000000000000000e+00,5.000000000000000000e+00,5.000000000000000000e+00,5.000000000000000000e+00,5.000000000000000000e+00,5.000000000000000000e+00,5.000000000000000000e+00,5.000000000000000000e+00,5.000000000000000000e+00,5.000000000000000000e+00,5.000000000000000000e+00,5.000000000000000000e+00,5.000000000000000000e+00,5.000000000000000000e+00,5.000000000000000000e+00,5.000000000000000000e+00,5.000000000000000000e+00,5.000000000000000000e+00,5.000000000000000000e+00,5.000000000000000000e+00,5.000000000000000000e+00,5.000000000000000000e+00,5.000000000000000000e+00,5.000000000000000000e+00,5.000000000000000000e+00,5.000000000000000000e+00,5.000000000000000000e+00,5.000000000000000000e+00,5.000000000000000000e+00,5.000000000000000000e+00,5.000000000000000000e+00,5.000000000000000000e+00,5.000000000000000000e+00,5.000000000000000000e+00,4.850840568542480469e+00,4.660827636718750000e+00,1.661683917045593262e+00,1.627189278602600098e+00,1.621059775352478027e+00,1.636029958724975586e+00,3.897484779357910156e+00,3.773869037628173828e+00,1.659319519996643066e+00,1.597255825996398926e+00,1.577900648117065430e+00,1.561378479003906250e+00,1.569192171096801758e+00,3.170517444610595703e+00,3.088228225708007812e+00,3.010102748870849609e+00,2.935832738876342773e+00,2.865139007568359375e+00,2.797769784927368164e+00,2.733496189117431641e+00,2.672109365463256836e+00,2.613419294357299805e+00,2.557251691818237305e+00,2.503447771072387695e+00,2.451861143112182617e+00,2.402357578277587891e+00,2.354813575744628906e+00,2.309114694595336914e+00,2.265156030654907227e+00,2.222839593887329102e+00,2.182075262069702148e+00,2.142779111862182617e+00,2.104873418807983398e+00,2.068285226821899414e+00,2.032947540283203125e+00,1.998797297477722168e+00,1.965775251388549805e+00,1.933826446533203125e+00,1.902899622917175293e+00,1.872946381568908691e+00,1.843921422958374023e+00
5.000000000000000000e+00,5.000000000000000000e+00,5.000000000000000000e+00,5.000000000000000000e+00,5.000000000000000000e+00,5.000000000000000000e+00,5.000000000000000000e+00,5.000000000000000000e+00,5.000000000000000000e+00,5.000000000000000000e+00,5.000000000000000000e+00,5.000000000000000000e+00,5.000000000000000000e+00,5.000000000000000000e+00,5.000000000000000000e+00,5.000000000000000000e+00,5.000000000000000000e+00,5.000000000000000000e+00,5.000000000000000000e+00,5.000000000000000000e+00,5.000000000000000000e+00,5.000000000000000000e+00,5.000000000000000000e+00,5.000000000000000000e+00,5.000000000000000000e+00,5.000000000000000000e+00,5.000000000000000000e+00,5.000000000000000000e+00,5.000000000000000000e+00,5.000000000000000000e+00,5.000000000000000000e+00,5.000000000000000000e+00,5.000000000000000000e+00,5.000000000000000000e+00,5.000000000000000000e+00,5.000000000000000000e+00,5.000000000000000000e+00,5.000000000000000000e+00,5.000000000000000000e+00,4.850978851318359375e+00,4.660955429077148438e+00,1.669754505157470703e+00,1.630016446113586426e+00,1.621267437934875488e+00,1.638134717941284180e+00,3.897573947906494141e+00,3.773952722549438477e+00,3.657932281494140625e+00,1.596514940261840820e+00,1.578723192214965820e+00,1.562072396278381348e+00,1.568267941474914551e+00,3.170576333999633789e+00,3.088284254074096680e+00,3.010156154632568359e+00,2.935883283615112305e+00,2.865187168121337891e+00,2.797815799713134766e+00,2.733540058135986328e+00,2.672151327133178711e+00,2.613459348678588867e+00,2.557290077209472656e+00,2.503484487533569336e+00,2.451896429061889648e+00,2.402391433715820312e+00,2.354846239089965820e+00,2.309146165847778320e+00,2.265186071395874023e+00,2.222868680953979492e+00,2.182103395462036133e+00,2.142806291580200195e+00,2.104899406433105469e+00,2.068310499191284180e+00,2.032971858978271484e+00,1.998820662498474121e+00,1.965797781944274902e+00,1.933848261833190918e+00,1.902920722961425781e+00,1.872966885566711426e+00,1.843941330909729004e+00
5.000000000000000000e+00,5.000000000000000000e+00,5.000000000000000000e+00,5.000000000000000000e+00,5.000000000000000000e+00,5.000000000000000000e+00,5.000000000000000000e+00,5.000000000000000000e+00,5.000000000000000000e+00,5.000000000000000000e+00,5.000000000000000000e+00,5.000000000000000000e+00,5.000000000000000000e+00,5.000000000000000000e+00,5.000000000000000000e+00,5.000000000000000000e+00,5.000000000000000000e+00,5.000000000000000000e+00,5.000000000000000000e+00,5.000000000000000000e+00,5.000000000000000000e+00,5.000000000000000000e+00,5.000000000000000000e+00,5.000000000000000000e+00,5.000000000000000000e+00,5.000000000000000000e+00,5.000000000000000000e+00,5.000000000000000000e+00,5.000000000000000000e+00,5.000000000000000000e+00,5.000000000000000000e+00,5.000000000000000000e+00,5.000000000000000000e+00,5.000000000000000000e+00,5.000000000000000000e+00,5.000000000000000000e+00,5.000000000000000000e+00,5.000000000000000000e+00,5.000000000000000000e+00,4.851117134094238281e+00,4.661083221435546875e+00,1.680121541023254395e+00,1.632853388786315918e+00,1.622786760330200195e+00,1.638158202171325684e+00,3.897663593292236328e+00,3.774036645889282227e+00,3.658011198043823242e+00,1.601893186569213867e+00,1.583214640617370605e+00,1.570483803749084473e+00,1.576118230819702148e+00,3.170635700225830078e+00,3.088340520858764648e+00,3.010209560394287109e+00,2.935933828353881836e+00,2.865235567092895508e+00,2.797862052917480469e+00,2.733584165573120117e+00,2.672193527221679688e+00,2.613499641418457031e+00,2.557328701019287109e+00,2.503521442413330078e+00,2.451931953430175781e+00,2.402425527572631836e+00,2.354878902435302734e+00,2.309177637100219727e+00,2.265216350555419922e+00,2.222897768020629883e+00,2.182131290435791016e+00,2.142833232879638672e+00,2.104925632476806641e+00,2.068335533142089844e+00,2.032996177673339844e+00,1.998844146728515625e+00,1.965820550918579102e+00,1.933870434761047363e+00,1.902942061424255371e+00,1.872987508773803711e+00,1.843961358070373535e+00
5.000000000000000000e+00,5.000000000000000000e+00,5.000000000000000000e+00,5.000000000000000000e+00,5.000000000000000000e+00,5.000000000000000000e+00,5.000000000000000000e+00,5.000000000000000000e+00,5.000000000000000000e+00,5.000000000000000000e+00,5.000000000000000000e+00,5.000000000000000000e+00,5.000000000000000000e+00,5.000000000000000000e+00,5.000000000000000000e+00,5.000000000000000000e+00,5.000000000000000000e+00,5.000000000000000000e+00,5.000000000000000000e+00,5.000000000000000000e+00,5.000000000000000000e+00,5.000000000000000000e+00,5.000000000000000000e+00,5.000000000000000000e+00,5.000000000000000000e+00,5.000000000000000000e+00,5.000000000000000000e+00,5.000000000000000000e+00,5.000000000000000000e+00,5.000000000000000000e+00,5.000000000000000000e+00,5.000000000000000000e+00,5.000000000000000000e+00,5.000000000000000000e+00,5.000000000000000000e+00,5.000000000000000000e+00,5.000000000000000000e+00,5.000000000000000000e+00,5.000000000000000000e+00,4.851255893707275391e+00,1.743592858314514160e+00,1.690328955650329590e+00,1.640485405921936035e+00,1.627586007118225098e+00,1.646153926849365234e+00,3.897752761840820312e+00,3.774120330810546875e+00,3.658089876174926758e+00,1.609836578369140625e+00,1.588893890380859375e+00,1.581235289573669434e+00,1.586760997772216797e+00,3.170694828033447266e+00,3.088396549224853516e+00,3.010262489318847656e+00,2.935984373092651367e+00,2.865283727645874023e+00,2.797908067703247070e+00,2.733628034591674805e+00,2.672235488891601562e+00,2.613539695739746094e+00,2.557367086410522461e+00,2.503558397293090820e+00,2.451967239379882812e+00,2.402459383010864258e+00,2.354911565780639648e+00,2.309208869934082031e+00,2.265246629714965820e+00,2.222926855087280273e+00,2.182159423828125000e+00,2.142860174179077148e+00,2.104951620101928711e+00,2.068360805511474609e+00,2.033020496368408203e+00,1.998867750167846680e+00,1.965843439102172852e+00,1.933892488479614258e+00,1.902963519096374512e+00,1.873008251190185547e+00,1.843981504440307617e+00
5.000000000000000000e+00,5.000000000000000000e+00,5.000000000000000000e+00,5.000000000000000000e+00,5.000000000000000000e+00,5.000000000000000000e+00,5.000000000000000000e+00,5.000000000000000000e+00,5.000000000000000000e+00,5.000000000000000000e+00,5.000000000000000000e+00,5.000000000000000000e+00,5.000000000000000000e+00,5.000000000000000000e+00,5.000000000000000000e+00,5.000000000000000000e+00,5.000000000000000000e+00,5.000000000000000000e+00,5.000000000000000000e+00,5.000000000000000000e+00,5.000000000000000000e+00,5.000000000000000000e+00,5.000000000000000000e+00,5.000000000000000000e+00,5.000000000000000000e+00,5.000000000000000000e+00,5.000000000000000000e+00,5.000000000000000000e+00,5.000000000000000000e+00,5.000000000000000000e+00,5.000000000000000000e+00,5.000000000000000000e+00,5.000000000000000000e+00,5.000000000000000000e+00,5.000000000000000000e+00,5.000000000000000000e+00,5.000000000000000000e+00,5.000000000000000000e+00,5.000000000000000000e+00,1.799680709838867188e+00,1.730048060417175293e+00,1.686384439468383789e+00,1.651231050491333008e+00,1.633563160896301270e+00,1.658192634582519531e+00,3.897841930389404297e+00,3.774204015731811523e+00,1.659151434898376465e+00,1.617089152336120605e+00,1.597411632537841797e+00,1.593213558197021484e+00,1.621095657348632812e+00,3.170753717422485352e+00,3.088452339172363281e+00,3.010315656661987305e+00,2.936035156250000000e+00,2.865331888198852539e+00,2.797954082489013672e+00,2.733671903610229492e+00,2.672277450561523438e+00,2.613579988479614258e+00,2.557405471801757812e+00,2.503595113754272461e+00,2.452002525329589844e+00,2.402493476867675781e+00,2.354943990707397461e+00,2.309240102767944336e+00,2.265276670455932617e+00,2.222955703735351562e+00,2.182187318801879883e+00,2.142887115478515625e+00,2.104977607727050781e+00,2.068385839462280273e+00,2.033044815063476562e+00,1.998891115188598633e+00,1.965865969657897949e+00,1.933914303779602051e+00,1.902984619140625000e+00,1.873028755187988281e+00,1.844001293182373047e+00
5.000000000000000000e+00,5.000000000000000000e+00,5.000000000000000000e+00,5.000000000000000000e+00,5.000000000000000000e+00,5.000000000000000000e+00,5.000000000000000000e+00,5.000000000000000000e+00,5.000000000000000000e+00,5.000000000000000000e+00,5.000000000000000000e+00,5.000000000000000000e+00,5.000000000000000000e+00,5.000000000000000000e+00,5.000000000000000000e+00,5.000000000000000000e+00,5.000000000000000000e+00,5.000000000000000000e+00,5.000000000000000000e+00,5.000000000000000000e+00,5.000000000000000000e+00,5.000000000000000000e+00,5.000000000000000000e+00,5.000000000000000000e+00,5.000000000000000000e+00,5.000000000000000000e+00,5.000000000000000000e+00,5.000000000000000000e+00,5.000000000000000000e+00,5.000000000000000000e+00,5.000000000000000000e+00,5.000000000000000000e+00,5.000000000000000000e+00,5.000000000000000000e+00,5.000000000000000000e+00,5.000000000000000000e+00,5.000000000000000000e+00,5.000000000000000000e+00,5.000000000000000000e+00,1.772715449333190918e+00,1.734264850616455078e+00,1.698526859283447266e+00,1.670493245124816895e+00,1.665268898010253906e+00,4.029950141906738281e+00,3.897931575775146484e+00,3.774287939071655273e+00,1.645669221878051758e+00,1.620245337486267090e+00,1.609637141227722168e+00,1.605374813079833984e+00,3.257623910903930664e+00,3.170812845230102539e+00,3.088508605957031250e+00,3.010369062423706055e+00,2.936085939407348633e+00,2.865380287170410156e+00,2.798000097274780273e+00,2.733716011047363281e+00,2.672319412231445312e+00,2.613620281219482422e+00,2.557444095611572266e+00,2.503632068634033203e+00,2.452038049697875977e+00,2.402527332305908203e+00,2.354976654052734375e+00,2.309271574020385742e+00,2.265306949615478516e+00,2.222985029220581055e+00,2.182215452194213867e+00,2.142914295196533203e+00,2.105003833770751953e+00,2.068411111831665039e+00,2.033069133758544922e+00,1.998914718627929688e+00,1.965888738632202148e+00,1.933936357498168945e+00,1.903005957603454590e+00,1.873049378395080566e+00,1.844021439552307129e+00
5.000000000000000000e+00,5.000000000000000000e+00,5.000000000000000000e+00,5.000000000000000000e+00,5.000000000000000000e+00,5.000000000000000000e+00,5.000000000000000000e+00,5.000000000000000000e+00,5.000000000000000000e+00,5.000000000000000000e+00,5.000000000000000000e+00,5.000000000000000000e+00,5.000000000000000000e+00,5.000000000000000000e+00,5.000000000000000000e+00,5.000000000000000000e+00,5.000000000000000000e+00,5.000000000000000000e+00,5.000000000000000000e+00,5.000000000000000000e+00,5.000000000000000000e+00,5.000000000000000000e+00,5.000000000000000000e+00,5.000000000000000000e+00,5.000000000000000000e+00,5.000000000000000000e+00,5.000000000000000000e+00,5.000000000000000000e+00,5.000000000000000000e+00,5.000000000000000000e+00,5.000000000000000000e+00,5.000000000000000000e+00,5.000000000000000000e+00,5.000000000000000000e+00,5.000000000000000000e+00,5.000000000000000000e+00,5.000000000000000000e+00,5.000000000000000000e+00,1.884691953659057617e+00,1.792200088500976562e+00,1.753684759140014648e+00,1.735124945640563965e+00,1.717339634895324707e+00,4.171327590942382812e+00,4.030045509338378906e+00,3.898020744323730469e+00,3.774371623992919922e+00,1.646598696708679199e+00,1.619999766349792480e+00,1.614374399185180664e+00,1.612278461456298828e+00,3.257686138153076172e+00,3.170871973037719727e+00,3.088564634323120117e+00,3.010422468185424805e+00,2.936136484146118164e+00,2.865428686141967773e+00,2.798046112060546875e+00,2.733759880065917969e+00,2.672361373901367188e+00,2.613660335540771484e+00,2.557482481002807617e+00,2.503669023513793945e+00,2.452073335647583008e+00,2.402561426162719727e+00,2.355009317398071289e+00,2.309303045272827148e+00,2.265337228775024414e+00,2.223013877868652344e+00,2.182243347167968750e+00,2.142941236495971680e+00,2.105029821395874023e+00,2.068436145782470703e+00,2.033093452453613281e+00,1.998938202857971191e+00,1.965911626815795898e+00,1.933958411216735840e+00,1.903027415275573730e+00,1.873070120811462402e+00,1.844041466712951660e+00
5.000000000000000000e+00,5.000000000000000000e+00,5.000000000000000000e+00,5.000000000000000000e+00,5.000000000000000000e+00,5.000000000000000000e+00,5.000000000000000000e+00,5.000000000000000000e+00,5.000000000000000000e+00,5.000000000000000000e+00,5.000000000000000000e+00,5.000000000000000000e+00,5.000000000000000000e+00,5.000000000000000000e+00,5.000000000000000000e+00,5.000000000000000000e+00,5.000000000000000000e+00,5.000000000000000000e+00,5.000000000000000000e+00,5.000000000000000000e+00,5.000000000000000000e+00,5.000000000000000000e+00,5.000000000000000000e+00,5.000000000000000000e+00,5.000000000000000000e+00,5.000000000000000000e+00,5.000000000000000000e+00,5.000000000000000000e+00,5.000000000000000000e+00,5.000000000000000000e+00,5.000000000000000000e+00,5.000000000000000000e+00,5.000000000000000000e+00,5.000000000000000000e+00,5.000000000000000000e+00,5.000000000000000000e+00,5.000000000000000000e+00,5.000000000000000000e+00,1.853782773017883301e+00,1.812310338020324707e+00,1.783784151077270508e+00,1.770698428153991699e+00,4.322985172271728516e+00,4.171430110931396484e+00,4.030141353607177734e+00,3.898110151290893555e+00,3.774455308914184570e+00,1.645316720008850098e+00,1.619543790817260742e+00,1.615475058555603027e+00,1.613376259803771973e+00,3.257748365402221680e+00,3.170930862426757812e+00,3.088620662689208984e+00,3.010475635528564453e+00,2.936187267303466797e+00,2.865476846694946289e+00,2.798092126846313477e+00,2.733803749084472656e+00,2.672403335571289062e+00,2.613700389862060547e+00,2.557520866394042969e+00,2.503705739974975586e+00,2.452108621597290039e+00,2.402595281600952148e+00,2.355041980743408203e+00,2.309334278106689453e+00,2.265367269515991211e+00,2.223042964935302734e+00,2.182271242141723633e+00,2.142968177795410156e+00,2.105055809020996094e+00,2.068461418151855469e+00,2.033117771148681641e+00,1.998961567878723145e+00,1.965934157371520996e+00,1.933980226516723633e+00,1.903048515319824219e+00,1.873090624809265137e+00,1.844061374664306641e+00
5.000000000000000000e+00,5.000000000000000000e+00,5.000000000000000000e+00,5.000000000000000000e+00,5.000000000000000000e+00,5.000000000000000000e+00,5.000000000000000000e+00,5.000000000000000000e+00,5.000000000000000000e+00,5.000000000000000000e+00,5.000000000000000000e+00,5.000000000000000000e+00,5.000000000000000000e+00,5.000000000000000000e+00,5.000000000000000000e+00,5.000000000000000000e+00,5.000000000000000000e+00,5.000000000000000000e+00,5.000000000000000000e+00,5.000000000000000000e+00,5.000000000000000000e+00,5.000000000000000000e+00,5.000000000000000000e+00,5.000000000000000000e+00,5.000000000000000000e+00,5.000000000000000000e+00,5.000000000000000000e+00,5.000000000000000000e+00,5.000000000000000000e+00,5.000000000000000000e+00,5.000000000000000000e+00,5.000000000000000000e+00,5.000000000000000000e+00,5.000000000000000000e+00,5.000000000000000000e+00,5.000000000000000000e+00,5.000000000000000000e+00,5.000000000000000000e+00,1.875544190406799316e+00,1.833610773086547852e+00,1.811598777770996094e+00,1.854355692863464355e+00,4.323094844818115234e+00,4.171532154083251953e+00,4.030236721038818359e+00,3.898199319839477539e+00,3.774538993835449219e+00,1.644036769866943359e+00,1.619088411331176758e+00,1.616073012351989746e+00,1.614475607872009277e+00,3.257810592651367188e+00,3.170989990234375000e+00,3.088676691055297852e+00,3.010528802871704102e+00,2.936237812042236328e+00,2.865525007247924805e+00,2.798138141632080078e+00,2.733847618103027344e+00,2.672445297241210938e+00,2.613740444183349609e+00,2.557559251785278320e+00,2.503742456436157227e+00,2.452143907546997070e+00,2.402629137039184570e+00,2.355074405670166016e+00,2.309365510940551758e+00,2.265397310256958008e+00,2.223072052001953125e+00,2.182299375534057617e+00,2.142995119094848633e+00,2.105081796646118164e+00,2.068486452102661133e+00,2.033142089843750000e+00,1.998985171318054199e+00,1.965956926345825195e+00,1.934002399444580078e+00,1.903069853782653809e+00,1.873111367225646973e+00,1.844081401824951172e+00
5.000000000000000000e+00,5.000000000000000000e+00,5.000000000000000000e+00,5.000000000000000000e+00,5.000000000000000000e+00,5.000000000000000000e+00,5.000000000000000000e+00,5.000000000000000000e+00,5.000000000000000000e+00,5.000000000000000000e+00,5.000000000000000000e+00,5.000000000000000000e+00,5.000000000000000000e+00,5.000000000000000000e+00,5.000000000000000000e+00,5.000000000000000000e+00,5.000000000000000000e+00,5.000000000000000000e+00,5.000000000000000000e+00,5.000000000000000000e+00,5.000000000000000000e+00,5.000000000000000000e+00,5.000000000000000000e+00,5.000000000000000000e+00,5.000000000000000000e+00,5.000000000000000000e+00,5.000000000000000000e+00,5.000000000000000000e+00,5.000000000000000000e+00,5.000000000000000000e+00,5.000000000000000000e+00,5.000000000000000000e+00,5.000000000000000000e+00,5.000000000000000000e+00,5.000000000000000000e+00,5.000000000000000000e+00,5.000000000000000000e+00,1.973417520523071289e+00,1.900110006332397461e+00,1.859833478927612305e+00,1.858961224555969238e+00,4.486205101013183594e+00,4.323204994201660156e+00,4.171634674072265625e+00,4.030332088470458984e+00,3.898288965225219727e+00,3.774622917175292969e+00,1.642758727073669434e+00,1.618633031845092773e+00,1.616512417793273926e+00,1.615576505661010742e+00,3.257873296737670898e+00,3.171049356460571289e+00,3.088732957839965820e+00,3.010582208633422852e+00,2.936288595199584961e+00,2.865573406219482422e+00,2.798184394836425781e+00,2.733891725540161133e+00,2.672487497329711914e+00,2.613780736923217773e+00,2.557597875595092773e+00,2.503779411315917969e+00,2.452179431915283203e+00,2.402663230895996094e+00,2.355107069015502930e+00,2.309396982192993164e+00,2.265427589416503906e+00,2.223101139068603516e+00,2.182327270507812500e+00,2.143022298812866211e+00,2.105108022689819336e+00,2.068511724472045898e+00,2.033166408538818359e+00,1.999008774757385254e+00,1.965979814529418945e+00,1.934024453163146973e+00,1.903091311454772949e+00,1.873131990432739258e+00,1.844101428985595703e+00
5.000000000000000000e+00,5.000000000000000000e+00,5.000000000000000000e+00,5.000000000000000000e+00,5.000000000000000000e+00,5.000000000000000000e+00,5.000000000000000000e+00,5.000000000000000000e+00,5.000000000000000000e+00,5.000000000000000000e+00,5.000000000000000000e+00,5.000000000000000000e+00,5.000000000000000000e+00,5.000000000000000000e+00,5.000000000000000000e+00,5.000000000000000000e+00,5.000000000000000000e+00,5.000000000000000000e+00,5.000000000000000000e+00,5.000000000000000000e+00,5.000000000000000000e+00,5.000000000000000000e+00,5.000000000000000000e+00,5.000000000000000000e+00,5.000000000000000000e+00,5.000000000000000000e+00,5.000000000000000000e+00,5.000000000000000000e+00,5.000000000000000000e+00,5.000000000000000000e+00,5.000000000000000000e+00,5.000000000000000000e+00,5.000000000000000000e+00,5.000000000000000000e+00,5.000000000000000000e+00,5.000000000000000000e+00,5.000000000000000000e+00,1.974248528480529785e+00,1.926445007324218750e+00,1.900386452674865723e+00,4.662103176116943359e+00,4.486321449279785156e+00,4.323314666748046875e+00,4.171736717224121094e+00,4.030427455902099609e+00,3.898378133773803711e+00,3.774706602096557617e+00,1.642957925796508789e+00,1.618500232696533203e+00,1.616952061653137207e+00,1.616612195968627930e+00,3.257935523986816406e+00,3.171108245849609375e+00,3.088788986206054688e+00,3.010635375976562500e+00,2.936339378356933594e+00,2.865621566772460938e+00,2.798230171203613281e+00,2.733935594558715820e+00,2.672529458999633789e+00,2.613821029663085938e+00,2.557636260986328125e+00,2.503816366195678711e+00,2.452214717864990234e+00,2.402697086334228516e+00,2.355139732360839844e+00,2.309428453445434570e+00,2.265457868576049805e+00,2.223130226135253906e+00,2.182355403900146484e+00,2.143049240112304688e+00,2.105134010314941406e+00,2.068536758422851562e+00,2.033190727233886719e+00,1.999032139778137207e+00,1.966002345085144043e+00,1.934046268463134766e+00,1.903112411499023438e+00,1.873152494430541992e+00,1.844121336936950684e+00
5.000000000000000000e+00,5.000000000000000000e+00,5.000000000000000000e+00,5.000000000000000000e+00,5.000000000000000000e+00,5.000000000000000000e+00,5.000000000000000000e+00,5.000000000000000000e+00,5.000000000000000000e+00,5.000000000000000000e+00,5.000000000000000000e+00,5.000000000000000000e+00,5.000000000000000000e+00,5.000000000000000000e+00,5.000000000000000000e+00,5.000000000000000000e+00,5.000000000000000000e+00,5.000000000000000000e+00,5.000000000000000000e+00,5.000000000000000000e+00,5.000000000000000000e+00,5.000000000000000000e+00,5.000000000000000000e+00,5.000000000000000000e+00,5.000000000000000000e+00,5.000000000000000000e+00,5.000000000000000000e+00,5.000000000000000000e+00,5.000000000000000000e+00,5.000000000000000000e+00,5.000000000000000000e+00,5.000000000000000000e+00,5.000000000000000000e+00,5.000000000000000000e+00,5.000000000000000000e+00,5.000000000000000000e+00,5.000000000000000000e+00,2.012613773345947266e+00,1.955671548843383789e+00,1.963372588157653809e+00,4.662230491638183594e+00,4.486439704895019531e+00,4.323423385620117188e+00,4.171839237213134766e+00,4.030523300170898438e+00,3.898467302322387695e+00,3.774790048599243164e+00,1.644876241683959961e+00,1.620186924934387207e+00,1.618156552314758301e+00,1.630516409873962402e+00,3.257997989654541016e+00,3.171167373657226562e+00,3.088845014572143555e+00,3.010688781738281250e+00,2.936389923095703125e+00,2.865669965744018555e+00,2.798276185989379883e+00,2.733979463577270508e+00,2.672571420669555664e+00,2.613861083984375000e+00,2.557674884796142578e+00,2.503853082656860352e+00,2.452250003814697266e+00,2.402730941772460938e+00,2.355172395706176758e+00,2.309459686279296875e+00,2.265487909317016602e+00,2.223159313201904297e+00,2.182383298873901367e+00,2.143076181411743164e+00,2.105159997940063477e+00,2.068562030792236328e+00,2.033215045928955078e+00,1.999055624008178711e+00,1.966025233268737793e+00,1.934068322181701660e+00,1.903133749961853027e+00,1.873173236846923828e+00,1.844141364097595215e+00
5.000000000000000000e+00,5.000000000000000000e+00,5.000000000000000000e+00,5.000000000000000000e+00,5.000000000000000000e+00,5.000000000000000000e+00,5.000000000000000000e+00,5.000000000000000000e+00,5.000000000000000000e+00,5.000000000000000000e+00,5.000000000000000000e+00,5.000000000000000000e+00,5.000000000000000000e+00,5.000000000000000000e+00,5.000000000000000000e+00,5.000000000000000000e+00,5.000000000000000000e+00,5.000000000000000000e+00,5.000000000000000000e+00,5.000000000000000000e+00,5.000000000000000000e+00,5.000000000000000000e+00,5.000000000000000000e+00,5.000000000000000000e+00,5.000000000000000000e+00,5.000000000000000000e+00,5.000000000000000000e+00,5.000000000000000000e+00,5.000000000000000000e+00,5.000000000000000000e+00,5.000000000000000000e+00,5.000000000000000000e+00,5.000000000000000000e+00,5.000000000000000000e+00,5.000000000000000000e+00,5.000000000000000000e+00,5.000000000000000000e+00,2.022955417633056641e+00,2.009775638580322266e+00,4.852497100830078125e+00,4.662357807159423828e+00,4.486557483673095703e+00,4.323532581329345703e+00,4.171941280364990234e+00,4.030618667602539062e+00,3.898556470870971680e+00,3.774873733520507812e+00,1.646798968315124512e+00,1.621871232986450195e+00,1.619428038597106934e+00,3.349783182144165039e+00,3.258060216903686523e+00,3.171226501464843750e+00,3.088901042938232422e+00,3.010741949081420898e+00,2.936440467834472656e+00,2.865718126296997070e+00,2.798322200775146484e+00,2.734023332595825195e+00,2.672613143920898438e+00,2.613901138305664062e+00,2.557713270187377930e+00,2.503890037536621094e+00,2.452285289764404297e+00,2.402764797210693359e+00,2.355204820632934570e+00,2.309490919113159180e+00,2.265517950057983398e+00,2.223188161849975586e+00,2.182411193847656250e+00,2.143103122711181641e+00,2.105185985565185547e+00,2.068587064743041992e+00,2.033239126205444336e+00,1.999078989028930664e+00,1.966047763824462891e+00,1.934090137481689453e+00,1.903154969215393066e+00,1.873193740844726562e+00,1.844161272048950195e+00
4.875154495239257812e+00,4.873944282531738281e+00,4.872734546661376953e+00,4.871525287628173828e+00,4.870316982269287109e+00,4.869109153747558594e+00,4.867901802062988281e+00,4.866694927215576172e+00,4.865488529205322266e+00,4.864283084869384766e+00,4.863078594207763672e+00,4.861874103546142578e+00,4.860670566558837891e+00,4.859467029571533203e+00,4.858264923095703125e+00,4.857062816619873047e+00,4.855861663818359375e+00,4.854660987854003906e+00,4.853460788726806641e+00,4.852261543273925781e+00,4.851062297821044922e+00,4.849864006042480469e+00,4.848666667938232422e+00,4.847469329833984375e+00,4.846272468566894531e+00,4.845076560974121094e+00,4.843881130218505859e+00,4.842686653137207031e+00,4.841492176055908203e+00,4.840298652648925781e+00,4.839105606079101562e+00,4.837913036346435547e+00,4.836721420288085938e+00,4.835529804229736328e+00,4.834339141845703125e+00,4.833148956298828125e+00,4.831959724426269531e+00,2.027982711791992188e+00,2.022326946258544922e+00,4.828394412994384766e+00,4.662485122680664062e+00,4.486675262451171875e+00,4.323642253875732422e+00,4.172042369842529297e+00,4.030714035034179688e+00,3.898646116256713867e+00,3.774957895278930664e+00,1.648726344108581543e+00,1.623851776123046875e+00,1.620701670646667480e+00,3.349849224090576172e+00,3.258122920989990234e+00,3.171285629272460938e+00,3.088957309722900391e+00,3.010795354843139648e+00,2.936491489410400391e+00,2.865766525268554688e+00,2.798368453979492188e+00,2.734067440032958984e+00,2.672655344009399414e+00,2.613941431045532227e+00,2.557751893997192383e+00,2.503926992416381836e+00,2.452320814132690430e+00,2.402798891067504883e+00,2.355237722396850586e+00,2.309522390365600586e+00,2.265548229217529297e+00,2.223217487335205078e+00,2.182439327239990234e+00,2.143130302429199219e+00,2.105212211608886719e+00,2.068612337112426758e+00,2.033263683319091797e+00,1.999102592468261719e+00,1.966070532798767090e+00,1.934112310409545898e+00,1.903176307678222656e+00,1.873214483261108398e+00,1.844181299209594727e+00
3.777989387512207031e+00,3.777262449264526367e+00,3.776535987854003906e+00,3.775809764862060547e+00,3.775083780288696289e+00,3.774358034133911133e+00,3.773632049560546875e+00,3.772907018661499023e+00,3.772182226181030273e+00,3.771457433700561523e+00,3.770733118057250977e+00,3.770009279251098633e+00,3.769285440444946289e+00,3.768562078475952148e+00,3.767838716506958008e+00,3.767115831375122070e+00,3.766392707824707031e+00,3.765670537948608398e+00,3.764948368072509766e+00,3.764226436614990234e+00,3.763504981994628906e+00,3.762783765792846680e+00,3.762062788009643555e+00,3.761342048645019531e+00,3.760621547698974609e+00,3.759901523590087891e+00,3.759181022644042969e+00,3.758461475372314453e+00,3.757742166519165039e+00,3.757023096084594727e+00,3.756304264068603516e+00,3.755585908889770508e+00,3.754867553710937500e+00,3.754149675369262695e+00,3.753432035446166992e+00,3.752714157104492188e+00,3.751996994018554688e+00,2.031302928924560547e+00,2.032746553421020508e+00,3.749847173690795898e+00,3.749131202697753906e+00,3.748415470123291016e+00,3.747699975967407227e+00,3.746984720230102539e+00,3.746269702911376953e+00,3.745554685592651367e+00,3.744840145111083984e+00,1.650631308555603027e+00,1.625896215438842773e+00,1.621977210044860840e+00,3.349915266036987305e+00,3.258185148239135742e+00,3.171344757080078125e+00,3.089013338088989258e+00,3.010848522186279297e+00,2.936542034149169922e+00,2.865814685821533203e+00,2.798414468765258789e+00,2.734111309051513672e+00,2.672697305679321289e+00,2.613981485366821289e+00,2.557790279388427734e+00,2.503963708877563477e+00,2.452356100082397461e+00,2.402832746505737305e+00,2.355270147323608398e+00,2.309553861618041992e+00,2.265578269958496094e+00,2.223246335983276367e+00,2.182467460632324219e+00,2.143157243728637695e+00,2.105238199234008789e+00,2.068637371063232422e+00,2.033288002014160156e+00,1.999126195907592773e+00,1.966093420982360840e+00,1.934134364128112793e+00,1.903197765350341797e+00,1.873235106468200684e+00,1.844201445579528809e+00
3.083940982818603516e+00,3.083456754684448242e+00,3.082972526550292969e+00,3.082488536834716797e+00,3.082004785537719727e+00,3.081521034240722656e+00,3.081037521362304688e+00,3.080554008483886719e+00,3.080070495605468750e+00,3.079587459564208984e+00,3.079104423522949219e+00,3.078621625900268555e+00,3.078138828277587891e+00,3.077656507492065430e+00,3.077174186706542969e+00,3.076691865921020508e+00,3.076209783554077148e+00,3.075727939605712891e+00,3.075245857238769531e+00,3.074764251708984375e+00,3.074282884597778320e+00,3.073801517486572266e+00,3.073320388793945312e+00,3.072839498519897461e+00,3.072358608245849609e+00,3.071877956390380859e+00,3.071397304534912109e+00,3.070916891098022461e+00,3.070436477661132812e+00,3.069956302642822266e+00,3.069476366043090820e+00,3.068996429443359375e+00,3.068516969680786133e+00,3.068037509918212891e+00,3.067558050155639648e+00,3.067078828811645508e+00,3.066599845886230469e+00,2.027485609054565430e+00,2.037533998489379883e+00,3.065163373947143555e+00,3.064684867858886719e+00,3.064206600189208984e+00,3.063728570938110352e+00,3.063250541687011719e+00,3.062772750854492188e+00,3.062294960021972656e+00,3.061817407608032227e+00,1.664903283119201660e+00,1.644843459129333496e+00,1.629661798477172852e+00,3.059908390045166016e+00,3.059431552886962891e+00,3.058954954147338867e+00,3.058478355407714844e+00,3.010901927947998047e+00,2.936592578887939453e+00,2.865863084793090820e+00,2.798460245132446289e+00,2.734155416488647461e+00,2.672739267349243164e+00,2.614021778106689453e+00,2.557828664779663086e+00,2.504000663757324219e+00,2.452391386032104492e+00,2.402866601943969727e+00,2.355302810668945312e+00,2.309585094451904297e+00,2.265608549118041992e+00,2.223275423049926758e+00,2.182495355606079102e+00,2.143184185028076172e+00,2.105264186859130859e+00,2.068662643432617188e+00,2.033312082290649414e+00,1.999149560928344727e+00,1.966115951538085938e+00,1.934156179428100586e+00,1.903218865394592285e+00,1.873255610466003418e+00,1.844221234321594238e+00
2.605321884155273438e+00,2.604975938796997070e+00,2.604630470275878906e+00,2.604285001754760742e+00,2.603939533233642578e+00,2.603594303131103516e+00,2.603249073028564453e+00,2.602903842926025391e+00,2.602558851242065430e+00,2.602213859558105469e+00,2.601869106292724609e+00,2.601524114608764648e+00,2.601179361343383789e+00,2.600834846496582031e+00,2.600490331649780273e+00,2.600146055221557617e+00,2.599801778793334961e+00,2.599457502365112305e+00,2.599113464355468750e+00,2.598769426345825195e+00,2.598425388336181641e+00,2.598081350326538086e+00,2.597737550735473633e+00,2.597393989562988281e+00,2.597050428390502930e+00,2.596706867218017578e+00,2.596363544464111328e+00,2.596020221710205078e+00,2.595677137374877930e+00,2.595334053039550781e+00,2.594990730285644531e+00,2.594647884368896484e+00,2.594305038452148438e+00,2.593962192535400391e+00,2.593619585037231445e+00,2.593276977539062500e+00,2.592934608459472656e+00,2.592592000961303711e+00,2.043599605560302734e+00,2.591907501220703125e+00,2.591565370559692383e+00,2.591223239898681641e+00,2.590881347656250000e+00,2.590539455413818359e+00,2.590197801589965820e+00,2.589856147766113281e+00,2.589514493942260742e+00,1.658888101577758789e+00,1.636210799217224121e+00,2.588490247726440430e+00,2.588148832321166992e+00,2.587807893753051758e+00,2.587466716766357422e+00,2.587125778198242188e+00,2.586784839630126953e+00,2.586444139480590820e+00,2.586103439331054688e+00,2.585762977600097656e+00,2.585422515869140625e+00,2.585082054138183594e+00,2.584741592407226562e+00,2.557867050170898438e+00,2.504037380218505859e+00,2.452426671981811523e+00,2.402900695800781250e+00,2.355335235595703125e+00,2.309616327285766602e+00,2.265638589859008789e+00,2.223304510116577148e+00,2.182523250579833984e+00,2.143211126327514648e+00,2.105290174484252930e+00,2.068687677383422852e+00,2.033336400985717773e+00,1.999173164367675781e+00,1.966138720512390137e+00,1.934178233146667480e+00,1.903240203857421875e+00,1.873276352882385254e+00,1.844241380691528320e+00
2.255329132080078125e+00,2.255069017410278320e+00,2.254808902740478516e+00,2.254549026489257812e+00,2.254289150238037109e+00,2.254029273986816406e+00,2.253769397735595703e+00,2.253509759902954102e+00,2.253250122070312500e+00,2.252990484237670898e+00,2.252731084823608398e+00,2.252471446990966797e+00,2.252212047576904297e+00,2.251952648162841797e+00,2.251693248748779297e+00,2.251434087753295898e+00,2.251174926757812500e+00,2.250915765762329102e+00,2.250656604766845703e+00,2.250397682189941406e+00,2.250138759613037109e+00,2.249879837036132812e+00,2.249620914459228516e+00,2.249362230300903320e+00,2.249103784561157227e+00,2.248846054077148438e+00,2.248588562011718750e+00,2.248331069946289062e+00,2.248073577880859375e+00,2.247816324234008789e+00,2.247559070587158203e+00,2.247301816940307617e+00,2.247044563293457031e+00,2.246787309646606445e+00,2.246530294418334961e+00,2.246273279190063477e+00,2.246016263961791992e+00,2.245759248733520508e+00,2.245502471923828125e+00,2.245245695114135742e+00,2.244988918304443359e+00,2.244732141494750977e+00,2.244475603103637695e+00,2.244218826293945312e+00,2.243962526321411133e+00,2.243705987930297852e+00,2.243449687957763672e+00,1.651897192001342773e+00,1.615954756736755371e+00,1.615954518318176270e+00,2.242424726486206055e+00,2.242168664932250977e+00,2.241912603378295898e+00,2.241656541824340820e+00,2.241400480270385742e+00,2.241144657135009766e+00,2.240889072418212891e+00,2.240633249282836914e+00,2.240377664566040039e+00,2.240121841430664062e+00,2.239866495132446289e+00,2.239610910415649414e+00,2.239355325698852539e+00,2.239099979400634766e+00,2.238844633102416992e+00,2.238589286804199219e+00,2.238334178924560547e+00,2.238079071044921875e+00,2.223333597183227539e+00,2.182551383972167969e+00,2.143238306045532227e+00,2.105316400527954102e+00,2.068712949752807617e+00,2.033360719680786133e+00,1.999196648597717285e+00,1.966161608695983887e+00,1.934200286865234375e+00,1.903261661529541016e+00,1.873297095298767090e+00,1.844261407852172852e+00
1.988279461860656738e+00,1.988077282905578613e+00,1.987875223159790039e+00,1.987673163414001465e+00,1.987471103668212891e+00,1.987269163131713867e+00,1.987067222595214844e+00,1.986865282058715820e+00,1.986663460731506348e+00,1.986461639404296875e+00,1.986259818077087402e+00,1.986058354377746582e+00,1.985856652259826660e+00,1.985654950141906738e+00,1.985453367233276367e+00,1.985251784324645996e+00,1.985050320625305176e+00,1.984848856925964355e+00,1.984647393226623535e+00,1.984445929527282715e+00,1.984244465827941895e+00,1.984043240547180176e+00,1.983841896057128906e+00,1.983640670776367188e+00,1.983439445495605469e+00,1.983238339424133301e+00,1.983037114143371582e+00,1.982836127281188965e+00,1.982635021209716797e+00,1.982434034347534180e+00,1.982233047485351562e+00,1.982032179832458496e+00,1.981831312179565430e+00,1.981630444526672363e+00,1.981429576873779297e+00,1.981228828430175781e+00,1.981028079986572266e+00,1.980827450752258301e+00,1.980626821517944336e+00,1.980426192283630371e+00,1.980225682258605957e+00,1.980025172233581543e+00,1.979824662208557129e+00,1.979624271392822266e+00,1.979423880577087402e+00,1.979223489761352539e+00,1.979023337364196777e+00,1.659176945686340332e+00,1.591920852661132812e+00,1.571270942687988281e+00,1.978222489356994629e+00,1.978022456169128418e+00,1.977822303771972656e+00,1.977622270584106445e+00,1.977422237396240234e+00,1.977222323417663574e+00,1.977022409439086914e+00,1.976822614669799805e+00,1.976622700691223145e+00,1.976422905921936035e+00,1.976223230361938477e+00,1.976023435592651367e+00,1.975823760032653809e+00,1.975624203681945801e+00,1.975424528121948242e+00,1.975225090980529785e+00,1.975025534629821777e+00,1.974826097488403320e+00,1.974626660346984863e+00,1.974427223205566406e+00,1.974227905273437500e+00,1.974028587341308594e+00,1.973829269409179688e+00,1.973630070686340332e+00,1.973430871963500977e+00,1.966184139251708984e+00,1.934222221374511719e+00,1.903282761573791504e+00,1.873317599296569824e+00,1.844281315803527832e+00
1.777776241302490234e+00,1.777614593505859375e+00,1.777453064918518066e+00,1.777291536331176758e+00,1.777130007743835449e+00,1.776968479156494141e+00,1.776807069778442383e+00,1.776645541191101074e+00,1.776484131813049316e+00,1.776322841644287109e+00,1.776161432266235352e+00,1.776000142097473145e+00,1.775838851928710938e+00,1.775677561759948730e+00,1.775516390800476074e+00,1.775355100631713867e+00,1.775193929672241211e+00,1.775032877922058105e+00,1.774871706962585449e+00,1.774710655212402344e+00,1.774549603462219238e+00,1.774388551712036133e+00,1.774227499961853027e+00,1.774066567420959473e+00,1.773905634880065918e+00,1.773744702339172363e+00,1.773583769798278809e+00,1.773422956466674805e+00,1.773262143135070801e+00,1.773101329803466797e+00,1.772940635681152344e+00,1.772779822349548340e+00,1.772619128227233887e+00,1.772458672523498535e+00,1.772297978401184082e+00,1.772137403488159180e+00,1.771976709365844727e+00,1.771816253662109375e+00,1.771655678749084473e+00,1.771495223045349121e+00,1.771334648132324219e+00,1.771174192428588867e+00,1.771013855934143066e+00,1.770853400230407715e+00,1.770693063735961914e+00,1.770532727241516113e+00,1.770372390747070312e+00,1.770212173461914062e+00,1.571880817413330078e+00,1.532806277275085449e+00,1.536688566207885742e+00,1.577499985694885254e+00,1.769411206245422363e+00,1.769251108169555664e+00,1.769091010093688965e+00,1.768931031227111816e+00,1.768770933151245117e+00,1.768610954284667969e+00,1.768451094627380371e+00,1.768291115760803223e+00,1.768131256103515625e+00,1.767971396446228027e+00,1.767811536788940430e+00,1.767651677131652832e+00,1.767491936683654785e+00,1.767332196235656738e+00,1.767172455787658691e+00,1.767012834548950195e+00,1.766853332519531250e+00,1.766693711280822754e+00,1.766534090042114258e+00,1.766374468803405762e+00,1.766214966773986816e+00,1.766055464744567871e+00,1.765895962715148926e+00,1.765736460685729980e+00,1.765577077865600586e+00,1.765417695045471191e+00,1.765258312225341797e+00,1.765098929405212402e+00
1.607578516006469727e+00,1.607446312904357910e+00,1.607314229011535645e+00,1.607182025909423828e+00,1.607049942016601562e+00,1.606917977333068848e+00,1.606785893440246582e+00,1.606653809547424316e+00,1.606521844863891602e+00,1.606389880180358887e+00,1.606257915496826172e+00,1.606125950813293457e+00,1.605994105339050293e+00,1.605862140655517578e+00,1.605730295181274414e+00,1.605598449707031250e+00,1.605466604232788086e+00,1.605334877967834473e+00,1.605203032493591309e+00,1.605071306228637695e+00,1.604939699172973633e+00,1.604807972908020020e+00,1.604676246643066406e+00,1.604544639587402344e+00,1.604412913322448730e+00,1.604281306266784668e+00,1.604149699211120605e+00,1.604018092155456543e+00,1.603886485099792480e+00,1.603754997253417969e+00,1.603623509407043457e+00,1.603492021560668945e+00,1.603360533714294434e+00,1.603229045867919922e+00,1.603097558021545410e+00,1.602966189384460449e+00,1.602834820747375488e+00,1.602703452110290527e+00,1.602572083473205566e+00,1.602440714836120605e+00,1.602309465408325195e+00,1.602178096771240234e+00,1.602046847343444824e+00,1.601915597915649414e+00,1.601784348487854004e+00,1.601653218269348145e+00,1.601521968841552734e+00,1.601390838623046875e+00,1.601259708404541016e+00,1.549367070198059082e+00,1.492320895195007324e+00,1.521088719367980957e+00,1.600735425949096680e+00,1.600604414939880371e+00,1.600473403930664062e+00,1.600342512130737305e+00,1.600211620330810547e+00,1.600080609321594238e+00,1.599949598312377930e+00,1.599818706512451172e+00,1.599687814712524414e+00,1.599557042121887207e+00,1.599426150321960449e+00,1.599295377731323242e+00,1.599164605140686035e+00,1.599033832550048828e+00,1.598903059959411621e+00,1.598772287368774414e+00,1.598641633987426758e+00,1.598510980606079102e+00,1.598380208015441895e+00,1.598249673843383789e+00,1.598119020462036133e+00,1.597988367080688477e+00,1.597857832908630371e+00,1.597727298736572266e+00,1.597596764564514160e+00,1.597466230392456055e+00,1.597335696220397949e+00,1.597205281257629395e+00
1.467121601104736328e+00,1.467011570930480957e+00,1.466901540756225586e+00,1.466791391372680664e+00,1.466681480407714844e+00,1.466571450233459473e+00,1.466461420059204102e+00,1.466351628303527832e+00,1.466241598129272461e+00,1.466131687164306641e+00,1.466021776199340820e+00,1.465911865234375000e+00,1.465801954269409180e+00,1.465692162513732910e+00,1.465582251548767090e+00,1.465472459793090820e+00,1.465362548828125000e+00,1.465252757072448730e+00,1.465142965316772461e+00,1.465033173561096191e+00,1.464923501014709473e+00,1.464813709259033203e+00,1.464704036712646484e+00,1.464594244956970215e+00,1.464484572410583496e+00,1.464374899864196777e+00,1.464265227317810059e+00,1.464155554771423340e+00,1.464046001434326172e+00,1.463936328887939453e+00,1.463826775550842285e+00,1.463717222213745117e+00,1.463607668876647949e+00,1.463498115539550781e+00,1.463388562202453613e+00,1.463279008865356445e+00,1.463169574737548828e+00,1.463060140609741211e+00,1.462950587272644043e+00,1.462841153144836426e+00,1.462731719017028809e+00,1.462622404098510742e+00,1.462513089179992676e+00,1.462403655052185059e+00,1.462294340133666992e+00,1.462185025215148926e+00,1.462075710296630859e+00,1.461966395378112793e+00,1.461857080459594727e+00,1.461747765541076660e+00,1.461638569831848145e+00,1.461529254913330078e+00,1.461420059204101562e+00,1.461310863494873047e+00,1.461201667785644531e+00,1.461092472076416016e+00,1.460983276367187500e+00,1.460874199867248535e+00,1.460765004158020020e+00,1.460655927658081055e+00,1.460546731948852539e+00,1.460437655448913574e+00,1.460328578948974609e+00,1.460219621658325195e+00,1.460110545158386230e+00,1.460001587867736816e+00,1.459892511367797852e+00,1.459783554077148438e+00,1.459674596786499023e+00,1.459565639495849609e+00,1.459456682205200195e+00,1.459347724914550781e+00,1.459238886833190918e+00,1.459129929542541504e+00,1.459021091461181641e+00,1.458912253379821777e+00,1.458803415298461914e+00,1.458694696426391602e+00,1.458585858345031738e+00,1.458477139472961426e+00
1.349236607551574707e+00,1.349143505096435547e+00,1.349050402641296387e+00,1.348957300186157227e+00,1.348864316940307617e+00,1.348771214485168457e+00,1.348678231239318848e+00,1.348585247993469238e+00,1.348492145538330078e+00,1.348399162292480469e+00,1.348306298255920410e+00,1.348213315010070801e+00,1.348120331764221191e+00,1.348027348518371582e+00,1.347934484481811523e+00,1.347841501235961914e+00,1.347748637199401855e+00,1.347655773162841797e+00,1.347562909126281738e+00,1.347470045089721680e+00,1.347377181053161621e+00,1.347284436225891113e+00,1.347191572189331055e+00,1.347098708152770996e+00,1.347005963325500488e+00,1.346913218498229980e+00,1.346820354461669922e+00,1.346727609634399414e+00,1.346634864807128906e+00,1.346542239189147949e+00,1.346449613571166992e+00,1.346356868743896484e+00,1.346264123916625977e+00,1.346171498298645020e+00,1.346078753471374512e+00,1.345986127853393555e+00,1.345893502235412598e+00,1.345800876617431641e+00,1.345708250999450684e+00,1.345615625381469727e+00,1.345522999763488770e+00,1.345430493354797363e+00,1.345337867736816406e+00,1.345245361328125000e+00,1.345152854919433594e+00,1.345060229301452637e+00,1.344967722892761230e+00,1.344875216484069824e+00,1.344782710075378418e+00,1.344690322875976562e+00,1.344597816467285156e+00,1.344505310058593750e+00,1.344412922859191895e+00,1.344320535659790039e+00,1.344228029251098633e+00,1.344135642051696777e+00,1.344043254852294922e+00,1.343950867652893066e+00,1.343858480453491211e+00,1.343766212463378906e+00,1.343673825263977051e+00,1.343581557273864746e+00,1.343489170074462891e+00,1.343396902084350586e+00,1.343304753303527832e+00,1.343212485313415527e+00,1.343120217323303223e+00,1.343027949333190918e+00,1.342935681343078613e+00,1.342843413352966309e+00,1.342751264572143555e+00,1.342658996582031250e+00,1.342566847801208496e+00,1.342474699020385742e+00,1.342382550239562988e+00,1.342290401458740234e+00,1.342198252677917480e+00,1.342106103897094727e+00,1.342013955116271973e+00,1.341921925544738770e+00
1.248886942863464355e+00,1.248807191848754883e+00,1.248727440834045410e+00,1.248647689819335938e+00,1.248567938804626465e+00,1.248488187789916992e+00,1.248408555984497070e+00,1.248328804969787598e+00,1.248249173164367676e+00,1.248169422149658203e+00,1.248089790344238281e+00,1.248010158538818359e+00,1.247930526733398438e+00,1.247850894927978516e+00,1.247771263122558594e+00,1.247691631317138672e+00,1.247612118721008301e+00,1.247532486915588379e+00,1.247452855110168457e+00,1.247373342514038086e+00,1.247293710708618164e+00,1.247214198112487793e+00,1.247134685516357422e+00,1.247055053710937500e+00,1.246975541114807129e+00,1.246896028518676758e+00,1.246816515922546387e+00,1.246737122535705566e+00,1.246657609939575195e+00,1.246578097343444824e+00,1.246498584747314453e+00,1.246419191360473633e+00,1.246339678764343262e+00,1.246260285377502441e+00,1.246180891990661621e+00,1.246101498603820801e+00,1.246022105216979980e+00,1.245942711830139160e+00,1.245863318443298340e+00,1.245783925056457520e+00,1.245704531669616699e+00,1.245625138282775879e+00,1.245545864105224609e+00,1.245466470718383789e+00,1.245387196540832520e+00,1.245307922363281250e+00,1.245228528976440430e+00,1.245149254798889160e+00,1.245069980621337891e+00,1.244990706443786621e+00,1.244911432266235352e+00,1.244832277297973633e+00,1.244753003120422363e+00,1.244673848152160645e+00,1.244594573974609375e+00,1.244515419006347656e+00,1.244436144828796387e+00,1.244356989860534668e+00,1.244277834892272949e+00,1.244198679924011230e+00,1.244119405746459961e+00,1.244040250778198242e+00,1.243961215019226074e+00,1.243882060050964355e+00,1.243802905082702637e+00,1.243723750114440918e+00,1.243644714355468750e+00,1.243565559387207031e+00,1.243486523628234863e+00,1.243407487869262695e+00,1.243328452110290527e+00,1.243249297142028809e+00,1.243170261383056641e+00,1.243091225624084473e+00,1.243012309074401855e+00,1.242933273315429688e+00,1.242854237556457520e+00,1.242775201797485352e+00,1.242696285247802734e+00,1.242617368698120117e+00
1.162431001663208008e+00,1.162361860275268555e+00,1.162292838096618652e+00,1.162223815917968750e+00,1.162154674530029297e+00,1.162085652351379395e+00,1.162016630172729492e+00,1.161947488784790039e+00,1.161878466606140137e+00,1.161809444427490234e+00,1.161740422248840332e+00,1.161671400070190430e+00,1.161602377891540527e+00,1.161533355712890625e+00,1.161464452743530273e+00,1.161395430564880371e+00,1.161326408386230469e+00,1.161257505416870117e+00,1.161188483238220215e+00,1.161119580268859863e+00,1.161050677299499512e+00,1.160981655120849609e+00,1.160912752151489258e+00,1.160843849182128906e+00,1.160774946212768555e+00,1.160706043243408203e+00,1.160637140274047852e+00,1.160568237304687500e+00,1.160499334335327148e+00,1.160430431365966797e+00,1.160361647605895996e+00,1.160292744636535645e+00,1.160223960876464844e+00,1.160155057907104492e+00,1.160086274147033691e+00,1.160017371177673340e+00,1.159948587417602539e+00,1.159879922866821289e+00,1.159811139106750488e+00,1.159742355346679688e+00,1.159673571586608887e+00,1.159604787826538086e+00,1.159536004066467285e+00,1.159467220306396484e+00,1.159398436546325684e+00,1.159329771995544434e+00,1.159260988235473633e+00,1.159192323684692383e+00,1.159123539924621582e+00,1.159054875373840332e+00,1.158986091613769531e+00,1.158917427062988281e+00,1.158848762512207031e+00,1.158780097961425781e+00,1.158711433410644531e+00,1.158642768859863281e+00,1.158574104309082031e+00,1.158505439758300781e+00,1.158436894416809082e+00,1.158368229866027832e+00,1.158299565315246582e+00,1.158231019973754883e+00,1.158162355422973633e+00,1.158093810081481934e+00,1.158025264739990234e+00,1.157956719398498535e+00,1.157888054847717285e+00,1.157819509506225586e+00,1.157750964164733887e+00,1.157682418823242188e+00,1.157613873481750488e+00,1.157545328140258789e+00,1.157476902008056641e+00,1.157408475875854492e+00,1.157339930534362793e+00,1.157271385192871094e+00,1.157202959060668945e+00,1.157134413719177246e+00,1.157065987586975098e+00,1.156997561454772949e+00
1.087170124053955078e+00,1.087109684944152832e+00,1.087049245834350586e+00,1.086988806724548340e+00,1.086928367614746094e+00,1.086868047714233398e+00,1.086807608604431152e+00,1.086747169494628906e+00,1.086686730384826660e+00,1.086626410484313965e+00,1.086565971374511719e+00,1.086505651473999023e+00,1.086445331573486328e+00,1.086384892463684082e+00,1.086324572563171387e+00,1.086264252662658691e+00,1.086203932762145996e+00,1.086143493652343750e+00,1.086083173751831055e+00,1.086022853851318359e+00,1.085962533950805664e+00,1.085902214050292969e+00,1.085842013359069824e+00,1.085781693458557129e+00,1.085721492767333984e+00,1.085661172866821289e+00,1.085600852966308594e+00,1.085540652275085449e+00,1.085480332374572754e+00,1.085420131683349609e+00,1.085359930992126465e+00,1.085299611091613770e+00,1.085239410400390625e+00,1.085179209709167480e+00,1.085119009017944336e+00,1.085058808326721191e+00,1.084998488426208496e+00,1.084938406944274902e+00,1.084878206253051758e+00,1.084818005561828613e+00,1.084757804870605469e+00,1.084697604179382324e+00,1.084637403488159180e+00,1.084577322006225586e+00,1.084517121315002441e+00,1.084456920623779297e+00,1.084396839141845703e+00,1.084336638450622559e+00,1.084276556968688965e+00,1.084216475486755371e+00,1.084156394004821777e+00,1.084096193313598633e+00,1.084036111831665039e+00,1.083976030349731445e+00,1.083915948867797852e+00,1.083855867385864258e+00,1.083795785903930664e+00,1.083735704421997070e+00,1.083675622940063477e+00,1.083615660667419434e+00,1.083555698394775391e+00,1.083495616912841797e+00,1.083435535430908203e+00,1.083375573158264160e+00,1.083315491676330566e+00,1.083255529403686523e+00,1.083195447921752930e+00,1.083135485649108887e+00,1.083075523376464844e+00,1.083015561103820801e+00,1.082955479621887207e+00,1.082895517349243164e+00,1.082835555076599121e+00,1.082775592803955078e+00,1.082715630531311035e+00,1.082655668258666992e+00,1.082595825195312500e+00,1.082535862922668457e+00,1.082475900650024414e+00,1.082416057586669922e+00
1.021062135696411133e+00,1.021008729934692383e+00,1.020955443382263184e+00,1.020902156829833984e+00,1.020848870277404785e+00,1.020795583724975586e+00,1.020742297172546387e+00,1.020689010620117188e+00,1.020635724067687988e+00,1.020582437515258789e+00,1.020529150962829590e+00,1.020475983619689941e+00,1.020422697067260742e+00,1.020369529724121094e+00,1.020316243171691895e+00,1.020262956619262695e+00,1.020209789276123047e+00,1.020156502723693848e+00,1.020103335380554199e+00,1.020050168037414551e+00,1.019996881484985352e+00,1.019943714141845703e+00,1.019890546798706055e+00,1.019837260246276855e+00,1.019784092903137207e+00,1.019730925559997559e+00,1.019677758216857910e+00,1.019624590873718262e+00,1.019571423530578613e+00,1.019518256187438965e+00,1.019465088844299316e+00,1.019411921501159668e+00,1.019358873367309570e+00,1.019305706024169922e+00,1.019252538681030273e+00,1.019199490547180176e+00,1.019146323204040527e+00,1.019093155860900879e+00,1.019040107727050781e+00,1.018986940383911133e+00,1.018933892250061035e+00,1.018880844116210938e+00,1.018827676773071289e+00,1.018774628639221191e+00,1.018721580505371094e+00,1.018668532371520996e+00,1.018615484237670898e+00,1.018562436103820801e+00,1.018509387969970703e+00,1.018456339836120605e+00,1.018403291702270508e+00,1.018350243568420410e+00,1.018297195434570312e+00,1.018244147300720215e+00,1.018191218376159668e+00,1.018138170242309570e+00,1.018085122108459473e+00,1.018032073974609375e+00,1.017979145050048828e+00,1.017926096916198730e+00,1.017873167991638184e+00,1.017820119857788086e+00,1.017767190933227539e+00,1.017714262008666992e+00,1.017661213874816895e+00,1.017608284950256348e+00,1.017555356025695801e+00,1.017502427101135254e+00,1.017449498176574707e+00,1.017396450042724609e+00,1.017343521118164062e+00,1.017290592193603516e+00,1.017237782478332520e+00,1.017184853553771973e+00,1.017131924629211426e+00,1.017078995704650879e+00,1.017026066780090332e+00,1.016973257064819336e+00,1.016920328140258789e+00,1.016867399215698242e+00
9.625330567359924316e-01,9.624856710433959961e-01,9.624382853507995605e-01,9.623908996582031250e-01,9.623435139656066895e-01,9.622961878776550293e-01,9.622488021850585938e-01,9.622014760971069336e-01,9.621540904045104980e-01,9.621067643165588379e-01,9.620594382286071777e-01,9.620121121406555176e-01,9.619647860527038574e-01,9.619174599647521973e-01,9.618701338768005371e-01,9.618228673934936523e-01,9.617755413055419922e-01,9.617282152175903320e-01,9.616809487342834473e-01,9.616336226463317871e-01,9.615863561630249023e-01,9.615390896797180176e-01,9.614917635917663574e-01,9.614444971084594727e-01,9.613972306251525879e-01,9.613499641418457031e-01,9.613026976585388184e-01,9.612554311752319336e-01,9.612082242965698242e-01,9.611609578132629395e-01,9.611136913299560547e-01,9.610664844512939453e-01,9.610192179679870605e-01,9.609720110893249512e-01,9.609248042106628418e-01,9.608775973320007324e-01,9.608303308486938477e-01,9.607831239700317383e-01,9.607359170913696289e-01,9.606887102127075195e-01,9.606415629386901855e-01,9.605943560600280762e-01,9.605471491813659668e-01,9.605000019073486328e-01,9.604527950286865234e-01,9.604056477546691895e-01,9.603584408760070801e-01,9.603112936019897461e-01,9.602641463279724121e-01,9.602169990539550781e-01,9.601698517799377441e-01,9.601227045059204102e-01,9.600755572319030762e-01,9.600284099578857422e-01,9.599812626838684082e-01,9.599341154098510742e-01,9.598870277404785156e-01,9.598398804664611816e-01,9.597927927970886230e-01,9.597457051277160645e-01,9.596985578536987305e-01,9.596514701843261719e-01,9.596043825149536133e-01,9.595572948455810547e-01,9.595102071762084961e-01,9.594631195068359375e-01,9.594160318374633789e-01,9.593689441680908203e-01,9.593220353126525879e-01,9.592749476432800293e-01,9.592279195785522461e-01,9.591808319091796875e-01,9.591338038444519043e-01,9.590867161750793457e-01,9.590396881103515625e-01,9.589926600456237793e-01,9.589456319808959961e-01,9.588986039161682129e-01,9.588515758514404297e-01,9.588045477867126465e-01
9.103500247001647949e-01,9.103076457977294922e-01,9.102652668952941895e-01,9.102228879928588867e-01,9.101805686950683594e-01,9.101381897926330566e-01,9.100958108901977539e-01,9.100534915924072266e-01,9.100111126899719238e-01,9.099687337875366211e-01,9.099264144897460938e-01,9.098840951919555664e-01,9.098417162895202637e-01,9.097993969917297363e-01,9.097570776939392090e-01,9.097147583961486816e-01,9.096724390983581543e-01,9.096301198005676270e-01,9.095878005027770996e-01,9.095454812049865723e-01,9.095031619071960449e-01,9.094609022140502930e-01,9.094185829162597656e-01,9.093762636184692383e-01,9.093340039253234863e-01,9.092917442321777344e-01,9.092494249343872070e-01,9.092071652412414551e-01,9.091649055480957031e-01,9.091225862503051758e-01,9.090803265571594238e-01,9.090380668640136719e-01,9.089958071708679199e-01,9.089535474777221680e-01,9.089113473892211914e-01,9.088690876960754395e-01,9.088268280029296875e-01,9.087845683097839355e-01,9.087423682212829590e-01,9.087001085281372070e-01,9.086579084396362305e-01,9.086157083511352539e-01,9.085734486579895020e-01,9.085312485694885254e-01,9.084890484809875488e-01,9.084468483924865723e-01,9.084046483039855957e-01,9.083624482154846191e-01,9.083202481269836426e-01,9.082780480384826660e-01,9.082358479499816895e-01,9.081936478614807129e-01,9.081515073776245117e-01,9.081093072891235352e-01,9.080671668052673340e-01,9.080250859260559082e-01,9.079829454421997070e-01,9.079407453536987305e-01,9.078986048698425293e-01,9.078564643859863281e-01,9.078143239021301270e-01,9.077721238136291504e-01,9.077299833297729492e-01,9.076879024505615234e-01,9.076457619667053223e-01,9.076036214828491211e-01,9.075614809989929199e-01,9.075193405151367188e-01,9.074772596359252930e-01,9.074351191520690918e-01,9.073930382728576660e-01,9.073508977890014648e-01,9.073088169097900391e-01,9.072667360305786133e-01,9.072246551513671875e-01,9.071825742721557617e-01,9.071404337882995605e-01,9.070983529090881348e-01,9.070562720298767090e-01,9.070142507553100586e-01
8.635342121124267578e-01,8.634960651397705078e-01,8.634579777717590332e-01,8.634198307991027832e-01,8.633816838264465332e-01,8.633435964584350586e-01,8.633054494857788086e-01,8.632673621177673340e-01,8.632292151451110840e-01,8.631911277770996094e-01,8.631530404090881348e-01,8.631149530410766602e-01,8.630768060684204102e-01,8.630387187004089355e-01,8.630006313323974609e-01,8.629625439643859863e-01,8.629244565963745117e-01,8.628864288330078125e-01,8.628483414649963379e-01,8.628102540969848633e-01,8.627721667289733887e-01,8.627341389656066895e-01,8.626960515975952148e-01,8.626580238342285156e-01,8.626199364662170410e-01,8.625819087028503418e-01,8.625438213348388672e-01,8.625057935714721680e-01,8.624677658081054688e-01,8.624296784400939941e-01,8.623916506767272949e-01,8.623536229133605957e-01,8.623155951499938965e-01,8.622775673866271973e-01,8.622395396232604980e-01,8.622015118598937988e-01,8.621635437011718750e-01,8.621255159378051758e-01,8.620874881744384766e-01,8.620495200157165527e-01,8.620114922523498535e-01,8.619734644889831543e-01,8.619356155395507812e-01,8.618975877761840820e-01,8.618596196174621582e-01,8.618215918540954590e-01,8.617836236953735352e-01,8.617456555366516113e-01,8.617076873779296875e-01,8.616697192192077637e-01,8.616317510604858398e-01,8.615937829017639160e-01,8.615558147430419922e-01,8.615178465843200684e-01,8.614798784255981445e-01,8.614419698715209961e-01,8.614040017127990723e-01,8.613660335540771484e-01,8.613281250000000000e-01,8.612901568412780762e-01,8.612522482872009277e-01,8.612142801284790039e-01,8.611763715744018555e-01,8.611384630203247070e-01,8.611004948616027832e-01,8.610625863075256348e-01,8.610246777534484863e-01,8.609867691993713379e-01,8.609488606452941895e-01,8.609109520912170410e-01,8.608730435371398926e-01,8.608351349830627441e-01,8.607972860336303711e-01,8.607593774795532227e-01,8.607214689254760742e-01,8.606836199760437012e-01,8.606457114219665527e-01,8.606078624725341797e-01,8.605699539184570312e-01,8.605321049690246582e-01
8.212980031967163086e-01,8.212634921073913574e-01,8.212289810180664062e-01,8.211945295333862305e-01,8.211600184440612793e-01,8.211255669593811035e-01,8.210910558700561523e-01,8.210566043853759766e-01,8.210220932960510254e-01,8.209876418113708496e-01,8.209531903266906738e-01,8.209187388420104980e-01,8.208842277526855469e-01,8.208497762680053711e-01,8.208153247833251953e-01,8.207808732986450195e-01,8.207464218139648438e-01,8.207119703292846680e-01,8.206775188446044922e-01,8.206431269645690918e-01,8.206086754798889160e-01,8.205742239952087402e-01,8.205397725105285645e-01,8.205053806304931641e-01,8.204709291458129883e-01,8.204365372657775879e-01,8.204020857810974121e-01,8.203676939010620117e-01,8.203332424163818359e-01,8.202989101409912109e-01,8.202645182609558105e-01,8.202301263809204102e-01,8.201956748962402344e-01,8.201612830162048340e-01,8.201268911361694336e-01,8.200924992561340332e-01,8.200581073760986328e-01,8.200237154960632324e-01,8.199893236160278320e-01,8.199549317359924316e-01,8.199205398559570312e-01,8.198862075805664062e-01,8.198518157005310059e-01,8.198174238204956055e-01,8.197830915451049805e-01,8.197486996650695801e-01,8.197143673896789551e-01,8.196799755096435547e-01,8.196456432342529297e-01,8.196112513542175293e-01,8.195769190788269043e-01,8.195425868034362793e-01,8.195081949234008789e-01,8.194738626480102539e-01,8.194395303726196289e-01,8.194051980972290039e-01,8.193708658218383789e-01,8.193365335464477539e-01,8.193022012710571289e-01,8.192678689956665039e-01,8.192335367202758789e-01,8.191992044448852539e-01,8.191648721694946289e-01,8.191305994987487793e-01,8.190962672233581543e-01,8.190619349479675293e-01,8.190276622772216797e-01,8.189933300018310547e-01,8.189590573310852051e-01,8.189247250556945801e-01,8.188904523849487305e-01,8.188561797142028809e-01,8.188218474388122559e-01,8.187875747680664062e-01,8.187533020973205566e-01,8.187190294265747070e-01,8.186847567558288574e-01,8.186504840850830078e-01,8.186162114143371582e-01,8.185819387435913086e-01
7.830007672309875488e-01,7.829694151878356934e-01,7.829380631446838379e-01,7.829067111015319824e-01,7.828753590583801270e-01,7.828440070152282715e-01,7.828126549720764160e-01,7.827813625335693359e-01,7.827500104904174805e-01,7.827186584472656250e-01,7.826873660087585449e-01,7.826560139656066895e-01,7.826246619224548340e-01,7.825933694839477539e-01,7.825620174407958984e-01,7.825307846069335938e-01,7.824994921684265137e-01,7.824681401252746582e-01,7.824368476867675781e-01,7.824055552482604980e-01,7.823742628097534180e-01,7.823429703712463379e-01,7.823116183280944824e-01,7.822803258895874023e-01,7.822490334510803223e-01,7.822177410125732422e-01,7.821864485740661621e-01,7.821551561355590820e-01,7.821239233016967773e-01,7.820926308631896973e-01,7.820613384246826172e-01,7.820300459861755371e-01,7.819987535476684570e-01,7.819675207138061523e-01,7.819362282752990723e-01,7.819049358367919922e-01,7.818737030029296875e-01,7.818424105644226074e-01,7.818111777305603027e-01,7.817799448966979980e-01,7.817486524581909180e-01,7.817174196243286133e-01,7.816861867904663086e-01,7.816548943519592285e-01,7.816236615180969238e-01,7.815924286842346191e-01,7.815611958503723145e-01,7.815299630165100098e-01,7.814987301826477051e-01,7.814674973487854004e-01,7.814362645149230957e-01,7.814050316810607910e-01,7.813737988471984863e-01,7.813425660133361816e-01,7.813113331794738770e-01,7.812801599502563477e-01,7.812489271163940430e-01,7.812176942825317383e-01,7.811865210533142090e-01,7.811552882194519043e-01,7.811240553855895996e-01,7.810928821563720703e-01,7.810616493225097656e-01,7.810304760932922363e-01,7.809993028640747070e-01,7.809680700302124023e-01,7.809368968009948730e-01,7.809057235717773438e-01,7.808745503425598145e-01,7.808433175086975098e-01,7.808121442794799805e-01,7.807809710502624512e-01,7.807497978210449219e-01,7.807186245918273926e-01,7.806874513626098633e-01,7.806562781333923340e-01,7.806251645088195801e-01,7.805939912796020508e-01,7.805628180503845215e-01,7.805316448211669922e-01
7.481160163879394531e-01,7.480873465538024902e-01,7.480587959289550781e-01,7.480301856994628906e-01,7.480015754699707031e-01,7.479729652404785156e-01,7.479443550109863281e-01,7.479157447814941406e-01,7.478871345520019531e-01,7.478585243225097656e-01,7.478299140930175781e-01,7.478013634681701660e-01,7.477727532386779785e-01,7.477441430091857910e-01,7.477155327796936035e-01,7.476869821548461914e-01,7.476583719253540039e-01,7.476297616958618164e-01,7.476012110710144043e-01,7.475726008415222168e-01,7.475440502166748047e-01,7.475154399871826172e-01,7.474868893623352051e-01,7.474583387374877930e-01,7.474297285079956055e-01,7.474011778831481934e-01,7.473726272583007812e-01,7.473440766334533691e-01,7.473154664039611816e-01,7.472869157791137695e-01,7.472583651542663574e-01,7.472298145294189453e-01,7.472012639045715332e-01,7.471727132797241211e-01,7.471441626548767090e-01,7.471156120300292969e-01,7.470870614051818848e-01,7.470585107803344727e-01,7.470299601554870605e-01,7.470014691352844238e-01,7.469729185104370117e-01,7.469443678855895996e-01,7.469158172607421875e-01,7.468873262405395508e-01,7.468587756156921387e-01,7.468302845954895020e-01,7.468017339706420898e-01,7.467731833457946777e-01,7.467446923255920410e-01,7.467162013053894043e-01,7.466876506805419922e-01,7.466591596603393555e-01,7.466306090354919434e-01,7.466021180152893066e-01,7.465736269950866699e-01,7.465451359748840332e-01,7.465166449546813965e-01,7.464880943298339844e-01,7.464596033096313477e-01,7.464311122894287109e-01,7.464026212692260742e-01,7.463741302490234375e-01,7.463456392288208008e-01,7.463171482086181641e-01,7.462886571884155273e-01,7.462602257728576660e-01,7.462317347526550293e-01,7.462032437324523926e-01,7.461747527122497559e-01,7.461463212966918945e-01,7.461178302764892578e-01,7.460893392562866211e-01,7.460609078407287598e-01,7.460324764251708984e-01,7.460040450096130371e-01,7.459755539894104004e-01,7.459471225738525391e-01,7.459186315536499023e-01,7.458902001380920410e-01,7.458617687225341797e-01
7.162070870399475098e-01,7.161808609962463379e-01,7.161546349525451660e-01,7.161284089088439941e-01,7.161021828651428223e-01,7.160759568214416504e-01,7.160497307777404785e-01,7.160235047340393066e-01,7.159973382949829102e-01,7.159711122512817383e-01,7.159448862075805664e-01,7.159186601638793945e-01,7.158924341201782227e-01,7.158662676811218262e-01,7.158400416374206543e-01,7.158138155937194824e-01,7.157876491546630859e-01,7.157614231109619141e-01,7.157352566719055176e-01,7.157090306282043457e-01,7.156828641891479492e-01,7.156566381454467773e-01,7.156304717063903809e-01,7.156042456626892090e-01,7.155780792236328125e-01,7.155519127845764160e-01,7.155256867408752441e-01,7.154995203018188477e-01,7.154733538627624512e-01,7.154471874237060547e-01,7.154210209846496582e-01,7.153947949409484863e-01,7.153686285018920898e-01,7.153424620628356934e-01,7.153162956237792969e-01,7.152901291847229004e-01,7.152639627456665039e-01,7.152377963066101074e-01,7.152116298675537109e-01,7.151855230331420898e-01,7.151593565940856934e-01,7.151331901550292969e-01,7.151070237159729004e-01,7.150808572769165039e-01,7.150547504425048828e-01,7.150285840034484863e-01,7.150024175643920898e-01,7.149763107299804688e-01,7.149501442909240723e-01,7.149240374565124512e-01,7.148978710174560547e-01,7.148717641830444336e-01,7.148455977439880371e-01,7.148194909095764160e-01,7.147933244705200195e-01,7.147672176361083984e-01,7.147411108016967773e-01,7.147149443626403809e-01,7.146888375282287598e-01,7.146627902984619141e-01,7.146366834640502930e-01,7.146105766296386719e-01,7.145844101905822754e-01,7.145583033561706543e-01,7.145321965217590332e-01,7.145060896873474121e-01,7.144799828529357910e-01,7.144538760185241699e-01,7.144277691841125488e-01,7.144016623497009277e-01,7.143756151199340820e-01,7.143495082855224609e-01,7.143234014511108398e-01,7.142972946166992188e-01,7.142711877822875977e-01,7.142451405525207520e-01,7.142190337181091309e-01,7.141929268836975098e-01,7.141668796539306641e-01,7.141407728195190430e-01
6.869088411331176758e-01,6.868847012519836426e-01,6.868605613708496094e-01,6.868364214897155762e-01,6.868123412132263184e-01,6.867882013320922852e-01,6.867640614509582520e-01,6.867399215698242188e-01,6.867158412933349609e-01,6.866917014122009277e-01,6.866676211357116699e-01,6.866434812545776367e-01,6.866194009780883789e-01,6.865952610969543457e-01,6.865711808204650879e-01,6.865470409393310547e-01,6.865229606628417969e-01,6.864988207817077637e-01,6.864747405052185059e-01,6.864506602287292480e-01,6.864265203475952148e-01,6.864024400711059570e-01,6.863783597946166992e-01,6.863542795181274414e-01,6.863301992416381836e-01,6.863060593605041504e-01,6.862819790840148926e-01,6.862578988075256348e-01,6.862338185310363770e-01,6.862097382545471191e-01,6.861856579780578613e-01,6.861615777015686035e-01,6.861374974250793457e-01,6.861134171485900879e-01,6.860893368721008301e-01,6.860653162002563477e-01,6.860412359237670898e-01,6.860171556472778320e-01,6.859930753707885742e-01,6.859689950942993164e-01,6.859449744224548340e-01,6.859208941459655762e-01,6.858968138694763184e-01,6.858727931976318359e-01,6.858487129211425781e-01,6.858246326446533203e-01,6.858006715774536133e-01,6.857765913009643555e-01,6.857525706291198730e-01,6.857284903526306152e-01,6.857044696807861328e-01,6.856804490089416504e-01,6.856563687324523926e-01,6.856323480606079102e-01,6.856082677841186523e-01,6.855842471122741699e-01,6.855602264404296875e-01,6.855362057685852051e-01,6.855121254920959473e-01,6.854881048202514648e-01,6.854640841484069824e-01,6.854400634765625000e-01,6.854160428047180176e-01,6.853920221328735352e-01,6.853680014610290527e-01,6.853439807891845703e-01,6.853199601173400879e-01,6.852959394454956055e-01,6.852719187736511230e-01,6.852478981018066406e-01,6.852238774299621582e-01,6.851998567581176758e-01,6.851758360862731934e-01,6.851518750190734863e-01,6.851278543472290039e-01,6.851038336753845215e-01,6.850798130035400391e-01,6.850558519363403320e-01,6.850318312644958496e-01,6.850078701972961426e-01
6.599133610725402832e-01,6.598910689353942871e-01,6.598688364028930664e-01,6.598465442657470703e-01,6.598243117332458496e-01,6.598020195960998535e-01,6.597797870635986328e-01,6.597574949264526367e-01,6.597352623939514160e-01,6.597129702568054199e-01,6.596907377243041992e-01,6.596684455871582031e-01,6.596462130546569824e-01,6.596239805221557617e-01,6.596017479896545410e-01,6.595794558525085449e-01,6.595572233200073242e-01,6.595349907875061035e-01,6.595127582550048828e-01,6.594904661178588867e-01,6.594682335853576660e-01,6.594460010528564453e-01,6.594237685203552246e-01,6.594015359878540039e-01,6.593793034553527832e-01,6.593570709228515625e-01,6.593348383903503418e-01,6.593126058578491211e-01,6.592903733253479004e-01,6.592681407928466797e-01,6.592459082603454590e-01,6.592236757278442383e-01,6.592014431953430176e-01,6.591792702674865723e-01,6.591570973396301270e-01,6.591348648071289062e-01,6.591126322746276855e-01,6.590903997421264648e-01,6.590682268142700195e-01,6.590459942817687988e-01,6.590237617492675781e-01,6.590015888214111328e-01,6.589793562889099121e-01,6.589571833610534668e-01,6.589349508285522461e-01,6.589127182960510254e-01,6.588905453681945801e-01,6.588683128356933594e-01,6.588461399078369141e-01,6.588239669799804688e-01,6.588017344474792480e-01,6.587795615196228027e-01,6.587573289871215820e-01,6.587351560592651367e-01,6.587129831314086914e-01,6.586908102035522461e-01,6.586685776710510254e-01,6.586464047431945801e-01,6.586242318153381348e-01,6.586020588874816895e-01,6.585798859596252441e-01,6.585576534271240234e-01,6.585354804992675781e-01,6.585133075714111328e-01,6.584911346435546875e-01,6.584689617156982422e-01,6.584467887878417969e-01,6.584246158599853516e-01,6.584024429321289062e-01,6.583802700042724609e-01,6.583580970764160156e-01,6.583359241485595703e-01,6.583138108253479004e-01,6.582916378974914551e-01,6.582694649696350098e-01,6.582472920417785645e-01,6.582251191139221191e-01,6.582030057907104492e-01,6.581808328628540039e-01,6.581586599349975586e-01
6.349595189094543457e-01,6.349388957023620605e-01,6.349182724952697754e-01,6.348976492881774902e-01,6.348770260810852051e-01,6.348564028739929199e-01,6.348357796669006348e-01,6.348152160644531250e-01,6.347945928573608398e-01,6.347739696502685547e-01,6.347533464431762695e-01,6.347327828407287598e-01,6.347121596336364746e-01,6.346915364265441895e-01,6.346709728240966797e-01,6.346503496170043945e-01,6.346297860145568848e-01,6.346091628074645996e-01,6.345885992050170898e-01,6.345679759979248047e-01,6.345474123954772949e-01,6.345268487930297852e-01,6.345062255859375000e-01,6.344856619834899902e-01,6.344650983810424805e-01,6.344444751739501953e-01,6.344239115715026855e-01,6.344033479690551758e-01,6.343827247619628906e-01,6.343621611595153809e-01,6.343415975570678711e-01,6.343210339546203613e-01,6.343004107475280762e-01,6.342798471450805664e-01,6.342592835426330566e-01,6.342387199401855469e-01,6.342181563377380371e-01,6.341975927352905273e-01,6.341770291328430176e-01,6.341564059257507324e-01,6.341358423233032227e-01,6.341152787208557129e-01,6.340947151184082031e-01,6.340741515159606934e-01,6.340536475181579590e-01,6.340330839157104492e-01,6.340125203132629395e-01,6.339919567108154297e-01,6.339713931083679199e-01,6.339508295059204102e-01,6.339302659034729004e-01,6.339097619056701660e-01,6.338891983032226562e-01,6.338686347007751465e-01,6.338480710983276367e-01,6.338275671005249023e-01,6.338070034980773926e-01,6.337864398956298828e-01,6.337659358978271484e-01,6.337453722953796387e-01,6.337248086929321289e-01,6.337043046951293945e-01,6.336837410926818848e-01,6.336632370948791504e-01,6.336426734924316406e-01,6.336221694946289062e-01,6.336016058921813965e-01,6.335811018943786621e-01,6.335605382919311523e-01,6.335400342941284180e-01,6.335195302963256836e-01,6.334989666938781738e-01,6.334784626960754395e-01,6.334579586982727051e-01,6.334373950958251953e-01,6.334168910980224609e-01,6.333963871002197266e-01,6.333758831024169922e-01,6.333553791046142578e-01,6.333348155021667480e-01
6.118240952491760254e-01,6.118049621582031250e-01,6.117858290672302246e-01,6.117666959762573242e-01,6.117475032806396484e-01,6.117283701896667480e-01,6.117092370986938477e-01,6.116901636123657227e-01,6.116710305213928223e-01,6.116518974304199219e-01,6.116327643394470215e-01,6.116136312484741211e-01,6.115944981575012207e-01,6.115753650665283203e-01,6.115562319755554199e-01,6.115370988845825195e-01,6.115180253982543945e-01,6.114988923072814941e-01,6.114797592163085938e-01,6.114606261253356934e-01,6.114414930343627930e-01,6.114224195480346680e-01,6.114032864570617676e-01,6.113841533660888672e-01,6.113650202751159668e-01,6.113459467887878418e-01,6.113268136978149414e-01,6.113076806068420410e-01,6.112886071205139160e-01,6.112694740295410156e-01,6.112504005432128906e-01,6.112312674522399902e-01,6.112121343612670898e-01,6.111930608749389648e-01,6.111739277839660645e-01,6.111548542976379395e-01,6.111357212066650391e-01,6.111166477203369141e-01,6.110975742340087891e-01,6.110784411430358887e-01,6.110593676567077637e-01,6.110402345657348633e-01,6.110211610794067383e-01,6.110020875930786133e-01,6.109829545021057129e-01,6.109638810157775879e-01,6.109448075294494629e-01,6.109257340431213379e-01,6.109066009521484375e-01,6.108875274658203125e-01,6.108684539794921875e-01,6.108493804931640625e-01,6.108303070068359375e-01,6.108112335205078125e-01,6.107921600341796875e-01,6.107730269432067871e-01,6.107539534568786621e-01,6.107348799705505371e-01,6.107158064842224121e-01,6.106967329978942871e-01,6.106776595115661621e-01,6.106585860252380371e-01,6.106395125389099121e-01,6.106204390525817871e-01,6.106014251708984375e-01,6.105823516845703125e-01,6.105632781982421875e-01,6.105442047119140625e-01,6.105251312255859375e-01,6.105060577392578125e-01,6.104870438575744629e-01,6.104679703712463379e-01,6.104488968849182129e-01,6.104298233985900879e-01,6.104108095169067383e-01,6.103917360305786133e-01,6.103726625442504883e-01,6.103536486625671387e-01,6.103346347808837891e-01,6.103155612945556641e-01
5.903153419494628906e-01,5.902975201606750488e-01,5.902796983718872070e-01,5.902618765830993652e-01,5.902441143989562988e-01,5.902262926101684570e-01,5.902084708213806152e-01,5.901906490325927734e-01,5.901728272438049316e-01,5.901550054550170898e-01,5.901371836662292480e-01,5.901194214820861816e-01,5.901015996932983398e-01,5.900837779045104980e-01,5.900659561157226562e-01,5.900481939315795898e-01,5.900303721427917480e-01,5.900125503540039062e-01,5.899947285652160645e-01,5.899769663810729980e-01,5.899591445922851562e-01,5.899413824081420898e-01,5.899235606193542480e-01,5.899057388305664062e-01,5.898879766464233398e-01,5.898701548576354980e-01,5.898523926734924316e-01,5.898346304893493652e-01,5.898168087005615234e-01,5.897990465164184570e-01,5.897812247276306152e-01,5.897634625434875488e-01,5.897456407546997070e-01,5.897278785705566406e-01,5.897100567817687988e-01,5.896922945976257324e-01,5.896745324134826660e-01,5.896567106246948242e-01,5.896389484405517578e-01,5.896211862564086914e-01,5.896034240722656250e-01,5.895856022834777832e-01,5.895678400993347168e-01,5.895500779151916504e-01,5.895323157310485840e-01,5.895144939422607422e-01,5.894967317581176758e-01,5.894789695739746094e-01,5.894612073898315430e-01,5.894434452056884766e-01,5.894256830215454102e-01,5.894079208374023438e-01,5.893901586532592773e-01,5.893723964691162109e-01,5.893546342849731445e-01,5.893368721008300781e-01,5.893191099166870117e-01,5.893013477325439453e-01,5.892835855484008789e-01,5.892658233642578125e-01,5.892480611801147461e-01,5.892302989959716797e-01,5.892125368118286133e-01,5.891947746276855469e-01,5.891770720481872559e-01,5.891593098640441895e-01,5.891415476799011230e-01,5.891238451004028320e-01,5.891060829162597656e-01,5.890883207321166992e-01,5.890705585479736328e-01,5.890528559684753418e-01,5.890350937843322754e-01,5.890173316001892090e-01,5.889996290206909180e-01,5.889818668365478516e-01,5.889641046524047852e-01,5.889464020729064941e-01,5.889286398887634277e-01,5.889108777046203613e-01
5.702675580978393555e-01,5.702509284019470215e-01,5.702342987060546875e-01,5.702176690101623535e-01,5.702010393142700195e-01,5.701844096183776855e-01,5.701677799224853516e-01,5.701511502265930176e-01,5.701345205307006836e-01,5.701178908348083496e-01,5.701012611389160156e-01,5.700846314430236816e-01,5.700680017471313477e-01,5.700514316558837891e-01,5.700348019599914551e-01,5.700181722640991211e-01,5.700015425682067871e-01,5.699849128723144531e-01,5.699683427810668945e-01,5.699517130851745605e-01,5.699350833892822266e-01,5.699185132980346680e-01,5.699018836021423340e-01,5.698852539062500000e-01,5.698686838150024414e-01,5.698520541191101074e-01,5.698354244232177734e-01,5.698188543319702148e-01,5.698022246360778809e-01,5.697856545448303223e-01,5.697690248489379883e-01,5.697524547576904297e-01,5.697358250617980957e-01,5.697192549705505371e-01,5.697026252746582031e-01,5.696860551834106445e-01,5.696694254875183105e-01,5.696528553962707520e-01,5.696362257003784180e-01,5.696196556091308594e-01,5.696030259132385254e-01,5.695864558219909668e-01,5.695698857307434082e-01,5.695532560348510742e-01,5.695366859436035156e-01,5.695201158523559570e-01,5.695034861564636230e-01,5.694869160652160645e-01,5.694703459739685059e-01,5.694537758827209473e-01,5.694371461868286133e-01,5.694206357002258301e-01,5.694040656089782715e-01,5.693874955177307129e-01,5.693708658218383789e-01,5.693542957305908203e-01,5.693377256393432617e-01,5.693211555480957031e-01,5.693045854568481445e-01,5.692880153656005859e-01,5.692714452743530273e-01,5.692548751831054688e-01,5.692383050918579102e-01,5.692217350006103516e-01,5.692051649093627930e-01,5.691885948181152344e-01,5.691720247268676758e-01,5.691554546356201172e-01,5.691388845443725586e-01,5.691223144531250000e-01,5.691057443618774414e-01,5.690891742706298828e-01,5.690726041793823242e-01,5.690560340881347656e-01,5.690395236015319824e-01,5.690229535102844238e-01,5.690063834190368652e-01,5.689898133277893066e-01,5.689732432365417480e-01,5.689567327499389648e-01
