5.000000000000000000e+00,5.000000000000000000e+00,5.000000000000000000e+00,5.000000000000000000e+00,5.000000000000000000e+00,5.000000000000000000e+00,5.000000000000000000e+00,5.000000000000000000e+00,5.000000000000000000e+00,5.000000000000000000e+00,5.000000000000000000e+00,5.000000000000000000e+00,5.000000000000000000e+00,5.000000000000000000e+00,5.000000000000000000e+00,5.000000000000000000e+00,5.000000000000000000e+00,5.000000000000000000e+00,5.000000000000000000e+00,5.000000000000000000e+00,5.000000000000000000e+00,5.000000000000000000e+00,5.000000000000000000e+00,5.000000000000000000e+00,5.000000000000000000e+00,5.000000000000000000e+00,5.000000000000000000e+00,5.000000000000000000e+00,5.000000000000000000e+00,5.000000000000000000e+00,5.000000000000000000e+00,5.000000000000000000e+00,5.000000000000000000e+00,5.000000000000000000e+00,5.000000000000000000e+00,5.000000000000000000e+00,5.000000000000000000e+00,5.000000000000000000e+00,5.000000000000000000e+00,5.000000000000000000e+00,4.874143600463867188e+00,4.680843353271484375e+00,4.502289772033691406e+00,4.336858272552490234e+00,4.183152675628662109e+00,4.039969444274902344e+00,3.906263828277587891e+00,3.781124830245971680e+00,3.663755178451538086e+00,3.553452253341674805e+00,3.449596881866455078e+00,3.351639747619628906e+00,3.259092330932617188e+00,3.171518564224243164e+00,3.088527917861938477e+00,3.009769916534423828e+00,2.934928655624389648e+00,2.863719224929809570e+00,2.795883178710937500e+00,2.731186628341674805e+00,2.669416666030883789e+00,2.610378980636596680e+00,2.553895950317382812e+00,2.499805688858032227e+00,2.447959423065185547e+00,2.398219585418701172e+00,2.350460767745971680e+00,2.304567337036132812e+00,2.260431528091430664e+00,2.217954158782958984e+00,2.177044153213500977e+00,2.137615919113159180e+00,2.099590539932250977e+00,2.062894105911254883e+00,2.027458667755126953e+00,1.993220090866088867e+00,1.960118532180786133e+00,1.928098559379577637e+00,1.897107839584350586e+00,1.867097616195678711e+00
5.000000000000000000e+00,5.000000000000000000e+00,5.000000000000000000e+00,5.000000000000000000e+00,5.000000000000000000e+00,5.000000000000000000e+00,5.000000000000000000e+00,5.000000000000000000e+00,5.000000000000000000e+00,5.000000000000000000e+00,5.000000000000000000e+00,5.000000000000000000e+00,5.000000000000000000e+00,5.000000000000000000e+00,5.000000000000000000e+00,5.000000000000000000e+00,5.000000000000000000e+00,5.000000000000000000e+00,5.000000000000000000e+00,5.000000000000000000e+00,5.000000000000000000e+00,5.000000000000000000e+00,5.000000000000000000e+00,5.000000000000000000e+00,5.000000000000000000e+00,5.000000000000000000e+00,5.000000000000000000e+00,5.000000000000000000e+00,5.000000000000000000e+00,5.000000000000000000e+00,5.000000000000000000e+00,5.000000000000000000e+00,5.000000000000000000e+00,5.000000000000000000e+00,5.000000000000000000e+00,5.000000000000000000e+00,5.000000000000000000e+00,5.000000000000000000e+00,5.000000000000000000e+00,5.000000000000000000e+00,4.874286174774169922e+00,4.680974483489990234e+00,4.502411842346191406e+00,4.336971282958984375e+00,4.183258056640625000e+00,4.040067672729492188e+00,3.906355857849121094e+00,3.781210899353027344e+00,3.663835525512695312e+00,3.553527832031250000e+00,3.449668407440185547e+00,3.351707458496093750e+00,3.259156465530395508e+00,3.171579122543334961e+00,3.088585376739501953e+00,3.009824514389038086e+00,2.934980630874633789e+00,2.863768577575683594e+00,2.795930147171020508e+00,2.731231689453125000e+00,2.669459581375122070e+00,2.610419988632202148e+00,2.553935289382934570e+00,2.499843358993530273e+00,2.447995185852050781e+00,2.398253917694091797e+00,2.350494146347045898e+00,2.304599285125732422e+00,2.260462045669555664e+00,2.217983961105346680e+00,2.177072763442993164e+00,2.137643575668334961e+00,2.099617004394531250e+00,2.062919855117797852e+00,2.027483463287353516e+00,1.993244051933288574e+00,1.960141658782958984e+00,1.928120970726013184e+00,1.897129416465759277e+00,1.867118716239929199e+00
5.000000000000000000e+00,5.000000000000000000e+00,5.000000000000000000e+00,5.000000000000000000e+00,5.000000000000000000e+00,5.000000000000000000e+00,5.000000000000000000e+00,5.000000000000000000e+00,5.000000000000000000e+00,5.000000000000000000e+00,5.000000000000000000e+00,5.000000000000000000e+00,5.000000000000000000e+00,5.000000000000000000e+00,5.000000000000000000e+00,5.000000000000000000e+00,5.000000000000000000e+00,5.000000000000000000e+00,5.000000000000000000e+00,5.000000000000000000e+00,5.000000000000000000e+00,5.000000000000000000e+00,5.000000000000000000e+00,5.000000000000000000e+00,5.000000000000000000e+00,5.000000000000000000e+00,5.000000000000000000e+00,5.000000000000000000e+00,5.000000000000000000e+00,5.000000000000000000e+00,5.000000000000000000e+00,5.000000000000000000e+00,5.000000000000000000e+00,5.000000000000000000e+00,5.000000000000000000e+00,5.000000000000000000e+00,5.000000000000000000e+00,5.000000000000000000e+00,5.000000000000000000e+00,5.000000000000000000e+00,4.874429225921630859e+00,4.681106567382812500e+00,4.502533912658691406e+00,4.337084770202636719e+00,4.183363437652587891e+00,4.040165901184082031e+00,3.906447649002075195e+00,3.781296968460083008e+00,3.663916349411010742e+00,3.553603887557983398e+00,3.449739694595336914e+00,3.351774930953979492e+00,3.259220361709594727e+00,3.171639680862426758e+00,3.088642835617065430e+00,3.009879112243652344e+00,2.935032367706298828e+00,2.863817930221557617e+00,2.795977354049682617e+00,2.731276512145996094e+00,2.669502496719360352e+00,2.610460996627807617e+00,2.553974628448486328e+00,2.499880790710449219e+00,2.448031187057495117e+00,2.398288488388061523e+00,2.350527286529541016e+00,2.304630994796752930e+00,2.260492801666259766e+00,2.218013525009155273e+00,2.177101135253906250e+00,2.137670993804931641e+00,2.099643468856811523e+00,2.062945365905761719e+00,2.027508020401000977e+00,1.993268013000488281e+00,1.960164785385131836e+00,1.928143382072448730e+00,1.897151112556457520e+00,1.867139697074890137e+00
5.000000000000000000e+00,5.000000000000000000e+00,5.000000000000000000e+00,5.000000000000000000e+00,5.000000000000000000e+00,5.000000000000000000e+00,5.000000000000000000e+00,5.000000000000000000e+00,5.000000000000000000e+00,5.000000000000000000e+00,5.000000000000000000e+00,5.000000000000000000e+00,5.000000000000000000e+00,5.000000000000000000e+00,5.000000000000000000e+00,5.000000000000000000e+00,5.000000000000000000e+00,5.000000000000000000e+00,5.000000000000000000e+00,5.000000000000000000e+00,5.000000000000000000e+00,5.000000000000000000e+00,5.000000000000000000e+00,5.000000000000000000e+00,5.000000000000000000e+00,5.000000000000000000e+00,5.000000000000000000e+00,5.000000000000000000e+00,5.000000000000000000e+00,5.000000000000000000e+00,5.000000000000000000e+00,5.000000000000000000e+00,5.000000000000000000e+00,5.000000000000000000e+00,5.000000000000000000e+00,5.000000000000000000e+00,5.000000000000000000e+00,5.000000000000000000e+00,5.000000000000000000e+00,5.000000000000000000e+00,4.874572277069091797e+00,4.681238651275634766e+00,4.502655982971191406e+00,4.337197780609130859e+00,4.183468818664550781e+00,4.040264129638671875e+00,3.906539440155029297e+00,3.781383037567138672e+00,3.663997173309326172e+00,3.553679943084716797e+00,3.449811458587646484e+00,3.351842164993286133e+00,3.259284019470214844e+00,3.171700239181518555e+00,3.088700294494628906e+00,3.009933471679687500e+00,2.935084342956542969e+00,2.863867282867431641e+00,2.796024322509765625e+00,2.731321573257446289e+00,2.669545412063598633e+00,2.610502004623413086e+00,2.554013967514038086e+00,2.499918460845947266e+00,2.448067426681518555e+00,2.398323297500610352e+00,2.350560188293457031e+00,2.304662704467773438e+00,2.260523319244384766e+00,2.218043088912963867e+00,2.177129745483398438e+00,2.137698411941528320e+00,2.099670171737670898e+00,2.062971115112304688e+00,2.027532815933227539e+00,1.993291854858398438e+00,1.960187911987304688e+00,1.928165674209594727e+00,1.897172808647155762e+00,1.867160677909851074e+00
5.000000000000000000e+00,5.000000000000000000e+00,5.000000000000000000e+00,5.000000000000000000e+00,5.000000000000000000e+00,5.000000000000000000e+00,5.000000000000000000e+00,5.000000000000000000e+00,5.000000000000000000e+00,5.000000000000000000e+00,5.000000000000000000e+00,5.000000000000000000e+00,5.000000000000000000e+00,5.000000000000000000e+00,5.000000000000000000e+00,5.000000000000000000e+00,5.000000000000000000e+00,5.000000000000000000e+00,5.000000000000000000e+00,5.000000000000000000e+00,5.000000000000000000e+00,5.000000000000000000e+00,5.000000000000000000e+00,5.000000000000000000e+00,5.000000000000000000e+00,5.000000000000000000e+00,5.000000000000000000e+00,5.000000000000000000e+00,5.000000000000000000e+00,5.000000000000000000e+00,5.000000000000000000e+00,5.000000000000000000e+00,5.000000000000000000e+00,5.000000000000000000e+00,5.000000000000000000e+00,5.000000000000000000e+00,5.000000000000000000e+00,5.000000000000000000e+00,5.000000000000000000e+00,5.000000000000000000e+00,4.874715328216552734e+00,4.681370258331298828e+00,4.502778053283691406e+00,4.337310791015625000e+00,4.183574199676513672e+00,4.040362358093261719e+00,3.906631469726562500e+00,3.781469106674194336e+00,3.664077997207641602e+00,3.553755998611450195e+00,3.449882984161376953e+00,3.351909875869750977e+00,3.259347915649414062e+00,3.171760559082031250e+00,3.088757753372192383e+00,3.009988069534301758e+00,2.935136079788208008e+00,2.863916635513305664e+00,2.796071529388427734e+00,2.731366395950317383e+00,2.669588327407836914e+00,2.610543012619018555e+00,2.554053068161010742e+00,2.499956130981445312e+00,2.448103427886962891e+00,2.398357629776000977e+00,2.350593566894531250e+00,2.304694652557373047e+00,2.260554075241088867e+00,2.218072652816772461e+00,2.177158355712890625e+00,2.137726068496704102e+00,2.099696636199951172e+00,2.062996625900268555e+00,2.027557611465454102e+00,1.993315815925598145e+00,1.960211038589477539e+00,1.928188085556030273e+00,1.897194504737854004e+00,1.867181658744812012e+00
5.000000000000000000e+00,5.000000000000000000e+00,5.000000000000000000e+00,5.000000000000000000e+00,5.000000000000000000e+00,5.000000000000000000e+00,5.000000000000000000e+00,5.000000000000000000e+00,5.000000000000000000e+00,5.000000000000000000e+00,5.000000000000000000e+00,5.000000000000000000e+00,5.000000000000000000e+00,5.000000000000000000e+00,5.000000000000000000e+00,5.000000000000000000e+00,5.000000000000000000e+00,5.000000000000000000e+00,5.000000000000000000e+00,5.000000000000000000e+00,5.000000000000000000e+00,5.000000000000000000e+00,5.000000000000000000e+00,5.000000000000000000e+00,5.000000000000000000e+00,5.000000000000000000e+00,5.000000000000000000e+00,5.000000000000000000e+00,5.000000000000000000e+00,5.000000000000000000e+00,5.000000000000000000e+00,5.000000000000000000e+00,5.000000000000000000e+00,5.000000000000000000e+00,5.000000000000000000e+00,5.000000000000000000e+00,5.000000000000000000e+00,5.000000000000000000e+00,5.000000000000000000e+00,5.000000000000000000e+00,4.874858379364013672e+00,4.681502342224121094e+00,4.502900123596191406e+00,4.337424278259277344e+00,4.183679103851318359e+00,4.040460586547851562e+00,3.906723260879516602e+00,3.781555175781250000e+00,3.664158821105957031e+00,3.553832054138183594e+00,3.449954748153686523e+00,3.351977586746215820e+00,3.259411811828613281e+00,3.171821117401123047e+00,3.088814735412597656e+00,3.010042428970336914e+00,2.935188055038452148e+00,2.863965988159179688e+00,2.796118497848510742e+00,2.731411218643188477e+00,2.669631242752075195e+00,2.610584020614624023e+00,2.554092407226562500e+00,2.499993801116943359e+00,2.448139190673828125e+00,2.398392200469970703e+00,2.350626707077026367e+00,2.304726600646972656e+00,2.260584831237792969e+00,2.218102216720581055e+00,2.177186727523803711e+00,2.137753486633300781e+00,2.099723100662231445e+00,2.063022375106811523e+00,2.027582406997680664e+00,1.993339657783508301e+00,1.960234165191650391e+00,1.928210496902465820e+00,1.897216081619262695e+00,1.867202639579772949e+00
5.000000000000000000e+00,5.000000000000000000e+00,5.000000000000000000e+00,5.000000000000000000e+00,5.000000000000000000e+00,5.000000000000000000e+00,5.000000000000000000e+00,5.000000000000000000e+00,5.000000000000000000e+00,5.000000000000000000e+00,5.000000000000000000e+00,5.000000000000000000e+00,5.000000000000000000e+00,5.000000000000000000e+00,5.000000000000000000e+00,5.000000000000000000e+00,5.000000000000000000e+00,5.000000000000000000e+00,5.000000000000000000e+00,5.000000000000000000e+00,5.000000000000000000e+00,5.000000000000000000e+00,5.000000000000000000e+00,5.000000000000000000e+00,5.000000000000000000e+00,5.000000000000000000e+00,5.000000000000000000e+00,5.000000000000000000e+00,5.000000000000000000e+00,5.000000000000000000e+00,5.000000000000000000e+00,5.000000000000000000e+00,5.000000000000000000e+00,5.000000000000000000e+00,5.000000000000000000e+00,5.000000000000000000e+00,5.000000000000000000e+00,5.000000000000000000e+00,5.000000000000000000e+00,5.000000000000000000e+00,4.875000953674316406e+00,4.681633949279785156e+00,4.503022193908691406e+00,4.337537288665771484e+00,4.183784484863281250e+00,4.040558815002441406e+00,3.906815052032470703e+00,3.781641483306884766e+00,3.664239645004272461e+00,3.553908109664916992e+00,3.450026273727416992e+00,3.352045297622680664e+00,3.259475708007812500e+00,3.171881675720214844e+00,3.088872194290161133e+00,3.010097026824951172e+00,2.935239553451538086e+00,2.864015102386474609e+00,2.796165466308593750e+00,2.731456279754638672e+00,2.669674158096313477e+00,2.610625028610229492e+00,2.554131746292114258e+00,2.500031471252441406e+00,2.448175430297851562e+00,2.398426771163940430e+00,2.350660085678100586e+00,2.304758787155151367e+00,2.260615587234497070e+00,2.218131780624389648e+00,2.177215099334716797e+00,2.137780904769897461e+00,2.099749565124511719e+00,2.063047885894775391e+00,2.027607202529907227e+00,1.993363618850708008e+00,1.960257291793823242e+00,1.928232908248901367e+00,1.897237777709960938e+00,1.867223620414733887e+00
5.000000000000000000e+00,5.000000000000000000e+00,5.000000000000000000e+00,5.000000000000000000e+00,5.000000000000000000e+00,5.000000000000000000e+00,5.000000000000000000e+00,5.000000000000000000e+00,5.000000000000000000e+00,5.000000000000000000e+00,5.000000000000000000e+00,5.000000000000000000e+00,5.000000000000000000e+00,5.000000000000000000e+00,5.000000000000000000e+00,5.000000000000000000e+00,5.000000000000000000e+00,5.000000000000000000e+00,5.000000000000000000e+00,5.000000000000000000e+00,5.000000000000000000e+00,5.000000000000000000e+00,5.000000000000000000e+00,5.000000000000000000e+00,5.000000000000000000e+00,5.000000000000000000e+00,5.000000000000000000e+00,5.000000000000000000e+00,5.000000000000000000e+00,5.000000000000000000e+00,5.000000000000000000e+00,5.000000000000000000e+00,5.000000000000000000e+00,5.000000000000000000e+00,5.000000000000000000e+00,5.000000000000000000e+00,5.000000000000000000e+00,5.000000000000000000e+00,5.000000000000000000e+00,5.000000000000000000e+00,4.875144004821777344e+00,4.681766033172607422e+00,4.503143787384033203e+00,4.337650775909423828e+00,4.183889865875244141e+00,4.040657043457031250e+00,3.906907081604003906e+00,3.781727552413940430e+00,3.664320468902587891e+00,3.553984165191650391e+00,3.450098037719726562e+00,3.352112770080566406e+00,3.259539842605590820e+00,3.171942234039306641e+00,3.088929653167724609e+00,3.010151386260986328e+00,2.935291528701782227e+00,2.864064455032348633e+00,2.796212434768676758e+00,2.731501102447509766e+00,2.669717073440551758e+00,2.610666036605834961e+00,2.554170608520507812e+00,2.500068902969360352e+00,2.448211431503295898e+00,2.398461580276489258e+00,2.350693225860595703e+00,2.304790735244750977e+00,2.260646343231201172e+00,2.218161344528198242e+00,2.177243709564208984e+00,2.137808322906494141e+00,2.099776029586791992e+00,2.063073396682739258e+00,2.027631759643554688e+00,1.993387579917907715e+00,1.960280418395996094e+00,1.928255200386047363e+00,1.897259473800659180e+00,1.867244601249694824e+00
5.000000000000000000e+00,5.000000000000000000e+00,5.000000000000000000e+00,5.000000000000000000e+00,5.000000000000000000e+00,5.000000000000000000e+00,5.000000000000000000e+00,5.000000000000000000e+00,5.000000000000000000e+00,5.000000000000000000e+00,5.000000000000000000e+00,5.000000000000000000e+00,5.000000000000000000e+00,5.000000000000000000e+00,5.000000000000000000e+00,5.000000000000000000e+00,5.000000000000000000e+00,5.000000000000000000e+00,5.000000000000000000e+00,5.000000000000000000e+00,5.000000000000000000e+00,5.000000000000000000e+00,5.000000000000000000e+00,5.000000000000000000e+00,5.000000000000000000e+00,5.000000000000000000e+00,5.000000000000000000e+00,5.000000000000000000e+00,5.000000000000000000e+00,5.000000000000000000e+00,5.000000000000000000e+00,5.000000000000000000e+00,5.000000000000000000e+00,5.000000000000000000e+00,5.000000000000000000e+00,5.000000000000000000e+00,5.000000000000000000e+00,5.000000000000000000e+00,5.000000000000000000e+00,5.000000000000000000e+00,4.875287055969238281e+00,4.681898117065429688e+00,4.503265857696533203e+00,4.337763786315917969e+00,4.183995246887207031e+00,4.040755748748779297e+00,3.906998872756958008e+00,3.781813621520996094e+00,3.664401292800903320e+00,3.554059982299804688e+00,3.450169563293457031e+00,3.352180480957031250e+00,3.259603738784790039e+00,3.172002792358398438e+00,3.088987112045288086e+00,3.010205984115600586e+00,2.935343503952026367e+00,2.864113807678222656e+00,2.796259403228759766e+00,2.731545925140380859e+00,2.669759750366210938e+00,2.610707283020019531e+00,2.554209947586059570e+00,2.500106334686279297e+00,2.448247432708740234e+00,2.398496150970458984e+00,2.350726604461669922e+00,2.304822683334350586e+00,2.260677337646484375e+00,2.218190908432006836e+00,2.177272319793701172e+00,2.137835979461669922e+00,2.099802732467651367e+00,2.063099145889282227e+00,2.027656555175781250e+00,1.993411302566528320e+00,1.960303544998168945e+00,1.928277611732482910e+00,1.897281169891357422e+00,1.867265582084655762e+00
5.000000000000000000e+00,5.000000000000000000e+00,5.000000000000000000e+00,5.000000000000000000e+00,5.000000000000000000e+00,5.000000000000000000e+00,5.000000000000000000e+00,5.000000000000000000e+00,5.000000000000000000e+00,5.000000000000000000e+00,5.000000000000000000e+00,5.000000000000000000e+00,5.000000000000000000e+00,5.000000000000000000e+00,5.000000000000000000e+00,5.000000000000000000e+00,5.000000000000000000e+00,5.000000000000000000e+00,5.000000000000000000e+00,5.000000000000000000e+00,5.000000000000000000e+00,5.000000000000000000e+00,5.000000000000000000e+00,5.000000000000000000e+00,5.000000000000000000e+00,5.000000000000000000e+00,5.000000000000000000e+00,5.000000000000000000e+00,5.000000000000000000e+00,5.000000000000000000e+00,5.000000000000000000e+00,5.000000000000000000e+00,5.000000000000000000e+00,5.000000000000000000e+00,5.000000000000000000e+00,5.000000000000000000e+00,5.000000000000000000e+00,5.000000000000000000e+00,5.000000000000000000e+00,5.000000000000000000e+00,4.875430107116699219e+00,4.682029724121093750e+00,4.503387928009033203e+00,4.337876796722412109e+00,4.184100627899169922e+00,4.040853500366210938e+00,3.907090902328491211e+00,3.781899690628051758e+00,3.664482116699218750e+00,3.554136037826538086e+00,3.450241327285766602e+00,3.352248191833496094e+00,3.259667634963989258e+00,3.172063350677490234e+00,3.089044570922851562e+00,3.010260581970214844e+00,2.935395240783691406e+00,2.864163398742675781e+00,2.796306610107421875e+00,2.731590747833251953e+00,2.669802427291870117e+00,2.610747814178466797e+00,2.554249286651611328e+00,2.500144004821777344e+00,2.448283672332763672e+00,2.398530721664428711e+00,2.350759744644165039e+00,2.304854631423950195e+00,2.260708093643188477e+00,2.218220710754394531e+00,2.177300691604614258e+00,2.137863397598266602e+00,2.099829196929931641e+00,2.063124656677246094e+00,2.027681350708007812e+00,1.993435144424438477e+00,1.960326671600341797e+00,1.928299784660339355e+00,1.897302746772766113e+00,1.867286562919616699e+00
5.000000000000000000e+00,5.000000000000000000e+00,5.000000000000000000e+00,5.000000000000000000e+00,5.000000000000000000e+00,5.000000000000000000e+00,5.000000000000000000e+00,5.000000000000000000e+00,5.000000000000000000e+00,5.000000000000000000e+00,5.000000000000000000e+00,5.000000000000000000e+00,5.000000000000000000e+00,5.000000000000000000e+00,5.000000000000000000e+00,5.000000000000000000e+00,5.000000000000000000e+00,5.000000000000000000e+00,5.000000000000000000e+00,5.000000000000000000e+00,5.000000000000000000e+00,5.000000000000000000e+00,5.000000000000000000e+00,5.000000000000000000e+00,5.000000000000000000e+00,5.000000000000000000e+00,5.000000000000000000e+00,5.000000000000000000e+00,5.000000000000000000e+00,5.000000000000000000e+00,5.000000000000000000e+00,5.000000000000000000e+00,5.000000000000000000e+00,5.000000000000000000e+00,5.000000000000000000e+00,5.000000000000000000e+00,5.000000000000000000e+00,5.000000000000000000e+00,5.000000000000000000e+00,5.000000000000000000e+00,4.875573635101318359e+00,4.682161808013916016e+00,4.503509998321533203e+00,4.337990283966064453e+00,4.184206008911132812e+00,4.040951728820800781e+00,3.907182216644287109e+00,3.781985282897949219e+00,3.664562940597534180e+00,3.554212093353271484e+00,3.450313091278076172e+00,3.352315902709960938e+00,3.259731531143188477e+00,3.172123908996582031e+00,3.089102029800415039e+00,3.010315179824829102e+00,2.935447216033935547e+00,2.864212751388549805e+00,2.796353578567504883e+00,2.731635570526123047e+00,2.669845342636108398e+00,2.610788822174072266e+00,2.554288387298583984e+00,2.500181436538696289e+00,2.448319673538208008e+00,2.398565292358398438e+00,2.350793123245239258e+00,2.304886579513549805e+00,2.260738849639892578e+00,2.218250274658203125e+00,2.177329301834106445e+00,2.137891054153442383e+00,2.099855661392211914e+00,2.063150167465209961e+00,2.027705907821655273e+00,1.993459105491638184e+00,1.960349798202514648e+00,1.928322196006774902e+00,1.897324442863464355e+00,1.867307305335998535e+00
5.000000000000000000e+00,5.000000000000000000e+00,5.000000000000000000e+00,5.000000000000000000e+00,5.000000000000000000e+00,5.000000000000000000e+00,5.000000000000000000e+00,5.000000000000000000e+00,5.000000000000000000e+00,5.000000000000000000e+00,5.000000000000000000e+00,5.000000000000000000e+00,5.000000000000000000e+00,5.000000000000000000e+00,5.000000000000000000e+00,5.000000000000000000e+00,5.000000000000000000e+00,5.000000000000000000e+00,5.000000000000000000e+00,5.000000000000000000e+00,5.000000000000000000e+00,5.000000000000000000e+00,5.000000000000000000e+00,5.000000000000000000e+00,5.000000000000000000e+00,5.000000000000000000e+00,5.000000000000000000e+00,5.000000000000000000e+00,5.000000000000000000e+00,5.000000000000000000e+00,5.000000000000000000e+00,5.000000000000000000e+00,5.000000000000000000e+00,5.000000000000000000e+00,5.000000000000000000e+00,5.000000000000000000e+00,5.000000000000000000e+00,5.000000000000000000e+00,5.000000000000000000e+00,5.000000000000000000e+00,4.875716209411621094e+00,4.682293891906738281e+00,4.503632068634033203e+00,4.338103294372558594e+00,4.184311389923095703e+00,4.041049957275390625e+00,3.907274246215820312e+00,3.782071590423583984e+00,3.664643526077270508e+00,3.554288148880004883e+00,3.450384616851806641e+00,3.352383375167846680e+00,3.259795665740966797e+00,3.172184467315673828e+00,3.089159488677978516e+00,3.010369777679443359e+00,2.935498952865600586e+00,2.864262104034423828e+00,2.796400785446166992e+00,2.731680393218994141e+00,2.669888257980346680e+00,2.610829830169677734e+00,2.554327726364135742e+00,2.500219106674194336e+00,2.448355674743652344e+00,2.398600101470947266e+00,2.350826263427734375e+00,2.304918527603149414e+00,2.260769605636596680e+00,2.218279838562011719e+00,2.177357912063598633e+00,2.137918472290039062e+00,2.099882364273071289e+00,2.063175916671752930e+00,2.027730703353881836e+00,1.993482947349548340e+00,1.960372924804687500e+00,1.928344607353210449e+00,1.897346138954162598e+00,1.867328286170959473e+00
5.000000000000000000e+00,5.000000000000000000e+00,5.000000000000000000e+00,5.000000000000000000e+00,5.000000000000000000e+00,5.000000000000000000e+00,5.000000000000000000e+00,5.000000000000000000e+00,5.000000000000000000e+00,5.000000000000000000e+00,5.000000000000000000e+00,5.000000000000000000e+00,5.000000000000000000e+00,5.000000000000000000e+00,5.000000000000000000e+00,5.000000000000000000e+00,5.000000000000000000e+00,5.000000000000000000e+00,5.000000000000000000e+00,5.000000000000000000e+00,5.000000000000000000e+00,5.000000000000000000e+00,5.000000000000000000e+00,5.000000000000000000e+00,5.000000000000000000e+00,5.000000000000000000e+00,5.000000000000000000e+00,5.000000000000000000e+00,5.000000000000000000e+00,5.000000000000000000e+00,5.000000000000000000e+00,5.000000000000000000e+00,5.000000000000000000e+00,5.000000000000000000e+00,5.000000000000000000e+00,5.000000000000000000e+00,5.000000000000000000e+00,5.000000000000000000e+00,5.000000000000000000e+00,5.000000000000000000e+00,4.875859260559082031e+00,4.682425498962402344e+00,4.503754138946533203e+00,4.338216781616210938e+00,4.184416770935058594e+00,4.041148662567138672e+00,3.907366037368774414e+00,3.782157659530639648e+00,3.664724349975585938e+00,3.554363965988159180e+00,3.450455904006958008e+00,3.352451086044311523e+00,3.259859561920166016e+00,3.172245025634765625e+00,3.089216947555541992e+00,3.010424137115478516e+00,2.935550928115844727e+00,2.864311456680297852e+00,2.796447515487670898e+00,2.731725215911865234e+00,2.669931173324584961e+00,2.610870838165283203e+00,2.554366827011108398e+00,2.500256776809692383e+00,2.448391675949096680e+00,2.398634433746337891e+00,2.350859403610229492e+00,2.304950475692749023e+00,2.260800361633300781e+00,2.218309402465820312e+00,2.177386522293090820e+00,2.137945890426635742e+00,2.099908828735351562e+00,2.063201427459716797e+00,2.027755498886108398e+00,1.993506908416748047e+00,1.960396051406860352e+00,1.928366899490356445e+00,1.897367835044860840e+00,1.867349267005920410e+00
5.000000000000000000e+00,5.000000000000000000e+00,5.000000000000000000e+00,5.000000000000000000e+00,5.000000000000000000e+00,5.000000000000000000e+00,5.000000000000000000e+00,5.000000000000000000e+00,5.000000000000000000e+00,5.000000000000000000e+00,5.000000000000000000e+00,5.000000000000000000e+00,5.000000000000000000e+00,5.000000000000000000e+00,5.000000000000000000e+00,5.000000000000000000e+00,5.000000000000000000e+00,5.000000000000000000e+00,5.000000000000000000e+00,5.000000000000000000e+00,5.000000000000000000e+00,5.000000000000000000e+00,5.000000000000000000e+00,5.000000000000000000e+00,5.000000000000000000e+00,5.000000000000000000e+00,5.000000000000000000e+00,5.000000000000000000e+00,5.000000000000000000e+00,5.000000000000000000e+00,5.000000000000000000e+00,5.000000000000000000e+00,5.000000000000000000e+00,5.000000000000000000e+00,5.000000000000000000e+00,5.000000000000000000e+00,5.000000000000000000e+00,5.000000000000000000e+00,5.000000000000000000e+00,5.000000000000000000e+00,4.876002311706542969e+00,4.682557582855224609e+00,4.503876209259033203e+00,4.338329792022705078e+00,4.184522151947021484e+00,4.041246891021728516e+00,3.907458066940307617e+00,3.782243728637695312e+00,3.664805173873901367e+00,3.554440021514892578e+00,3.450527667999267578e+00,3.352518320083618164e+00,3.259923219680786133e+00,3.172305583953857422e+00,3.089274406433105469e+00,3.010478734970092773e+00,2.935602664947509766e+00,2.864360570907592773e+00,2.796494722366333008e+00,2.731770277023315430e+00,2.669974088668823242e+00,2.610911846160888672e+00,2.554406166076660156e+00,2.500294446945190430e+00,2.448427677154541016e+00,2.398669004440307617e+00,2.350892782211303711e+00,2.304982423782348633e+00,2.260830879211425781e+00,2.218339204788208008e+00,2.177414894104003906e+00,2.137973546981811523e+00,2.099935293197631836e+00,2.063227176666259766e+00,2.027780294418334961e+00,1.993530869483947754e+00,1.960419297218322754e+00,1.928389310836791992e+00,1.897389531135559082e+00,1.867370367050170898e+00
5.000000000000000000e+00,5.000000000000000000e+00,5.000000000000000000e+00,5.000000000000000000e+00,5.000000000000000000e+00,5.000000000000000000e+00,5.000000000000000000e+00,5.000000000000000000e+00,5.000000000000000000e+00,5.000000000000000000e+00,5.000000000000000000e+00,5.000000000000000000e+00,5.000000000000000000e+00,5.000000000000000000e+00,5.000000000000000000e+00,5.000000000000000000e+00,5.000000000000000000e+00,5.000000000000000000e+00,5.000000000000000000e+00,5.000000000000000000e+00,5.000000000000000000e+00,5.000000000000000000e+00,5.000000000000000000e+00,5.000000000000000000e+00,5.000000000000000000e+00,5.000000000000000000e+00,5.000000000000000000e+00,5.000000000000000000e+00,5.000000000000000000e+00,5.000000000000000000e+00,5.000000000000000000e+00,5.000000000000000000e+00,5.000000000000000000e+00,5.000000000000000000e+00,5.000000000000000000e+00,5.000000000000000000e+00,5.000000000000000000e+00,5.000000000000000000e+00,5.000000000000000000e+00,5.000000000000000000e+00,4.876145362854003906e+00,4.682689666748046875e+00,4.503998279571533203e+00,4.338443279266357422e+00,4.184627532958984375e+00,4.041345119476318359e+00,3.907549858093261719e+00,3.782329797744750977e+00,3.664885997772216797e+00,3.554516077041625977e+00,3.450599431991577148e+00,3.352586030960083008e+00,3.259987115859985352e+00,3.172365903854370117e+00,3.089331865310668945e+00,3.010533332824707031e+00,2.935654401779174805e+00,2.864409923553466797e+00,2.796541690826416016e+00,2.731815099716186523e+00,2.670017004013061523e+00,2.610952854156494141e+00,2.554445505142211914e+00,2.500332117080688477e+00,2.448463916778564453e+00,2.398703813552856445e+00,2.350925922393798828e+00,2.305014371871948242e+00,2.260861635208129883e+00,2.218368530273437500e+00,2.177443504333496094e+00,2.138000965118408203e+00,2.099961996078491211e+00,2.063252687454223633e+00,2.027805089950561523e+00,1.993554830551147461e+00,1.960442423820495605e+00,1.928411722183227539e+00,1.897411108016967773e+00,1.867391347885131836e+00
5.000000000000000000e+00,5.000000000000000000e+00,5.000000000000000000e+00,5.000000000000000000e+00,5.000000000000000000e+00,5.000000000000000000e+00,5.000000000000000000e+00,5.000000000000000000e+00,5.000000000000000000e+00,5.000000000000000000e+00,5.000000000000000000e+00,5.000000000000000000e+00,5.000000000000000000e+00,5.000000000000000000e+00,5.000000000000000000e+00,5.000000000000000000e+00,5.000000000000000000e+00,5.000000000000000000e+00,5.000000000000000000e+00,5.000000000000000000e+00,5.000000000000000000e+00,5.000000000000000000e+00,5.000000000000000000e+00,5.000000000000000000e+00,5.000000000000000000e+00,5.000000000000000000e+00,5.000000000000000000e+00,5.000000000000000000e+00,5.000000000000000000e+00,5.000000000000000000e+00,5.000000000000000000e+00,5.000000000000000000e+00,5.000000000000000000e+00,5.000000000000000000e+00,5.000000000000000000e+00,5.000000000000000000e+00,5.000000000000000000e+00,5.000000000000000000e+00,5.000000000000000000e+00,5.000000000000000000e+00,4.876288414001464844e+00,4.682821750640869141e+00,4.504120349884033203e+00,4.338556289672851562e+00,4.184732913970947266e+00,4.041443347930908203e+00,3.907641887664794922e+00,3.782415866851806641e+00,3.664966821670532227e+00,3.554592132568359375e+00,3.450670957565307617e+00,3.352653741836547852e+00,3.260051250457763672e+00,3.172426462173461914e+00,3.089389085769653320e+00,3.010587453842163086e+00,2.935706377029418945e+00,2.864459514617919922e+00,2.796588659286499023e+00,2.731859922409057617e+00,2.670059919357299805e+00,2.610993862152099609e+00,2.554484844207763672e+00,2.500369548797607422e+00,2.448499917984008789e+00,2.398738384246826172e+00,2.350959300994873047e+00,2.305046319961547852e+00,2.260892391204833984e+00,2.218398332595825195e+00,2.177471876144409180e+00,2.138028383255004883e+00,2.099988460540771484e+00,2.063278436660766602e+00,2.027829885482788086e+00,1.993578672409057617e+00,1.960465550422668457e+00,1.928434133529663086e+00,1.897432804107666016e+00,1.867412328720092773e+00
5.000000000000000000e+00,5.000000000000000000e+00,5.000000000000000000e+00,5.000000000000000000e+00,5.000000000000000000e+00,5.000000000000000000e+00,5.000000000000000000e+00,5.000000000000000000e+00,5.000000000000000000e+00,5.000000000000000000e+00,5.000000000000000000e+00,5.000000000000000000e+00,5.000000000000000000e+00,5.000000000000000000e+00,5.000000000000000000e+00,5.000000000000000000e+00,5.000000000000000000e+00,5.000000000000000000e+00,5.000000000000000000e+00,5.000000000000000000e+00,5.000000000000000000e+00,5.000000000000000000e+00,5.000000000000000000e+00,5.000000000000000000e+00,5.000000000000000000e+00,5.000000000000000000e+00,5.000000000000000000e+00,5.000000000000000000e+00,5.000000000000000000e+00,5.000000000000000000e+00,5.000000000000000000e+00,5.000000000000000000e+00,5.000000000000000000e+00,5.000000000000000000e+00,5.000000000000000000e+00,5.000000000000000000e+00,5.000000000000000000e+00,5.000000000000000000e+00,5.000000000000000000e+00,5.000000000000000000e+00,4.876431465148925781e+00,4.682953357696533203e+00,4.504242420196533203e+00,4.338669776916503906e+00,4.184838294982910156e+00,4.041541576385498047e+00,3.907733678817749023e+00,3.782502174377441406e+00,3.665047645568847656e+00,3.554668188095092773e+00,3.450742721557617188e+00,3.352721452713012695e+00,3.260115146636962891e+00,3.172487258911132812e+00,3.089446306228637695e+00,3.010642051696777344e+00,2.935757875442504883e+00,2.864508867263793945e+00,2.796635866165161133e+00,2.731904983520507812e+00,2.670102834701538086e+00,2.611035108566284180e+00,2.554523944854736328e+00,2.500407218933105469e+00,2.448536157608032227e+00,2.398772954940795898e+00,2.350992679595947266e+00,2.305078268051147461e+00,2.260923147201538086e+00,2.218427896499633789e+00,2.177500486373901367e+00,2.138055801391601562e+00,2.100014925003051758e+00,2.063303947448730469e+00,2.027854442596435547e+00,1.993602633476257324e+00,1.960488677024841309e+00,1.928456544876098633e+00,1.897454500198364258e+00,1.867433309555053711e+00
5.000000000000000000e+00,5.000000000000000000e+00,5.000000000000000000e+00,5.000000000000000000e+00,5.000000000000000000e+00,5.000000000000000000e+00,5.000000000000000000e+00,5.000000000000000000e+00,5.000000000000000000e+00,5.000000000000000000e+00,5.000000000000000000e+00,5.000000000000000000e+00,5.000000000000000000e+00,5.000000000000000000e+00,5.000000000000000000e+00,5.000000000000000000e+00,5.000000000000000000e+00,5.000000000000000000e+00,5.000000000000000000e+00,5.000000000000000000e+00,5.000000000000000000e+00,5.000000000000000000e+00,5.000000000000000000e+00,5.000000000000000000e+00,5.000000000000000000e+00,5.000000000000000000e+00,5.000000000000000000e+00,5.000000000000000000e+00,5.000000000000000000e+00,5.000000000000000000e+00,5.000000000000000000e+00,5.000000000000000000e+00,5.000000000000000000e+00,5.000000000000000000e+00,5.000000000000000000e+00,5.000000000000000000e+00,5.000000000000000000e+00,5.000000000000000000e+00,5.000000000000000000e+00,5.000000000000000000e+00,4.876574516296386719e+00,4.683085441589355469e+00,4.504364013671875000e+00,4.338783264160156250e+00,4.184943675994873047e+00,4.041639804840087891e+00,3.907825708389282227e+00,3.782588243484497070e+00,3.665128469467163086e+00,3.554744243621826172e+00,3.450814485549926758e+00,3.352789163589477539e+00,3.260179042816162109e+00,3.172547578811645508e+00,3.089503765106201172e+00,3.010696411132812500e+00,2.935809850692749023e+00,2.864557981491088867e+00,2.796682596206665039e+00,2.731949806213378906e+00,2.670145750045776367e+00,2.611076116561889648e+00,2.554563283920288086e+00,2.500444889068603516e+00,2.448572158813476562e+00,2.398807764053344727e+00,2.351025819778442383e+00,2.305110216140747070e+00,2.260953903198242188e+00,2.218457460403442383e+00,2.177529096603393555e+00,2.138083457946777344e+00,2.100041389465332031e+00,2.063329458236694336e+00,2.027879238128662109e+00,1.993626594543457031e+00,1.960511803627014160e+00,1.928478837013244629e+00,1.897476196289062500e+00,1.867454290390014648e+00
5.000000000000000000e+00,5.000000000000000000e+00,5.000000000000000000e+00,5.000000000000000000e+00,5.000000000000000000e+00,5.000000000000000000e+00,5.000000000000000000e+00,5.000000000000000000e+00,5.000000000000000000e+00,5.000000000000000000e+00,5.000000000000000000e+00,5.000000000000000000e+00,5.000000000000000000e+00,5.000000000000000000e+00,5.000000000000000000e+00,5.000000000000000000e+00,5.000000000000000000e+00,5.000000000000000000e+00,5.000000000000000000e+00,5.000000000000000000e+00,5.000000000000000000e+00,5.000000000000000000e+00,5.000000000000000000e+00,5.000000000000000000e+00,5.000000000000000000e+00,5.000000000000000000e+00,5.000000000000000000e+00,5.000000000000000000e+00,5.000000000000000000e+00,5.000000000000000000e+00,5.000000000000000000e+00,5.000000000000000000e+00,5.000000000000000000e+00,5.000000000000000000e+00,5.000000000000000000e+00,5.000000000000000000e+00,5.000000000000000000e+00,5.000000000000000000e+00,5.000000000000000000e+00,5.000000000000000000e+00,4.876717567443847656e+00,4.683217048645019531e+00,4.504486560821533203e+00,4.338896274566650391e+00,4.185048580169677734e+00,4.041738033294677734e+00,3.907917499542236328e+00,3.782674312591552734e+00,3.665209531784057617e+00,3.554820299148559570e+00,3.450886011123657227e+00,3.352856874465942383e+00,3.260242938995361328e+00,3.172608137130737305e+00,3.089561223983764648e+00,3.010751008987426758e+00,2.935861587524414062e+00,2.864607334136962891e+00,2.796729803085327148e+00,2.731994628906250000e+00,2.670188426971435547e+00,2.611117124557495117e+00,2.554602622985839844e+00,2.500482559204101562e+00,2.448608160018920898e+00,2.398842334747314453e+00,2.351059198379516602e+00,2.305142402648925781e+00,2.260984897613525391e+00,2.218487024307250977e+00,2.177557468414306641e+00,2.138110876083374023e+00,2.100068092346191406e+00,2.063355207443237305e+00,2.027904033660888672e+00,1.993650436401367188e+00,1.960534691810607910e+00,1.928501248359680176e+00,1.897497892379760742e+00,1.867475271224975586e+00
5.000000000000000000e+00,5.000000000000000000e+00,5.000000000000000000e+00,5.000000000000000000e+00,5.000000000000000000e+00,5.000000000000000000e+00,5.000000000000000000e+00,5.000000000000000000e+00,5.000000000000000000e+00,5.000000000000000000e+00,5.000000000000000000e+00,5.000000000000000000e+00,5.000000000000000000e+00,5.000000000000000000e+00,5.000000000000000000e+00,5.000000000000000000e+00,5.000000000000000000e+00,5.000000000000000000e+00,5.000000000000000000e+00,5.000000000000000000e+00,5.000000000000000000e+00,5.000000000000000000e+00,5.000000000000000000e+00,5.000000000000000000e+00,5.000000000000000000e+00,5.000000000000000000e+00,5.000000000000000000e+00,5.000000000000000000e+00,5.000000000000000000e+00,5.000000000000000000e+00,5.000000000000000000e+00,5.000000000000000000e+00,5.000000000000000000e+00,5.000000000000000000e+00,5.000000000000000000e+00,5.000000000000000000e+00,5.000000000000000000e+00,5.000000000000000000e+00,5.000000000000000000e+00,5.000000000000000000e+00,4.876861095428466797e+00,4.683349132537841797e+00,4.504608631134033203e+00,4.339009761810302734e+00,4.185154438018798828e+00,4.041836261749267578e+00,3.908009529113769531e+00,3.782760381698608398e+00,3.665290355682373047e+00,3.554896354675292969e+00,3.450957775115966797e+00,3.352924108505249023e+00,3.260306835174560547e+00,3.172668695449829102e+00,3.089618682861328125e+00,3.010805606842041016e+00,2.935913562774658203e+00,2.864656686782836914e+00,2.796776771545410156e+00,2.732039451599121094e+00,2.670231342315673828e+00,2.611157894134521484e+00,2.554641962051391602e+00,2.500520229339599609e+00,2.448644399642944336e+00,2.398876905441284180e+00,2.351092338562011719e+00,2.305174350738525391e+00,2.261015653610229492e+00,2.218516826629638672e+00,2.177586078643798828e+00,2.138138532638549805e+00,2.100094556808471680e+00,2.063380718231201172e+00,2.027928590774536133e+00,1.993674397468566895e+00,1.960557818412780762e+00,1.928523659706115723e+00,1.897519469261169434e+00,1.867496252059936523e+00
5.000000000000000000e+00,5.000000000000000000e+00,5.000000000000000000e+00,5.000000000000000000e+00,5.000000000000000000e+00,5.000000000000000000e+00,5.000000000000000000e+00,5.000000000000000000e+00,5.000000000000000000e+00,5.000000000000000000e+00,5.000000000000000000e+00,5.000000000000000000e+00,5.000000000000000000e+00,5.000000000000000000e+00,5.000000000000000000e+00,5.000000000000000000e+00,5.000000000000000000e+00,5.000000000000000000e+00,5.000000000000000000e+00,5.000000000000000000e+00,5.000000000000000000e+00,5.000000000000000000e+00,5.000000000000000000e+00,5.000000000000000000e+00,5.000000000000000000e+00,5.000000000000000000e+00,5.000000000000000000e+00,5.000000000000000000e+00,5.000000000000000000e+00,5.000000000000000000e+00,5.000000000000000000e+00,5.000000000000000000e+00,5.000000000000000000e+00,5.000000000000000000e+00,5.000000000000000000e+00,5.000000000000000000e+00,5.000000000000000000e+00,5.000000000000000000e+00,5.000000000000000000e+00,5.000000000000000000e+00,4.877001285552978516e+00,4.683481216430664062e+00,4.504730701446533203e+00,4.339122772216796875e+00,4.185259819030761719e+00,4.041934490203857422e+00,3.908101081848144531e+00,3.782846212387084961e+00,3.665371179580688477e+00,3.554972410202026367e+00,3.451029300689697266e+00,3.352991819381713867e+00,3.260370969772338867e+00,3.172729253768920898e+00,3.089676141738891602e+00,3.010860204696655273e+00,2.935965538024902344e+00,2.864706277847290039e+00,2.796823978424072266e+00,2.732084512710571289e+00,2.670274257659912109e+00,2.611198902130126953e+00,2.554681062698364258e+00,2.500557661056518555e+00,2.448680400848388672e+00,2.398911714553833008e+00,2.351125717163085938e+00,2.305206298828125000e+00,2.261046409606933594e+00,2.218546390533447266e+00,2.177614688873291016e+00,2.138165950775146484e+00,2.100121021270751953e+00,2.063406467437744141e+00,2.027953386306762695e+00,1.993698358535766602e+00,1.960580945014953613e+00,1.928546071052551270e+00,1.897541046142578125e+00,1.867517232894897461e+00
5.000000000000000000e+00,5.000000000000000000e+00,5.000000000000000000e+00,5.000000000000000000e+00,5.000000000000000000e+00,5.000000000000000000e+00,5.000000000000000000e+00,5.000000000000000000e+00,5.000000000000000000e+00,5.000000000000000000e+00,5.000000000000000000e+00,5.000000000000000000e+00,5.000000000000000000e+00,5.000000000000000000e+00,5.000000000000000000e+00,5.000000000000000000e+00,5.000000000000000000e+00,5.000000000000000000e+00,5.000000000000000000e+00,5.000000000000000000e+00,5.000000000000000000e+00,5.000000000000000000e+00,5.000000000000000000e+00,5.000000000000000000e+00,5.000000000000000000e+00,5.000000000000000000e+00,5.000000000000000000e+00,5.000000000000000000e+00,5.000000000000000000e+00,5.000000000000000000e+00,5.000000000000000000e+00,5.000000000000000000e+00,5.000000000000000000e+00,5.000000000000000000e+00,5.000000000000000000e+00,5.000000000000000000e+00,5.000000000000000000e+00,5.000000000000000000e+00,5.000000000000000000e+00,5.000000000000000000e+00,4.877140998840332031e+00,4.683611869812011719e+00,4.504852771759033203e+00,4.339236259460449219e+00,4.185365200042724609e+00,4.042033195495605469e+00,3.908192873001098633e+00,3.782932281494140625e+00,3.665451765060424805e+00,3.555048227310180664e+00,3.451100826263427734e+00,3.353059530258178711e+00,3.260434865951538086e+00,3.172789812088012695e+00,3.089733600616455078e+00,3.010914802551269531e+00,2.936017274856567383e+00,2.864755630493164062e+00,2.796870946884155273e+00,2.732129335403442383e+00,2.670317173004150391e+00,2.611240148544311523e+00,2.554720401763916016e+00,2.500595331192016602e+00,2.448716402053833008e+00,2.398946285247802734e+00,2.351158857345581055e+00,2.305238246917724609e+00,2.261077165603637695e+00,2.218575954437255859e+00,2.177643299102783203e+00,2.138193607330322266e+00,2.100147724151611328e+00,2.063431978225708008e+00,2.027978181838989258e+00,1.993722319602966309e+00,1.960604071617126465e+00,1.928568482398986816e+00,1.897562623023986816e+00,1.867538332939147949e+00
5.000000000000000000e+00,5.000000000000000000e+00,5.000000000000000000e+00,5.000000000000000000e+00,5.000000000000000000e+00,5.000000000000000000e+00,5.000000000000000000e+00,5.000000000000000000e+00,5.000000000000000000e+00,5.000000000000000000e+00,5.000000000000000000e+00,5.000000000000000000e+00,5.000000000000000000e+00,5.000000000000000000e+00,5.000000000000000000e+00,5.000000000000000000e+00,5.000000000000000000e+00,5.000000000000000000e+00,5.000000000000000000e+00,5.000000000000000000e+00,5.000000000000000000e+00,5.000000000000000000e+00,5.000000000000000000e+00,5.000000000000000000e+00,5.000000000000000000e+00,5.000000000000000000e+00,5.000000000000000000e+00,5.000000000000000000e+00,5.000000000000000000e+00,5.000000000000000000e+00,5.000000000000000000e+00,5.000000000000000000e+00,5.000000000000000000e+00,5.000000000000000000e+00,5.000000000000000000e+00,5.000000000000000000e+00,5.000000000000000000e+00,5.000000000000000000e+00,5.000000000000000000e+00,5.000000000000000000e+00,4.877280235290527344e+00,4.683740615844726562e+00,4.504974842071533203e+00,4.339349746704101562e+00,4.185470581054687500e+00,4.042131423950195312e+00,3.908284902572631836e+00,3.783018589019775391e+00,3.665532588958740234e+00,3.555124044418334961e+00,3.451172351837158203e+00,3.353127241134643555e+00,3.260498762130737305e+00,3.172850370407104492e+00,3.089791059494018555e+00,3.010969400405883789e+00,2.936069250106811523e+00,2.864804983139038086e+00,2.796918153762817383e+00,2.732174396514892578e+00,2.670360088348388672e+00,2.611281156539916992e+00,2.554759502410888672e+00,2.500633001327514648e+00,2.448752403259277344e+00,2.398980617523193359e+00,2.351191997528076172e+00,2.305270195007324219e+00,2.261107921600341797e+00,2.218605756759643555e+00,2.177671670913696289e+00,2.138221025466918945e+00,2.100174188613891602e+00,2.063457727432250977e+00,2.028002977371215820e+00,1.993746161460876465e+00,1.960627317428588867e+00,1.928590893745422363e+00,1.897584319114685059e+00,1.867559313774108887e+00
5.000000000000000000e+00,5.000000000000000000e+00,5.000000000000000000e+00,5.000000000000000000e+00,5.000000000000000000e+00,5.000000000000000000e+00,5.000000000000000000e+00,5.000000000000000000e+00,5.000000000000000000e+00,5.000000000000000000e+00,5.000000000000000000e+00,5.000000000000000000e+00,5.000000000000000000e+00,5.000000000000000000e+00,5.000000000000000000e+00,5.000000000000000000e+00,5.000000000000000000e+00,5.000000000000000000e+00,5.000000000000000000e+00,5.000000000000000000e+00,5.000000000000000000e+00,5.000000000000000000e+00,5.000000000000000000e+00,5.000000000000000000e+00,5.000000000000000000e+00,5.000000000000000000e+00,5.000000000000000000e+00,5.000000000000000000e+00,5.000000000000000000e+00,5.000000000000000000e+00,5.000000000000000000e+00,5.000000000000000000e+00,5.000000000000000000e+00,5.000000000000000000e+00,5.000000000000000000e+00,5.000000000000000000e+00,5.000000000000000000e+00,5.000000000000000000e+00,5.000000000000000000e+00,5.000000000000000000e+00,4.877419948577880859e+00,4.683869361877441406e+00,4.505093574523925781e+00,4.339462757110595703e+00,4.185575962066650391e+00,4.042229652404785156e+00,3.908376932144165039e+00,3.783104419708251953e+00,3.665613174438476562e+00,3.555200099945068359e+00,3.451243877410888672e+00,3.353194713592529297e+00,3.260562658309936523e+00,3.172911167144775391e+00,3.089848518371582031e+00,3.011023998260498047e+00,2.936121225357055664e+00,2.864854335784912109e+00,2.796965360641479492e+00,2.732219219207763672e+00,2.670403003692626953e+00,2.611322164535522461e+00,2.554798841476440430e+00,2.500670671463012695e+00,2.448788642883300781e+00,2.399015426635742188e+00,2.351225376129150391e+00,2.305302143096923828e+00,2.261138439178466797e+00,2.218635320663452148e+00,2.177700281143188477e+00,2.138248682022094727e+00,2.100200653076171875e+00,2.063483238220214844e+00,2.028027772903442383e+00,1.993770122528076172e+00,1.960650444030761719e+00,1.928613185882568359e+00,1.897606015205383301e+00,1.867580294609069824e+00
5.000000000000000000e+00,5.000000000000000000e+00,5.000000000000000000e+00,5.000000000000000000e+00,5.000000000000000000e+00,5.000000000000000000e+00,5.000000000000000000e+00,5.000000000000000000e+00,5.000000000000000000e+00,5.000000000000000000e+00,5.000000000000000000e+00,5.000000000000000000e+00,5.000000000000000000e+00,5.000000000000000000e+00,5.000000000000000000e+00,5.000000000000000000e+00,5.000000000000000000e+00,5.000000000000000000e+00,5.000000000000000000e+00,5.000000000000000000e+00,5.000000000000000000e+00,5.000000000000000000e+00,5.000000000000000000e+00,5.000000000000000000e+00,5.000000000000000000e+00,5.000000000000000000e+00,5.000000000000000000e+00,5.000000000000000000e+00,5.000000000000000000e+00,5.000000000000000000e+00,5.000000000000000000e+00,5.000000000000000000e+00,5.000000000000000000e+00,5.000000000000000000e+00,5.000000000000000000e+00,5.000000000000000000e+00,5.000000000000000000e+00,5.000000000000000000e+00,5.000000000000000000e+00,5.000000000000000000e+00,4.877559661865234375e+00,4.683998584747314453e+00,4.505212783813476562e+00,4.339574337005615234e+00,4.185681343078613281e+00,4.042327880859375000e+00,3.908468961715698242e+00,3.783190488815307617e+00,3.665694236755371094e+00,3.555276155471801758e+00,3.451315641403198242e+00,3.353262186050415039e+00,3.260626554489135742e+00,3.172971487045288086e+00,3.089905977249145508e+00,3.011078596115112305e+00,2.936172962188720703e+00,2.864903688430786133e+00,2.797012329101562500e+00,2.732264280319213867e+00,2.670445919036865234e+00,2.611363172531127930e+00,2.554838180541992188e+00,2.500708341598510742e+00,2.448824644088745117e+00,2.399049997329711914e+00,2.351258754730224609e+00,2.305334091186523438e+00,2.261169195175170898e+00,2.218664884567260742e+00,2.177728891372680664e+00,2.138276100158691406e+00,2.100227355957031250e+00,2.063508987426757812e+00,2.028052568435668945e+00,1.993794083595275879e+00,1.960673570632934570e+00,1.928635597229003906e+00,1.897627711296081543e+00,1.867601275444030762e+00
5.000000000000000000e+00,5.000000000000000000e+00,5.000000000000000000e+00,5.000000000000000000e+00,5.000000000000000000e+00,5.000000000000000000e+00,5.000000000000000000e+00,5.000000000000000000e+00,5.000000000000000000e+00,5.000000000000000000e+00,5.000000000000000000e+00,5.000000000000000000e+00,5.000000000000000000e+00,5.000000000000000000e+00,5.000000000000000000e+00,5.000000000000000000e+00,5.000000000000000000e+00,5.000000000000000000e+00,5.000000000000000000e+00,5.000000000000000000e+00,5.000000000000000000e+00,5.000000000000000000e+00,5.000000000000000000e+00,5.000000000000000000e+00,5.000000000000000000e+00,5.000000000000000000e+00,5.000000000000000000e+00,5.000000000000000000e+00,5.000000000000000000e+00,5.000000000000000000e+00,5.000000000000000000e+00,5.000000000000000000e+00,5.000000000000000000e+00,5.000000000000000000e+00,5.000000000000000000e+00,5.000000000000000000e+00,5.000000000000000000e+00,5.000000000000000000e+00,5.000000000000000000e+00,5.000000000000000000e+00,4.877699375152587891e+00,4.684126853942871094e+00,4.505331993103027344e+00,4.339684486389160156e+00,4.185785770416259766e+00,4.042425632476806641e+00,3.908560514450073242e+00,3.783276796340942383e+00,3.665775060653686523e+00,3.555352210998535156e+00,3.451387405395507812e+00,3.353329896926879883e+00,3.260690450668334961e+00,3.173032045364379883e+00,3.089963197708129883e+00,3.011132955551147461e+00,2.936224937438964844e+00,2.864953279495239258e+00,2.797059535980224609e+00,2.732309103012084961e+00,2.670489072799682617e+00,2.611404180526733398e+00,2.554877519607543945e+00,2.500746011734008789e+00,2.448860645294189453e+00,2.399084568023681641e+00,2.351291894912719727e+00,2.305366039276123047e+00,2.261200189590454102e+00,2.218694448471069336e+00,2.177757263183593750e+00,2.138303518295288086e+00,2.100253820419311523e+00,2.063534498214721680e+00,2.028077125549316406e+00,1.993818044662475586e+00,1.960696697235107422e+00,1.928658008575439453e+00,1.897649407386779785e+00,1.867622256278991699e+00
4.872151374816894531e+00,4.870932102203369141e+00,4.869713306427001953e+00,4.868495941162109375e+00,4.867278099060058594e+00,4.866061687469482422e+00,4.864845275878906250e+00,4.863630294799804688e+00,4.862414836883544922e+00,4.861200809478759766e+00,4.859987258911132812e+00,4.858774185180664062e+00,4.857561588287353516e+00,4.856349945068359375e+00,4.855138301849365234e+00,4.853928089141845703e+00,4.852717876434326172e+00,4.851508617401123047e+00,4.850299358367919922e+00,4.849091529846191406e+00,4.847883701324462891e+00,4.846676826477050781e+00,4.845470428466796875e+00,4.844264507293701172e+00,4.843059062957763672e+00,4.841854572296142578e+00,4.840650558471679688e+00,4.839447021484375000e+00,4.838243961334228516e+00,4.837041854858398438e+00,4.835840225219726562e+00,4.834639549255371094e+00,4.833438873291015625e+00,4.832239151000976562e+00,4.831039428710937500e+00,4.829841136932373047e+00,4.828642845153808594e+00,4.827445507049560547e+00,4.826248645782470703e+00,4.825052261352539062e+00,4.823856353759765625e+00,4.684255599975585938e+00,4.505451202392578125e+00,4.339795112609863281e+00,4.185888767242431641e+00,4.042524337768554688e+00,3.908652544021606445e+00,3.783362865447998047e+00,3.665855884552001953e+00,3.555428266525268555e+00,3.451459169387817383e+00,3.353397607803344727e+00,3.260754585266113281e+00,3.173092603683471680e+00,3.090020656585693359e+00,3.011187553405761719e+00,2.936276674270629883e+00,2.865002632141113281e+00,2.797106504440307617e+00,2.732354164123535156e+00,2.670531988143920898e+00,2.611445188522338867e+00,2.554916858673095703e+00,2.500783443450927734e+00,2.448896884918212891e+00,2.399119377136230469e+00,2.351325273513793945e+00,2.305398225784301758e+00,2.261230945587158203e+00,2.218724012374877930e+00,2.177785873413085938e+00,2.138330936431884766e+00,2.100280284881591797e+00,2.063560247421264648e+00,2.028101921081542969e+00,1.993841886520385742e+00,1.960719823837280273e+00,1.928680419921875000e+00,1.897671103477478027e+00,1.867643237113952637e+00
3.776653289794921875e+00,3.775920629501342773e+00,3.775188684463500977e+00,3.774456501007080078e+00,3.773724794387817383e+00,3.772993087768554688e+00,3.772262334823608398e+00,3.771531343460083008e+00,3.770800590515136719e+00,3.770070075988769531e+00,3.769340515136718750e+00,3.768610715866088867e+00,3.767881155014038086e+00,3.767151832580566406e+00,3.766423225402832031e+00,3.765694618225097656e+00,3.764966011047363281e+00,3.764237880706787109e+00,3.763510465621948242e+00,3.762782812118530273e+00,3.762055635452270508e+00,3.761328458786010742e+00,3.760602235794067383e+00,3.759875774383544922e+00,3.759149551391601562e+00,3.758423566818237305e+00,3.757698535919189453e+00,3.756973028182983398e+00,3.756247997283935547e+00,3.755523204803466797e+00,3.754799127578735352e+00,3.754074811935424805e+00,3.753350973129272461e+00,3.752627372741699219e+00,3.751904249191284180e+00,3.751181125640869141e+00,3.750458240509033203e+00,3.749736070632934570e+00,3.749013900756835938e+00,3.748291969299316406e+00,3.747570037841796875e+00,3.746849060058593750e+00,3.746127843856811523e+00,3.745407104492187500e+00,3.744686365127563477e+00,3.743966579437255859e+00,3.743246555328369141e+00,3.742526769638061523e+00,3.665936708450317383e+00,3.555504322052001953e+00,3.451530933380126953e+00,3.353465318679809570e+00,3.260818481445312500e+00,3.173153162002563477e+00,3.090078115463256836e+00,3.011241912841796875e+00,2.936328411102294922e+00,2.865051746368408203e+00,2.797153472900390625e+00,2.732398986816406250e+00,2.670574903488159180e+00,2.611486434936523438e+00,2.554955959320068359e+00,2.500821113586425781e+00,2.448932886123657227e+00,2.399153947830200195e+00,2.351358413696289062e+00,2.305430173873901367e+00,2.261261701583862305e+00,2.218753576278686523e+00,2.177814245223999023e+00,2.138358592987060547e+00,2.100306749343872070e+00,2.063585758209228516e+00,2.028126716613769531e+00,1.993865847587585449e+00,1.960742950439453125e+00,1.928702831268310547e+00,1.897692680358886719e+00,1.867664217948913574e+00
3.083362579345703125e+00,3.082874298095703125e+00,3.082386016845703125e+00,3.081898212432861328e+00,3.081410408020019531e+00,3.080922603607177734e+00,3.080435037612915039e+00,3.079947710037231445e+00,3.079460382461547852e+00,3.078973293304443359e+00,3.078486204147338867e+00,3.077999830245971680e+00,3.077512979507446289e+00,3.077026605606079102e+00,3.076539993286132812e+00,3.076054096221923828e+00,3.075567960739135742e+00,3.075082063674926758e+00,3.074596405029296875e+00,3.074110984802246094e+00,3.073625564575195312e+00,3.073140144348144531e+00,3.072654962539672852e+00,3.072170257568359375e+00,3.071685552597045898e+00,3.071200847625732422e+00,3.070716142654418945e+00,3.070232152938842773e+00,3.069747924804687500e+00,3.069263696670532227e+00,3.068779945373535156e+00,3.068296432495117188e+00,3.067812681198120117e+00,3.067329168319702148e+00,3.066845893859863281e+00,3.066363096237182617e+00,3.065880060195922852e+00,3.065397262573242188e+00,3.064914464950561523e+00,3.064432144165039062e+00,3.063949823379516602e+00,3.063467502593994141e+00,3.062985420227050781e+00,3.062503814697265625e+00,3.062021970748901367e+00,3.061540365219116211e+00,3.061058759689331055e+00,3.060577630996704102e+00,3.060096502304077148e+00,3.059615373611450195e+00,3.059134483337402344e+00,3.058654069900512695e+00,3.058173418045043945e+00,3.057693004608154297e+00,3.057213068008422852e+00,3.011296510696411133e+00,2.936380386352539062e+00,2.865101099014282227e+00,2.797200441360473633e+00,2.732443809509277344e+00,2.670617580413818359e+00,2.611527442932128906e+00,2.554995298385620117e+00,2.500858783721923828e+00,2.448969125747680664e+00,2.399188518524169922e+00,2.351391792297363281e+00,2.305462121963500977e+00,2.261292457580566406e+00,2.218783378601074219e+00,2.177842855453491211e+00,2.138386011123657227e+00,2.100333452224731445e+00,2.063611268997192383e+00,2.028151512145996094e+00,1.993889570236206055e+00,1.960766077041625977e+00,1.928725242614746094e+00,1.897714376449584961e+00,1.867685198783874512e+00
2.605131387710571289e+00,2.604782819747924805e+00,2.604434251785278320e+00,2.604085922241210938e+00,2.603737592697143555e+00,2.603389263153076172e+00,2.603041172027587891e+00,2.602693080902099609e+00,2.602345228195190430e+00,2.601997375488281250e+00,2.601649522781372070e+00,2.601301908493041992e+00,2.600954532623291016e+00,2.600606918334960938e+00,2.600259542465209961e+00,2.599912166595458984e+00,2.599565029144287109e+00,2.599217891693115234e+00,2.598870754241943359e+00,2.598523855209350586e+00,2.598177194595336914e+00,2.597830295562744141e+00,2.597483634948730469e+00,2.597136974334716797e+00,2.596790790557861328e+00,2.596444368362426758e+00,2.596097946166992188e+00,2.595751762390136719e+00,2.595405817031860352e+00,2.595059871673583984e+00,2.594713926315307617e+00,2.594367980957031250e+00,2.594022274017333984e+00,2.593676805496215820e+00,2.593331098556518555e+00,2.592985868453979492e+00,2.592640399932861328e+00,2.592295169830322266e+00,2.591949939727783203e+00,2.591604948043823242e+00,2.591259956359863281e+00,2.590914964675903320e+00,2.590569972991943359e+00,2.590225458145141602e+00,2.589880943298339844e+00,2.589536190032958984e+00,2.589191675186157227e+00,2.588847637176513672e+00,2.588503360748291016e+00,2.588159084320068359e+00,2.587815046310424805e+00,2.587471246719360352e+00,2.587127208709716797e+00,2.586783409118652344e+00,2.586439609527587891e+00,2.586096048355102539e+00,2.585752487182617188e+00,2.585409164428710938e+00,2.585065841674804688e+00,2.584722518920898438e+00,2.584379434585571289e+00,2.584036350250244141e+00,2.555034637451171875e+00,2.500896453857421875e+00,2.449005126953125000e+00,2.399223327636718750e+00,2.351425170898437500e+00,2.305494070053100586e+00,2.261323213577270508e+00,2.218812942504882812e+00,2.177871465682983398e+00,2.138413667678833008e+00,2.100359916687011719e+00,2.063637018203735352e+00,2.028176069259643555e+00,1.993913531303405762e+00,1.960789322853088379e+00,1.928747415542602539e+00,1.897736072540283203e+00,1.867706298828125000e+00
2.255319356918334961e+00,2.255059242248535156e+00,2.254799127578735352e+00,2.254539012908935547e+00,2.254279136657714844e+00,2.254019260406494141e+00,2.253759384155273438e+00,2.253499507904052734e+00,2.253239631652832031e+00,2.252979516983032227e+00,2.252718687057495117e+00,2.252458095550537109e+00,2.252197504043579102e+00,2.251936912536621094e+00,2.251676321029663086e+00,2.251415967941284180e+00,2.251155614852905273e+00,2.250895261764526367e+00,2.250635147094726562e+00,2.250374794006347656e+00,2.250114679336547852e+00,2.249854803085327148e+00,2.249594688415527344e+00,2.249334812164306641e+00,2.249074697494506836e+00,2.248815059661865234e+00,2.248555183410644531e+00,2.248295545578002930e+00,2.248035907745361328e+00,2.247776508331298828e+00,2.247516870498657227e+00,2.247257232666015625e+00,2.246997833251953125e+00,2.246738672256469727e+00,2.246479272842407227e+00,2.246220111846923828e+00,2.245960950851440430e+00,2.245701789855957031e+00,2.245442867279052734e+00,2.245183706283569336e+00,2.244924783706665039e+00,2.244666099548339844e+00,2.244407176971435547e+00,2.244148492813110352e+00,2.243889570236206055e+00,2.243631124496459961e+00,2.243372440338134766e+00,2.243113994598388672e+00,2.242855548858642578e+00,2.242597341537475586e+00,2.242338895797729492e+00,2.242080450057983398e+00,2.241822242736816406e+00,2.241564273834228516e+00,2.241306066513061523e+00,2.241048097610473633e+00,2.240790128707885742e+00,2.240532159805297852e+00,2.240274429321289062e+00,2.240016460418701172e+00,2.239758968353271484e+00,2.239501237869262695e+00,2.239243507385253906e+00,2.238986015319824219e+00,2.238728523254394531e+00,2.238471031188964844e+00,2.238213539123535156e+00,2.237956285476684570e+00,2.237699031829833984e+00,2.218842506408691406e+00,2.177900075912475586e+00,2.138441085815429688e+00,2.100386381149291992e+00,2.063662767410278320e+00,2.028200864791870117e+00,1.993937373161315918e+00,1.960812449455261230e+00,1.928769826889038086e+00,1.897757768630981445e+00,1.867727041244506836e+00
1.988273382186889648e+00,1.988071203231811523e+00,1.987868905067443848e+00,1.987666845321655273e+00,1.987464785575866699e+00,1.987262606620788574e+00,1.987060666084289551e+00,1.986858725547790527e+00,1.986656904220581055e+00,1.986454844474792480e+00,1.986253023147583008e+00,1.986051321029663086e+00,1.985849618911743164e+00,1.985647678375244141e+00,1.985446095466613770e+00,1.985244512557983398e+00,1.985043048858642578e+00,1.984841227531433105e+00,1.984639883041381836e+00,1.984438419342041016e+00,1.984236836433410645e+00,1.984035491943359375e+00,1.983834147453308105e+00,1.983632922172546387e+00,1.983431458473205566e+00,1.983230352401733398e+00,1.983029246330261230e+00,1.982828140258789062e+00,1.982626795768737793e+00,1.982425808906555176e+00,1.982224822044372559e+00,1.982023715972900391e+00,1.981822848320007324e+00,1.981621980667114258e+00,1.981421232223510742e+00,1.981220245361328125e+00,1.981019496917724609e+00,1.980818748474121094e+00,1.980618119239807129e+00,1.980417370796203613e+00,1.980216741561889648e+00,1.980016231536865234e+00,1.979815721511840820e+00,1.979615092277526855e+00,1.979414701461791992e+00,1.979214310646057129e+00,1.979013800621032715e+00,1.978813529014587402e+00,1.978613257408142090e+00,1.978413105010986328e+00,1.978212714195251465e+00,1.978012561798095703e+00,1.977812528610229492e+00,1.977612495422363281e+00,1.977412223815917969e+00,1.977212309837341309e+00,1.977012395858764648e+00,1.976812601089477539e+00,1.976612448692321777e+00,1.976412653923034668e+00,1.976212978363037109e+00,1.976012945175170898e+00,1.975813388824462891e+00,1.975613713264465332e+00,1.975414156913757324e+00,1.975214362144470215e+00,1.975014805793762207e+00,1.974815368652343750e+00,1.974615931510925293e+00,1.974416375160217285e+00,1.974216938018798828e+00,1.974017620086669922e+00,1.973818421363830566e+00,1.973618984222412109e+00,1.973419785499572754e+00,1.973220586776733398e+00,1.960835576057434082e+00,1.928792119026184082e+00,1.897779464721679688e+00,1.867748022079467773e+00
1.777772307395935059e+00,1.777610540390014648e+00,1.777448892593383789e+00,1.777287364006042480e+00,1.777125835418701172e+00,1.776964187622070312e+00,1.776802659034729004e+00,1.776641249656677246e+00,1.776479840278625488e+00,1.776318311691284180e+00,1.776156902313232422e+00,1.775995612144470215e+00,1.775834202766418457e+00,1.775672912597656250e+00,1.775511622428894043e+00,1.775350451469421387e+00,1.775189042091369629e+00,1.775027990341186523e+00,1.774866819381713867e+00,1.774705767631530762e+00,1.774544477462768555e+00,1.774383425712585449e+00,1.774222493171691895e+00,1.774061441421508789e+00,1.773900389671325684e+00,1.773739457130432129e+00,1.773578524589538574e+00,1.773417592048645020e+00,1.773256659507751465e+00,1.773095965385437012e+00,1.772935152053833008e+00,1.772774219512939453e+00,1.772613525390625000e+00,1.772452831268310547e+00,1.772292137145996094e+00,1.772131323814392090e+00,1.771970748901367188e+00,1.771810173988342285e+00,1.771649479866027832e+00,1.771489024162292480e+00,1.771328568458557129e+00,1.771168112754821777e+00,1.771007418632507324e+00,1.770847082138061523e+00,1.770686745643615723e+00,1.770526409149169922e+00,1.770365834236145020e+00,1.770205616950988770e+00,1.770045399665832520e+00,1.769885182380676270e+00,1.769724726676940918e+00,1.769564628601074219e+00,1.769404530525207520e+00,1.769244194030761719e+00,1.769084095954895020e+00,1.768924117088317871e+00,1.768764138221740723e+00,1.768603920936584473e+00,1.768443942070007324e+00,1.768284082412719727e+00,1.768124103546142578e+00,1.767964124679565430e+00,1.767804265022277832e+00,1.767644405364990234e+00,1.767484664916992188e+00,1.767324686050415039e+00,1.767165064811706543e+00,1.767005324363708496e+00,1.766845464706420898e+00,1.766685843467712402e+00,1.766526222229003906e+00,1.766366720199584961e+00,1.766206979751586914e+00,1.766047358512878418e+00,1.765887975692749023e+00,1.765728473663330078e+00,1.765568852424621582e+00,1.765409469604492188e+00,1.765250086784362793e+00,1.765090823173522949e+00
1.607576131820678711e+00,1.607443809509277344e+00,1.607311725616455078e+00,1.607179641723632812e+00,1.607047438621520996e+00,1.606915354728698730e+00,1.606783270835876465e+00,1.606651186943054199e+00,1.606519103050231934e+00,1.606387138366699219e+00,1.606255173683166504e+00,1.606123208999633789e+00,1.605991125106811523e+00,1.605859279632568359e+00,1.605727434158325195e+00,1.605595588684082031e+00,1.605463624000549316e+00,1.605331778526306152e+00,1.605199933052062988e+00,1.605068087577819824e+00,1.604936361312866211e+00,1.604804635047912598e+00,1.604672908782958984e+00,1.604541063308715820e+00,1.604409456253051758e+00,1.604277729988098145e+00,1.604146122932434082e+00,1.604014396667480469e+00,1.603882908821105957e+00,1.603751301765441895e+00,1.603619813919067383e+00,1.603488087654113770e+00,1.603356719017028809e+00,1.603225231170654297e+00,1.603093624114990234e+00,1.602962136268615723e+00,1.602830767631530762e+00,1.602699398994445801e+00,1.602567911148071289e+00,1.602436542510986328e+00,1.602305293083190918e+00,1.602174043655395508e+00,1.602042555809020996e+00,1.601911306381225586e+00,1.601780056953430176e+00,1.601648807525634766e+00,1.601517558097839355e+00,1.601386427879333496e+00,1.601255297660827637e+00,1.601124048233032227e+00,1.600992918014526367e+00,1.600861907005310059e+00,1.600730776786804199e+00,1.600599646568298340e+00,1.600468635559082031e+00,1.600337624549865723e+00,1.600206732749938965e+00,1.600075602531433105e+00,1.599944591522216797e+00,1.599813699722290039e+00,1.599682688713073730e+00,1.599551796913146973e+00,1.599421024322509766e+00,1.599290132522583008e+00,1.599159240722656250e+00,1.599028468132019043e+00,1.598897695541381836e+00,1.598767042160034180e+00,1.598636150360107422e+00,1.598505496978759766e+00,1.598374724388122559e+00,1.598244190216064453e+00,1.598113417625427246e+00,1.597982764244079590e+00,1.597852230072021484e+00,1.597721457481384277e+00,1.597590923309326172e+00,1.597460389137268066e+00,1.597329974174499512e+00,1.597199320793151855e+00
1.467120289802551270e+00,1.467010259628295898e+00,1.466900229454040527e+00,1.466790199279785156e+00,1.466680049896240234e+00,1.466570019721984863e+00,1.466459989547729492e+00,1.466350078582763672e+00,1.466239929199218750e+00,1.466130018234252930e+00,1.466020107269287109e+00,1.465910077095031738e+00,1.465800166130065918e+00,1.465690255165100098e+00,1.465580463409423828e+00,1.465470433235168457e+00,1.465360641479492188e+00,1.465250849723815918e+00,1.465141057968139648e+00,1.465031147003173828e+00,1.464921355247497559e+00,1.464811682701110840e+00,1.464701890945434570e+00,1.464592099189758301e+00,1.464482426643371582e+00,1.464372754096984863e+00,1.464262962341308594e+00,1.464153289794921875e+00,1.464043736457824707e+00,1.463934063911437988e+00,1.463824391365051270e+00,1.463714838027954102e+00,1.463605165481567383e+00,1.463495731353759766e+00,1.463386058807373047e+00,1.463276505470275879e+00,1.463167071342468262e+00,1.463057518005371094e+00,1.462947964668273926e+00,1.462838530540466309e+00,1.462729096412658691e+00,1.462619543075561523e+00,1.462510108947753906e+00,1.462400794029235840e+00,1.462291479110717773e+00,1.462181925773620605e+00,1.462072610855102539e+00,1.461963295936584473e+00,1.461853981018066406e+00,1.461744666099548340e+00,1.461635351181030273e+00,1.461526155471801758e+00,1.461416721343994141e+00,1.461307525634765625e+00,1.461198329925537109e+00,1.461089134216308594e+00,1.460979819297790527e+00,1.460870742797851562e+00,1.460761547088623047e+00,1.460652470588684082e+00,1.460543274879455566e+00,1.460434198379516602e+00,1.460325121879577637e+00,1.460216045379638672e+00,1.460106849670410156e+00,1.459997892379760742e+00,1.459888815879821777e+00,1.459779739379882812e+00,1.459670782089233398e+00,1.459561824798583984e+00,1.459452867507934570e+00,1.459343791007995605e+00,1.459234952926635742e+00,1.459125995635986328e+00,1.459017157554626465e+00,1.458908200263977051e+00,1.458799362182617188e+00,1.458690524101257324e+00,1.458581686019897461e+00,1.458472728729248047e+00
1.349236011505126953e+00,1.349142909049987793e+00,1.349049925804138184e+00,1.348956823348999023e+00,1.348863601684570312e+00,1.348770618438720703e+00,1.348677515983581543e+00,1.348584413528442383e+00,1.348491430282592773e+00,1.348398447036743164e+00,1.348305463790893555e+00,1.348212361335754395e+00,1.348119497299194336e+00,1.348026514053344727e+00,1.347933650016784668e+00,1.347840547561645508e+00,1.347747683525085449e+00,1.347654819488525391e+00,1.347561836242675781e+00,1.347468972206115723e+00,1.347376108169555664e+00,1.347283363342285156e+00,1.347190380096435547e+00,1.347097516059875488e+00,1.347004771232604980e+00,1.346912026405334473e+00,1.346819162368774414e+00,1.346726298332214355e+00,1.346633553504943848e+00,1.346540927886962891e+00,1.346448063850402832e+00,1.346355319023132324e+00,1.346262693405151367e+00,1.346169829368591309e+00,1.346077203750610352e+00,1.345984578132629395e+00,1.345891833305358887e+00,1.345799088478088379e+00,1.345706462860107422e+00,1.345613956451416016e+00,1.345521330833435059e+00,1.345428586006164551e+00,1.345336079597473145e+00,1.345243453979492188e+00,1.345150947570800781e+00,1.345058321952819824e+00,1.344965815544128418e+00,1.344873309135437012e+00,1.344780683517456055e+00,1.344688177108764648e+00,1.344595789909362793e+00,1.344503283500671387e+00,1.344410777091979980e+00,1.344318270683288574e+00,1.344225883483886719e+00,1.344133496284484863e+00,1.344040989875793457e+00,1.343948602676391602e+00,1.343856215476989746e+00,1.343763828277587891e+00,1.343671441078186035e+00,1.343579173088073730e+00,1.343486785888671875e+00,1.343394398689270020e+00,1.343302130699157715e+00,1.343209862709045410e+00,1.343117594718933105e+00,1.343025207519531250e+00,1.342932939529418945e+00,1.342840790748596191e+00,1.342748522758483887e+00,1.342656254768371582e+00,1.342564105987548828e+00,1.342471837997436523e+00,1.342379570007324219e+00,1.342287421226501465e+00,1.342195272445678711e+00,1.342103242874145508e+00,1.342010974884033203e+00,1.341918826103210449e+00
1.248886942863464355e+00,1.248807191848754883e+00,1.248727560043334961e+00,1.248647689819335938e+00,1.248567938804626465e+00,1.248488187789916992e+00,1.248408555984497070e+00,1.248328685760498047e+00,1.248249053955078125e+00,1.248169422149658203e+00,1.248089551925659180e+00,1.248009920120239258e+00,1.247930288314819336e+00,1.247850656509399414e+00,1.247770905494689941e+00,1.247691273689270020e+00,1.247611761093139648e+00,1.247532129287719727e+00,1.247452378273010254e+00,1.247372865676879883e+00,1.247293233871459961e+00,1.247213721275329590e+00,1.247134089469909668e+00,1.247054576873779297e+00,1.246975064277648926e+00,1.246895432472229004e+00,1.246815919876098633e+00,1.246736407279968262e+00,1.246656894683837891e+00,1.246577382087707520e+00,1.246497869491577148e+00,1.246418476104736328e+00,1.246338963508605957e+00,1.246259450912475586e+00,1.246180057525634766e+00,1.246100664138793945e+00,1.246021270751953125e+00,1.245941758155822754e+00,1.245862364768981934e+00,1.245782971382141113e+00,1.245703458786010742e+00,1.245624184608459473e+00,1.245544791221618652e+00,1.245465517044067383e+00,1.245386123657226562e+00,1.245306730270385742e+00,1.245227456092834473e+00,1.245148181915283203e+00,1.245068788528442383e+00,1.244989514350891113e+00,1.244910240173339844e+00,1.244830965995788574e+00,1.244751691818237305e+00,1.244672417640686035e+00,1.244593143463134766e+00,1.244513869285583496e+00,1.244434714317321777e+00,1.244355559349060059e+00,1.244276285171508789e+00,1.244197010993957520e+00,1.244117856025695801e+00,1.244038701057434082e+00,1.243959546089172363e+00,1.243880391120910645e+00,1.243801236152648926e+00,1.243722200393676758e+00,1.243642926216125488e+00,1.243563890457153320e+00,1.243484735488891602e+00,1.243405699729919434e+00,1.243326544761657715e+00,1.243247509002685547e+00,1.243168473243713379e+00,1.243089437484741211e+00,1.243010282516479492e+00,1.242931365966796875e+00,1.242852330207824707e+00,1.242773294448852539e+00,1.242694258689880371e+00,1.242615342140197754e+00
1.162431597709655762e+00,1.162362456321716309e+00,1.162293314933776855e+00,1.162224173545837402e+00,1.162155151367187500e+00,1.162086009979248047e+00,1.162016868591308594e+00,1.161947846412658691e+00,1.161878824234008789e+00,1.161809802055358887e+00,1.161740660667419434e+00,1.161671638488769531e+00,1.161602616310119629e+00,1.161533594131469727e+00,1.161464571952819824e+00,1.161395549774169922e+00,1.161326646804809570e+00,1.161257505416870117e+00,1.161188602447509766e+00,1.161119699478149414e+00,1.161050677299499512e+00,1.160981655120849609e+00,1.160912752151489258e+00,1.160843849182128906e+00,1.160774946212768555e+00,1.160705924034118652e+00,1.160637021064758301e+00,1.160568118095397949e+00,1.160499334335327148e+00,1.160430312156677246e+00,1.160361409187316895e+00,1.160292625427246094e+00,1.160223722457885742e+00,1.160154819488525391e+00,1.160086035728454590e+00,1.160017132759094238e+00,1.159948348999023438e+00,1.159879446029663086e+00,1.159810662269592285e+00,1.159741878509521484e+00,1.159673094749450684e+00,1.159604310989379883e+00,1.159535527229309082e+00,1.159466743469238281e+00,1.159397959709167480e+00,1.159329175949096680e+00,1.159260392189025879e+00,1.159191608428955078e+00,1.159122943878173828e+00,1.159054160118103027e+00,1.158985495567321777e+00,1.158916711807250977e+00,1.158848047256469727e+00,1.158779382705688477e+00,1.158710718154907227e+00,1.158641934394836426e+00,1.158573269844055176e+00,1.158504724502563477e+00,1.158436059951782227e+00,1.158367395401000977e+00,1.158298730850219727e+00,1.158230185508728027e+00,1.158161401748657227e+00,1.158092856407165527e+00,1.158024311065673828e+00,1.157955646514892578e+00,1.157887101173400879e+00,1.157818555831909180e+00,1.157749891281127930e+00,1.157681345939636230e+00,1.157612800598144531e+00,1.157544255256652832e+00,1.157475709915161133e+00,1.157407164573669434e+00,1.157338619232177734e+00,1.157270193099975586e+00,1.157201647758483887e+00,1.157133102416992188e+00,1.157064676284790039e+00,1.156996130943298340e+00
1.087170958518981934e+00,1.087110519409179688e+00,1.087050080299377441e+00,1.086989641189575195e+00,1.086929202079772949e+00,1.086868762969970703e+00,1.086808323860168457e+00,1.086747884750366211e+00,1.086687445640563965e+00,1.086627125740051270e+00,1.086566686630249023e+00,1.086506247520446777e+00,1.086445927619934082e+00,1.086385488510131836e+00,1.086325168609619141e+00,1.086264729499816895e+00,1.086204409599304199e+00,1.086144089698791504e+00,1.086083650588989258e+00,1.086023330688476562e+00,1.085963129997253418e+00,1.085902690887451172e+00,1.085842370986938477e+00,1.085782051086425781e+00,1.085721731185913086e+00,1.085661411285400391e+00,1.085601210594177246e+00,1.085540890693664551e+00,1.085480570793151855e+00,1.085420370101928711e+00,1.085360050201416016e+00,1.085299849510192871e+00,1.085239529609680176e+00,1.085179328918457031e+00,1.085119128227233887e+00,1.085058927536010742e+00,1.084998607635498047e+00,1.084938406944274902e+00,1.084878206253051758e+00,1.084818005561828613e+00,1.084757804870605469e+00,1.084697604179382324e+00,1.084637403488159180e+00,1.084577202796936035e+00,1.084517002105712891e+00,1.084456920623779297e+00,1.084396719932556152e+00,1.084336519241333008e+00,1.084276437759399414e+00,1.084216356277465820e+00,1.084156155586242676e+00,1.084096074104309082e+00,1.084035873413085938e+00,1.083975791931152344e+00,1.083915710449218750e+00,1.083855628967285156e+00,1.083795547485351562e+00,1.083735466003417969e+00,1.083675265312194824e+00,1.083615303039550781e+00,1.083555221557617188e+00,1.083495140075683594e+00,1.083435058593750000e+00,1.083375096321105957e+00,1.083315014839172363e+00,1.083255052566528320e+00,1.083194971084594727e+00,1.083134889602661133e+00,1.083074927330017090e+00,1.083014845848083496e+00,1.082954883575439453e+00,1.082894921302795410e+00,1.082834959030151367e+00,1.082774877548217773e+00,1.082714915275573730e+00,1.082655072212219238e+00,1.082595109939575195e+00,1.082535028457641602e+00,1.082475185394287109e+00,1.082415223121643066e+00
1.021063208580017090e+00,1.021009922027587891e+00,1.020956516265869141e+00,1.020903229713439941e+00,1.020849943161010742e+00,1.020796537399291992e+00,1.020743250846862793e+00,1.020689964294433594e+00,1.020636677742004395e+00,1.020583391189575195e+00,1.020530104637145996e+00,1.020476818084716797e+00,1.020423650741577148e+00,1.020370244979858398e+00,1.020317077636718750e+00,1.020263791084289551e+00,1.020210623741149902e+00,1.020157337188720703e+00,1.020104050636291504e+00,1.020050883293151855e+00,1.019997596740722656e+00,1.019944429397583008e+00,1.019891142845153809e+00,1.019837975502014160e+00,1.019784688949584961e+00,1.019731521606445312e+00,1.019678354263305664e+00,1.019625186920166016e+00,1.019572019577026367e+00,1.019518852233886719e+00,1.019465684890747070e+00,1.019412517547607422e+00,1.019359350204467773e+00,1.019306182861328125e+00,1.019253015518188477e+00,1.019199848175048828e+00,1.019146800041198730e+00,1.019093632698059082e+00,1.019040584564208984e+00,1.018987417221069336e+00,1.018934249877929688e+00,1.018881201744079590e+00,1.018828034400939941e+00,1.018774986267089844e+00,1.018721818923950195e+00,1.018668770790100098e+00,1.018615722656250000e+00,1.018562555313110352e+00,1.018509507179260254e+00,1.018456459045410156e+00,1.018403410911560059e+00,1.018350362777709961e+00,1.018297314643859863e+00,1.018244266510009766e+00,1.018191218376159668e+00,1.018138170242309570e+00,1.018085241317749023e+00,1.018032193183898926e+00,1.017979145050048828e+00,1.017926096916198730e+00,1.017873167991638184e+00,1.017820119857788086e+00,1.017767071723937988e+00,1.017714142799377441e+00,1.017661213874816895e+00,1.017608165740966797e+00,1.017555236816406250e+00,1.017502307891845703e+00,1.017449378967285156e+00,1.017396330833435059e+00,1.017343401908874512e+00,1.017290472984313965e+00,1.017237544059753418e+00,1.017184615135192871e+00,1.017131686210632324e+00,1.017078757286071777e+00,1.017025828361511230e+00,1.016972899436950684e+00,1.016919970512390137e+00,1.016867160797119141e+00
9.625342488288879395e-01,9.624868631362915039e-01,9.624394774436950684e-01,9.623920917510986328e-01,9.623447656631469727e-01,9.622972607612609863e-01,9.622499346733093262e-01,9.622025489807128906e-01,9.621552228927612305e-01,9.621078968048095703e-01,9.620605707168579102e-01,9.620132446289062500e-01,9.619657993316650391e-01,9.619184732437133789e-01,9.618711471557617188e-01,9.618238210678100586e-01,9.617764949798583984e-01,9.617292284965515137e-01,9.616819024085998535e-01,9.616346359252929688e-01,9.615872502326965332e-01,9.615399241447448730e-01,9.614926576614379883e-01,9.614453911781311035e-01,9.613981246948242188e-01,9.613508582115173340e-01,9.613035917282104492e-01,9.612562060356140137e-01,9.612089991569519043e-01,9.611617326736450195e-01,9.611144661903381348e-01,9.610672593116760254e-01,9.610199928283691406e-01,9.609727859497070312e-01,9.609255790710449219e-01,9.608782529830932617e-01,9.608309864997863770e-01,9.607837796211242676e-01,9.607365727424621582e-01,9.606894254684448242e-01,9.606422185897827148e-01,9.605950117111206055e-01,9.605476856231689453e-01,9.605005383491516113e-01,9.604533314704895020e-01,9.604061841964721680e-01,9.603590369224548340e-01,9.603118300437927246e-01,9.602646827697753906e-01,9.602175354957580566e-01,9.601702690124511719e-01,9.601231217384338379e-01,9.600759744644165039e-01,9.600288271903991699e-01,9.599816799163818359e-01,9.599345922470092773e-01,9.598874449729919434e-01,9.598402380943298340e-01,9.597930908203125000e-01,9.597460031509399414e-01,9.596989154815673828e-01,9.596518278121948242e-01,9.596046805381774902e-01,9.595575928688049316e-01,9.595105051994323730e-01,9.594633579254150391e-01,9.594162702560424805e-01,9.593691825866699219e-01,9.593220949172973633e-01,9.592750668525695801e-01,9.592279791831970215e-01,9.591809511184692383e-01,9.591338038444519043e-01,9.590867161750793457e-01,9.590396881103515625e-01,9.589926600456237793e-01,9.589456319808959961e-01,9.588986039161682129e-01,9.588515758514404297e-01,9.588045477867126465e-01
9.103514552116394043e-01,9.103090763092041016e-01,9.102666974067687988e-01,9.102243185043334961e-01,9.101818203926086426e-01,9.101394414901733398e-01,9.100971221923828125e-01,9.100547432899475098e-01,9.100124239921569824e-01,9.099700450897216797e-01,9.099277257919311523e-01,9.098853468894958496e-01,9.098429083824157715e-01,9.098005890846252441e-01,9.097582697868347168e-01,9.097159504890441895e-01,9.096736311912536621e-01,9.096313118934631348e-01,9.095889925956726074e-01,9.095465540885925293e-01,9.095042943954467773e-01,9.094619750976562500e-01,9.094196557998657227e-01,9.093773961067199707e-01,9.093350768089294434e-01,9.092928171157836914e-01,9.092504978179931641e-01,9.092081189155578613e-01,9.091658592224121094e-01,9.091235995292663574e-01,9.090813398361206055e-01,9.090390801429748535e-01,9.089968204498291016e-01,9.089545607566833496e-01,9.089121818542480469e-01,9.088699817657470703e-01,9.088277220726013184e-01,9.087854623794555664e-01,9.087432622909545898e-01,9.087010025978088379e-01,9.086588025093078613e-01,9.086165428161621094e-01,9.085742235183715820e-01,9.085320234298706055e-01,9.084898233413696289e-01,9.084476232528686523e-01,9.084054231643676758e-01,9.083632230758666992e-01,9.083210229873657227e-01,9.082787632942199707e-01,9.082365632057189941e-01,9.081943631172180176e-01,9.081521630287170410e-01,9.081100225448608398e-01,9.080678224563598633e-01,9.080256819725036621e-01,9.079834818840026855e-01,9.079412221908569336e-01,9.078990817070007324e-01,9.078569412231445312e-01,9.078148007392883301e-01,9.077726602554321289e-01,9.077305197715759277e-01,9.076883792877197266e-01,9.076461195945739746e-01,9.076039791107177734e-01,9.075618982315063477e-01,9.075197577476501465e-01,9.074776172637939453e-01,9.074355363845825195e-01,9.073933959007263184e-01,9.073513150215148926e-01,9.073091149330139160e-01,9.072670340538024902e-01,9.072249531745910645e-01,9.071828126907348633e-01,9.071407318115234375e-01,9.070986509323120117e-01,9.070565700531005859e-01,9.070144295692443848e-01
8.635357022285461426e-01,8.634976148605346680e-01,8.634594678878784180e-01,8.634213209152221680e-01,8.633831143379211426e-01,8.633450269699096680e-01,8.633068799972534180e-01,8.632687926292419434e-01,8.632306456565856934e-01,8.631925582885742188e-01,8.631544709205627441e-01,8.631162643432617188e-01,8.630781769752502441e-01,8.630400896072387695e-01,8.630020022392272949e-01,8.629639148712158203e-01,8.629258275032043457e-01,8.628877401351928711e-01,8.628496527671813965e-01,8.628115057945251465e-01,8.627734184265136719e-01,8.627353310585021973e-01,8.626973032951354980e-01,8.626592159271240234e-01,8.626211881637573242e-01,8.625831007957458496e-01,8.625450134277343750e-01,8.625069260597229004e-01,8.624688982963562012e-01,8.624308705329895020e-01,8.623928427696228027e-01,8.623548150062561035e-01,8.623167872428894043e-01,8.622787594795227051e-01,8.622406125068664551e-01,8.622025847434997559e-01,8.621646165847778320e-01,8.621265888214111328e-01,8.620885610580444336e-01,8.620505332946777344e-01,8.620125651359558105e-01,8.619744777679443359e-01,8.619364500045776367e-01,8.618984818458557129e-01,8.618605136871337891e-01,8.618224859237670898e-01,8.617845177650451660e-01,8.617465496063232422e-01,8.617085814476013184e-01,8.616704940795898438e-01,8.616325259208679199e-01,8.615945577621459961e-01,8.615565896034240723e-01,8.615186214447021484e-01,8.614807128906250000e-01,8.614427447319030762e-01,8.614047169685363770e-01,8.613667488098144531e-01,8.613288402557373047e-01,8.612908720970153809e-01,8.612529635429382324e-01,8.612149953842163086e-01,8.611770868301391602e-01,8.611391782760620117e-01,8.611011505126953125e-01,8.610632419586181641e-01,8.610253334045410156e-01,8.609874248504638672e-01,8.609494566917419434e-01,8.609115481376647949e-01,8.608736991882324219e-01,8.608356714248657227e-01,8.607978224754333496e-01,8.607599139213562012e-01,8.607220053672790527e-01,8.606841564178466797e-01,8.606462478637695312e-01,8.606083393096923828e-01,8.605704903602600098e-01,8.605325222015380859e-01
8.212996125221252441e-01,8.212651014328002930e-01,8.212305903434753418e-01,8.211961388587951660e-01,8.211615681648254395e-01,8.211270570755004883e-01,8.210926055908203125e-01,8.210580945014953613e-01,8.210236430168151855e-01,8.209891915321350098e-01,8.209547400474548340e-01,8.209201693534851074e-01,8.208857178688049316e-01,8.208512663841247559e-01,8.208168148994445801e-01,8.207823038101196289e-01,8.207479119300842285e-01,8.207134604454040527e-01,8.206788897514343262e-01,8.206444978713989258e-01,8.206100463867187500e-01,8.205755949020385742e-01,8.205411434173583984e-01,8.205067515373229980e-01,8.204723000526428223e-01,8.204379081726074219e-01,8.204033970832824707e-01,8.203689455986022949e-01,8.203345537185668945e-01,8.203001022338867188e-01,8.202657103538513184e-01,8.202313184738159180e-01,8.201969265937805176e-01,8.201624155044555664e-01,8.201280236244201660e-01,8.200936317443847656e-01,8.200592398643493652e-01,8.200248479843139648e-01,8.199904561042785645e-01,8.199560642242431641e-01,8.199216723442077637e-01,8.198872208595275879e-01,8.198528289794921875e-01,8.198184967041015625e-01,8.197841048240661621e-01,8.197497725486755371e-01,8.197153806686401367e-01,8.196810483932495117e-01,8.196465969085693359e-01,8.196122050285339355e-01,8.195778727531433105e-01,8.195435404777526855e-01,8.195091485977172852e-01,8.194748163223266602e-01,8.194404840469360352e-01,8.194061517715454102e-01,8.193717002868652344e-01,8.193374276161193848e-01,8.193030953407287598e-01,8.192687630653381348e-01,8.192344307899475098e-01,8.192000985145568848e-01,8.191657662391662598e-01,8.191313743591308594e-01,8.190970420837402344e-01,8.190627694129943848e-01,8.190284371376037598e-01,8.189941644668579102e-01,8.189598321914672852e-01,8.189255595207214355e-01,8.188912272453308105e-01,8.188568949699401855e-01,8.188225626945495605e-01,8.187882900238037109e-01,8.187540173530578613e-01,8.187197446823120117e-01,8.186854720115661621e-01,8.186511993408203125e-01,8.186168074607849121e-01,8.185825347900390625e-01
7.830024361610412598e-01,7.829710841178894043e-01,7.829397320747375488e-01,7.829083204269409180e-01,7.828769683837890625e-01,7.828456163406372070e-01,7.828142642974853516e-01,7.827829718589782715e-01,7.827516198158264160e-01,7.827202677726745605e-01,7.826888561248779297e-01,7.826575636863708496e-01,7.826262116432189941e-01,7.825949192047119141e-01,7.825635671615600586e-01,7.825322747230529785e-01,7.825009226799011230e-01,7.824696302413940430e-01,7.824382185935974121e-01,7.824069261550903320e-01,7.823756337165832520e-01,7.823443412780761719e-01,7.823130488395690918e-01,7.822817564010620117e-01,7.822504639625549316e-01,7.822190523147583008e-01,7.821877598762512207e-01,7.821564674377441406e-01,7.821252346038818359e-01,7.820939421653747559e-01,7.820626497268676758e-01,7.820313572883605957e-01,7.820000648498535156e-01,7.819687724113464355e-01,7.819374799728393555e-01,7.819061875343322754e-01,7.818749547004699707e-01,7.818436622619628906e-01,7.818124294281005859e-01,7.817811369895935059e-01,7.817498445510864258e-01,7.817185521125793457e-01,7.816873192787170410e-01,7.816560864448547363e-01,7.816248536109924316e-01,7.815935611724853516e-01,7.815623283386230469e-01,7.815310955047607422e-01,7.814998030662536621e-01,7.814685702323913574e-01,7.814373373985290527e-01,7.814061045646667480e-01,7.813748717308044434e-01,7.813436388969421387e-01,7.813124656677246094e-01,7.812811732292175293e-01,7.812499403953552246e-01,7.812187075614929199e-01,7.811875343322753906e-01,7.811563014984130859e-01,7.811250686645507812e-01,7.810938954353332520e-01,7.810627222061157227e-01,7.810314297676086426e-01,7.810002565383911133e-01,7.809690237045288086e-01,7.809378504753112793e-01,7.809066772460937500e-01,7.808755040168762207e-01,7.808442711830139160e-01,7.808130383491516113e-01,7.807818651199340820e-01,7.807506918907165527e-01,7.807195186614990234e-01,7.806883454322814941e-01,7.806571722030639648e-01,7.806259989738464355e-01,7.805948257446289062e-01,7.805635929107666016e-01,7.805324792861938477e-01
7.481177449226379395e-01,7.480890750885009766e-01,7.480604648590087891e-01,7.480317950248718262e-01,7.480031847953796387e-01,7.479745745658874512e-01,7.479459643363952637e-01,7.479173541069030762e-01,7.478887438774108887e-01,7.478601336479187012e-01,7.478314638137817383e-01,7.478028535842895508e-01,7.477743029594421387e-01,7.477456927299499512e-01,7.477170825004577637e-01,7.476884722709655762e-01,7.476599216461181641e-01,7.476312518119812012e-01,7.476027011871337891e-01,7.475740909576416016e-01,7.475454807281494141e-01,7.475169301033020020e-01,7.474883794784545898e-01,7.474597692489624023e-01,7.474312186241149902e-01,7.474025487899780273e-01,7.473739981651306152e-01,7.473454475402832031e-01,7.473168969154357910e-01,7.472883462905883789e-01,7.472597360610961914e-01,7.472311854362487793e-01,7.472025752067565918e-01,7.471740245819091797e-01,7.471454739570617676e-01,7.471169233322143555e-01,7.470883727073669434e-01,7.470598220825195312e-01,7.470313310623168945e-01,7.470027804374694824e-01,7.469741702079772949e-01,7.469456195831298828e-01,7.469171285629272461e-01,7.468885779380798340e-01,7.468600273132324219e-01,7.468315362930297852e-01,7.468029856681823730e-01,7.467744350433349609e-01,7.467458844184875488e-01,7.467173933982849121e-01,7.466888427734375000e-01,7.466603517532348633e-01,7.466318607330322266e-01,7.466033101081848145e-01,7.465748190879821777e-01,7.465462684631347656e-01,7.465177774429321289e-01,7.464892268180847168e-01,7.464607357978820801e-01,7.464322447776794434e-01,7.464037537574768066e-01,7.463752627372741699e-01,7.463467121124267578e-01,7.463182210922241211e-01,7.462897300720214844e-01,7.462612390518188477e-01,7.462328076362609863e-01,7.462043166160583496e-01,7.461758255958557129e-01,7.461473345756530762e-01,7.461188435554504395e-01,7.460903525352478027e-01,7.460618615150451660e-01,7.460334300994873047e-01,7.460049390792846680e-01,7.459765076637268066e-01,7.459480166435241699e-01,7.459195256233215332e-01,7.458910942077636719e-01,7.458626031875610352e-01
7.162088155746459961e-01,7.161825895309448242e-01,7.161563038825988770e-01,7.161300778388977051e-01,7.161038517951965332e-01,7.160776257514953613e-01,7.160513997077941895e-01,7.160251736640930176e-01,7.159989476203918457e-01,7.159727215766906738e-01,7.159464955329895020e-01,7.159202694892883301e-01,7.158940434455871582e-01,7.158678174018859863e-01,7.158416509628295898e-01,7.158154249191284180e-01,7.157891988754272461e-01,7.157629728317260742e-01,7.157367467880249023e-01,7.157105803489685059e-01,7.156843543052673340e-01,7.156581878662109375e-01,7.156319618225097656e-01,7.156057953834533691e-01,7.155795693397521973e-01,7.155533432960510254e-01,7.155271768569946289e-01,7.155010104179382324e-01,7.154747843742370605e-01,7.154486179351806641e-01,7.154224514961242676e-01,7.153962850570678711e-01,7.153700590133666992e-01,7.153438925743103027e-01,7.153177261352539062e-01,7.152915596961975098e-01,7.152653932571411133e-01,7.152392268180847168e-01,7.152130603790283203e-01,7.151868343353271484e-01,7.151606678962707520e-01,7.151345014572143555e-01,7.151083946228027344e-01,7.150822281837463379e-01,7.150560617446899414e-01,7.150299549102783203e-01,7.150037884712219238e-01,7.149775624275207520e-01,7.149514555931091309e-01,7.149252891540527344e-01,7.148991823196411133e-01,7.148730158805847168e-01,7.148469090461730957e-01,7.148207426071166992e-01,7.147945761680603027e-01,7.147684097290039062e-01,7.147423028945922852e-01,7.147161960601806641e-01,7.146900892257690430e-01,7.146639227867126465e-01,7.146378159523010254e-01,7.146117091178894043e-01,7.145855426788330078e-01,7.145594358444213867e-01,7.145333290100097656e-01,7.145072221755981445e-01,7.144811153411865234e-01,7.144550085067749023e-01,7.144289016723632812e-01,7.144027352333068848e-01,7.143766283988952637e-01,7.143505215644836426e-01,7.143244147300720215e-01,7.142983078956604004e-01,7.142722606658935547e-01,7.142461538314819336e-01,7.142200469970703125e-01,7.141939401626586914e-01,7.141678333282470703e-01,7.141417264938354492e-01
