5.000000000000000000e+00,5.000000000000000000e+00,5.000000000000000000e+00,5.000000000000000000e+00,5.000000000000000000e+00,5.000000000000000000e+00,5.000000000000000000e+00,5.000000000000000000e+00,5.000000000000000000e+00,5.000000000000000000e+00,5.000000000000000000e+00,5.000000000000000000e+00,5.000000000000000000e+00,5.000000000000000000e+00,5.000000000000000000e+00,5.000000000000000000e+00,5.000000000000000000e+00,5.000000000000000000e+00,5.000000000000000000e+00,5.000000000000000000e+00,5.000000000000000000e+00,5.000000000000000000e+00,5.000000000000000000e+00,5.000000000000000000e+00,5.000000000000000000e+00,5.000000000000000000e+00,5.000000000000000000e+00,5.000000000000000000e+00,5.000000000000000000e+00,5.000000000000000000e+00,5.000000000000000000e+00,5.000000000000000000e+00,5.000000000000000000e+00,5.000000000000000000e+00,5.000000000000000000e+00,5.000000000000000000e+00,5.000000000000000000e+00,5.000000000000000000e+00,5.000000000000000000e+00,4.845976352691650391e+00,4.656361103057861328e+00,4.481026172637939453e+00,4.318416118621826172e+00,4.167194366455078125e+00,4.026206016540527344e+00,3.894444942474365234e+00,3.771034479141235352e+00,3.655205965042114258e+00,3.546280384063720703e+00,3.443658590316772461e+00,3.346809387207031250e+00,3.255258798599243164e+00,3.168583154678344727e+00,3.086403846740722656e+00,3.008379697799682617e+00,2.934202909469604492e+00,2.863595962524414062e+00,2.796307325363159180e+00,2.732108354568481445e+00,2.670791149139404297e+00,2.612165927886962891e+00,2.556058883666992188e+00,2.502311468124389648e+00,2.450777769088745117e+00,2.401324033737182617e+00,2.353826284408569336e+00,2.308171272277832031e+00,2.264253854751586914e+00,2.221976280212402344e+00,2.181248664855957031e+00,2.141987085342407227e+00,2.104113817214965820e+00,2.067556619644165039e+00,2.032248497009277344e+00,1.998125791549682617e+00,1.965129852294921875e+00,1.933206081390380859e+00,1.902302742004394531e+00,1.872372150421142578e+00,1.843368768692016602e+00
5.000000000000000000e+00,5.000000000000000000e+00,5.000000000000000000e+00,5.000000000000000000e+00,5.000000000000000000e+00,5.000000000000000000e+00,5.000000000000000000e+00,5.000000000000000000e+00,5.000000000000000000e+00,5.000000000000000000e+00,5.000000000000000000e+00,5.000000000000000000e+00,5.000000000000000000e+00,5.000000000000000000e+00,5.000000000000000000e+00,5.000000000000000000e+00,5.000000000000000000e+00,5.000000000000000000e+00,5.000000000000000000e+00,5.000000000000000000e+00,5.000000000000000000e+00,5.000000000000000000e+00,5.000000000000000000e+00,5.000000000000000000e+00,5.000000000000000000e+00,5.000000000000000000e+00,5.000000000000000000e+00,5.000000000000000000e+00,5.000000000000000000e+00,5.000000000000000000e+00,5.000000000000000000e+00,5.000000000000000000e+00,5.000000000000000000e+00,5.000000000000000000e+00,5.000000000000000000e+00,5.000000000000000000e+00,5.000000000000000000e+00,5.000000000000000000e+00,5.000000000000000000e+00,4.846115589141845703e+00,4.656489372253417969e+00,4.481144905090332031e+00,4.318526268005371094e+00,4.167297363281250000e+00,4.026301860809326172e+00,3.894534826278686523e+00,3.771118879318237305e+00,3.655284881591796875e+00,3.546354532241821289e+00,3.443728685379028320e+00,3.346875905990600586e+00,3.255321502685546875e+00,3.168642759323120117e+00,3.086460351943969727e+00,3.008433103561401367e+00,2.934253692626953125e+00,2.863644361495971680e+00,2.796353578567504883e+00,2.732152462005615234e+00,2.670833349227905273e+00,2.612205982208251953e+00,2.556097507476806641e+00,2.502348423004150391e+00,2.450813531875610352e+00,2.401357889175415039e+00,2.353859186172485352e+00,2.308202743530273438e+00,2.264284133911132812e+00,2.222005367279052734e+00,2.181276798248291016e+00,2.142014265060424805e+00,2.104140281677246094e+00,2.067582130432128906e+00,2.032272815704345703e+00,1.998149275779724121e+00,1.965152621269226074e+00,1.933228135108947754e+00,1.902324318885803223e+00,1.872392892837524414e+00,1.843388795852661133e+00
5.000000000000000000e+00,5.000000000000000000e+00,5.000000000000000000e+00,5.000000000000000000e+00,5.000000000000000000e+00,5.000000000000000000e+00,5.000000000000000000e+00,5.000000000000000000e+00,5.000000000000000000e+00,5.000000000000000000e+00,5.000000000000000000e+00,5.000000000000000000e+00,5.000000000000000000e+00,5.000000000000000000e+00,5.000000000000000000e+00,5.000000000000000000e+00,5.000000000000000000e+00,5.000000000000000000e+00,5.000000000000000000e+00,5.000000000000000000e+00,5.000000000000000000e+00,5.000000000000000000e+00,5.000000000000000000e+00,5.000000000000000000e+00,5.000000000000000000e+00,5.000000000000000000e+00,5.000000000000000000e+00,5.000000000000000000e+00,5.000000000000000000e+00,5.000000000000000000e+00,5.000000000000000000e+00,5.000000000000000000e+00,5.000000000000000000e+00,5.000000000000000000e+00,5.000000000000000000e+00,5.000000000000000000e+00,5.000000000000000000e+00,5.000000000000000000e+00,5.000000000000000000e+00,4.846254348754882812e+00,4.656617641448974609e+00,4.481263637542724609e+00,4.318636894226074219e+00,4.167399883270263672e+00,4.026397705078125000e+00,3.894624233245849609e+00,3.771202802658081055e+00,3.655364036560058594e+00,3.546429157257080078e+00,3.443799018859863281e+00,3.346941947937011719e+00,3.255384206771850586e+00,3.168702125549316406e+00,3.086516618728637695e+00,3.008486747741699219e+00,2.934304714202880859e+00,2.863692998886108398e+00,2.796399831771850586e+00,2.732196569442749023e+00,2.670875549316406250e+00,2.612246513366699219e+00,2.556136131286621094e+00,2.502385377883911133e+00,2.450848579406738281e+00,2.401391983032226562e+00,2.353891849517822266e+00,2.308234453201293945e+00,2.264314651489257812e+00,2.222034692764282227e+00,2.181304931640625000e+00,2.142041444778442383e+00,2.104166269302368164e+00,2.067607164382934570e+00,2.032297372817993164e+00,1.998172879219055176e+00,1.965175628662109375e+00,1.933250188827514648e+00,1.902345776557922363e+00,1.872413516044616699e+00,1.843408942222595215e+00
5.000000000000000000e+00,5.000000000000000000e+00,5.000000000000000000e+00,5.000000000000000000e+00,5.000000000000000000e+00,5.000000000000000000e+00,5.000000000000000000e+00,5.000000000000000000e+00,5.000000000000000000e+00,5.000000000000000000e+00,5.000000000000000000e+00,5.000000000000000000e+00,5.000000000000000000e+00,5.000000000000000000e+00,5.000000000000000000e+00,5.000000000000000000e+00,5.000000000000000000e+00,5.000000000000000000e+00,5.000000000000000000e+00,5.000000000000000000e+00,5.000000000000000000e+00,5.000000000000000000e+00,5.000000000000000000e+00,5.000000000000000000e+00,5.000000000000000000e+00,5.000000000000000000e+00,5.000000000000000000e+00,5.000000000000000000e+00,5.000000000000000000e+00,5.000000000000000000e+00,5.000000000000000000e+00,5.000000000000000000e+00,5.000000000000000000e+00,5.000000000000000000e+00,5.000000000000000000e+00,5.000000000000000000e+00,5.000000000000000000e+00,5.000000000000000000e+00,5.000000000000000000e+00,4.846393108367919922e+00,4.656745910644531250e+00,4.481382369995117188e+00,4.318747043609619141e+00,4.167502880096435547e+00,4.026493549346923828e+00,3.894714355468750000e+00,3.771287202835083008e+00,3.655442953109741211e+00,3.546503305435180664e+00,3.443868875503540039e+00,3.347008466720581055e+00,3.255446910858154297e+00,3.168761491775512695e+00,3.086573123931884766e+00,3.008540153503417969e+00,2.934355497360229492e+00,2.863741397857666016e+00,2.796446084976196289e+00,2.732240915298461914e+00,2.670917749404907227e+00,2.612286806106567383e+00,2.556174755096435547e+00,2.502422094345092773e+00,2.450884342193603516e+00,2.401426076889038086e+00,2.353924751281738281e+00,2.308265924453735352e+00,2.264344930648803711e+00,2.222063779830932617e+00,2.181333065032958984e+00,2.142068624496459961e+00,2.104192495346069336e+00,2.067632675170898438e+00,2.032321691513061523e+00,1.998196363449096680e+00,1.965198397636413574e+00,1.933272480964660645e+00,1.902367115020751953e+00,1.872434377670288086e+00,1.843428969383239746e+00
5.000000000000000000e+00,5.000000000000000000e+00,5.000000000000000000e+00,5.000000000000000000e+00,5.000000000000000000e+00,5.000000000000000000e+00,5.000000000000000000e+00,5.000000000000000000e+00,5.000000000000000000e+00,5.000000000000000000e+00,5.000000000000000000e+00,5.000000000000000000e+00,5.000000000000000000e+00,5.000000000000000000e+00,5.000000000000000000e+00,5.000000000000000000e+00,5.000000000000000000e+00,5.000000000000000000e+00,5.000000000000000000e+00,5.000000000000000000e+00,5.000000000000000000e+00,5.000000000000000000e+00,5.000000000000000000e+00,5.000000000000000000e+00,5.000000000000000000e+00,5.000000000000000000e+00,5.000000000000000000e+00,5.000000000000000000e+00,5.000000000000000000e+00,5.000000000000000000e+00,5.000000000000000000e+00,5.000000000000000000e+00,5.000000000000000000e+00,5.000000000000000000e+00,5.000000000000000000e+00,5.000000000000000000e+00,5.000000000000000000e+00,5.000000000000000000e+00,5.000000000000000000e+00,4.846532344818115234e+00,4.656874656677246094e+00,4.481501579284667969e+00,4.318857669830322266e+00,4.167605400085449219e+00,4.026589393615722656e+00,3.894803762435913086e+00,3.771371126174926758e+00,3.655522108078002930e+00,3.546577930450439453e+00,3.443939208984375000e+00,3.347074508666992188e+00,3.255509614944458008e+00,3.168820858001708984e+00,3.086629629135131836e+00,3.008593797683715820e+00,2.934406757354736328e+00,2.863790035247802734e+00,2.796492338180541992e+00,2.732285022735595703e+00,2.670959949493408203e+00,2.612327337265014648e+00,2.556213378906250000e+00,2.502459287643432617e+00,2.450919628143310547e+00,2.401460170745849609e+00,2.353957414627075195e+00,2.308297395706176758e+00,2.264375209808349609e+00,2.222093105316162109e+00,2.181361198425292969e+00,2.142095565795898438e+00,2.104218721389770508e+00,2.067657947540283203e+00,2.032346248626708984e+00,1.998220205307006836e+00,1.965221166610717773e+00,1.933294534683227539e+00,1.902388453483581543e+00,1.872455120086669922e+00,1.843449234962463379e+00
5.000000000000000000e+00,5.000000000000000000e+00,5.000000000000000000e+00,5.000000000000000000e+00,5.000000000000000000e+00,5.000000000000000000e+00,5.000000000000000000e+00,5.000000000000000000e+00,5.000000000000000000e+00,5.000000000000000000e+00,5.000000000000000000e+00,5.000000000000000000e+00,5.000000000000000000e+00,5.000000000000000000e+00,5.000000000000000000e+00,5.000000000000000000e+00,5.000000000000000000e+00,5.000000000000000000e+00,5.000000000000000000e+00,5.000000000000000000e+00,5.000000000000000000e+00,5.000000000000000000e+00,5.000000000000000000e+00,5.000000000000000000e+00,5.000000000000000000e+00,5.000000000000000000e+00,5.000000000000000000e+00,5.000000000000000000e+00,5.000000000000000000e+00,5.000000000000000000e+00,5.000000000000000000e+00,5.000000000000000000e+00,5.000000000000000000e+00,5.000000000000000000e+00,5.000000000000000000e+00,5.000000000000000000e+00,5.000000000000000000e+00,5.000000000000000000e+00,5.000000000000000000e+00,4.846671104431152344e+00,4.657002925872802734e+00,4.481620311737060547e+00,4.318967819213867188e+00,4.167708396911621094e+00,4.026685237884521484e+00,3.894893884658813477e+00,3.771455526351928711e+00,3.655601024627685547e+00,3.546652078628540039e+00,3.444009304046630859e+00,3.347141027450561523e+00,3.255572319030761719e+00,3.168880462646484375e+00,3.086685657501220703e+00,3.008647203445434570e+00,2.934457540512084961e+00,2.863838672637939453e+00,2.796538591384887695e+00,2.732329130172729492e+00,2.671002149581909180e+00,2.612367391586303711e+00,2.556251764297485352e+00,2.502496242523193359e+00,2.450955390930175781e+00,2.401494264602661133e+00,2.353990316390991211e+00,2.308328866958618164e+00,2.264405488967895508e+00,2.222122192382812500e+00,2.181389570236206055e+00,2.142122745513916016e+00,2.104244947433471680e+00,2.067683219909667969e+00,2.032370567321777344e+00,1.998243808746337891e+00,1.965244054794311523e+00,1.933316588401794434e+00,1.902410030364990234e+00,1.872475743293762207e+00,1.843469262123107910e+00
5.000000000000000000e+00,5.000000000000000000e+00,5.000000000000000000e+00,5.000000000000000000e+00,5.000000000000000000e+00,5.000000000000000000e+00,5.000000000000000000e+00,5.000000000000000000e+00,5.000000000000000000e+00,5.000000000000000000e+00,5.000000000000000000e+00,5.000000000000000000e+00,5.000000000000000000e+00,5.000000000000000000e+00,5.000000000000000000e+00,5.000000000000000000e+00,5.000000000000000000e+00,5.000000000000000000e+00,5.000000000000000000e+00,5.000000000000000000e+00,5.000000000000000000e+00,5.000000000000000000e+00,5.000000000000000000e+00,5.000000000000000000e+00,5.000000000000000000e+00,5.000000000000000000e+00,5.000000000000000000e+00,5.000000000000000000e+00,5.000000000000000000e+00,5.000000000000000000e+00,5.000000000000000000e+00,5.000000000000000000e+00,5.000000000000000000e+00,5.000000000000000000e+00,5.000000000000000000e+00,5.000000000000000000e+00,5.000000000000000000e+00,5.000000000000000000e+00,5.000000000000000000e+00,4.846810340881347656e+00,4.657131195068359375e+00,4.481739044189453125e+00,4.319077968597412109e+00,4.167811393737792969e+00,4.026781082153320312e+00,3.894983291625976562e+00,3.771539449691772461e+00,3.655680179595947266e+00,3.546726703643798828e+00,3.444079637527465820e+00,3.347207069396972656e+00,3.255635023117065430e+00,3.168939590454101562e+00,3.086742162704467773e+00,3.008701086044311523e+00,2.934508562088012695e+00,2.863887071609497070e+00,2.796584844589233398e+00,2.732373237609863281e+00,2.671044349670410156e+00,2.612407922744750977e+00,2.556290626525878906e+00,2.502533435821533203e+00,2.450990676879882812e+00,2.401528358459472656e+00,2.354022979736328125e+00,2.308360576629638672e+00,2.264436006546020508e+00,2.222151517868041992e+00,2.181417465209960938e+00,2.142149925231933594e+00,2.104271173477172852e+00,2.067708492279052734e+00,2.032395124435424805e+00,1.998267292976379395e+00,1.965267062187194824e+00,1.933338642120361328e+00,1.902431368827819824e+00,1.872496485710144043e+00,1.843489289283752441e+00
5.000000000000000000e+00,5.000000000000000000e+00,5.000000000000000000e+00,5.000000000000000000e+00,5.000000000000000000e+00,5.000000000000000000e+00,5.000000000000000000e+00,5.000000000000000000e+00,5.000000000000000000e+00,5.000000000000000000e+00,5.000000000000000000e+00,5.000000000000000000e+00,5.000000000000000000e+00,5.000000000000000000e+00,5.000000000000000000e+00,5.000000000000000000e+00,5.000000000000000000e+00,5.000000000000000000e+00,5.000000000000000000e+00,5.000000000000000000e+00,5.000000000000000000e+00,5.000000000000000000e+00,5.000000000000000000e+00,5.000000000000000000e+00,5.000000000000000000e+00,5.000000000000000000e+00,5.000000000000000000e+00,5.000000000000000000e+00,5.000000000000000000e+00,5.000000000000000000e+00,5.000000000000000000e+00,5.000000000000000000e+00,5.000000000000000000e+00,5.000000000000000000e+00,5.000000000000000000e+00,5.000000000000000000e+00,5.000000000000000000e+00,5.000000000000000000e+00,5.000000000000000000e+00,4.846949100494384766e+00,4.657259464263916016e+00,4.481857776641845703e+00,4.319188594818115234e+00,4.167913913726806641e+00,4.026877403259277344e+00,3.895073175430297852e+00,3.771623611450195312e+00,3.655759096145629883e+00,3.546800851821899414e+00,3.444149732589721680e+00,3.347273588180541992e+00,3.255697727203369141e+00,3.168999195098876953e+00,3.086798429489135742e+00,3.008754491806030273e+00,2.934559345245361328e+00,2.863935708999633789e+00,2.796631097793579102e+00,2.732417345046997070e+00,2.671086311340332031e+00,2.612448215484619141e+00,2.556329011917114258e+00,2.502570629119873047e+00,2.451026439666748047e+00,2.401562690734863281e+00,2.354055881500244141e+00,2.308392047882080078e+00,2.264466285705566406e+00,2.222180604934692383e+00,2.181445837020874023e+00,2.142177104949951172e+00,2.104297399520874023e+00,2.067733764648437500e+00,2.032419443130493164e+00,1.998290896415710449e+00,1.965289831161499023e+00,1.933360934257507324e+00,1.902452707290649414e+00,1.872517347335815430e+00,1.843509316444396973e+00
5.000000000000000000e+00,5.000000000000000000e+00,5.000000000000000000e+00,5.000000000000000000e+00,5.000000000000000000e+00,5.000000000000000000e+00,5.000000000000000000e+00,5.000000000000000000e+00,5.000000000000000000e+00,5.000000000000000000e+00,5.000000000000000000e+00,5.000000000000000000e+00,5.000000000000000000e+00,5.000000000000000000e+00,5.000000000000000000e+00,5.000000000000000000e+00,5.000000000000000000e+00,5.000000000000000000e+00,5.000000000000000000e+00,5.000000000000000000e+00,5.000000000000000000e+00,5.000000000000000000e+00,5.000000000000000000e+00,5.000000000000000000e+00,5.000000000000000000e+00,5.000000000000000000e+00,5.000000000000000000e+00,5.000000000000000000e+00,5.000000000000000000e+00,5.000000000000000000e+00,5.000000000000000000e+00,5.000000000000000000e+00,5.000000000000000000e+00,5.000000000000000000e+00,5.000000000000000000e+00,5.000000000000000000e+00,5.000000000000000000e+00,5.000000000000000000e+00,5.000000000000000000e+00,4.847088336944580078e+00,4.657387733459472656e+00,4.481976509094238281e+00,4.319298744201660156e+00,4.168016910552978516e+00,4.026973247528076172e+00,3.895162820816040039e+00,3.771708011627197266e+00,3.655838251113891602e+00,3.546875476837158203e+00,3.444220066070556641e+00,3.347339630126953125e+00,3.255760431289672852e+00,3.169058561325073242e+00,3.086854934692382812e+00,3.008808135986328125e+00,2.934610366821289062e+00,2.863984107971191406e+00,2.796677350997924805e+00,2.732461452484130859e+00,2.671128749847412109e+00,2.612488508224487305e+00,2.556367874145507812e+00,2.502607583999633789e+00,2.451061964035034180e+00,2.401596546173095703e+00,2.354088544845581055e+00,2.308423519134521484e+00,2.264496564865112305e+00,2.222209930419921875e+00,2.181473731994628906e+00,2.142204284667968750e+00,2.104323387145996094e+00,2.067759037017822266e+00,2.032444000244140625e+00,1.998314738273620605e+00,1.965312600135803223e+00,1.933382987976074219e+00,1.902474045753479004e+00,1.872538089752197266e+00,1.843529582023620605e+00
5.000000000000000000e+00,5.000000000000000000e+00,5.000000000000000000e+00,5.000000000000000000e+00,5.000000000000000000e+00,5.000000000000000000e+00,5.000000000000000000e+00,5.000000000000000000e+00,5.000000000000000000e+00,5.000000000000000000e+00,5.000000000000000000e+00,5.000000000000000000e+00,5.000000000000000000e+00,5.000000000000000000e+00,5.000000000000000000e+00,5.000000000000000000e+00,5.000000000000000000e+00,5.000000000000000000e+00,5.000000000000000000e+00,5.000000000000000000e+00,5.000000000000000000e+00,5.000000000000000000e+00,5.000000000000000000e+00,5.000000000000000000e+00,5.000000000000000000e+00,5.000000000000000000e+00,5.000000000000000000e+00,5.000000000000000000e+00,5.000000000000000000e+00,5.000000000000000000e+00,5.000000000000000000e+00,5.000000000000000000e+00,5.000000000000000000e+00,5.000000000000000000e+00,5.000000000000000000e+00,5.000000000000000000e+00,5.000000000000000000e+00,5.000000000000000000e+00,5.000000000000000000e+00,4.847227096557617188e+00,4.657516002655029297e+00,4.482095718383789062e+00,4.319409370422363281e+00,4.168119430541992188e+00,4.027069091796875000e+00,3.895252704620361328e+00,3.771791934967041016e+00,3.655917167663574219e+00,3.546949863433837891e+00,3.444290399551391602e+00,3.347406148910522461e+00,3.255823135375976562e+00,3.169117927551269531e+00,3.086911201477050781e+00,3.008861541748046875e+00,2.934661149978637695e+00,2.864032506942749023e+00,2.796723604202270508e+00,2.732505559921264648e+00,2.671170711517333984e+00,2.612528800964355469e+00,2.556406497955322266e+00,2.502644777297973633e+00,2.451097488403320312e+00,2.401630878448486328e+00,2.354121446609497070e+00,2.308454990386962891e+00,2.264526844024658203e+00,2.222239255905151367e+00,2.181502103805541992e+00,2.142231464385986328e+00,2.104349851608276367e+00,2.067784309387207031e+00,2.032468318939208984e+00,1.998338222503662109e+00,1.965335607528686523e+00,1.933405041694641113e+00,1.902495622634887695e+00,1.872558832168579102e+00,1.843549728393554688e+00
5.000000000000000000e+00,5.000000000000000000e+00,5.000000000000000000e+00,5.000000000000000000e+00,5.000000000000000000e+00,5.000000000000000000e+00,5.000000000000000000e+00,5.000000000000000000e+00,5.000000000000000000e+00,5.000000000000000000e+00,5.000000000000000000e+00,5.000000000000000000e+00,5.000000000000000000e+00,5.000000000000000000e+00,5.000000000000000000e+00,5.000000000000000000e+00,5.000000000000000000e+00,5.000000000000000000e+00,5.000000000000000000e+00,5.000000000000000000e+00,5.000000000000000000e+00,5.000000000000000000e+00,5.000000000000000000e+00,5.000000000000000000e+00,5.000000000000000000e+00,5.000000000000000000e+00,5.000000000000000000e+00,5.000000000000000000e+00,5.000000000000000000e+00,5.000000000000000000e+00,5.000000000000000000e+00,5.000000000000000000e+00,5.000000000000000000e+00,5.000000000000000000e+00,5.000000000000000000e+00,5.000000000000000000e+00,5.000000000000000000e+00,5.000000000000000000e+00,5.000000000000000000e+00,4.847366333007812500e+00,4.657644271850585938e+00,4.482214450836181641e+00,4.319519519805908203e+00,4.168222427368164062e+00,4.027164936065673828e+00,3.895342350006103516e+00,3.771876335144042969e+00,3.655996561050415039e+00,3.547024488449096680e+00,3.444360256195068359e+00,3.347472190856933594e+00,3.255885839462280273e+00,3.169177293777465820e+00,3.086967706680297852e+00,3.008915185928344727e+00,2.934712409973144531e+00,2.864080905914306641e+00,2.796769618988037109e+00,2.732549667358398438e+00,2.671213150024414062e+00,2.612569332122802734e+00,2.556445121765136719e+00,2.502681732177734375e+00,2.451133012771606445e+00,2.401664972305297852e+00,2.354154348373413086e+00,2.308486700057983398e+00,2.264557361602783203e+00,2.222268342971801758e+00,2.181530237197875977e+00,2.142258405685424805e+00,2.104375839233398438e+00,2.067809820175170898e+00,2.032492876052856445e+00,1.998361825942993164e+00,1.965358376502990723e+00,1.933427095413208008e+00,1.902516961097717285e+00,1.872579693794250488e+00,1.843569755554199219e+00
5.000000000000000000e+00,5.000000000000000000e+00,5.000000000000000000e+00,5.000000000000000000e+00,5.000000000000000000e+00,5.000000000000000000e+00,5.000000000000000000e+00,5.000000000000000000e+00,5.000000000000000000e+00,5.000000000000000000e+00,5.000000000000000000e+00,5.000000000000000000e+00,5.000000000000000000e+00,5.000000000000000000e+00,5.000000000000000000e+00,5.000000000000000000e+00,5.000000000000000000e+00,5.000000000000000000e+00,5.000000000000000000e+00,5.000000000000000000e+00,5.000000000000000000e+00,5.000000000000000000e+00,5.000000000000000000e+00,5.000000000000000000e+00,5.000000000000000000e+00,5.000000000000000000e+00,5.000000000000000000e+00,5.000000000000000000e+00,5.000000000000000000e+00,5.000000000000000000e+00,5.000000000000000000e+00,5.000000000000000000e+00,5.000000000000000000e+00,5.000000000000000000e+00,5.000000000000000000e+00,5.000000000000000000e+00,5.000000000000000000e+00,5.000000000000000000e+00,5.000000000000000000e+00,4.847505092620849609e+00,4.657773017883300781e+00,4.482333183288574219e+00,4.319630146026611328e+00,4.168324947357177734e+00,4.027260780334472656e+00,3.895432233810424805e+00,3.771960258483886719e+00,3.656075239181518555e+00,3.547098636627197266e+00,3.444430828094482422e+00,3.347538709640502930e+00,3.255948543548583984e+00,3.169236898422241211e+00,3.087023973464965820e+00,3.008968591690063477e+00,2.934762954711914062e+00,2.864129543304443359e+00,2.796816110610961914e+00,2.732594013214111328e+00,2.671255111694335938e+00,2.612609624862670898e+00,2.556483745574951172e+00,2.502718687057495117e+00,2.451168537139892578e+00,2.401699066162109375e+00,2.354187011718750000e+00,2.308518171310424805e+00,2.264587640762329102e+00,2.222297668457031250e+00,2.181558370590209961e+00,2.142285823822021484e+00,2.104402065277099609e+00,2.067834854125976562e+00,2.032517194747924805e+00,1.998385429382324219e+00,1.965381264686584473e+00,1.933449387550354004e+00,1.902538418769836426e+00,1.872600317001342773e+00,1.843589782714843750e+00
5.000000000000000000e+00,5.000000000000000000e+00,5.000000000000000000e+00,5.000000000000000000e+00,5.000000000000000000e+00,5.000000000000000000e+00,5.000000000000000000e+00,5.000000000000000000e+00,5.000000000000000000e+00,5.000000000000000000e+00,5.000000000000000000e+00,5.000000000000000000e+00,5.000000000000000000e+00,5.000000000000000000e+00,5.000000000000000000e+00,5.000000000000000000e+00,5.000000000000000000e+00,5.000000000000000000e+00,5.000000000000000000e+00,5.000000000000000000e+00,5.000000000000000000e+00,5.000000000000000000e+00,5.000000000000000000e+00,5.000000000000000000e+00,5.000000000000000000e+00,5.000000000000000000e+00,5.000000000000000000e+00,5.000000000000000000e+00,5.000000000000000000e+00,5.000000000000000000e+00,5.000000000000000000e+00,5.000000000000000000e+00,5.000000000000000000e+00,5.000000000000000000e+00,5.000000000000000000e+00,5.000000000000000000e+00,5.000000000000000000e+00,5.000000000000000000e+00,5.000000000000000000e+00,4.847644329071044922e+00,4.657901287078857422e+00,4.482451915740966797e+00,4.319740295410156250e+00,4.168427944183349609e+00,4.027357101440429688e+00,3.895521879196166992e+00,3.772044658660888672e+00,3.656154632568359375e+00,3.547173261642456055e+00,3.444500684738159180e+00,3.347604751586914062e+00,3.256011247634887695e+00,3.169296503067016602e+00,3.087080478668212891e+00,3.009021997451782227e+00,2.934813976287841797e+00,2.864177942276000977e+00,2.796862125396728516e+00,2.732638120651245117e+00,2.671297550201416016e+00,2.612650156021118164e+00,2.556522607803344727e+00,2.502755641937255859e+00,2.451204061508178711e+00,2.401733160018920898e+00,2.354219913482666016e+00,2.308549642562866211e+00,2.264617919921875000e+00,2.222326755523681641e+00,2.181586503982543945e+00,2.142312765121459961e+00,2.104428291320800781e+00,2.067860364913940430e+00,2.032541751861572266e+00,1.998409152030944824e+00,1.965404033660888672e+00,1.933471441268920898e+00,1.902559757232666016e+00,1.872621059417724609e+00,1.843610048294067383e+00
5.000000000000000000e+00,5.000000000000000000e+00,5.000000000000000000e+00,5.000000000000000000e+00,5.000000000000000000e+00,5.000000000000000000e+00,5.000000000000000000e+00,5.000000000000000000e+00,5.000000000000000000e+00,5.000000000000000000e+00,5.000000000000000000e+00,5.000000000000000000e+00,5.000000000000000000e+00,5.000000000000000000e+00,5.000000000000000000e+00,5.000000000000000000e+00,5.000000000000000000e+00,5.000000000000000000e+00,5.000000000000000000e+00,5.000000000000000000e+00,5.000000000000000000e+00,5.000000000000000000e+00,5.000000000000000000e+00,5.000000000000000000e+00,5.000000000000000000e+00,5.000000000000000000e+00,5.000000000000000000e+00,5.000000000000000000e+00,5.000000000000000000e+00,5.000000000000000000e+00,5.000000000000000000e+00,5.000000000000000000e+00,5.000000000000000000e+00,5.000000000000000000e+00,5.000000000000000000e+00,5.000000000000000000e+00,5.000000000000000000e+00,5.000000000000000000e+00,5.000000000000000000e+00,4.847783565521240234e+00,4.658029556274414062e+00,4.482571125030517578e+00,4.319850921630859375e+00,4.168530941009521484e+00,4.027452945709228516e+00,3.895611763000488281e+00,3.772128582000732422e+00,3.656233549118041992e+00,3.547247409820556641e+00,3.444571018218994141e+00,3.347671270370483398e+00,3.256074190139770508e+00,3.169355630874633789e+00,3.087136507034301758e+00,3.009075403213500977e+00,2.934864997863769531e+00,2.864226579666137695e+00,2.796908617019653320e+00,2.732682228088378906e+00,2.671339511871337891e+00,2.612690448760986328e+00,2.556560993194580078e+00,2.502792835235595703e+00,2.451239585876464844e+00,2.401767253875732422e+00,2.354252576828002930e+00,2.308581113815307617e+00,2.264648199081420898e+00,2.222356081008911133e+00,2.181614637374877930e+00,2.142340183258056641e+00,2.104454517364501953e+00,2.067885637283325195e+00,2.032566070556640625e+00,1.998432755470275879e+00,1.965427041053771973e+00,1.933493494987487793e+00,1.902581334114074707e+00,1.872641801834106445e+00,1.843630075454711914e+00
5.000000000000000000e+00,5.000000000000000000e+00,5.000000000000000000e+00,5.000000000000000000e+00,5.000000000000000000e+00,5.000000000000000000e+00,5.000000000000000000e+00,5.000000000000000000e+00,5.000000000000000000e+00,5.000000000000000000e+00,5.000000000000000000e+00,5.000000000000000000e+00,5.000000000000000000e+00,5.000000000000000000e+00,5.000000000000000000e+00,5.000000000000000000e+00,5.000000000000000000e+00,5.000000000000000000e+00,5.000000000000000000e+00,5.000000000000000000e+00,5.000000000000000000e+00,5.000000000000000000e+00,5.000000000000000000e+00,5.000000000000000000e+00,5.000000000000000000e+00,5.000000000000000000e+00,5.000000000000000000e+00,5.000000000000000000e+00,5.000000000000000000e+00,5.000000000000000000e+00,5.000000000000000000e+00,5.000000000000000000e+00,5.000000000000000000e+00,5.000000000000000000e+00,5.000000000000000000e+00,5.000000000000000000e+00,5.000000000000000000e+00,5.000000000000000000e+00,5.000000000000000000e+00,4.847922801971435547e+00,4.658157825469970703e+00,4.482689857482910156e+00,4.319961547851562500e+00,4.168633460998535156e+00,4.027548789978027344e+00,3.895701408386230469e+00,3.772212982177734375e+00,3.656312704086303711e+00,3.547322034835815430e+00,3.444641113281250000e+00,3.347737312316894531e+00,3.256136655807495117e+00,3.169414997100830078e+00,3.087193012237548828e+00,3.009129285812377930e+00,2.934916019439697266e+00,2.864274978637695312e+00,2.796954870223999023e+00,2.732726573944091797e+00,2.671381950378417969e+00,2.612730979919433594e+00,2.556599855422973633e+00,2.502829790115356445e+00,2.451275110244750977e+00,2.401801347732543945e+00,2.354285478591918945e+00,2.308612823486328125e+00,2.264678716659545898e+00,2.222385406494140625e+00,2.181642770767211914e+00,2.142367124557495117e+00,2.104480743408203125e+00,2.067910909652709961e+00,2.032590627670288086e+00,1.998456358909606934e+00,1.965449810028076172e+00,1.933515548706054688e+00,1.902602672576904297e+00,1.872662663459777832e+00,1.843650102615356445e+00
5.000000000000000000e+00,5.000000000000000000e+00,5.000000000000000000e+00,5.000000000000000000e+00,5.000000000000000000e+00,5.000000000000000000e+00,5.000000000000000000e+00,5.000000000000000000e+00,5.000000000000000000e+00,5.000000000000000000e+00,5.000000000000000000e+00,5.000000000000000000e+00,5.000000000000000000e+00,5.000000000000000000e+00,5.000000000000000000e+00,5.000000000000000000e+00,5.000000000000000000e+00,5.000000000000000000e+00,5.000000000000000000e+00,5.000000000000000000e+00,5.000000000000000000e+00,5.000000000000000000e+00,5.000000000000000000e+00,5.000000000000000000e+00,5.000000000000000000e+00,5.000000000000000000e+00,5.000000000000000000e+00,5.000000000000000000e+00,5.000000000000000000e+00,5.000000000000000000e+00,5.000000000000000000e+00,5.000000000000000000e+00,5.000000000000000000e+00,5.000000000000000000e+00,5.000000000000000000e+00,5.000000000000000000e+00,5.000000000000000000e+00,5.000000000000000000e+00,5.000000000000000000e+00,4.848061561584472656e+00,4.658286094665527344e+00,4.482808589935302734e+00,4.320071697235107422e+00,4.168736457824707031e+00,4.027644634246826172e+00,3.895791530609130859e+00,3.772297143936157227e+00,3.656391620635986328e+00,3.547396421432495117e+00,3.444711446762084961e+00,3.347803831100463867e+00,3.256199359893798828e+00,3.169474363327026367e+00,3.087249279022216797e+00,3.009182691574096680e+00,2.934967041015625000e+00,2.864323616027832031e+00,2.797001123428344727e+00,2.732770681381225586e+00,2.671423912048339844e+00,2.612771034240722656e+00,2.556638717651367188e+00,2.502866983413696289e+00,2.451310873031616211e+00,2.401835680007934570e+00,2.354318141937255859e+00,2.308644294738769531e+00,2.264708995819091797e+00,2.222414493560791016e+00,2.181670904159545898e+00,2.142394304275512695e+00,2.104506969451904297e+00,2.067936182022094727e+00,2.032614946365356445e+00,1.998480200767517090e+00,1.965472579002380371e+00,1.933537840843200684e+00,1.902624011039733887e+00,1.872683286666870117e+00,1.843670248985290527e+00
5.000000000000000000e+00,5.000000000000000000e+00,5.000000000000000000e+00,5.000000000000000000e+00,5.000000000000000000e+00,5.000000000000000000e+00,5.000000000000000000e+00,5.000000000000000000e+00,5.000000000000000000e+00,5.000000000000000000e+00,5.000000000000000000e+00,5.000000000000000000e+00,5.000000000000000000e+00,5.000000000000000000e+00,5.000000000000000000e+00,5.000000000000000000e+00,5.000000000000000000e+00,5.000000000000000000e+00,5.000000000000000000e+00,5.000000000000000000e+00,5.000000000000000000e+00,5.000000000000000000e+00,5.000000000000000000e+00,5.000000000000000000e+00,5.000000000000000000e+00,5.000000000000000000e+00,5.000000000000000000e+00,5.000000000000000000e+00,5.000000000000000000e+00,5.000000000000000000e+00,5.000000000000000000e+00,5.000000000000000000e+00,5.000000000000000000e+00,5.000000000000000000e+00,5.000000000000000000e+00,5.000000000000000000e+00,5.000000000000000000e+00,5.000000000000000000e+00,5.000000000000000000e+00,4.848198890686035156e+00,4.658414363861083984e+00,4.482927322387695312e+00,4.320182323455810547e+00,4.168838977813720703e+00,4.027740478515625000e+00,3.895881414413452148e+00,3.772381544113159180e+00,3.656471014022827148e+00,3.547471046447753906e+00,3.444781541824340820e+00,3.347869634628295898e+00,3.256261825561523438e+00,3.169533967971801758e+00,3.087305784225463867e+00,3.009236335754394531e+00,2.935017824172973633e+00,2.864372014999389648e+00,2.797047376632690430e+00,2.732815027236938477e+00,2.671466350555419922e+00,2.612811565399169922e+00,2.556677103042602539e+00,2.502903938293457031e+00,2.451346158981323242e+00,2.401869535446166992e+00,2.354351043701171875e+00,2.308675765991210938e+00,2.264739274978637695e+00,2.222443819046020508e+00,2.181699037551879883e+00,2.142421483993530273e+00,2.104533195495605469e+00,2.067961454391479492e+00,2.032639503479003906e+00,1.998503684997558594e+00,1.965495467185974121e+00,1.933559894561767578e+00,1.902645587921142578e+00,1.872704029083251953e+00,1.843690514564514160e+00
5.000000000000000000e+00,5.000000000000000000e+00,5.000000000000000000e+00,5.000000000000000000e+00,5.000000000000000000e+00,5.000000000000000000e+00,5.000000000000000000e+00,5.000000000000000000e+00,5.000000000000000000e+00,5.000000000000000000e+00,5.000000000000000000e+00,5.000000000000000000e+00,5.000000000000000000e+00,5.000000000000000000e+00,5.000000000000000000e+00,5.000000000000000000e+00,5.000000000000000000e+00,5.000000000000000000e+00,5.000000000000000000e+00,5.000000000000000000e+00,5.000000000000000000e+00,5.000000000000000000e+00,5.000000000000000000e+00,5.000000000000000000e+00,5.000000000000000000e+00,5.000000000000000000e+00,5.000000000000000000e+00,5.000000000000000000e+00,5.000000000000000000e+00,5.000000000000000000e+00,5.000000000000000000e+00,5.000000000000000000e+00,5.000000000000000000e+00,5.000000000000000000e+00,5.000000000000000000e+00,5.000000000000000000e+00,5.000000000000000000e+00,5.000000000000000000e+00,5.000000000000000000e+00,4.848336219787597656e+00,4.658543109893798828e+00,4.483046531677246094e+00,4.320292472839355469e+00,4.168941974639892578e+00,4.027836799621582031e+00,3.895971059799194336e+00,3.772465467453002930e+00,3.656549930572509766e+00,3.547545671463012695e+00,3.444851636886596680e+00,3.347936153411865234e+00,3.256324768066406250e+00,3.169593095779418945e+00,3.087362051010131836e+00,3.009289741516113281e+00,2.935068845748901367e+00,2.864420890808105469e+00,2.797093629837036133e+00,2.732859134674072266e+00,2.671508550643920898e+00,2.612851858139038086e+00,2.556715965270996094e+00,2.502941131591796875e+00,2.451381921768188477e+00,2.401903867721557617e+00,2.354383707046508789e+00,2.308707237243652344e+00,2.264769554138183594e+00,2.222473144531250000e+00,2.181727409362792969e+00,2.142448663711547852e+00,2.104559421539306641e+00,2.067986726760864258e+00,2.032663822174072266e+00,1.998527288436889648e+00,1.965518474578857422e+00,1.933581948280334473e+00,1.902666926383972168e+00,1.872724771499633789e+00,1.843710541725158691e+00
5.000000000000000000e+00,5.000000000000000000e+00,5.000000000000000000e+00,5.000000000000000000e+00,5.000000000000000000e+00,5.000000000000000000e+00,5.000000000000000000e+00,5.000000000000000000e+00,5.000000000000000000e+00,5.000000000000000000e+00,5.000000000000000000e+00,5.000000000000000000e+00,5.000000000000000000e+00,5.000000000000000000e+00,5.000000000000000000e+00,5.000000000000000000e+00,5.000000000000000000e+00,5.000000000000000000e+00,5.000000000000000000e+00,5.000000000000000000e+00,5.000000000000000000e+00,5.000000000000000000e+00,5.000000000000000000e+00,5.000000000000000000e+00,5.000000000000000000e+00,5.000000000000000000e+00,5.000000000000000000e+00,5.000000000000000000e+00,5.000000000000000000e+00,5.000000000000000000e+00,5.000000000000000000e+00,5.000000000000000000e+00,5.000000000000000000e+00,5.000000000000000000e+00,5.000000000000000000e+00,5.000000000000000000e+00,5.000000000000000000e+00,5.000000000000000000e+00,5.000000000000000000e+00,4.848473072052001953e+00,4.658668518066406250e+00,4.483165264129638672e+00,4.320403099060058594e+00,4.169044971466064453e+00,4.027932643890380859e+00,3.896060943603515625e+00,3.772549867630004883e+00,3.656629085540771484e+00,3.547619819641113281e+00,3.444921731948852539e+00,3.348002433776855469e+00,3.256387233734130859e+00,3.169652700424194336e+00,3.087418556213378906e+00,3.009343385696411133e+00,2.935119867324829102e+00,2.864469289779663086e+00,2.797139883041381836e+00,2.732903242111206055e+00,2.671550750732421875e+00,2.612892389297485352e+00,2.556754589080810547e+00,2.502978086471557617e+00,2.451417207717895508e+00,2.401937961578369141e+00,2.354416608810424805e+00,2.308738946914672852e+00,2.264800071716308594e+00,2.222502231597900391e+00,2.181755304336547852e+00,2.142475843429565430e+00,2.104585647583007812e+00,2.068011999130249023e+00,2.032688379287719727e+00,1.998550891876220703e+00,1.965541243553161621e+00,1.933604001998901367e+00,1.902688264846801758e+00,1.872745633125305176e+00,1.843730568885803223e+00
5.000000000000000000e+00,5.000000000000000000e+00,5.000000000000000000e+00,5.000000000000000000e+00,5.000000000000000000e+00,5.000000000000000000e+00,5.000000000000000000e+00,5.000000000000000000e+00,5.000000000000000000e+00,5.000000000000000000e+00,5.000000000000000000e+00,5.000000000000000000e+00,5.000000000000000000e+00,5.000000000000000000e+00,5.000000000000000000e+00,5.000000000000000000e+00,5.000000000000000000e+00,5.000000000000000000e+00,5.000000000000000000e+00,5.000000000000000000e+00,5.000000000000000000e+00,5.000000000000000000e+00,5.000000000000000000e+00,5.000000000000000000e+00,5.000000000000000000e+00,5.000000000000000000e+00,5.000000000000000000e+00,5.000000000000000000e+00,5.000000000000000000e+00,5.000000000000000000e+00,5.000000000000000000e+00,5.000000000000000000e+00,5.000000000000000000e+00,5.000000000000000000e+00,5.000000000000000000e+00,5.000000000000000000e+00,5.000000000000000000e+00,5.000000000000000000e+00,5.000000000000000000e+00,4.848610401153564453e+00,4.658795356750488281e+00,4.483282089233398438e+00,4.320513725280761719e+00,4.169147491455078125e+00,4.028028488159179688e+00,3.896150588989257812e+00,3.772633790969848633e+00,3.656707763671875000e+00,3.547694444656372070e+00,3.444992065429687500e+00,3.348068714141845703e+00,3.256450176239013672e+00,3.169712066650390625e+00,3.087474822998046875e+00,3.009397029876708984e+00,2.935170888900756836e+00,2.864517927169799805e+00,2.797186374664306641e+00,2.732947349548339844e+00,2.671592950820922852e+00,2.612932682037353516e+00,2.556793212890625000e+00,2.503015279769897461e+00,2.451452970504760742e+00,2.401972055435180664e+00,2.354449272155761719e+00,2.308770418167114258e+00,2.264830350875854492e+00,2.222531557083129883e+00,2.181783676147460938e+00,2.142503023147583008e+00,2.104611635208129883e+00,2.068037271499633789e+00,2.032712697982788086e+00,1.998574614524841309e+00,1.965564012527465820e+00,1.933626294136047363e+00,1.902709722518920898e+00,1.872766375541687012e+00,1.843750596046447754e+00
5.000000000000000000e+00,5.000000000000000000e+00,5.000000000000000000e+00,5.000000000000000000e+00,5.000000000000000000e+00,5.000000000000000000e+00,5.000000000000000000e+00,5.000000000000000000e+00,5.000000000000000000e+00,5.000000000000000000e+00,5.000000000000000000e+00,5.000000000000000000e+00,5.000000000000000000e+00,5.000000000000000000e+00,5.000000000000000000e+00,5.000000000000000000e+00,5.000000000000000000e+00,5.000000000000000000e+00,5.000000000000000000e+00,5.000000000000000000e+00,5.000000000000000000e+00,5.000000000000000000e+00,5.000000000000000000e+00,5.000000000000000000e+00,5.000000000000000000e+00,5.000000000000000000e+00,5.000000000000000000e+00,5.000000000000000000e+00,5.000000000000000000e+00,5.000000000000000000e+00,5.000000000000000000e+00,5.000000000000000000e+00,5.000000000000000000e+00,5.000000000000000000e+00,5.000000000000000000e+00,5.000000000000000000e+00,5.000000000000000000e+00,5.000000000000000000e+00,5.000000000000000000e+00,4.848747730255126953e+00,4.658921718597412109e+00,4.483399868011474609e+00,4.320622444152832031e+00,4.169250488281250000e+00,4.028124809265136719e+00,3.896240711212158203e+00,3.772717952728271484e+00,3.656787157058715820e+00,3.547768592834472656e+00,3.445062160491943359e+00,3.348134994506835938e+00,3.256513118743896484e+00,3.169771671295166016e+00,3.087531328201293945e+00,3.009450674057006836e+00,2.935221672058105469e+00,2.864566326141357422e+00,2.797232389450073242e+00,2.732991695404052734e+00,2.671635150909423828e+00,2.612973213195800781e+00,2.556831836700439453e+00,2.503052234649658203e+00,2.451488494873046875e+00,2.402006387710571289e+00,2.354482173919677734e+00,2.308801889419555664e+00,2.264860630035400391e+00,2.222560644149780273e+00,2.181811809539794922e+00,2.142530202865600586e+00,2.104638099670410156e+00,2.068062782287597656e+00,2.032737255096435547e+00,1.998598217964172363e+00,1.965586900711059570e+00,1.933648347854614258e+00,1.902731299400329590e+00,1.872786998748779297e+00,1.843770861625671387e+00
5.000000000000000000e+00,5.000000000000000000e+00,5.000000000000000000e+00,5.000000000000000000e+00,5.000000000000000000e+00,5.000000000000000000e+00,5.000000000000000000e+00,5.000000000000000000e+00,5.000000000000000000e+00,5.000000000000000000e+00,5.000000000000000000e+00,5.000000000000000000e+00,5.000000000000000000e+00,5.000000000000000000e+00,5.000000000000000000e+00,5.000000000000000000e+00,5.000000000000000000e+00,5.000000000000000000e+00,5.000000000000000000e+00,5.000000000000000000e+00,5.000000000000000000e+00,5.000000000000000000e+00,5.000000000000000000e+00,5.000000000000000000e+00,5.000000000000000000e+00,5.000000000000000000e+00,5.000000000000000000e+00,5.000000000000000000e+00,5.000000000000000000e+00,5.000000000000000000e+00,5.000000000000000000e+00,5.000000000000000000e+00,5.000000000000000000e+00,5.000000000000000000e+00,5.000000000000000000e+00,5.000000000000000000e+00,5.000000000000000000e+00,5.000000000000000000e+00,5.000000000000000000e+00,4.848885059356689453e+00,4.659048557281494141e+00,4.483516693115234375e+00,4.320731163024902344e+00,4.169353485107421875e+00,4.028220653533935547e+00,3.896329879760742188e+00,3.772801876068115234e+00,3.656866073608398438e+00,3.547843217849731445e+00,3.445132493972778320e+00,3.348201513290405273e+00,3.256575584411621094e+00,3.169831037521362305e+00,3.087587594985961914e+00,3.009504318237304688e+00,2.935272693634033203e+00,2.864614963531494141e+00,2.797278881072998047e+00,2.733035802841186523e+00,2.671677350997924805e+00,2.613013505935668945e+00,2.556870698928833008e+00,2.503089427947998047e+00,2.451524019241333008e+00,2.402040243148803711e+00,2.354514837265014648e+00,2.308833360671997070e+00,2.264891147613525391e+00,2.222589969635009766e+00,2.181839942932128906e+00,2.142557382583618164e+00,2.104664087295532227e+00,2.068088054656982422e+00,2.032761573791503906e+00,1.998621821403503418e+00,1.965609908103942871e+00,1.933670401573181152e+00,1.902752637863159180e+00,1.872807741165161133e+00,1.843791007995605469e+00
4.871370315551757812e+00,4.870149612426757812e+00,4.868929386138916016e+00,4.867710113525390625e+00,4.866490840911865234e+00,4.865272521972656250e+00,4.864054679870605469e+00,4.862837791442871094e+00,4.861621379852294922e+00,4.860405445098876953e+00,4.859190464019775391e+00,4.857975959777832031e+00,4.856761455535888672e+00,4.855547904968261719e+00,4.854335308074951172e+00,4.853123188018798828e+00,4.851911544799804688e+00,4.850700855255126953e+00,4.849490165710449219e+00,4.848280429840087891e+00,4.847071170806884766e+00,4.845862865447998047e+00,4.844654560089111328e+00,4.843447208404541016e+00,4.842240333557128906e+00,4.841034412384033203e+00,4.839828491210937500e+00,4.838623523712158203e+00,4.837419509887695312e+00,4.836215496063232422e+00,4.835011959075927734e+00,4.833809375762939453e+00,4.832607269287109375e+00,4.831406116485595703e+00,4.830205440521240234e+00,4.829005241394042969e+00,4.827805519104003906e+00,4.826606750488281250e+00,4.825408458709716797e+00,4.824210643768310547e+00,4.659175395965576172e+00,4.483633995056152344e+00,4.320840358734130859e+00,4.169453620910644531e+00,4.028316497802734375e+00,3.896420001983642578e+00,3.772886514663696289e+00,3.656945228576660156e+00,3.547917604446411133e+00,3.445202589035034180e+00,3.348267555236816406e+00,3.256638526916503906e+00,3.169890642166137695e+00,3.087644100189208984e+00,3.009557723999023438e+00,2.935323715209960938e+00,2.864663362503051758e+00,2.797325372695922852e+00,2.733080148696899414e+00,2.671719789505004883e+00,2.613054037094116211e+00,2.556909322738647461e+00,2.503126382827758789e+00,2.451559543609619141e+00,2.402074575424194336e+00,2.354547739028930664e+00,2.308865070343017578e+00,2.264921426773071289e+00,2.222619056701660156e+00,2.181868076324462891e+00,2.142584562301635742e+00,2.104690313339233398e+00,2.068113327026367188e+00,2.032786130905151367e+00,1.998645305633544922e+00,1.965632677078247070e+00,1.933692455291748047e+00,1.902773976325988770e+00,1.872828602790832520e+00,1.843811035156250000e+00
3.776227474212646484e+00,3.775494098663330078e+00,3.774760484695434570e+00,3.774027824401855469e+00,3.773294687271118164e+00,3.772562026977539062e+00,3.771830081939697266e+00,3.771098136901855469e+00,3.770366668701171875e+00,3.769635200500488281e+00,3.768904447555541992e+00,3.768173456192016602e+00,3.767442703247070312e+00,3.766712903976440430e+00,3.765982866287231445e+00,3.765253305435180664e+00,3.764523744583129883e+00,3.763794898986816406e+00,3.763066053390502930e+00,3.762337684631347656e+00,3.761609315872192383e+00,3.760881662368774414e+00,3.760153770446777344e+00,3.759426355361938477e+00,3.758699417114257812e+00,3.757972478866577148e+00,3.757246017456054688e+00,3.756519556045532227e+00,3.755793809890747070e+00,3.755068063735961914e+00,3.754342555999755859e+00,3.753617525100708008e+00,3.752892494201660156e+00,3.752168178558349609e+00,3.751443624496459961e+00,3.750719785690307617e+00,3.749995946884155273e+00,3.749272823333740234e+00,3.748549461364746094e+00,3.747826814651489258e+00,3.747103929519653320e+00,3.746381521224975586e+00,3.745659589767456055e+00,3.744937658309936523e+00,3.744216442108154297e+00,3.743494987487792969e+00,3.742774248123168945e+00,3.657024145126342773e+00,3.547992229461669922e+00,3.445272922515869141e+00,3.348334074020385742e+00,3.256701231002807617e+00,3.169949769973754883e+00,3.087700366973876953e+00,3.009611606597900391e+00,2.935374736785888672e+00,2.864711999893188477e+00,2.797371387481689453e+00,2.733124256134033203e+00,2.671761751174926758e+00,2.613094568252563477e+00,2.556947946548461914e+00,2.503163576126098633e+00,2.451595067977905273e+00,2.402108669281005859e+00,2.354580402374267578e+00,2.308896541595458984e+00,2.264951705932617188e+00,2.222648382186889648e+00,2.181896209716796875e+00,2.142611503601074219e+00,2.104716539382934570e+00,2.068138599395751953e+00,2.032810449600219727e+00,1.998669147491455078e+00,1.965655446052551270e+00,1.933714747428894043e+00,1.902795314788818359e+00,1.872849345207214355e+00,1.843831062316894531e+00
3.083107709884643555e+00,3.082618951797485352e+00,3.082129955291748047e+00,3.081641197204589844e+00,3.081152677536010742e+00,3.080664157867431641e+00,3.080175876617431641e+00,3.079687833786010742e+00,3.079200029373168945e+00,3.078711986541748047e+00,3.078224420547485352e+00,3.077736854553222656e+00,3.077249526977539062e+00,3.076762437820434570e+00,3.076275348663330078e+00,3.075788497924804688e+00,3.075301647186279297e+00,3.074815273284912109e+00,3.074328660964965820e+00,3.073842763900756836e+00,3.073356389999389648e+00,3.072870731353759766e+00,3.072384595870971680e+00,3.071898937225341797e+00,3.071413516998291016e+00,3.070928096771240234e+00,3.070443153381347656e+00,3.069957971572875977e+00,3.069473266601562500e+00,3.068988323211669922e+00,3.068503618240356445e+00,3.068019390106201172e+00,3.067535161972045898e+00,3.067051172256469727e+00,3.066566944122314453e+00,3.066083431243896484e+00,3.065599679946899414e+00,3.065116405487060547e+00,3.064632892608642578e+00,3.064149856567382812e+00,3.063666820526123047e+00,3.063183784484863281e+00,3.062701225280761719e+00,3.062218427658081055e+00,3.061736106872558594e+00,3.061253786087036133e+00,3.060771703720092773e+00,3.060289621353149414e+00,3.059807777404785156e+00,3.059326171875000000e+00,3.058844566345214844e+00,3.058363437652587891e+00,3.057882070541381836e+00,3.057400941848754883e+00,3.009665012359619141e+00,2.935425519943237305e+00,2.864760398864746094e+00,2.797417879104614258e+00,2.733168363571166992e+00,2.671804189682006836e+00,2.613134860992431641e+00,2.556986570358276367e+00,2.503200531005859375e+00,2.451630592346191406e+00,2.402142763137817383e+00,2.354613304138183594e+00,2.308928012847900391e+00,2.264981985092163086e+00,2.222677469253540039e+00,2.181924343109130859e+00,2.142638921737670898e+00,2.104742765426635742e+00,2.068163871765136719e+00,2.032835006713867188e+00,1.998692750930786133e+00,1.965678334236145020e+00,1.933736801147460938e+00,1.902816891670227051e+00,1.872870087623596191e+00,1.843851327896118164e+00
2.604969978332519531e+00,2.604621171951293945e+00,2.604271888732910156e+00,2.603923082351684570e+00,2.603574275970458984e+00,2.603225469589233398e+00,2.602876901626586914e+00,2.602528095245361328e+00,2.602179765701293945e+00,2.601831436157226562e+00,2.601483106613159180e+00,2.601134777069091797e+00,2.600786685943603516e+00,2.600438833236694336e+00,2.600090742111206055e+00,2.599743127822875977e+00,2.599395275115966797e+00,2.599047899246215820e+00,2.598700046539306641e+00,2.598352909088134766e+00,2.598005294799804688e+00,2.597658157348632812e+00,2.597311019897460938e+00,2.596963882446289062e+00,2.596616983413696289e+00,2.596269845962524414e+00,2.595923185348510742e+00,2.595576524734497070e+00,2.595229864120483398e+00,2.594883441925048828e+00,2.594536781311035156e+00,2.594190597534179688e+00,2.593844413757324219e+00,2.593498229980468750e+00,2.593152046203613281e+00,2.592806339263916016e+00,2.592460393905639648e+00,2.592114686965942383e+00,2.591768980026245117e+00,2.591423273086547852e+00,2.591077804565429688e+00,2.590732336044311523e+00,2.590387105941772461e+00,2.590041875839233398e+00,2.589696645736694336e+00,2.589351654052734375e+00,2.589006900787353516e+00,2.588661909103393555e+00,2.588316917419433594e+00,2.587972402572631836e+00,2.587627887725830078e+00,2.587283372879028320e+00,2.586938858032226562e+00,2.586594820022583008e+00,2.586250543594360352e+00,2.585906505584716797e+00,2.585562229156494141e+00,2.585218429565429688e+00,2.584874629974365234e+00,2.584530830383300781e+00,2.584187269210815430e+00,2.557025432586669922e+00,2.503237724304199219e+00,2.451666355133056641e+00,2.402176856994628906e+00,2.354645967483520508e+00,2.308959484100341797e+00,2.265012502670288086e+00,2.222706794738769531e+00,2.181952714920043945e+00,2.142665863037109375e+00,2.104768991470336914e+00,2.068189144134521484e+00,2.032859563827514648e+00,1.998716354370117188e+00,1.965701341629028320e+00,1.933758974075317383e+00,1.902838349342346191e+00,1.872890710830688477e+00,1.843871474266052246e+00
2.255192995071411133e+00,2.254932641983032227e+00,2.254672288894653320e+00,2.254411935806274414e+00,2.254151821136474609e+00,2.253891706466674805e+00,2.253631591796875000e+00,2.253371715545654297e+00,2.253111600875854492e+00,2.252851724624633789e+00,2.252592086791992188e+00,2.252332210540771484e+00,2.252072572708129883e+00,2.251812934875488281e+00,2.251553058624267578e+00,2.251293659210205078e+00,2.251034259796142578e+00,2.250774860382080078e+00,2.250515460968017578e+00,2.250256061553955078e+00,2.249996900558471680e+00,2.249737739562988281e+00,2.249478578567504883e+00,2.249219655990600586e+00,2.248960018157958984e+00,2.248699665069580078e+00,2.248439550399780273e+00,2.248179435729980469e+00,2.247919559478759766e+00,2.247659444808959961e+00,2.247399330139160156e+00,2.247139692306518555e+00,2.246879816055297852e+00,2.246620178222656250e+00,2.246360301971435547e+00,2.246100902557373047e+00,2.245841264724731445e+00,2.245581865310668945e+00,2.245322227478027344e+00,2.245063066482543945e+00,2.244803667068481445e+00,2.244544267654418945e+00,2.244285106658935547e+00,2.244025945663452148e+00,2.243767023086547852e+00,2.243507862091064453e+00,2.243248939514160156e+00,2.242990016937255859e+00,2.242731094360351562e+00,2.242472410202026367e+00,2.242213487625122070e+00,2.241955041885375977e+00,2.241696357727050781e+00,2.241437911987304688e+00,2.241179227828979492e+00,2.240921020507812500e+00,2.240662574768066406e+00,2.240404367446899414e+00,2.240145921707153320e+00,2.239887714385986328e+00,2.239629745483398438e+00,2.239371538162231445e+00,2.239113569259643555e+00,2.238855600357055664e+00,2.238597869873046875e+00,2.238339900970458984e+00,2.238082170486450195e+00,2.237824440002441406e+00,2.222735881805419922e+00,2.181980609893798828e+00,2.142693281173706055e+00,2.104795217514038086e+00,2.068214416503906250e+00,2.032883882522583008e+00,1.998739838600158691e+00,1.965724110603332520e+00,1.933781266212463379e+00,1.902859687805175781e+00,1.872911691665649414e+00,1.843891501426696777e+00
1.988171815872192383e+00,1.987969398498535156e+00,1.987767100334167480e+00,1.987564802169799805e+00,1.987362623214721680e+00,1.987160444259643555e+00,1.986958265304565430e+00,1.986756086349487305e+00,1.986553788185119629e+00,1.986351847648620605e+00,1.986149787902832031e+00,1.985947847366333008e+00,1.985745906829833984e+00,1.985544085502624512e+00,1.985342264175415039e+00,1.985140442848205566e+00,1.984938740730285645e+00,1.984737038612365723e+00,1.984535336494445801e+00,1.984333753585815430e+00,1.984132170677185059e+00,1.983930587768554688e+00,1.983729124069213867e+00,1.983527660369873047e+00,1.983326196670532227e+00,1.983124852180480957e+00,1.982923507690429688e+00,1.982722163200378418e+00,1.982520937919616699e+00,1.982319712638854980e+00,1.982118487358093262e+00,1.981917381286621094e+00,1.981716275215148926e+00,1.981515288352966309e+00,1.981314301490783691e+00,1.981113314628601074e+00,1.980912327766418457e+00,1.980711460113525391e+00,1.980510354042053223e+00,1.980309605598449707e+00,1.980108737945556641e+00,1.979908108711242676e+00,1.979707360267639160e+00,1.979506731033325195e+00,1.979306101799011230e+00,1.979105591773986816e+00,1.978905081748962402e+00,1.978704571723937988e+00,1.978504061698913574e+00,1.978303670883178711e+00,1.978103280067443848e+00,1.977903008460998535e+00,1.977702736854553223e+00,1.977502465248107910e+00,1.977302312850952148e+00,1.977102160453796387e+00,1.976902008056640625e+00,1.976701855659484863e+00,1.976501822471618652e+00,1.976301908493041992e+00,1.976101875305175781e+00,1.975901961326599121e+00,1.975702166557312012e+00,1.975502252578735352e+00,1.975302457809448242e+00,1.975102663040161133e+00,1.974902987480163574e+00,1.974703311920166016e+00,1.974503636360168457e+00,1.974303841590881348e+00,1.974104285240173340e+00,1.973904848098754883e+00,1.973705291748046875e+00,1.973505854606628418e+00,1.973306536674499512e+00,1.965746879577636719e+00,1.933803319931030273e+00,1.902881026268005371e+00,1.872932314872741699e+00,1.843911767005920410e+00
1.777688503265380859e+00,1.777526736259460449e+00,1.777364969253540039e+00,1.777203083038330078e+00,1.777041316032409668e+00,1.776879668235778809e+00,1.776718020439147949e+00,1.776556372642517090e+00,1.776394844055175781e+00,1.776233315467834473e+00,1.776071786880493164e+00,1.775910258293151855e+00,1.775748848915100098e+00,1.775587320327758789e+00,1.775426030158996582e+00,1.775264620780944824e+00,1.775103211402893066e+00,1.774941921234130859e+00,1.774780631065368652e+00,1.774619340896606445e+00,1.774458169937133789e+00,1.774296998977661133e+00,1.774135828018188477e+00,1.773974657058715820e+00,1.773813486099243164e+00,1.773652434349060059e+00,1.773491382598876953e+00,1.773330330848693848e+00,1.773169398307800293e+00,1.773008346557617188e+00,1.772847414016723633e+00,1.772686600685119629e+00,1.772525668144226074e+00,1.772364616394042969e+00,1.772203803062438965e+00,1.772042989730834961e+00,1.771882295608520508e+00,1.771721482276916504e+00,1.771560788154602051e+00,1.771400094032287598e+00,1.771239519119262695e+00,1.771078824996948242e+00,1.770918250083923340e+00,1.770757675170898438e+00,1.770597219467163086e+00,1.770436644554138184e+00,1.770276188850402832e+00,1.770115733146667480e+00,1.769955396652221680e+00,1.769794940948486328e+00,1.769634604454040527e+00,1.769474267959594727e+00,1.769314050674438477e+00,1.769153714179992676e+00,1.768993496894836426e+00,1.768833279609680176e+00,1.768673062324523926e+00,1.768512964248657227e+00,1.768352866172790527e+00,1.768192768096923828e+00,1.768032670021057129e+00,1.767872691154479980e+00,1.767712593078613281e+00,1.767552495002746582e+00,1.767392516136169434e+00,1.767232537269592285e+00,1.767072677612304688e+00,1.766912817955017090e+00,1.766752958297729492e+00,1.766593217849731445e+00,1.766433477401733398e+00,1.766273736953735352e+00,1.766113996505737305e+00,1.765954256057739258e+00,1.765794634819030762e+00,1.765635013580322266e+00,1.765475392341613770e+00,1.765315890312194824e+00,1.765156388282775879e+00,1.764996767044067383e+00
1.607505321502685547e+00,1.607372999191284180e+00,1.607240796089172363e+00,1.607108473777770996e+00,1.606976270675659180e+00,1.606844067573547363e+00,1.606711864471435547e+00,1.606579661369323730e+00,1.606447577476501465e+00,1.606315493583679199e+00,1.606183290481567383e+00,1.606051325798034668e+00,1.605919241905212402e+00,1.605787158012390137e+00,1.605655193328857422e+00,1.605523228645324707e+00,1.605391263961791992e+00,1.605259299278259277e+00,1.605127334594726562e+00,1.604995489120483398e+00,1.604863524436950684e+00,1.604731678962707520e+00,1.604599833488464355e+00,1.604467988014221191e+00,1.604336261749267578e+00,1.604204416275024414e+00,1.604072690010070801e+00,1.603940844535827637e+00,1.603809118270874023e+00,1.603677392005920410e+00,1.603545784950256348e+00,1.603414177894592285e+00,1.603282451629638672e+00,1.603150844573974609e+00,1.603019356727600098e+00,1.602887749671936035e+00,1.602756261825561523e+00,1.602624654769897461e+00,1.602493166923522949e+00,1.602361798286437988e+00,1.602230310440063477e+00,1.602098822593688965e+00,1.601967453956604004e+00,1.601836085319519043e+00,1.601704716682434082e+00,1.601573348045349121e+00,1.601442098617553711e+00,1.601310729980468750e+00,1.601179480552673340e+00,1.601048231124877930e+00,1.600916981697082520e+00,1.600785851478576660e+00,1.600654602050781250e+00,1.600523471832275391e+00,1.600392341613769531e+00,1.600261211395263672e+00,1.600130081176757812e+00,1.599998831748962402e+00,1.599867701530456543e+00,1.599736690521240234e+00,1.599605679512023926e+00,1.599474668502807617e+00,1.599343657493591309e+00,1.599212765693664551e+00,1.599081754684448242e+00,1.598950862884521484e+00,1.598819971084594727e+00,1.598689198493957520e+00,1.598558306694030762e+00,1.598427534103393555e+00,1.598296642303466797e+00,1.598165869712829590e+00,1.598035097122192383e+00,1.597904324531555176e+00,1.597773671150207520e+00,1.597643017768859863e+00,1.597512245178222656e+00,1.597381591796875000e+00,1.597251057624816895e+00,1.597120404243469238e+00
1.467059612274169922e+00,1.466949462890625000e+00,1.466839313507080078e+00,1.466729164123535156e+00,1.466619014739990234e+00,1.466508865356445312e+00,1.466398715972900391e+00,1.466288685798645020e+00,1.466178536415100098e+00,1.466068506240844727e+00,1.465958476066589355e+00,1.465848445892333984e+00,1.465738415718078613e+00,1.465628504753112793e+00,1.465518474578857422e+00,1.465408563613891602e+00,1.465298533439636230e+00,1.465188622474670410e+00,1.465078711509704590e+00,1.464968919754028320e+00,1.464859008789062500e+00,1.464749097824096680e+00,1.464639186859130859e+00,1.464529275894165039e+00,1.464419484138488770e+00,1.464309692382812500e+00,1.464199900627136230e+00,1.464090228080749512e+00,1.463980436325073242e+00,1.463870763778686523e+00,1.463760972023010254e+00,1.463651299476623535e+00,1.463541626930236816e+00,1.463431954383850098e+00,1.463322281837463379e+00,1.463212728500366211e+00,1.463103055953979492e+00,1.462993502616882324e+00,1.462883949279785156e+00,1.462774395942687988e+00,1.462664842605590820e+00,1.462555289268493652e+00,1.462445735931396484e+00,1.462336301803588867e+00,1.462226748466491699e+00,1.462117314338684082e+00,1.462007880210876465e+00,1.461898446083068848e+00,1.461789011955261230e+00,1.461679697036743164e+00,1.461570262908935547e+00,1.461460947990417480e+00,1.461351394653320312e+00,1.461242079734802246e+00,1.461132764816284180e+00,1.461023449897766113e+00,1.460914254188537598e+00,1.460804939270019531e+00,1.460695743560791016e+00,1.460586428642272949e+00,1.460477232933044434e+00,1.460368037223815918e+00,1.460258841514587402e+00,1.460149645805358887e+00,1.460040569305419922e+00,1.459931373596191406e+00,1.459822297096252441e+00,1.459713220596313477e+00,1.459604144096374512e+00,1.459495067596435547e+00,1.459385991096496582e+00,1.459276914596557617e+00,1.459167957305908203e+00,1.459058880805969238e+00,1.458949923515319824e+00,1.458840966224670410e+00,1.458732008934020996e+00,1.458623051643371582e+00,1.458514094352722168e+00,1.458405256271362305e+00
1.349183201789855957e+00,1.349089980125427246e+00,1.348996877670288086e+00,1.348903656005859375e+00,1.348810553550720215e+00,1.348717331886291504e+00,1.348624229431152344e+00,1.348531126976013184e+00,1.348438024520874023e+00,1.348344922065734863e+00,1.348251819610595703e+00,1.348158836364746094e+00,1.348065733909606934e+00,1.347972750663757324e+00,1.347879648208618164e+00,1.347786664962768555e+00,1.347693562507629395e+00,1.347600579261779785e+00,1.347507596015930176e+00,1.347414612770080566e+00,1.347321748733520508e+00,1.347228765487670898e+00,1.347135901451110840e+00,1.347042918205261230e+00,1.346950054168701172e+00,1.346857190132141113e+00,1.346764326095581055e+00,1.346671462059020996e+00,1.346578598022460938e+00,1.346485733985900879e+00,1.346392989158630371e+00,1.346300125122070312e+00,1.346207380294799805e+00,1.346114516258239746e+00,1.346021771430969238e+00,1.345929026603698730e+00,1.345836281776428223e+00,1.345743536949157715e+00,1.345650792121887207e+00,1.345558166503906250e+00,1.345465421676635742e+00,1.345372796058654785e+00,1.345280051231384277e+00,1.345187425613403320e+00,1.345094799995422363e+00,1.345002174377441406e+00,1.344909429550170898e+00,1.344816803932189941e+00,1.344724178314208984e+00,1.344631671905517578e+00,1.344539046287536621e+00,1.344446539878845215e+00,1.344354033470153809e+00,1.344261407852172852e+00,1.344168901443481445e+00,1.344076395034790039e+00,1.343983888626098633e+00,1.343891501426696777e+00,1.343798995018005371e+00,1.343706607818603516e+00,1.343614101409912109e+00,1.343521714210510254e+00,1.343429327011108398e+00,1.343336820602416992e+00,1.343244433403015137e+00,1.343152165412902832e+00,1.343059778213500977e+00,1.342967391014099121e+00,1.342875003814697266e+00,1.342782735824584961e+00,1.342690467834472656e+00,1.342598080635070801e+00,1.342505812644958496e+00,1.342413544654846191e+00,1.342321276664733887e+00,1.342229008674621582e+00,1.342136740684509277e+00,1.342044472694396973e+00,1.341952323913574219e+00,1.341860055923461914e+00
1.248840451240539551e+00,1.248760581016540527e+00,1.248680710792541504e+00,1.248600959777832031e+00,1.248521089553833008e+00,1.248441338539123535e+00,1.248361468315124512e+00,1.248281717300415039e+00,1.248201966285705566e+00,1.248122215270996094e+00,1.248042345046997070e+00,1.247962594032287598e+00,1.247882843017578125e+00,1.247803092002868652e+00,1.247723460197448730e+00,1.247643709182739258e+00,1.247564077377319336e+00,1.247484326362609863e+00,1.247404694557189941e+00,1.247324943542480469e+00,1.247245311737060547e+00,1.247165679931640625e+00,1.247086048126220703e+00,1.247006416320800781e+00,1.246926784515380859e+00,1.246847271919250488e+00,1.246767640113830566e+00,1.246688008308410645e+00,1.246608495712280273e+00,1.246528863906860352e+00,1.246449351310729980e+00,1.246369838714599609e+00,1.246290326118469238e+00,1.246210813522338867e+00,1.246131300926208496e+00,1.246051788330078125e+00,1.245972275733947754e+00,1.245892763137817383e+00,1.245813369750976562e+00,1.245733857154846191e+00,1.245654344558715820e+00,1.245574831962585449e+00,1.245495438575744629e+00,1.245416045188903809e+00,1.245336651802062988e+00,1.245257258415222168e+00,1.245177865028381348e+00,1.245098471641540527e+00,1.245019078254699707e+00,1.244939684867858887e+00,1.244860410690307617e+00,1.244781017303466797e+00,1.244701743125915527e+00,1.244622349739074707e+00,1.244543075561523438e+00,1.244463801383972168e+00,1.244384527206420898e+00,1.244305253028869629e+00,1.244225978851318359e+00,1.244146704673767090e+00,1.244067430496215820e+00,1.243988156318664551e+00,1.243909001350402832e+00,1.243829727172851562e+00,1.243750572204589844e+00,1.243671298027038574e+00,1.243592143058776855e+00,1.243512988090515137e+00,1.243433833122253418e+00,1.243354678153991699e+00,1.243275403976440430e+00,1.243196249008178711e+00,1.243117213249206543e+00,1.243038058280944824e+00,1.242958903312683105e+00,1.242879867553710938e+00,1.242800712585449219e+00,1.242721676826477051e+00,1.242642641067504883e+00,1.242563605308532715e+00
1.162390112876892090e+00,1.162320852279663086e+00,1.162251710891723633e+00,1.162182569503784180e+00,1.162113428115844727e+00,1.162044167518615723e+00,1.161975026130676270e+00,1.161905884742736816e+00,1.161836862564086914e+00,1.161767721176147461e+00,1.161698579788208008e+00,1.161629557609558105e+00,1.161560416221618652e+00,1.161491394042968750e+00,1.161422252655029297e+00,1.161353230476379395e+00,1.161284208297729492e+00,1.161215066909790039e+00,1.161146044731140137e+00,1.161077022552490234e+00,1.161008000373840332e+00,1.160938978195190430e+00,1.160870075225830078e+00,1.160801053047180176e+00,1.160732030868530273e+00,1.160663008689880371e+00,1.160594105720520020e+00,1.160525083541870117e+00,1.160456180572509766e+00,1.160387277603149414e+00,1.160318255424499512e+00,1.160249352455139160e+00,1.160180449485778809e+00,1.160111546516418457e+00,1.160042643547058105e+00,1.159973621368408203e+00,1.159904718399047852e+00,1.159835815429687500e+00,1.159767031669616699e+00,1.159698128700256348e+00,1.159629225730895996e+00,1.159560441970825195e+00,1.159491539001464844e+00,1.159422755241394043e+00,1.159353971481323242e+00,1.159285068511962891e+00,1.159216284751892090e+00,1.159147500991821289e+00,1.159078717231750488e+00,1.159009933471679688e+00,1.158941149711608887e+00,1.158872365951538086e+00,1.158803582191467285e+00,1.158734917640686035e+00,1.158666133880615234e+00,1.158597350120544434e+00,1.158528685569763184e+00,1.158459901809692383e+00,1.158391237258911133e+00,1.158322572708129883e+00,1.158253908157348633e+00,1.158185243606567383e+00,1.158116579055786133e+00,1.158047914505004883e+00,1.157979249954223633e+00,1.157910466194152832e+00,1.157841801643371582e+00,1.157773137092590332e+00,1.157704591751098633e+00,1.157635927200317383e+00,1.157567381858825684e+00,1.157498717308044434e+00,1.157430171966552734e+00,1.157361507415771484e+00,1.157292962074279785e+00,1.157224416732788086e+00,1.157155871391296387e+00,1.157087326049804688e+00,1.157018780708312988e+00,1.156950235366821289e+00
1.087133646011352539e+00,1.087073087692260742e+00,1.087012648582458496e+00,1.086952090263366699e+00,1.086891651153564453e+00,1.086831212043762207e+00,1.086770653724670410e+00,1.086710214614868164e+00,1.086649775505065918e+00,1.086589336395263672e+00,1.086528897285461426e+00,1.086468458175659180e+00,1.086408019065856934e+00,1.086347579956054688e+00,1.086287140846252441e+00,1.086226701736450195e+00,1.086166381835937500e+00,1.086105942726135254e+00,1.086045503616333008e+00,1.085985183715820312e+00,1.085924744606018066e+00,1.085864424705505371e+00,1.085803985595703125e+00,1.085743665695190430e+00,1.085683345794677734e+00,1.085623025894165039e+00,1.085562586784362793e+00,1.085502266883850098e+00,1.085441946983337402e+00,1.085381627082824707e+00,1.085321307182312012e+00,1.085260987281799316e+00,1.085200667381286621e+00,1.085140347480773926e+00,1.085080146789550781e+00,1.085019826889038086e+00,1.084959506988525391e+00,1.084899306297302246e+00,1.084838986396789551e+00,1.084778785705566406e+00,1.084718465805053711e+00,1.084658265113830566e+00,1.084598064422607422e+00,1.084537744522094727e+00,1.084477543830871582e+00,1.084417343139648438e+00,1.084357142448425293e+00,1.084296941757202148e+00,1.084236741065979004e+00,1.084176540374755859e+00,1.084116458892822266e+00,1.084056258201599121e+00,1.083996057510375977e+00,1.083935856819152832e+00,1.083875775337219238e+00,1.083815574645996094e+00,1.083755493164062500e+00,1.083695292472839355e+00,1.083635210990905762e+00,1.083575010299682617e+00,1.083514928817749023e+00,1.083454847335815430e+00,1.083394765853881836e+00,1.083334565162658691e+00,1.083274483680725098e+00,1.083214402198791504e+00,1.083154320716857910e+00,1.083094358444213867e+00,1.083034276962280273e+00,1.082974195480346680e+00,1.082914113998413086e+00,1.082854151725769043e+00,1.082794070243835449e+00,1.082734107971191406e+00,1.082674026489257812e+00,1.082614064216613770e+00,1.082553982734680176e+00,1.082494020462036133e+00,1.082434058189392090e+00,1.082373976707458496e+00
1.021029353141784668e+00,1.020976066589355469e+00,1.020922660827636719e+00,1.020869255065917969e+00,1.020815968513488770e+00,1.020762562751770020e+00,1.020709276199340820e+00,1.020655870437622070e+00,1.020602583885192871e+00,1.020549178123474121e+00,1.020495891571044922e+00,1.020442605018615723e+00,1.020389318466186523e+00,1.020335912704467773e+00,1.020282626152038574e+00,1.020229339599609375e+00,1.020176053047180176e+00,1.020122766494750977e+00,1.020069479942321777e+00,1.020016193389892578e+00,1.019963026046752930e+00,1.019909739494323730e+00,1.019856452941894531e+00,1.019803166389465332e+00,1.019749879837036133e+00,1.019696712493896484e+00,1.019643425941467285e+00,1.019590258598327637e+00,1.019536972045898438e+00,1.019483804702758789e+00,1.019430518150329590e+00,1.019377350807189941e+00,1.019324183464050293e+00,1.019270896911621094e+00,1.019217729568481445e+00,1.019164562225341797e+00,1.019111394882202148e+00,1.019058227539062500e+00,1.019005060195922852e+00,1.018951892852783203e+00,1.018898725509643555e+00,1.018845558166503906e+00,1.018792390823364258e+00,1.018739342689514160e+00,1.018686175346374512e+00,1.018633008003234863e+00,1.018579959869384766e+00,1.018526792526245117e+00,1.018473744392395020e+00,1.018420577049255371e+00,1.018367528915405273e+00,1.018314361572265625e+00,1.018261313438415527e+00,1.018208265304565430e+00,1.018155097961425781e+00,1.018102049827575684e+00,1.018048882484436035e+00,1.017995834350585938e+00,1.017942786216735840e+00,1.017889738082885742e+00,1.017836689949035645e+00,1.017783641815185547e+00,1.017730593681335449e+00,1.017677664756774902e+00,1.017624616622924805e+00,1.017571568489074707e+00,1.017518520355224609e+00,1.017465591430664062e+00,1.017412543296813965e+00,1.017359495162963867e+00,1.017306566238403320e+00,1.017253637313842773e+00,1.017200589179992676e+00,1.017147660255432129e+00,1.017094612121582031e+00,1.017041683197021484e+00,1.016988754272460938e+00,1.016935825347900391e+00,1.016882896423339844e+00,1.016829848289489746e+00
9.625034332275390625e-01,9.624560475349426270e-01,9.624086022377014160e-01,9.623611569404602051e-01,9.623137116432189941e-01,9.622663855552673340e-01,9.622188806533813477e-01,9.621715545654296875e-01,9.621241092681884766e-01,9.620767831802368164e-01,9.620293378829956055e-01,9.619820117950439453e-01,9.619345664978027344e-01,9.618872404098510742e-01,9.618397951126098633e-01,9.617925286293029785e-01,9.617450833320617676e-01,9.616978168487548828e-01,9.616503715515136719e-01,9.616029858589172363e-01,9.615557193756103516e-01,9.615083336830139160e-01,9.614610671997070312e-01,9.614136815071105957e-01,9.613664150238037109e-01,9.613190293312072754e-01,9.612717628479003906e-01,9.612243771553039551e-01,9.611771702766418457e-01,9.611297845840454102e-01,9.610825777053833008e-01,9.610351920127868652e-01,9.609879851341247559e-01,9.609406590461730957e-01,9.608933925628662109e-01,9.608460664749145508e-01,9.607988595962524414e-01,9.607515931129455566e-01,9.607043862342834473e-01,9.606570601463317871e-01,9.606098532676696777e-01,9.605625867843627930e-01,9.605153799057006836e-01,9.604681134223937988e-01,9.604209065437316895e-01,9.603736400604248047e-01,9.603264927864074707e-01,9.602791666984558105e-01,9.602319002151489258e-01,9.601847529411315918e-01,9.601375460624694824e-01,9.600903987884521484e-01,9.600431323051452637e-01,9.599959850311279297e-01,9.599487781524658203e-01,9.599016308784484863e-01,9.598544239997863770e-01,9.598072767257690430e-01,9.597600698471069336e-01,9.597129821777343750e-01,9.596657752990722656e-01,9.596186280250549316e-01,9.595714807510375977e-01,9.595243930816650391e-01,9.594771862030029297e-01,9.594300985336303711e-01,9.593828916549682617e-01,9.593358635902404785e-01,9.592886567115783691e-01,9.592416286468505859e-01,9.591944217681884766e-01,9.591473937034606934e-01,9.591002464294433594e-01,9.590532183647155762e-01,9.590060710906982422e-01,9.589590430259704590e-01,9.589118957519531250e-01,9.588648676872253418e-01,9.588177204132080078e-01,9.587706327438354492e-01
9.103232026100158691e-01,9.102807641029357910e-01,9.102383255958557129e-01,9.101959466934204102e-01,9.101535081863403320e-01,9.101111292839050293e-01,9.100686907768249512e-01,9.100263118743896484e-01,9.099838733673095703e-01,9.099414944648742676e-01,9.098990559577941895e-01,9.098567366600036621e-01,9.098142981529235840e-01,9.097718596458435059e-01,9.097295403480529785e-01,9.096871018409729004e-01,9.096447825431823730e-01,9.096024036407470703e-01,9.095600843429565430e-01,9.095177054405212402e-01,9.094753861427307129e-01,9.094329476356506348e-01,9.093906879425048828e-01,9.093483090400695801e-01,9.093059897422790527e-01,9.092636108398437500e-01,9.092213511466979980e-01,9.091789722442626953e-01,9.091367125511169434e-01,9.090943336486816406e-01,9.090520739555358887e-01,9.090096950531005859e-01,9.089674353599548340e-01,9.089251160621643066e-01,9.088828563690185547e-01,9.088405370712280273e-01,9.087982773780822754e-01,9.087559580802917480e-01,9.087136983871459961e-01,9.086713790893554688e-01,9.086291790008544922e-01,9.085868597030639648e-01,9.085445404052734375e-01,9.085023403167724609e-01,9.084600210189819336e-01,9.084178209304809570e-01,9.083755016326904297e-01,9.083333015441894531e-01,9.082910418510437012e-01,9.082488417625427246e-01,9.082065224647521973e-01,9.081643819808959961e-01,9.081221222877502441e-01,9.080799221992492676e-01,9.080376625061035156e-01,9.079955220222473145e-01,9.079532623291015625e-01,9.079110622406005859e-01,9.078688025474548340e-01,9.078266620635986328e-01,9.077844023704528809e-01,9.077422618865966797e-01,9.077000617980957031e-01,9.076579213142395020e-01,9.076156616210937500e-01,9.075735807418823242e-01,9.075313210487365723e-01,9.074892401695251465e-01,9.074470400810241699e-01,9.074048995971679688e-01,9.073626995086669922e-01,9.073206186294555664e-01,9.072784185409545898e-01,9.072362184524536133e-01,9.071941375732421875e-01,9.071519374847412109e-01,9.071098566055297852e-01,9.070676565170288086e-01,9.070255756378173828e-01,9.069834351539611816e-01
8.635096549987792969e-01,8.634715676307678223e-01,8.634333610534667969e-01,8.633952140808105469e-01,8.633570075035095215e-01,8.633188605308532715e-01,8.632806539535522461e-01,8.632425069808959961e-01,8.632043600082397461e-01,8.631661534309387207e-01,8.631280660629272461e-01,8.630898594856262207e-01,8.630517721176147461e-01,8.630136251449584961e-01,8.629755377769470215e-01,8.629373311996459961e-01,8.628993034362792969e-01,8.628610968589782715e-01,8.628230094909667969e-01,8.627848625183105469e-01,8.627468347549438477e-01,8.627086281776428223e-01,8.626706004142761230e-01,8.626324534416198730e-01,8.625943660736083984e-01,8.625562787055969238e-01,8.625181913375854492e-01,8.624800443649291992e-01,8.624420166015625000e-01,8.624039292335510254e-01,8.623658418655395508e-01,8.623277544975280762e-01,8.622897267341613770e-01,8.622516393661499023e-01,8.622136116027832031e-01,8.621754646301269531e-01,8.621374964714050293e-01,8.620993494987487793e-01,8.620612621307373047e-01,8.620232939720153809e-01,8.619852066040039062e-01,8.619471788406372070e-01,8.619090914726257324e-01,8.618711233139038086e-01,8.618330359458923340e-01,8.617950677871704102e-01,8.617569804191589355e-01,8.617190122604370117e-01,8.616809248924255371e-01,8.616429567337036133e-01,8.616049289703369141e-01,8.615669608116149902e-01,8.615289330482482910e-01,8.614909648895263672e-01,8.614529371261596680e-01,8.614149689674377441e-01,8.613769412040710449e-01,8.613389730453491211e-01,8.613009452819824219e-01,8.612630367279052734e-01,8.612250089645385742e-01,8.611870408058166504e-01,8.611490726470947266e-01,8.611111044883728027e-01,8.610731363296508789e-01,8.610352277755737305e-01,8.609972000122070312e-01,8.609592318534851074e-01,8.609213232994079590e-01,8.608832955360412598e-01,8.608453869819641113e-01,8.608074188232421875e-01,8.607695102691650391e-01,8.607315421104431152e-01,8.606936931610107422e-01,8.606556653976440430e-01,8.606178164482116699e-01,8.605798482894897461e-01,8.605419993400573730e-01,8.605040311813354492e-01
8.212754726409912109e-01,8.212409019470214844e-01,8.212063908576965332e-01,8.211718201637268066e-01,8.211373686790466309e-01,8.211027979850769043e-01,8.210683465003967285e-01,8.210337758064270020e-01,8.209993243217468262e-01,8.209647536277770996e-01,8.209303021430969238e-01,8.208957314491271973e-01,8.208612799644470215e-01,8.208267688751220703e-01,8.207923173904418945e-01,8.207577466964721680e-01,8.207232952117919922e-01,8.206887841224670410e-01,8.206543326377868652e-01,8.206198215484619141e-01,8.205853700637817383e-01,8.205508589744567871e-01,8.205164670944213867e-01,8.204819560050964355e-01,8.204475045204162598e-01,8.204129934310913086e-01,8.203786015510559082e-01,8.203440904617309570e-01,8.203096985816955566e-01,8.202751874923706055e-01,8.202407956123352051e-01,8.202062845230102539e-01,8.201718330383300781e-01,8.201373815536499023e-01,8.201029300689697266e-01,8.200685381889343262e-01,8.200340867042541504e-01,8.199996948242187500e-01,8.199651837348937988e-01,8.199308514595031738e-01,8.198963403701782227e-01,8.198620080947875977e-01,8.198275566101074219e-01,8.197931647300720215e-01,8.197587132453918457e-01,8.197243809700012207e-01,8.196899294853210449e-01,8.196555376052856445e-01,8.196210861206054688e-01,8.195867538452148438e-01,8.195523023605346680e-01,8.195179700851440430e-01,8.194835782051086426e-01,8.194491863250732422e-01,8.194147944450378418e-01,8.193804621696472168e-01,8.193460106849670410e-01,8.193117380142211914e-01,8.192772865295410156e-01,8.192429542541503906e-01,8.192085623741149902e-01,8.191741704940795898e-01,8.191398382186889648e-01,8.191054463386535645e-01,8.190711736679077148e-01,8.190367817878723145e-01,8.190024495124816895e-01,8.189680576324462891e-01,8.189337849617004395e-01,8.188993930816650391e-01,8.188651204109191895e-01,8.188307285308837891e-01,8.187964558601379395e-01,8.187620639801025391e-01,8.187277913093566895e-01,8.186934590339660645e-01,8.186591863632202148e-01,8.186247944831848145e-01,8.185905218124389648e-01,8.185561895370483398e-01
7.829800248146057129e-01,7.829485535621643066e-01,7.829172015190124512e-01,7.828857898712158203e-01,7.828544378280639648e-01,7.828230261802673340e-01,7.827917337417602539e-01,7.827603220939636230e-01,7.827289700508117676e-01,7.826975584030151367e-01,7.826662659645080566e-01,7.826348543167114258e-01,7.826035022735595703e-01,7.825720906257629395e-01,7.825407981872558594e-01,7.825093865394592285e-01,7.824780941009521484e-01,7.824467420578002930e-01,7.824153900146484375e-01,7.823840379714965820e-01,7.823527455329895020e-01,7.823213338851928711e-01,7.822900414466857910e-01,7.822586894035339355e-01,7.822273969650268555e-01,7.821960449218750000e-01,7.821646332740783691e-01,7.821334004402160645e-01,7.821019887924194336e-01,7.820707559585571289e-01,7.820394039154052734e-01,7.820081114768981934e-01,7.819767594337463379e-01,7.819454669952392578e-01,7.819141745567321777e-01,7.818828821182250977e-01,7.818515300750732422e-01,7.818202972412109375e-01,7.817889451980590820e-01,7.817577123641967773e-01,7.817263603210449219e-01,7.816951274871826172e-01,7.816637754440307617e-01,7.816325426101684570e-01,7.816012501716613770e-01,7.815700173377990723e-01,7.815386652946472168e-01,7.815074324607849121e-01,7.814761400222778320e-01,7.814449071884155273e-01,7.814136147499084473e-01,7.813823819160461426e-01,7.813510894775390625e-01,7.813198566436767578e-01,7.812885642051696777e-01,7.812572717666625977e-01,7.812260985374450684e-01,7.811948060989379883e-01,7.811635732650756836e-01,7.811322808265686035e-01,7.811011075973510742e-01,7.810698151588439941e-01,7.810386419296264648e-01,7.810073494911193848e-01,7.809761762619018555e-01,7.809448838233947754e-01,7.809137105941772461e-01,7.808824777603149414e-01,7.808512449264526367e-01,7.808200120925903320e-01,7.807888388633728027e-01,7.807576060295104980e-01,7.807264328002929688e-01,7.806951999664306641e-01,7.806640267372131348e-01,7.806327939033508301e-01,7.806016206741333008e-01,7.805703878402709961e-01,7.805392146110534668e-01,7.805079817771911621e-01
7.480967640876770020e-01,7.480680942535400391e-01,7.480394840240478516e-01,7.480108141899108887e-01,7.479822039604187012e-01,7.479534745216369629e-01,7.479248642921447754e-01,7.478961944580078125e-01,7.478675842285156250e-01,7.478389143943786621e-01,7.478103637695312500e-01,7.477816939353942871e-01,7.477530837059020996e-01,7.477244138717651367e-01,7.476958036422729492e-01,7.476671934127807617e-01,7.476385831832885742e-01,7.476099133491516113e-01,7.475813627243041992e-01,7.475526928901672363e-01,7.475240826606750488e-01,7.474954724311828613e-01,7.474668622016906738e-01,7.474382519721984863e-01,7.474096417427062988e-01,7.473810911178588867e-01,7.473524212837219238e-01,7.473238706588745117e-01,7.472952604293823242e-01,7.472667098045349121e-01,7.472380399703979492e-01,7.472094893455505371e-01,7.471808791160583496e-01,7.471523284912109375e-01,7.471237182617187500e-01,7.470951676368713379e-01,7.470665574073791504e-01,7.470380067825317383e-01,7.470093965530395508e-01,7.469809055328369141e-01,7.469522953033447266e-01,7.469237446784973145e-01,7.468951344490051270e-01,7.468666434288024902e-01,7.468380331993103027e-01,7.468095421791076660e-01,7.467809319496154785e-01,7.467523813247680664e-01,7.467238306999206543e-01,7.466952800750732422e-01,7.466667294502258301e-01,7.466381192207336426e-01,7.466096282005310059e-01,7.465810775756835938e-01,7.465525865554809570e-01,7.465239763259887695e-01,7.464954853057861328e-01,7.464669346809387207e-01,7.464384436607360840e-01,7.464098930358886719e-01,7.463814020156860352e-01,7.463528513908386230e-01,7.463243603706359863e-01,7.462958097457885742e-01,7.462673187255859375e-01,7.462387681007385254e-01,7.462102770805358887e-01,7.461817264556884766e-01,7.461532950401306152e-01,7.461247444152832031e-01,7.460962533950805664e-01,7.460677027702331543e-01,7.460392713546752930e-01,7.460107207298278809e-01,7.459822893142700195e-01,7.459537386894226074e-01,7.459253072738647461e-01,7.458967566490173340e-01,7.458683252334594727e-01,7.458397746086120605e-01
7.161892056465148926e-01,7.161629199981689453e-01,7.161366939544677734e-01,7.161104083061218262e-01,7.160841822624206543e-01,7.160578966140747070e-01,7.160316705703735352e-01,7.160053849220275879e-01,7.159791588783264160e-01,7.159528732299804688e-01,7.159266471862792969e-01,7.159004211425781250e-01,7.158741950988769531e-01,7.158479094505310059e-01,7.158216834068298340e-01,7.157954573631286621e-01,7.157691717147827148e-01,7.157430052757263184e-01,7.157167196273803711e-01,7.156905531883239746e-01,7.156642675399780273e-01,7.156381011009216309e-01,7.156118154525756836e-01,7.155856490135192871e-01,7.155594229698181152e-01,7.155331969261169434e-01,7.155069708824157715e-01,7.154808044433593750e-01,7.154545783996582031e-01,7.154283523559570312e-01,7.154021263122558594e-01,7.153759598731994629e-01,7.153497338294982910e-01,7.153235673904418945e-01,7.152973413467407227e-01,7.152711749076843262e-01,7.152449488639831543e-01,7.152187824249267578e-01,7.151925563812255859e-01,7.151663899421691895e-01,7.151402235031127930e-01,7.151140570640563965e-01,7.150878310203552246e-01,7.150616645812988281e-01,7.150354981422424316e-01,7.150092720985412598e-01,7.149831056594848633e-01,7.149569392204284668e-01,7.149307727813720703e-01,7.149046063423156738e-01,7.148784399032592773e-01,7.148522734642028809e-01,7.148261070251464844e-01,7.147999405860900879e-01,7.147737741470336914e-01,7.147476077079772949e-01,7.147215008735656738e-01,7.146952748298645020e-01,7.146691679954528809e-01,7.146430015563964844e-01,7.146168947219848633e-01,7.145907282829284668e-01,7.145646214485168457e-01,7.145383954048156738e-01,7.145122885704040527e-01,7.144861221313476562e-01,7.144600152969360352e-01,7.144338488578796387e-01,7.144077420234680176e-01,7.143816351890563965e-01,7.143555283546447754e-01,7.143293619155883789e-01,7.143032550811767578e-01,7.142770886421203613e-01,7.142509818077087402e-01,7.142248749732971191e-01,7.141987085342407227e-01,7.141726613044738770e-01,7.141464948654174805e-01,7.141203880310058594e-01
6.868920922279357910e-01,6.868679523468017578e-01,6.868438124656677246e-01,6.868196129798889160e-01,6.867954730987548828e-01,6.867713332176208496e-01,6.867471933364868164e-01,6.867230534553527832e-01,6.866988539695739746e-01,6.866747140884399414e-01,6.866505742073059082e-01,6.866264343261718750e-01,6.866022944450378418e-01,6.865781545639038086e-01,6.865540146827697754e-01,6.865299344062805176e-01,6.865057349205017090e-01,6.864816546440124512e-01,6.864575147628784180e-01,6.864333748817443848e-01,6.864092350006103516e-01,6.863851547241210938e-01,6.863610148429870605e-01,6.863369345664978027e-01,6.863127946853637695e-01,6.862886548042297363e-01,6.862645149230957031e-01,6.862404346466064453e-01,6.862162947654724121e-01,6.861922144889831543e-01,6.861680746078491211e-01,6.861439943313598633e-01,6.861199140548706055e-01,6.860958337783813477e-01,6.860716938972473145e-01,6.860476136207580566e-01,6.860234737396240234e-01,6.859993934631347656e-01,6.859753131866455078e-01,6.859511733055114746e-01,6.859270930290222168e-01,6.859030127525329590e-01,6.858789324760437012e-01,6.858548521995544434e-01,6.858307719230651855e-01,6.858066916465759277e-01,6.857826113700866699e-01,6.857585310935974121e-01,6.857344508171081543e-01,6.857103705406188965e-01,6.856862902641296387e-01,6.856622099876403809e-01,6.856381893157958984e-01,6.856140494346618652e-01,6.855900287628173828e-01,6.855659484863281250e-01,6.855419278144836426e-01,6.855177879333496094e-01,6.854937672615051270e-01,6.854696869850158691e-01,6.854456663131713867e-01,6.854215860366821289e-01,6.853975653648376465e-01,6.853734850883483887e-01,6.853494644165039062e-01,6.853253841400146484e-01,6.853013634681701660e-01,6.852772831916809082e-01,6.852532625198364258e-01,6.852291822433471680e-01,6.852051615715026855e-01,6.851811408996582031e-01,6.851570606231689453e-01,6.851330399513244629e-01,6.851090192794799805e-01,6.850849986076354980e-01,6.850609183311462402e-01,6.850369572639465332e-01,6.850128769874572754e-01,6.849888563156127930e-01
6.598977446556091309e-01,6.598753929138183594e-01,6.598531603813171387e-01,6.598308086395263672e-01,6.598085165023803711e-01,6.597862243652343750e-01,6.597639322280883789e-01,6.597416996955871582e-01,6.597193479537963867e-01,6.596971154212951660e-01,6.596748232841491699e-01,6.596525311470031738e-01,6.596302390098571777e-01,6.596080064773559570e-01,6.595857143402099609e-01,6.595634222030639648e-01,6.595411300659179688e-01,6.595188975334167480e-01,6.594966053962707520e-01,6.594743728637695312e-01,6.594520807266235352e-01,6.594298481941223145e-01,6.594075560569763184e-01,6.593853235244750977e-01,6.593630313873291016e-01,6.593407988548278809e-01,6.593185067176818848e-01,6.592962741851806641e-01,6.592739820480346680e-01,6.592517495155334473e-01,6.592295169830322266e-01,6.592072844505310059e-01,6.591849923133850098e-01,6.591627001762390137e-01,6.591405272483825684e-01,6.591182351112365723e-01,6.590960025787353516e-01,6.590737700462341309e-01,6.590515375137329102e-01,6.590292453765869141e-01,6.590070724487304688e-01,6.589847803115844727e-01,6.589626073837280273e-01,6.589403152465820312e-01,6.589181423187255859e-01,6.588958501815795898e-01,6.588736772537231445e-01,6.588514447212219238e-01,6.588292121887207031e-01,6.588069796562194824e-01,6.587847471237182617e-01,6.587625145912170410e-01,6.587403416633605957e-01,6.587181091308593750e-01,6.586958765983581543e-01,6.586736440658569336e-01,6.586514711380004883e-01,6.586292386054992676e-01,6.586070656776428223e-01,6.585848331451416016e-01,6.585626602172851562e-01,6.585404276847839355e-01,6.585182547569274902e-01,6.584960222244262695e-01,6.584737896919250488e-01,6.584516167640686035e-01,6.584293842315673828e-01,6.584072113037109375e-01,6.583849787712097168e-01,6.583628058433532715e-01,6.583406329154968262e-01,6.583184599876403809e-01,6.582962274551391602e-01,6.582740545272827148e-01,6.582518219947814941e-01,6.582297086715698242e-01,6.582074761390686035e-01,6.581853032112121582e-01,6.581631302833557129e-01,6.581409573554992676e-01
6.349447965621948242e-01,6.349241733551025391e-01,6.349034905433654785e-01,6.348828673362731934e-01,6.348622441291809082e-01,6.348416209220886230e-01,6.348209381103515625e-01,6.348003745079040527e-01,6.347796916961669922e-01,6.347590684890747070e-01,6.347384452819824219e-01,6.347178220748901367e-01,6.346971988677978516e-01,6.346765756607055664e-01,6.346559524536132812e-01,6.346353292465209961e-01,6.346147060394287109e-01,6.345940828323364258e-01,6.345734596252441406e-01,6.345528364181518555e-01,6.345322132110595703e-01,6.345116496086120605e-01,6.344909667968750000e-01,6.344704031944274902e-01,6.344497799873352051e-01,6.344292163848876953e-01,6.344085335731506348e-01,6.343879103660583496e-01,6.343673467636108398e-01,6.343467235565185547e-01,6.343261599540710449e-01,6.343055367469787598e-01,6.342849135398864746e-01,6.342642903327941895e-01,6.342437267303466797e-01,6.342231035232543945e-01,6.342025399208068848e-01,6.341819167137145996e-01,6.341613531112670898e-01,6.341407299041748047e-01,6.341201663017272949e-01,6.340996026992797852e-01,6.340790390968322754e-01,6.340584158897399902e-01,6.340378522872924805e-01,6.340172290802001953e-01,6.339966654777526855e-01,6.339761018753051758e-01,6.339555382728576660e-01,6.339349150657653809e-01,6.339144110679626465e-01,6.338937878608703613e-01,6.338732242584228516e-01,6.338526606559753418e-01,6.338320970535278320e-01,6.338114738464355469e-01,6.337909698486328125e-01,6.337703466415405273e-01,6.337497830390930176e-01,6.337292194366455078e-01,6.337086558341979980e-01,6.336880922317504883e-01,6.336675286293029785e-01,6.336469650268554688e-01,6.336264014244079590e-01,6.336058974266052246e-01,6.335852742195129395e-01,6.335647702217102051e-01,6.335442066192626953e-01,6.335236430168151855e-01,6.335030794143676758e-01,6.334825754165649414e-01,6.334620118141174316e-01,6.334415078163146973e-01,6.334209442138671875e-01,6.334003806114196777e-01,6.333798170089721680e-01,6.333593130111694336e-01,6.333387494087219238e-01,6.333182454109191895e-01
6.118102669715881348e-01,6.117911338806152344e-01,6.117719411849975586e-01,6.117528080940246582e-01,6.117336153984069824e-01,6.117144823074340820e-01,6.116952896118164062e-01,6.116761565208435059e-01,6.116569638252258301e-01,6.116378307342529297e-01,6.116186976432800293e-01,6.115995645523071289e-01,6.115803718566894531e-01,6.115612387657165527e-01,6.115420460700988770e-01,6.115229725837707520e-01,6.115037798881530762e-01,6.114846467971801758e-01,6.114655137062072754e-01,6.114463806152343750e-01,6.114271879196166992e-01,6.114081144332885742e-01,6.113889217376708984e-01,6.113697886466979980e-01,6.113506555557250977e-01,6.113314628601074219e-01,6.113123893737792969e-01,6.112931966781616211e-01,6.112741231918334961e-01,6.112549304962158203e-01,6.112358570098876953e-01,6.112167239189147949e-01,6.111975908279418945e-01,6.111784577369689941e-01,6.111593246459960938e-01,6.111401915550231934e-01,6.111211180686950684e-01,6.111019849777221680e-01,6.110828518867492676e-01,6.110637187957763672e-01,6.110446453094482422e-01,6.110255122184753418e-01,6.110063791275024414e-01,6.109872460365295410e-01,6.109681725502014160e-01,6.109490394592285156e-01,6.109299659729003906e-01,6.109108328819274902e-01,6.108916997909545898e-01,6.108725666999816895e-01,6.108534932136535645e-01,6.108343601226806641e-01,6.108152866363525391e-01,6.107961535453796387e-01,6.107770800590515137e-01,6.107579469680786133e-01,6.107388734817504883e-01,6.107197999954223633e-01,6.107006669044494629e-01,6.106815934181213379e-01,6.106624603271484375e-01,6.106433868408203125e-01,6.106243133544921875e-01,6.106052398681640625e-01,6.105861067771911621e-01,6.105670332908630371e-01,6.105479598045349121e-01,6.105288863182067871e-01,6.105097532272338867e-01,6.104906797409057617e-01,6.104716062545776367e-01,6.104525327682495117e-01,6.104334592819213867e-01,6.104143857955932617e-01,6.103953123092651367e-01,6.103762388229370117e-01,6.103571057319641113e-01,6.103380918502807617e-01,6.103189587593078613e-01,6.102999448776245117e-01
