5.000000000000000000e+00,5.000000000000000000e+00,5.000000000000000000e+00,5.000000000000000000e+00,5.000000000000000000e+00,5.000000000000000000e+00,5.000000000000000000e+00,5.000000000000000000e+00,5.000000000000000000e+00,5.000000000000000000e+00,5.000000000000000000e+00,5.000000000000000000e+00,5.000000000000000000e+00,5.000000000000000000e+00,5.000000000000000000e+00,5.000000000000000000e+00,5.000000000000000000e+00,5.000000000000000000e+00,5.000000000000000000e+00,5.000000000000000000e+00,5.000000000000000000e+00,5.000000000000000000e+00,5.000000000000000000e+00,5.000000000000000000e+00,5.000000000000000000e+00,5.000000000000000000e+00,5.000000000000000000e+00,5.000000000000000000e+00,5.000000000000000000e+00,5.000000000000000000e+00,5.000000000000000000e+00,5.000000000000000000e+00,5.000000000000000000e+00,5.000000000000000000e+00,5.000000000000000000e+00,5.000000000000000000e+00,5.000000000000000000e+00,5.000000000000000000e+00,5.000000000000000000e+00,5.000000000000000000e+00,5.000000000000000000e+00,4.487827777862548828e+00,4.324676036834716797e+00,4.172970294952392578e+00,4.031547546386718750e+00,3.899396181106567383e+00,3.775633335113525391e+00,3.659485340118408203e+00,3.550270080566406250e+00,3.447384595870971680e+00,3.350294351577758789e+00,3.258522987365722656e+00,3.171645402908325195e+00,3.089280128479003906e+00,3.011084556579589844e+00,2.936749696731567383e+00,2.865996599197387695e+00,2.798572301864624023e+00,2.734247684478759766e+00,2.672813892364501953e+00,2.614079713821411133e+00,2.557871580123901367e+00,2.504029512405395508e+00,2.452407598495483398e+00,2.402870893478393555e+00,2.355296134948730469e+00,2.309568405151367188e+00,2.265582323074340820e+00,2.223240852355957031e+00,2.182452678680419922e+00,2.143134117126464844e+00,2.105207204818725586e+00,2.068599224090576172e+00,2.033242940902709961e+00,1.999074816703796387e+00,1.966036319732666016e+00,1.934071779251098633e+00,1.903130054473876953e+00,1.873162865638732910e+00,1.844124674797058105e+00
5.000000000000000000e+00,5.000000000000000000e+00,5.000000000000000000e+00,5.000000000000000000e+00,5.000000000000000000e+00,5.000000000000000000e+00,5.000000000000000000e+00,5.000000000000000000e+00,5.000000000000000000e+00,5.000000000000000000e+00,5.000000000000000000e+00,5.000000000000000000e+00,5.000000000000000000e+00,5.000000000000000000e+00,5.000000000000000000e+00,5.000000000000000000e+00,5.000000000000000000e+00,5.000000000000000000e+00,5.000000000000000000e+00,5.000000000000000000e+00,5.000000000000000000e+00,5.000000000000000000e+00,5.000000000000000000e+00,5.000000000000000000e+00,5.000000000000000000e+00,5.000000000000000000e+00,5.000000000000000000e+00,5.000000000000000000e+00,5.000000000000000000e+00,5.000000000000000000e+00,5.000000000000000000e+00,5.000000000000000000e+00,5.000000000000000000e+00,5.000000000000000000e+00,5.000000000000000000e+00,5.000000000000000000e+00,5.000000000000000000e+00,5.000000000000000000e+00,5.000000000000000000e+00,5.000000000000000000e+00,4.663901329040527344e+00,4.487947463989257812e+00,4.324786663055419922e+00,4.173073291778564453e+00,4.031643867492675781e+00,3.899486303329467773e+00,3.775717973709106445e+00,3.659564733505249023e+00,3.550344705581665039e+00,3.447454690933227539e+00,3.350360631942749023e+00,3.258585929870605469e+00,3.171705007553100586e+00,3.089336633682250977e+00,3.011138200759887695e+00,2.936800479888916016e+00,2.866044998168945312e+00,2.798618793487548828e+00,2.734292030334472656e+00,2.672856092453002930e+00,2.614120244979858398e+00,2.557910203933715820e+00,2.504066467285156250e+00,2.452443122863769531e+00,2.402905225753784180e+00,2.355329036712646484e+00,2.309599876403808594e+00,2.265612840652465820e+00,2.223269939422607422e+00,2.182480812072753906e+00,2.143161296844482422e+00,2.105233430862426758e+00,2.068624734878540039e+00,2.033267498016357422e+00,1.999098420143127441e+00,1.966059207916259766e+00,1.934093832969665527e+00,1.903151631355285645e+00,1.873183608055114746e+00,1.844144940376281738e+00
5.000000000000000000e+00,5.000000000000000000e+00,5.000000000000000000e+00,5.000000000000000000e+00,5.000000000000000000e+00,5.000000000000000000e+00,5.000000000000000000e+00,5.000000000000000000e+00,5.000000000000000000e+00,5.000000000000000000e+00,5.000000000000000000e+00,5.000000000000000000e+00,5.000000000000000000e+00,5.000000000000000000e+00,5.000000000000000000e+00,5.000000000000000000e+00,5.000000000000000000e+00,5.000000000000000000e+00,5.000000000000000000e+00,5.000000000000000000e+00,5.000000000000000000e+00,5.000000000000000000e+00,5.000000000000000000e+00,5.000000000000000000e+00,5.000000000000000000e+00,5.000000000000000000e+00,5.000000000000000000e+00,5.000000000000000000e+00,5.000000000000000000e+00,5.000000000000000000e+00,5.000000000000000000e+00,5.000000000000000000e+00,5.000000000000000000e+00,5.000000000000000000e+00,5.000000000000000000e+00,5.000000000000000000e+00,5.000000000000000000e+00,5.000000000000000000e+00,5.000000000000000000e+00,4.854355335235595703e+00,4.664030075073242188e+00,4.488066673278808594e+00,4.324897289276123047e+00,4.173176288604736328e+00,4.031739711761474609e+00,3.899576425552368164e+00,3.775802135467529297e+00,3.659643888473510742e+00,3.550419092178344727e+00,3.447525262832641602e+00,3.350427150726318359e+00,3.258648872375488281e+00,3.171764612197875977e+00,3.089392900466918945e+00,3.011191844940185547e+00,2.936851739883422852e+00,2.866093873977661133e+00,2.798665285110473633e+00,2.734336376190185547e+00,2.672898292541503906e+00,2.614160537719726562e+00,2.557949066162109375e+00,2.504103660583496094e+00,2.452478885650634766e+00,2.402939319610595703e+00,2.355361938476562500e+00,2.309631347656250000e+00,2.265643119812011719e+00,2.223299264907836914e+00,2.182508945465087891e+00,2.143188476562500000e+00,2.105259895324707031e+00,2.068650007247924805e+00,2.033292055130004883e+00,1.999122262001037598e+00,1.966081976890563965e+00,1.934116125106811523e+00,1.903172969818115234e+00,1.873204350471496582e+00,1.844164967536926270e+00
5.000000000000000000e+00,5.000000000000000000e+00,5.000000000000000000e+00,5.000000000000000000e+00,5.000000000000000000e+00,5.000000000000000000e+00,5.000000000000000000e+00,5.000000000000000000e+00,5.000000000000000000e+00,5.000000000000000000e+00,5.000000000000000000e+00,5.000000000000000000e+00,5.000000000000000000e+00,5.000000000000000000e+00,5.000000000000000000e+00,5.000000000000000000e+00,5.000000000000000000e+00,5.000000000000000000e+00,5.000000000000000000e+00,5.000000000000000000e+00,5.000000000000000000e+00,5.000000000000000000e+00,5.000000000000000000e+00,5.000000000000000000e+00,5.000000000000000000e+00,5.000000000000000000e+00,5.000000000000000000e+00,5.000000000000000000e+00,5.000000000000000000e+00,5.000000000000000000e+00,5.000000000000000000e+00,5.000000000000000000e+00,5.000000000000000000e+00,5.000000000000000000e+00,5.000000000000000000e+00,5.000000000000000000e+00,5.000000000000000000e+00,5.000000000000000000e+00,5.000000000000000000e+00,4.854494571685791016e+00,4.664159297943115234e+00,4.488185882568359375e+00,4.325007915496826172e+00,4.173279762268066406e+00,4.031836032867431641e+00,3.899666309356689453e+00,3.775886535644531250e+00,3.659723281860351562e+00,3.550493955612182617e+00,3.447595596313476562e+00,3.350493431091308594e+00,3.258711576461791992e+00,3.171823978424072266e+00,3.089449644088745117e+00,3.011245489120483398e+00,2.936902999877929688e+00,2.866142511367797852e+00,2.798711538314819336e+00,2.734380483627319336e+00,2.672940731048583984e+00,2.614201068878173828e+00,2.557987689971923828e+00,2.504140853881835938e+00,2.452514171600341797e+00,2.402973413467407227e+00,2.355394601821899414e+00,2.309663057327270508e+00,2.265673637390136719e+00,2.223328590393066406e+00,2.182537317276000977e+00,2.143215656280517578e+00,2.105285882949829102e+00,2.068675279617309570e+00,2.033316373825073242e+00,1.999145865440368652e+00,1.966104984283447266e+00,1.934138298034667969e+00,1.903194427490234375e+00,1.873225212097167969e+00,1.844185113906860352e+00
5.000000000000000000e+00,5.000000000000000000e+00,5.000000000000000000e+00,5.000000000000000000e+00,5.000000000000000000e+00,5.000000000000000000e+00,5.000000000000000000e+00,5.000000000000000000e+00,5.000000000000000000e+00,5.000000000000000000e+00,5.000000000000000000e+00,5.000000000000000000e+00,5.000000000000000000e+00,5.000000000000000000e+00,5.000000000000000000e+00,5.000000000000000000e+00,5.000000000000000000e+00,5.000000000000000000e+00,5.000000000000000000e+00,5.000000000000000000e+00,5.000000000000000000e+00,5.000000000000000000e+00,5.000000000000000000e+00,5.000000000000000000e+00,5.000000000000000000e+00,5.000000000000000000e+00,5.000000000000000000e+00,5.000000000000000000e+00,5.000000000000000000e+00,5.000000000000000000e+00,5.000000000000000000e+00,5.000000000000000000e+00,5.000000000000000000e+00,5.000000000000000000e+00,5.000000000000000000e+00,5.000000000000000000e+00,5.000000000000000000e+00,5.000000000000000000e+00,5.000000000000000000e+00,4.854634284973144531e+00,4.664288043975830078e+00,4.488305091857910156e+00,4.325119018554687500e+00,4.173382759094238281e+00,4.031932353973388672e+00,3.899756431579589844e+00,3.775971174240112305e+00,3.659802675247192383e+00,3.550568342208862305e+00,3.447665929794311523e+00,3.350559949874877930e+00,3.258774518966674805e+00,3.171883821487426758e+00,3.089506149291992188e+00,3.011299371719360352e+00,2.936953783035278320e+00,2.866190910339355469e+00,2.798758029937744141e+00,2.734424829483032227e+00,2.672983169555664062e+00,2.614241600036621094e+00,2.558026313781738281e+00,2.504178047180175781e+00,2.452549934387207031e+00,2.403007745742797852e+00,2.355427503585815430e+00,2.309694766998291016e+00,2.265703916549682617e+00,2.223357677459716797e+00,2.182565450668334961e+00,2.143242835998535156e+00,2.105312347412109375e+00,2.068700790405273438e+00,2.033340930938720703e+00,1.999169468879699707e+00,1.966127872467041016e+00,1.934160351753234863e+00,1.903216004371643066e+00,1.873245954513549805e+00,1.844205379486083984e+00
5.000000000000000000e+00,5.000000000000000000e+00,5.000000000000000000e+00,5.000000000000000000e+00,5.000000000000000000e+00,5.000000000000000000e+00,5.000000000000000000e+00,5.000000000000000000e+00,5.000000000000000000e+00,5.000000000000000000e+00,5.000000000000000000e+00,5.000000000000000000e+00,5.000000000000000000e+00,5.000000000000000000e+00,5.000000000000000000e+00,5.000000000000000000e+00,5.000000000000000000e+00,5.000000000000000000e+00,5.000000000000000000e+00,5.000000000000000000e+00,5.000000000000000000e+00,5.000000000000000000e+00,5.000000000000000000e+00,5.000000000000000000e+00,5.000000000000000000e+00,5.000000000000000000e+00,5.000000000000000000e+00,5.000000000000000000e+00,5.000000000000000000e+00,5.000000000000000000e+00,5.000000000000000000e+00,5.000000000000000000e+00,5.000000000000000000e+00,5.000000000000000000e+00,5.000000000000000000e+00,5.000000000000000000e+00,5.000000000000000000e+00,5.000000000000000000e+00,5.000000000000000000e+00,4.854773521423339844e+00,4.664416313171386719e+00,4.488424301147460938e+00,4.325229644775390625e+00,4.173485755920410156e+00,4.032028675079345703e+00,3.899846553802490234e+00,3.776055335998535156e+00,3.659881591796875000e+00,3.550642967224121094e+00,3.447736263275146484e+00,3.350626707077026367e+00,3.258837699890136719e+00,3.171943187713623047e+00,3.089562416076660156e+00,3.011352777481079102e+00,2.937005043029785156e+00,2.866239786148071289e+00,2.798804521560668945e+00,2.734469175338745117e+00,2.673025369644165039e+00,2.614282131195068359e+00,2.558065176010131836e+00,2.504215240478515625e+00,2.452585697174072266e+00,2.403041839599609375e+00,2.355460166931152344e+00,2.309726238250732422e+00,2.265734434127807617e+00,2.223387002944946289e+00,2.182593584060668945e+00,2.143270015716552734e+00,2.105338335037231445e+00,2.068726062774658203e+00,2.033365488052368164e+00,1.999193191528320312e+00,1.966150641441345215e+00,1.934182643890380859e+00,1.903237342834472656e+00,1.873266577720642090e+00,1.844225406646728516e+00
5.000000000000000000e+00,5.000000000000000000e+00,5.000000000000000000e+00,5.000000000000000000e+00,5.000000000000000000e+00,5.000000000000000000e+00,5.000000000000000000e+00,5.000000000000000000e+00,5.000000000000000000e+00,5.000000000000000000e+00,5.000000000000000000e+00,5.000000000000000000e+00,5.000000000000000000e+00,5.000000000000000000e+00,5.000000000000000000e+00,5.000000000000000000e+00,5.000000000000000000e+00,5.000000000000000000e+00,5.000000000000000000e+00,5.000000000000000000e+00,5.000000000000000000e+00,5.000000000000000000e+00,5.000000000000000000e+00,5.000000000000000000e+00,5.000000000000000000e+00,5.000000000000000000e+00,5.000000000000000000e+00,5.000000000000000000e+00,5.000000000000000000e+00,5.000000000000000000e+00,5.000000000000000000e+00,5.000000000000000000e+00,5.000000000000000000e+00,5.000000000000000000e+00,5.000000000000000000e+00,5.000000000000000000e+00,5.000000000000000000e+00,5.000000000000000000e+00,5.000000000000000000e+00,4.854913234710693359e+00,4.664545059204101562e+00,4.488543510437011719e+00,4.325340270996093750e+00,4.173589229583740234e+00,4.032124996185302734e+00,3.899936437606811523e+00,3.776139974594116211e+00,3.659961223602294922e+00,3.550717830657958984e+00,3.447806835174560547e+00,3.350692987442016602e+00,3.258900165557861328e+00,3.172002792358398438e+00,3.089619159698486328e+00,3.011406660079956055e+00,2.937056064605712891e+00,2.866288185119628906e+00,2.798850536346435547e+00,2.734513282775878906e+00,2.673067569732666016e+00,2.614322662353515625e+00,2.558104038238525391e+00,2.504252433776855469e+00,2.452621221542358398e+00,2.403075933456420898e+00,2.355493068695068359e+00,2.309757947921752930e+00,2.265764713287353516e+00,2.223416328430175781e+00,2.182621717453002930e+00,2.143297195434570312e+00,2.105364799499511719e+00,2.068751335144042969e+00,2.033389806747436523e+00,1.999216794967651367e+00,1.966173648834228516e+00,1.934204697608947754e+00,1.903258681297302246e+00,1.873287558555603027e+00,1.844245553016662598e+00
5.000000000000000000e+00,5.000000000000000000e+00,5.000000000000000000e+00,5.000000000000000000e+00,5.000000000000000000e+00,5.000000000000000000e+00,5.000000000000000000e+00,5.000000000000000000e+00,5.000000000000000000e+00,5.000000000000000000e+00,5.000000000000000000e+00,5.000000000000000000e+00,5.000000000000000000e+00,5.000000000000000000e+00,5.000000000000000000e+00,5.000000000000000000e+00,5.000000000000000000e+00,5.000000000000000000e+00,5.000000000000000000e+00,5.000000000000000000e+00,5.000000000000000000e+00,5.000000000000000000e+00,5.000000000000000000e+00,5.000000000000000000e+00,5.000000000000000000e+00,5.000000000000000000e+00,5.000000000000000000e+00,5.000000000000000000e+00,5.000000000000000000e+00,5.000000000000000000e+00,5.000000000000000000e+00,5.000000000000000000e+00,5.000000000000000000e+00,5.000000000000000000e+00,5.000000000000000000e+00,5.000000000000000000e+00,5.000000000000000000e+00,5.000000000000000000e+00,5.000000000000000000e+00,4.855052947998046875e+00,4.664674282073974609e+00,4.488662719726562500e+00,4.325450897216796875e+00,4.173692226409912109e+00,4.032220840454101562e+00,3.900026559829711914e+00,3.776224374771118164e+00,3.660040616989135742e+00,3.550792217254638672e+00,3.447876930236816406e+00,3.350759506225585938e+00,3.258963346481323242e+00,3.172062397003173828e+00,3.089675664901733398e+00,3.011460065841674805e+00,2.937107086181640625e+00,2.866336822509765625e+00,2.798897027969360352e+00,2.734557628631591797e+00,2.673110008239746094e+00,2.614362955093383789e+00,2.558142662048339844e+00,2.504289388656616211e+00,2.452656745910644531e+00,2.403110265731811523e+00,2.355525970458984375e+00,2.309789419174194336e+00,2.265794992446899414e+00,2.223445415496826172e+00,2.182650089263916016e+00,2.143324375152587891e+00,2.105391025543212891e+00,2.068776607513427734e+00,2.033414363861083984e+00,1.999240398406982422e+00,1.966196537017822266e+00,1.934226751327514648e+00,1.903280258178710938e+00,1.873308300971984863e+00,1.844265818595886230e+00
5.000000000000000000e+00,5.000000000000000000e+00,5.000000000000000000e+00,5.000000000000000000e+00,5.000000000000000000e+00,5.000000000000000000e+00,5.000000000000000000e+00,5.000000000000000000e+00,5.000000000000000000e+00,5.000000000000000000e+00,5.000000000000000000e+00,5.000000000000000000e+00,5.000000000000000000e+00,5.000000000000000000e+00,5.000000000000000000e+00,5.000000000000000000e+00,5.000000000000000000e+00,5.000000000000000000e+00,5.000000000000000000e+00,5.000000000000000000e+00,5.000000000000000000e+00,5.000000000000000000e+00,5.000000000000000000e+00,5.000000000000000000e+00,5.000000000000000000e+00,5.000000000000000000e+00,5.000000000000000000e+00,5.000000000000000000e+00,5.000000000000000000e+00,5.000000000000000000e+00,5.000000000000000000e+00,5.000000000000000000e+00,5.000000000000000000e+00,5.000000000000000000e+00,5.000000000000000000e+00,5.000000000000000000e+00,5.000000000000000000e+00,5.000000000000000000e+00,5.000000000000000000e+00,4.855192184448242188e+00,4.664803028106689453e+00,4.488782405853271484e+00,4.325562000274658203e+00,4.173795223236083984e+00,4.032317161560058594e+00,3.900116205215454102e+00,3.776308536529541016e+00,3.660119533538818359e+00,3.550867080688476562e+00,3.447947502136230469e+00,3.350826025009155273e+00,3.259026288986206055e+00,3.172121763229370117e+00,3.089732170104980469e+00,3.011513948440551758e+00,2.937158107757568359e+00,2.866385698318481445e+00,2.798943519592285156e+00,2.734601974487304688e+00,2.673152208328247070e+00,2.614403486251831055e+00,2.558181524276733398e+00,2.504326581954956055e+00,2.452692508697509766e+00,2.403144598007202148e+00,2.355558872222900391e+00,2.309820890426635742e+00,2.265825510025024414e+00,2.223474740982055664e+00,2.182678222656250000e+00,2.143351793289184570e+00,2.105417251586914062e+00,2.068801879882812500e+00,2.033438920974731445e+00,1.999264240264892578e+00,1.966219305992126465e+00,1.934249043464660645e+00,1.903301715850830078e+00,1.873328924179077148e+00,1.844285845756530762e+00
5.000000000000000000e+00,5.000000000000000000e+00,5.000000000000000000e+00,5.000000000000000000e+00,5.000000000000000000e+00,5.000000000000000000e+00,5.000000000000000000e+00,5.000000000000000000e+00,5.000000000000000000e+00,5.000000000000000000e+00,5.000000000000000000e+00,5.000000000000000000e+00,5.000000000000000000e+00,5.000000000000000000e+00,5.000000000000000000e+00,5.000000000000000000e+00,5.000000000000000000e+00,5.000000000000000000e+00,5.000000000000000000e+00,5.000000000000000000e+00,5.000000000000000000e+00,5.000000000000000000e+00,5.000000000000000000e+00,5.000000000000000000e+00,5.000000000000000000e+00,5.000000000000000000e+00,5.000000000000000000e+00,5.000000000000000000e+00,5.000000000000000000e+00,5.000000000000000000e+00,5.000000000000000000e+00,5.000000000000000000e+00,5.000000000000000000e+00,5.000000000000000000e+00,5.000000000000000000e+00,5.000000000000000000e+00,5.000000000000000000e+00,5.000000000000000000e+00,5.000000000000000000e+00,4.855331897735595703e+00,4.664931774139404297e+00,4.488901615142822266e+00,4.325672626495361328e+00,4.173898220062255859e+00,4.032413482666015625e+00,3.900206565856933594e+00,3.776393175125122070e+00,3.660199165344238281e+00,3.550941705703735352e+00,3.448017597198486328e+00,3.350892305374145508e+00,3.259088993072509766e+00,3.172181606292724609e+00,3.089788675308227539e+00,3.011567592620849609e+00,2.937209367752075195e+00,2.866434097290039062e+00,2.798989772796630859e+00,2.734646320343017578e+00,2.673194646835327148e+00,2.614444017410278320e+00,2.558220148086547852e+00,2.504363536834716797e+00,2.452728033065795898e+00,2.403178691864013672e+00,2.355591773986816406e+00,2.309852600097656250e+00,2.265856027603149414e+00,2.223504066467285156e+00,2.182706356048583984e+00,2.143378734588623047e+00,2.105443477630615234e+00,2.068827390670776367e+00,2.033463239669799805e+00,1.999287843704223633e+00,1.966242074966430664e+00,1.934271097183227539e+00,1.903323054313659668e+00,1.873349905014038086e+00,1.844305872917175293e+00
5.000000000000000000e+00,5.000000000000000000e+00,5.000000000000000000e+00,5.000000000000000000e+00,5.000000000000000000e+00,5.000000000000000000e+00,5.000000000000000000e+00,5.000000000000000000e+00,5.000000000000000000e+00,5.000000000000000000e+00,5.000000000000000000e+00,5.000000000000000000e+00,5.000000000000000000e+00,5.000000000000000000e+00,5.000000000000000000e+00,5.000000000000000000e+00,5.000000000000000000e+00,5.000000000000000000e+00,5.000000000000000000e+00,5.000000000000000000e+00,5.000000000000000000e+00,5.000000000000000000e+00,5.000000000000000000e+00,5.000000000000000000e+00,5.000000000000000000e+00,5.000000000000000000e+00,5.000000000000000000e+00,5.000000000000000000e+00,5.000000000000000000e+00,5.000000000000000000e+00,5.000000000000000000e+00,5.000000000000000000e+00,5.000000000000000000e+00,5.000000000000000000e+00,5.000000000000000000e+00,5.000000000000000000e+00,5.000000000000000000e+00,5.000000000000000000e+00,5.000000000000000000e+00,4.855471611022949219e+00,4.665060997009277344e+00,4.489020824432373047e+00,4.325783252716064453e+00,4.174001693725585938e+00,4.032509803771972656e+00,3.900296688079833984e+00,3.776477813720703125e+00,3.660278081893920898e+00,3.551016092300415039e+00,3.448088169097900391e+00,3.350958824157714844e+00,3.259151935577392578e+00,3.172241210937500000e+00,3.089845418930053711e+00,3.011621236801147461e+00,2.937260150909423828e+00,2.866482973098754883e+00,2.799036264419555664e+00,2.734690666198730469e+00,2.673236846923828125e+00,2.614484310150146484e+00,2.558258771896362305e+00,2.504400730133056641e+00,2.452763557434082031e+00,2.403212785720825195e+00,2.355624675750732422e+00,2.309884071350097656e+00,2.265886306762695312e+00,2.223533391952514648e+00,2.182734727859497070e+00,2.143406152725219727e+00,2.105469703674316406e+00,2.068852663040161133e+00,2.033487796783447266e+00,1.999311447143554688e+00,1.966265201568603516e+00,1.934293270111083984e+00,1.903344631195068359e+00,1.873370528221130371e+00,1.844326019287109375e+00
5.000000000000000000e+00,5.000000000000000000e+00,5.000000000000000000e+00,5.000000000000000000e+00,5.000000000000000000e+00,5.000000000000000000e+00,5.000000000000000000e+00,5.000000000000000000e+00,5.000000000000000000e+00,5.000000000000000000e+00,5.000000000000000000e+00,5.000000000000000000e+00,5.000000000000000000e+00,5.000000000000000000e+00,5.000000000000000000e+00,5.000000000000000000e+00,5.000000000000000000e+00,5.000000000000000000e+00,5.000000000000000000e+00,5.000000000000000000e+00,5.000000000000000000e+00,5.000000000000000000e+00,5.000000000000000000e+00,5.000000000000000000e+00,5.000000000000000000e+00,5.000000000000000000e+00,5.000000000000000000e+00,5.000000000000000000e+00,5.000000000000000000e+00,5.000000000000000000e+00,5.000000000000000000e+00,5.000000000000000000e+00,5.000000000000000000e+00,5.000000000000000000e+00,5.000000000000000000e+00,5.000000000000000000e+00,5.000000000000000000e+00,5.000000000000000000e+00,5.000000000000000000e+00,4.855610847473144531e+00,4.665189743041992188e+00,4.489140033721923828e+00,4.325894355773925781e+00,4.174104690551757812e+00,4.032606124877929688e+00,3.900386571884155273e+00,3.776561975479125977e+00,3.660357475280761719e+00,3.551090955734252930e+00,3.448158740997314453e+00,3.351025581359863281e+00,3.259214639663696289e+00,3.172300577163696289e+00,3.089901685714721680e+00,3.011674880981445312e+00,2.937311410903930664e+00,2.866531610488891602e+00,2.799082756042480469e+00,2.734734773635864258e+00,2.673279047012329102e+00,2.614524841308593750e+00,2.558297634124755859e+00,2.504437923431396484e+00,2.452799320220947266e+00,2.403246879577636719e+00,2.355657339096069336e+00,2.309915781021118164e+00,2.265916824340820312e+00,2.223562717437744141e+00,2.182762861251831055e+00,2.143433094024658203e+00,2.105495929718017578e+00,2.068877935409545898e+00,2.033512353897094727e+00,1.999335289001464844e+00,1.966287970542907715e+00,1.934315562248229980e+00,1.903366088867187500e+00,1.873391270637512207e+00,1.844346284866333008e+00
5.000000000000000000e+00,5.000000000000000000e+00,5.000000000000000000e+00,5.000000000000000000e+00,5.000000000000000000e+00,5.000000000000000000e+00,5.000000000000000000e+00,5.000000000000000000e+00,5.000000000000000000e+00,5.000000000000000000e+00,5.000000000000000000e+00,5.000000000000000000e+00,5.000000000000000000e+00,5.000000000000000000e+00,5.000000000000000000e+00,5.000000000000000000e+00,5.000000000000000000e+00,5.000000000000000000e+00,5.000000000000000000e+00,5.000000000000000000e+00,5.000000000000000000e+00,5.000000000000000000e+00,5.000000000000000000e+00,5.000000000000000000e+00,5.000000000000000000e+00,5.000000000000000000e+00,5.000000000000000000e+00,5.000000000000000000e+00,5.000000000000000000e+00,5.000000000000000000e+00,5.000000000000000000e+00,5.000000000000000000e+00,5.000000000000000000e+00,5.000000000000000000e+00,5.000000000000000000e+00,5.000000000000000000e+00,5.000000000000000000e+00,5.000000000000000000e+00,5.000000000000000000e+00,4.855750560760498047e+00,4.665318489074707031e+00,4.489259243011474609e+00,4.326004981994628906e+00,4.174207687377929688e+00,4.032702445983886719e+00,3.900476694107055664e+00,3.776646614074707031e+00,3.660437107086181641e+00,3.551165819168090820e+00,3.448228836059570312e+00,3.351091861724853516e+00,3.259277582168579102e+00,3.172360181808471680e+00,3.089958190917968750e+00,3.011728763580322266e+00,2.937362432479858398e+00,2.866580009460449219e+00,2.799129009246826172e+00,2.734779119491577148e+00,2.673321485519409180e+00,2.614565372467041016e+00,2.558336496353149414e+00,2.504474878311157227e+00,2.452834844589233398e+00,2.403281211853027344e+00,2.355690240859985352e+00,2.309947490692138672e+00,2.265947103500366211e+00,2.223591804504394531e+00,2.182790994644165039e+00,2.143460512161254883e+00,2.105522155761718750e+00,2.068903446197509766e+00,2.033536911010742188e+00,1.999358773231506348e+00,1.966310739517211914e+00,1.934337615966796875e+00,1.903387427330017090e+00,1.873412251472473145e+00,1.844366312026977539e+00
4.120512008666992188e+00,4.162656784057617188e+00,4.220121383666992188e+00,5.000000000000000000e+00,5.000000000000000000e+00,5.000000000000000000e+00,5.000000000000000000e+00,5.000000000000000000e+00,5.000000000000000000e+00,5.000000000000000000e+00,5.000000000000000000e+00,5.000000000000000000e+00,5.000000000000000000e+00,5.000000000000000000e+00,5.000000000000000000e+00,5.000000000000000000e+00,5.000000000000000000e+00,5.000000000000000000e+00,5.000000000000000000e+00,5.000000000000000000e+00,5.000000000000000000e+00,5.000000000000000000e+00,5.000000000000000000e+00,5.000000000000000000e+00,5.000000000000000000e+00,5.000000000000000000e+00,5.000000000000000000e+00,5.000000000000000000e+00,5.000000000000000000e+00,5.000000000000000000e+00,5.000000000000000000e+00,5.000000000000000000e+00,5.000000000000000000e+00,5.000000000000000000e+00,5.000000000000000000e+00,5.000000000000000000e+00,5.000000000000000000e+00,5.000000000000000000e+00,5.000000000000000000e+00,4.855890274047851562e+00,4.665447235107421875e+00,4.489378452301025391e+00,4.326116085052490234e+00,4.174310684204101562e+00,4.032798767089843750e+00,3.900567054748535156e+00,3.776731014251708984e+00,3.660516023635864258e+00,3.551240205764770508e+00,3.448299407958984375e+00,3.351158380508422852e+00,3.259340524673461914e+00,3.172420024871826172e+00,3.090014696121215820e+00,3.011782169342041016e+00,2.937413454055786133e+00,2.866628885269165039e+00,2.799175500869750977e+00,2.734823465347290039e+00,2.673363685607910156e+00,2.614605665206909180e+00,2.558375120162963867e+00,2.504512071609497070e+00,2.452870607376098633e+00,2.403315544128417969e+00,2.355723142623901367e+00,2.309978961944580078e+00,2.265977382659912109e+00,2.223621129989624023e+00,2.182819366455078125e+00,2.143487691879272461e+00,2.105548381805419922e+00,2.068928718566894531e+00,2.033561229705810547e+00,1.999382376670837402e+00,1.966333866119384766e+00,1.934359669685363770e+00,1.903409004211425781e+00,1.873432874679565430e+00,1.844386458396911621e+00
4.110891342163085938e+00,4.192734241485595703e+00,4.217223167419433594e+00,5.000000000000000000e+00,5.000000000000000000e+00,5.000000000000000000e+00,5.000000000000000000e+00,5.000000000000000000e+00,5.000000000000000000e+00,5.000000000000000000e+00,5.000000000000000000e+00,5.000000000000000000e+00,5.000000000000000000e+00,5.000000000000000000e+00,5.000000000000000000e+00,5.000000000000000000e+00,5.000000000000000000e+00,5.000000000000000000e+00,5.000000000000000000e+00,5.000000000000000000e+00,5.000000000000000000e+00,5.000000000000000000e+00,5.000000000000000000e+00,5.000000000000000000e+00,5.000000000000000000e+00,5.000000000000000000e+00,5.000000000000000000e+00,5.000000000000000000e+00,5.000000000000000000e+00,5.000000000000000000e+00,5.000000000000000000e+00,5.000000000000000000e+00,5.000000000000000000e+00,5.000000000000000000e+00,5.000000000000000000e+00,5.000000000000000000e+00,5.000000000000000000e+00,5.000000000000000000e+00,5.000000000000000000e+00,4.856029510498046875e+00,4.665575981140136719e+00,4.489497661590576172e+00,4.326226711273193359e+00,4.174414157867431641e+00,4.032894611358642578e+00,3.900656700134277344e+00,3.776815176010131836e+00,3.660595655441284180e+00,3.551315069198608398e+00,3.448369741439819336e+00,3.351224899291992188e+00,3.259403228759765625e+00,3.172479391098022461e+00,3.090071201324462891e+00,3.011836051940917969e+00,2.937464714050292969e+00,2.866677522659301758e+00,2.799221754074096680e+00,2.734867572784423828e+00,2.673406124114990234e+00,2.614646196365356445e+00,2.558413982391357422e+00,2.504549264907836914e+00,2.452905893325805664e+00,2.403349637985229492e+00,2.355755805969238281e+00,2.310010433197021484e+00,2.266007900238037109e+00,2.223650455474853516e+00,2.182847499847412109e+00,2.143514871597290039e+00,2.105574607849121094e+00,2.068953990936279297e+00,2.033585786819458008e+00,1.999406218528747559e+00,1.966356635093688965e+00,1.934381723403930664e+00,1.903430342674255371e+00,1.873453617095947266e+00,1.844406723976135254e+00
4.110933780670166016e+00,4.198004722595214844e+00,4.235137462615966797e+00,5.000000000000000000e+00,5.000000000000000000e+00,5.000000000000000000e+00,5.000000000000000000e+00,5.000000000000000000e+00,5.000000000000000000e+00,5.000000000000000000e+00,5.000000000000000000e+00,5.000000000000000000e+00,5.000000000000000000e+00,5.000000000000000000e+00,5.000000000000000000e+00,5.000000000000000000e+00,5.000000000000000000e+00,5.000000000000000000e+00,5.000000000000000000e+00,5.000000000000000000e+00,5.000000000000000000e+00,5.000000000000000000e+00,5.000000000000000000e+00,5.000000000000000000e+00,5.000000000000000000e+00,5.000000000000000000e+00,5.000000000000000000e+00,5.000000000000000000e+00,5.000000000000000000e+00,5.000000000000000000e+00,5.000000000000000000e+00,5.000000000000000000e+00,5.000000000000000000e+00,5.000000000000000000e+00,5.000000000000000000e+00,5.000000000000000000e+00,5.000000000000000000e+00,5.000000000000000000e+00,5.000000000000000000e+00,4.856169223785400391e+00,4.665704727172851562e+00,4.489617347717285156e+00,4.326337337493896484e+00,4.174517154693603516e+00,4.032991409301757812e+00,3.900747060775756836e+00,3.776899814605712891e+00,3.660675048828125000e+00,3.551389455795288086e+00,3.448440074920654297e+00,3.351291179656982422e+00,3.259466409683227539e+00,3.172538995742797852e+00,3.090127944946289062e+00,3.011889934539794922e+00,2.937515497207641602e+00,2.866726160049438477e+00,2.799268245697021484e+00,2.734911918640136719e+00,2.673448324203491211e+00,2.614686727523803711e+00,2.558452606201171875e+00,2.504586458206176758e+00,2.452941656112670898e+00,2.403383731842041016e+00,2.355788946151733398e+00,2.310042142868041992e+00,2.266038417816162109e+00,2.223679780960083008e+00,2.182875633239746094e+00,2.143542051315307617e+00,2.105600833892822266e+00,2.068979501724243164e+00,2.033610343933105469e+00,1.999429821968078613e+00,1.966379523277282715e+00,1.934404015541076660e+00,1.903451800346374512e+00,1.873474597930908203e+00,1.844426751136779785e+00
4.121026039123535156e+00,4.203797817230224609e+00,4.246545314788818359e+00,5.000000000000000000e+00,5.000000000000000000e+00,5.000000000000000000e+00,5.000000000000000000e+00,5.000000000000000000e+00,5.000000000000000000e+00,5.000000000000000000e+00,5.000000000000000000e+00,5.000000000000000000e+00,5.000000000000000000e+00,5.000000000000000000e+00,5.000000000000000000e+00,5.000000000000000000e+00,5.000000000000000000e+00,5.000000000000000000e+00,5.000000000000000000e+00,5.000000000000000000e+00,5.000000000000000000e+00,5.000000000000000000e+00,5.000000000000000000e+00,5.000000000000000000e+00,5.000000000000000000e+00,5.000000000000000000e+00,5.000000000000000000e+00,5.000000000000000000e+00,5.000000000000000000e+00,5.000000000000000000e+00,5.000000000000000000e+00,5.000000000000000000e+00,5.000000000000000000e+00,5.000000000000000000e+00,5.000000000000000000e+00,5.000000000000000000e+00,5.000000000000000000e+00,5.000000000000000000e+00,5.000000000000000000e+00,4.856308937072753906e+00,4.665833950042724609e+00,4.489736557006835938e+00,4.326448440551757812e+00,4.174620628356933594e+00,4.033087730407714844e+00,3.900837182998657227e+00,3.776983976364135742e+00,3.660754203796386719e+00,3.551464080810546875e+00,3.448510646820068359e+00,3.351357936859130859e+00,3.259529352188110352e+00,3.172598361968994141e+00,3.090184211730957031e+00,3.011943340301513672e+00,2.937566757202148438e+00,2.866774797439575195e+00,2.799314498901367188e+00,2.734956264495849609e+00,2.673490524291992188e+00,2.614727258682250977e+00,2.558491468429565430e+00,2.504623651504516602e+00,2.452977418899536133e+00,2.403418064117431641e+00,2.355821609497070312e+00,2.310073614120483398e+00,2.266068696975708008e+00,2.223709106445312500e+00,2.182904005050659180e+00,2.143569231033325195e+00,2.105627298355102539e+00,2.069004774093627930e+00,2.033634662628173828e+00,1.999453425407409668e+00,1.966402530670166016e+00,1.934426188468933105e+00,1.903473377227783203e+00,1.873495221138000488e+00,1.844446778297424316e+00
4.111052036285400391e+00,4.230819702148437500e+00,4.260563850402832031e+00,5.000000000000000000e+00,5.000000000000000000e+00,5.000000000000000000e+00,5.000000000000000000e+00,5.000000000000000000e+00,5.000000000000000000e+00,5.000000000000000000e+00,5.000000000000000000e+00,5.000000000000000000e+00,5.000000000000000000e+00,5.000000000000000000e+00,5.000000000000000000e+00,5.000000000000000000e+00,5.000000000000000000e+00,5.000000000000000000e+00,5.000000000000000000e+00,5.000000000000000000e+00,5.000000000000000000e+00,5.000000000000000000e+00,5.000000000000000000e+00,5.000000000000000000e+00,5.000000000000000000e+00,5.000000000000000000e+00,5.000000000000000000e+00,5.000000000000000000e+00,5.000000000000000000e+00,5.000000000000000000e+00,5.000000000000000000e+00,5.000000000000000000e+00,5.000000000000000000e+00,5.000000000000000000e+00,5.000000000000000000e+00,5.000000000000000000e+00,5.000000000000000000e+00,5.000000000000000000e+00,5.000000000000000000e+00,4.856448650360107422e+00,4.665962696075439453e+00,4.489855766296386719e+00,4.326559066772460938e+00,4.174723625183105469e+00,4.033183574676513672e+00,3.900927066802978516e+00,3.777068614959716797e+00,3.660833597183227539e+00,3.551538944244384766e+00,3.448580980300903320e+00,3.351424217224121094e+00,3.259592056274414062e+00,3.172658205032348633e+00,3.090240955352783203e+00,3.011997222900390625e+00,2.937618017196655273e+00,2.866823196411132812e+00,2.799360752105712891e+00,2.735000371932983398e+00,2.673532962799072266e+00,2.614767789840698242e+00,2.558530092239379883e+00,2.504660844802856445e+00,2.453012943267822266e+00,2.403452157974243164e+00,2.355854511260986328e+00,2.310105323791503906e+00,2.266099214553833008e+00,2.223738431930541992e+00,2.182931900024414062e+00,2.143596410751342773e+00,2.105653285980224609e+00,2.069030046463012695e+00,2.033659219741821289e+00,1.999477267265319824e+00,1.966425299644470215e+00,1.934448242187500000e+00,1.903494715690612793e+00,1.873515963554382324e+00,1.844467163085937500e+00
4.110399723052978516e+00,4.236361026763916016e+00,4.258509635925292969e+00,5.000000000000000000e+00,5.000000000000000000e+00,5.000000000000000000e+00,5.000000000000000000e+00,5.000000000000000000e+00,5.000000000000000000e+00,5.000000000000000000e+00,5.000000000000000000e+00,5.000000000000000000e+00,5.000000000000000000e+00,5.000000000000000000e+00,5.000000000000000000e+00,5.000000000000000000e+00,5.000000000000000000e+00,5.000000000000000000e+00,5.000000000000000000e+00,5.000000000000000000e+00,5.000000000000000000e+00,5.000000000000000000e+00,5.000000000000000000e+00,5.000000000000000000e+00,5.000000000000000000e+00,5.000000000000000000e+00,5.000000000000000000e+00,5.000000000000000000e+00,5.000000000000000000e+00,5.000000000000000000e+00,5.000000000000000000e+00,5.000000000000000000e+00,5.000000000000000000e+00,5.000000000000000000e+00,5.000000000000000000e+00,5.000000000000000000e+00,5.000000000000000000e+00,5.000000000000000000e+00,5.000000000000000000e+00,4.856588363647460938e+00,4.666091442108154297e+00,4.489974975585937500e+00,4.326669692993164062e+00,4.174827098846435547e+00,4.033280372619628906e+00,3.901017189025878906e+00,3.777153253555297852e+00,3.660912990570068359e+00,3.551613330841064453e+00,3.448651313781738281e+00,3.351490736007690430e+00,3.259654998779296875e+00,3.172717809677124023e+00,3.090297460556030273e+00,3.012050628662109375e+00,2.937668800354003906e+00,2.866872072219848633e+00,2.799407243728637695e+00,2.735044717788696289e+00,2.673575401306152344e+00,2.614808320999145508e+00,2.558568716049194336e+00,2.504697799682617188e+00,2.453048467636108398e+00,2.403486490249633789e+00,2.355887413024902344e+00,2.310137033462524414e+00,2.266129493713378906e+00,2.223767518997192383e+00,2.182960271835327148e+00,2.143623590469360352e+00,2.105679750442504883e+00,2.069055557250976562e+00,2.033683538436889648e+00,1.999500870704650879e+00,1.966448187828063965e+00,1.934470534324645996e+00,1.903516173362731934e+00,1.873536944389343262e+00,1.844487190246582031e+00
4.086021900177001953e+00,4.246937274932861328e+00,4.252430438995361328e+00,5.000000000000000000e+00,5.000000000000000000e+00,5.000000000000000000e+00,5.000000000000000000e+00,5.000000000000000000e+00,5.000000000000000000e+00,5.000000000000000000e+00,5.000000000000000000e+00,5.000000000000000000e+00,5.000000000000000000e+00,5.000000000000000000e+00,5.000000000000000000e+00,5.000000000000000000e+00,5.000000000000000000e+00,5.000000000000000000e+00,5.000000000000000000e+00,5.000000000000000000e+00,5.000000000000000000e+00,5.000000000000000000e+00,5.000000000000000000e+00,5.000000000000000000e+00,5.000000000000000000e+00,5.000000000000000000e+00,5.000000000000000000e+00,5.000000000000000000e+00,5.000000000000000000e+00,5.000000000000000000e+00,5.000000000000000000e+00,5.000000000000000000e+00,5.000000000000000000e+00,5.000000000000000000e+00,5.000000000000000000e+00,5.000000000000000000e+00,5.000000000000000000e+00,5.000000000000000000e+00,5.000000000000000000e+00,4.856727600097656250e+00,4.666220664978027344e+00,4.490094661712646484e+00,4.326780796051025391e+00,4.174930095672607422e+00,4.033376216888427734e+00,3.901107072830200195e+00,3.777237415313720703e+00,3.660992145538330078e+00,3.551688194274902344e+00,3.448721885681152344e+00,3.351557254791259766e+00,3.259717941284179688e+00,3.172777175903320312e+00,3.090353965759277344e+00,3.012104511260986328e+00,2.937720060348510742e+00,2.866920709609985352e+00,2.799453735351562500e+00,2.735088825225830078e+00,2.673617601394653320e+00,2.614848613739013672e+00,2.558607578277587891e+00,2.504734992980957031e+00,2.453084230422973633e+00,2.403520584106445312e+00,2.355920076370239258e+00,2.310168504714965820e+00,2.266160011291503906e+00,2.223796844482421875e+00,2.182988643646240234e+00,2.143651008605957031e+00,2.105705738067626953e+00,2.069080591201782227e+00,2.033708095550537109e+00,1.999524474143981934e+00,1.966471195220947266e+00,1.934492588043212891e+00,1.903537511825561523e+00,1.873557567596435547e+00,1.844507217407226562e+00
4.044993400573730469e+00,5.000000000000000000e+00,4.242075443267822266e+00,5.000000000000000000e+00,5.000000000000000000e+00,5.000000000000000000e+00,5.000000000000000000e+00,5.000000000000000000e+00,5.000000000000000000e+00,5.000000000000000000e+00,5.000000000000000000e+00,5.000000000000000000e+00,5.000000000000000000e+00,5.000000000000000000e+00,5.000000000000000000e+00,5.000000000000000000e+00,5.000000000000000000e+00,5.000000000000000000e+00,5.000000000000000000e+00,5.000000000000000000e+00,5.000000000000000000e+00,5.000000000000000000e+00,5.000000000000000000e+00,5.000000000000000000e+00,5.000000000000000000e+00,5.000000000000000000e+00,5.000000000000000000e+00,5.000000000000000000e+00,5.000000000000000000e+00,5.000000000000000000e+00,5.000000000000000000e+00,5.000000000000000000e+00,5.000000000000000000e+00,5.000000000000000000e+00,5.000000000000000000e+00,5.000000000000000000e+00,5.000000000000000000e+00,5.000000000000000000e+00,5.000000000000000000e+00,4.856867790222167969e+00,4.666349411010742188e+00,4.490213871002197266e+00,4.326891422271728516e+00,4.175033092498779297e+00,4.033472537994384766e+00,3.901197433471679688e+00,3.777322053909301758e+00,3.661071538925170898e+00,3.551763057708740234e+00,3.448792457580566406e+00,3.351623773574829102e+00,3.259780645370483398e+00,3.172837018966674805e+00,3.090410470962524414e+00,3.012158393859863281e+00,2.937771320343017578e+00,2.866969347000122070e+00,2.799499988555908203e+00,2.735133171081542969e+00,2.673660039901733398e+00,2.614889144897460938e+00,2.558646440505981445e+00,2.504771947860717773e+00,2.453119754791259766e+00,2.403554677963256836e+00,2.355952978134155273e+00,2.310199975967407227e+00,2.266190290451049805e+00,2.223826169967651367e+00,2.183016538619995117e+00,2.143677949905395508e+00,2.105732202529907227e+00,2.069106101989746094e+00,2.033732652664184570e+00,1.999548196792602539e+00,1.966493964195251465e+00,1.934514641761779785e+00,1.903559088706970215e+00,1.873578310012817383e+00,1.844527482986450195e+00
4.045989513397216797e+00,5.000000000000000000e+00,4.241061687469482422e+00,5.000000000000000000e+00,5.000000000000000000e+00,5.000000000000000000e+00,5.000000000000000000e+00,5.000000000000000000e+00,5.000000000000000000e+00,5.000000000000000000e+00,5.000000000000000000e+00,5.000000000000000000e+00,5.000000000000000000e+00,5.000000000000000000e+00,5.000000000000000000e+00,5.000000000000000000e+00,5.000000000000000000e+00,5.000000000000000000e+00,5.000000000000000000e+00,5.000000000000000000e+00,5.000000000000000000e+00,5.000000000000000000e+00,5.000000000000000000e+00,5.000000000000000000e+00,5.000000000000000000e+00,5.000000000000000000e+00,5.000000000000000000e+00,5.000000000000000000e+00,5.000000000000000000e+00,5.000000000000000000e+00,5.000000000000000000e+00,5.000000000000000000e+00,5.000000000000000000e+00,5.000000000000000000e+00,5.000000000000000000e+00,5.000000000000000000e+00,5.000000000000000000e+00,5.000000000000000000e+00,5.000000000000000000e+00,4.857007026672363281e+00,4.666478157043457031e+00,4.490333080291748047e+00,4.327002525329589844e+00,4.175136566162109375e+00,4.033568859100341797e+00,3.901287555694580078e+00,3.777406692504882812e+00,3.661150693893432617e+00,3.551837444305419922e+00,3.448862552642822266e+00,3.351690292358398438e+00,3.259843826293945312e+00,3.172896623611450195e+00,3.090467214584350586e+00,3.012211799621582031e+00,2.937822103500366211e+00,2.867017984390258789e+00,2.799546480178833008e+00,2.735177755355834961e+00,2.673702478408813477e+00,2.614929437637329102e+00,2.558685064315795898e+00,2.504809141159057617e+00,2.453155517578125000e+00,2.403589010238647461e+00,2.355985879898071289e+00,2.310231685638427734e+00,2.266220569610595703e+00,2.223855257034301758e+00,2.183044910430908203e+00,2.143705368041992188e+00,2.105758428573608398e+00,2.069131374359130859e+00,2.033756971359252930e+00,1.999571800231933594e+00,1.966516852378845215e+00,1.934537053108215332e+00,1.903580427169799805e+00,1.873599290847778320e+00,1.844547629356384277e+00
4.064952850341796875e+00,5.000000000000000000e+00,4.224246978759765625e+00,5.000000000000000000e+00,5.000000000000000000e+00,5.000000000000000000e+00,5.000000000000000000e+00,5.000000000000000000e+00,5.000000000000000000e+00,5.000000000000000000e+00,5.000000000000000000e+00,5.000000000000000000e+00,5.000000000000000000e+00,5.000000000000000000e+00,5.000000000000000000e+00,5.000000000000000000e+00,5.000000000000000000e+00,5.000000000000000000e+00,5.000000000000000000e+00,5.000000000000000000e+00,5.000000000000000000e+00,5.000000000000000000e+00,5.000000000000000000e+00,5.000000000000000000e+00,5.000000000000000000e+00,5.000000000000000000e+00,5.000000000000000000e+00,5.000000000000000000e+00,5.000000000000000000e+00,5.000000000000000000e+00,5.000000000000000000e+00,5.000000000000000000e+00,5.000000000000000000e+00,5.000000000000000000e+00,5.000000000000000000e+00,5.000000000000000000e+00,5.000000000000000000e+00,5.000000000000000000e+00,5.000000000000000000e+00,4.857146739959716797e+00,4.666607379913330078e+00,4.490452766418457031e+00,4.327113151550292969e+00,4.175239562988281250e+00,4.033665657043457031e+00,3.901377439498901367e+00,3.777490854263305664e+00,3.661230325698852539e+00,3.551912307739257812e+00,3.448933124542236328e+00,3.351756811141967773e+00,3.259906530380249023e+00,3.172955989837646484e+00,3.090523481369018555e+00,3.012265682220458984e+00,2.937873363494873047e+00,2.867066860198974609e+00,2.799592971801757812e+00,2.735221862792968750e+00,2.673744440078735352e+00,2.614969968795776367e+00,2.558723926544189453e+00,2.504846572875976562e+00,2.453191041946411133e+00,2.403623104095458984e+00,2.356018781661987305e+00,2.310263156890869141e+00,2.266251087188720703e+00,2.223884582519531250e+00,2.183073282241821289e+00,2.143732547760009766e+00,2.105784654617309570e+00,2.069156646728515625e+00,2.033781528472900391e+00,1.999595403671264648e+00,1.966539859771728516e+00,1.934559106826782227e+00,1.903601884841918945e+00,1.873619914054870605e+00,1.844567656517028809e+00
5.000000000000000000e+00,5.000000000000000000e+00,5.000000000000000000e+00,5.000000000000000000e+00,5.000000000000000000e+00,5.000000000000000000e+00,5.000000000000000000e+00,5.000000000000000000e+00,5.000000000000000000e+00,5.000000000000000000e+00,5.000000000000000000e+00,5.000000000000000000e+00,5.000000000000000000e+00,5.000000000000000000e+00,5.000000000000000000e+00,5.000000000000000000e+00,5.000000000000000000e+00,5.000000000000000000e+00,5.000000000000000000e+00,5.000000000000000000e+00,5.000000000000000000e+00,5.000000000000000000e+00,5.000000000000000000e+00,5.000000000000000000e+00,5.000000000000000000e+00,5.000000000000000000e+00,5.000000000000000000e+00,5.000000000000000000e+00,5.000000000000000000e+00,5.000000000000000000e+00,5.000000000000000000e+00,5.000000000000000000e+00,5.000000000000000000e+00,5.000000000000000000e+00,5.000000000000000000e+00,5.000000000000000000e+00,5.000000000000000000e+00,5.000000000000000000e+00,5.000000000000000000e+00,4.857286453247070312e+00,4.666736125946044922e+00,4.490571975708007812e+00,4.327224254608154297e+00,4.175342559814453125e+00,4.033761501312255859e+00,3.901467561721801758e+00,3.777575492858886719e+00,3.661309719085693359e+00,3.551987171173095703e+00,3.449003219604492188e+00,3.351823091506958008e+00,3.259969472885131836e+00,3.173015832901000977e+00,3.090580224990844727e+00,3.012319564819335938e+00,2.937924385070800781e+00,2.867115259170532227e+00,2.799639225006103516e+00,2.735266208648681641e+00,2.673786878585815430e+00,2.615010499954223633e+00,2.558762788772583008e+00,2.504883527755737305e+00,2.453226566314697266e+00,2.403657436370849609e+00,2.356051683425903320e+00,2.310294866561889648e+00,2.266281604766845703e+00,2.223913908004760742e+00,2.183101415634155273e+00,2.143759727478027344e+00,2.105810880661010742e+00,2.069182157516479492e+00,2.033806085586547852e+00,1.999619245529174805e+00,1.966562747955322266e+00,1.934581160545349121e+00,1.903623461723327637e+00,1.873640656471252441e+00,1.844587922096252441e+00
5.000000000000000000e+00,5.000000000000000000e+00,5.000000000000000000e+00,5.000000000000000000e+00,5.000000000000000000e+00,5.000000000000000000e+00,5.000000000000000000e+00,5.000000000000000000e+00,5.000000000000000000e+00,5.000000000000000000e+00,5.000000000000000000e+00,5.000000000000000000e+00,5.000000000000000000e+00,5.000000000000000000e+00,5.000000000000000000e+00,5.000000000000000000e+00,5.000000000000000000e+00,5.000000000000000000e+00,5.000000000000000000e+00,5.000000000000000000e+00,5.000000000000000000e+00,5.000000000000000000e+00,5.000000000000000000e+00,5.000000000000000000e+00,5.000000000000000000e+00,5.000000000000000000e+00,5.000000000000000000e+00,5.000000000000000000e+00,5.000000000000000000e+00,5.000000000000000000e+00,5.000000000000000000e+00,5.000000000000000000e+00,5.000000000000000000e+00,5.000000000000000000e+00,5.000000000000000000e+00,5.000000000000000000e+00,5.000000000000000000e+00,5.000000000000000000e+00,5.000000000000000000e+00,4.857426166534423828e+00,4.666864871978759766e+00,4.490691184997558594e+00,4.327334880828857422e+00,4.175446033477783203e+00,4.033857822418212891e+00,3.901557922363281250e+00,3.777660131454467773e+00,3.661388874053955078e+00,3.552061557769775391e+00,3.449073791503906250e+00,3.351889848709106445e+00,3.260032415390014648e+00,3.173075437545776367e+00,3.090636491775512695e+00,3.012372970581054688e+00,2.937975406646728516e+00,2.867164134979248047e+00,2.799685716629028320e+00,2.735310554504394531e+00,2.673829317092895508e+00,2.615051031112670898e+00,2.558801412582397461e+00,2.504920721054077148e+00,2.453262329101562500e+00,2.403691530227661133e+00,2.356084585189819336e+00,2.310326337814331055e+00,2.266311883926391602e+00,2.223943233489990234e+00,2.183129549026489258e+00,2.143786907196044922e+00,2.105837106704711914e+00,2.069207429885864258e+00,2.033830404281616211e+00,1.999642848968505859e+00,1.966585516929626465e+00,1.934603452682495117e+00,1.903644800186157227e+00,1.873661637306213379e+00,1.844608068466186523e+00
5.000000000000000000e+00,5.000000000000000000e+00,5.000000000000000000e+00,5.000000000000000000e+00,5.000000000000000000e+00,5.000000000000000000e+00,5.000000000000000000e+00,5.000000000000000000e+00,5.000000000000000000e+00,5.000000000000000000e+00,5.000000000000000000e+00,5.000000000000000000e+00,5.000000000000000000e+00,5.000000000000000000e+00,5.000000000000000000e+00,5.000000000000000000e+00,5.000000000000000000e+00,5.000000000000000000e+00,5.000000000000000000e+00,5.000000000000000000e+00,5.000000000000000000e+00,5.000000000000000000e+00,5.000000000000000000e+00,5.000000000000000000e+00,5.000000000000000000e+00,5.000000000000000000e+00,5.000000000000000000e+00,5.000000000000000000e+00,5.000000000000000000e+00,5.000000000000000000e+00,5.000000000000000000e+00,5.000000000000000000e+00,5.000000000000000000e+00,5.000000000000000000e+00,5.000000000000000000e+00,5.000000000000000000e+00,5.000000000000000000e+00,5.000000000000000000e+00,5.000000000000000000e+00,4.857576370239257812e+00,4.666994094848632812e+00,4.490810871124267578e+00,4.327445983886718750e+00,4.175549030303955078e+00,4.033954143524169922e+00,3.901647806167602539e+00,3.777744293212890625e+00,3.661468267440795898e+00,3.552136421203613281e+00,3.449144363403320312e+00,3.351956367492675781e+00,3.260095119476318359e+00,3.173134803771972656e+00,3.090693235397338867e+00,3.012426853179931641e+00,2.938026666641235352e+00,2.867212772369384766e+00,2.799731969833374023e+00,2.735354661941528320e+00,2.673871517181396484e+00,2.615091562271118164e+00,2.558840274810791016e+00,2.504957914352416992e+00,2.453298091888427734e+00,2.403725624084472656e+00,2.356117248535156250e+00,2.310358047485351562e+00,2.266342401504516602e+00,2.223972558975219727e+00,2.183157920837402344e+00,2.143814086914062500e+00,2.105863332748413086e+00,2.069232702255249023e+00,2.033854961395263672e+00,1.999666452407836914e+00,1.966608524322509766e+00,1.934625625610351562e+00,1.903666257858276367e+00,1.873682379722595215e+00,1.844628095626831055e+00
5.000000000000000000e+00,5.000000000000000000e+00,5.000000000000000000e+00,5.000000000000000000e+00,5.000000000000000000e+00,5.000000000000000000e+00,5.000000000000000000e+00,5.000000000000000000e+00,5.000000000000000000e+00,5.000000000000000000e+00,5.000000000000000000e+00,5.000000000000000000e+00,5.000000000000000000e+00,5.000000000000000000e+00,5.000000000000000000e+00,5.000000000000000000e+00,5.000000000000000000e+00,5.000000000000000000e+00,5.000000000000000000e+00,5.000000000000000000e+00,5.000000000000000000e+00,5.000000000000000000e+00,5.000000000000000000e+00,5.000000000000000000e+00,5.000000000000000000e+00,5.000000000000000000e+00,5.000000000000000000e+00,5.000000000000000000e+00,5.000000000000000000e+00,5.000000000000000000e+00,5.000000000000000000e+00,5.000000000000000000e+00,5.000000000000000000e+00,5.000000000000000000e+00,5.000000000000000000e+00,5.000000000000000000e+00,5.000000000000000000e+00,5.000000000000000000e+00,5.000000000000000000e+00,4.857748985290527344e+00,4.667122840881347656e+00,4.490930080413818359e+00,4.327556610107421875e+00,4.175652503967285156e+00,4.034050941467285156e+00,3.901738166809082031e+00,3.777828931808471680e+00,3.661547899246215820e+00,3.552211284637451172e+00,3.449214458465576172e+00,3.352022647857666016e+00,3.260158300399780273e+00,3.173194646835327148e+00,3.090749740600585938e+00,3.012480735778808594e+00,2.938077688217163086e+00,2.867261409759521484e+00,2.799778461456298828e+00,2.735399007797241211e+00,2.673913955688476562e+00,2.615132093429565430e+00,2.558878898620605469e+00,2.504994869232177734e+00,2.453333616256713867e+00,2.403759956359863281e+00,2.356150388717651367e+00,2.310389757156372070e+00,2.266372919082641602e+00,2.224001646041870117e+00,2.183186054229736328e+00,2.143841266632080078e+00,2.105889558792114258e+00,2.069258213043212891e+00,2.033879518508911133e+00,1.999690055847167969e+00,1.966631412506103516e+00,1.934647679328918457e+00,1.903687834739685059e+00,1.873703002929687500e+00,1.844648361206054688e+00
5.000000000000000000e+00,5.000000000000000000e+00,5.000000000000000000e+00,5.000000000000000000e+00,5.000000000000000000e+00,5.000000000000000000e+00,5.000000000000000000e+00,5.000000000000000000e+00,5.000000000000000000e+00,5.000000000000000000e+00,5.000000000000000000e+00,5.000000000000000000e+00,5.000000000000000000e+00,5.000000000000000000e+00,5.000000000000000000e+00,5.000000000000000000e+00,5.000000000000000000e+00,5.000000000000000000e+00,5.000000000000000000e+00,5.000000000000000000e+00,5.000000000000000000e+00,5.000000000000000000e+00,5.000000000000000000e+00,5.000000000000000000e+00,5.000000000000000000e+00,5.000000000000000000e+00,5.000000000000000000e+00,5.000000000000000000e+00,5.000000000000000000e+00,5.000000000000000000e+00,5.000000000000000000e+00,5.000000000000000000e+00,5.000000000000000000e+00,5.000000000000000000e+00,5.000000000000000000e+00,5.000000000000000000e+00,5.000000000000000000e+00,5.000000000000000000e+00,5.000000000000000000e+00,4.857921123504638672e+00,4.667281627655029297e+00,4.491049766540527344e+00,4.327667713165283203e+00,4.175755500793457031e+00,4.034146785736083984e+00,3.901828289031982422e+00,3.777913331985473633e+00,3.661627054214477539e+00,3.552285671234130859e+00,3.449285030364990234e+00,3.352089405059814453e+00,3.260221242904663086e+00,3.173254251480102539e+00,3.090806245803833008e+00,3.012534141540527344e+00,2.938128709793090820e+00,2.867310047149658203e+00,2.799824953079223633e+00,2.735443353652954102e+00,2.673956155776977539e+00,2.615172386169433594e+00,2.558917760848999023e+00,2.505032062530517578e+00,2.453369379043579102e+00,2.403794288635253906e+00,2.356183052062988281e+00,2.310421228408813477e+00,2.266403198242187500e+00,2.224030971527099609e+00,2.183214187622070312e+00,2.143868446350097656e+00,2.105916023254394531e+00,2.069283485412597656e+00,2.033904075622558594e+00,1.999713897705078125e+00,1.966654181480407715e+00,1.934669971466064453e+00,1.903709173202514648e+00,1.873723745346069336e+00,1.844668507575988770e+00
5.000000000000000000e+00,5.000000000000000000e+00,5.000000000000000000e+00,5.000000000000000000e+00,5.000000000000000000e+00,5.000000000000000000e+00,5.000000000000000000e+00,5.000000000000000000e+00,5.000000000000000000e+00,5.000000000000000000e+00,5.000000000000000000e+00,5.000000000000000000e+00,5.000000000000000000e+00,5.000000000000000000e+00,5.000000000000000000e+00,5.000000000000000000e+00,5.000000000000000000e+00,5.000000000000000000e+00,5.000000000000000000e+00,5.000000000000000000e+00,5.000000000000000000e+00,5.000000000000000000e+00,5.000000000000000000e+00,5.000000000000000000e+00,5.000000000000000000e+00,5.000000000000000000e+00,5.000000000000000000e+00,5.000000000000000000e+00,5.000000000000000000e+00,5.000000000000000000e+00,5.000000000000000000e+00,5.000000000000000000e+00,5.000000000000000000e+00,5.000000000000000000e+00,5.000000000000000000e+00,5.000000000000000000e+00,5.000000000000000000e+00,5.000000000000000000e+00,5.000000000000000000e+00,4.858093738555908203e+00,4.667440891265869141e+00,4.491187095642089844e+00,4.327778339385986328e+00,4.175858974456787109e+00,4.034243106842041016e+00,3.901918172836303711e+00,3.777997970581054688e+00,3.661706447601318359e+00,3.552360534667968750e+00,3.449355602264404297e+00,3.352155685424804688e+00,3.260283946990966797e+00,3.173313617706298828e+00,3.090862751007080078e+00,3.012588024139404297e+00,2.938179969787597656e+00,2.867358922958374023e+00,2.799871206283569336e+00,2.735487699508666992e+00,2.673998594284057617e+00,2.615212917327880859e+00,2.558956623077392578e+00,2.505069255828857422e+00,2.453404664993286133e+00,2.403828382492065430e+00,2.356215953826904297e+00,2.310452938079833984e+00,2.266433477401733398e+00,2.224060297012329102e+00,2.183242321014404297e+00,2.143895626068115234e+00,2.105942249298095703e+00,2.069308757781982422e+00,2.033928632736206055e+00,1.999737501144409180e+00,1.966677308082580566e+00,1.934692025184631348e+00,1.903730630874633789e+00,1.873744726181030273e+00,1.844688534736633301e+00
5.000000000000000000e+00,5.000000000000000000e+00,5.000000000000000000e+00,5.000000000000000000e+00,5.000000000000000000e+00,5.000000000000000000e+00,5.000000000000000000e+00,5.000000000000000000e+00,5.000000000000000000e+00,5.000000000000000000e+00,5.000000000000000000e+00,5.000000000000000000e+00,5.000000000000000000e+00,5.000000000000000000e+00,5.000000000000000000e+00,5.000000000000000000e+00,5.000000000000000000e+00,5.000000000000000000e+00,5.000000000000000000e+00,5.000000000000000000e+00,5.000000000000000000e+00,5.000000000000000000e+00,5.000000000000000000e+00,5.000000000000000000e+00,5.000000000000000000e+00,5.000000000000000000e+00,5.000000000000000000e+00,5.000000000000000000e+00,5.000000000000000000e+00,5.000000000000000000e+00,5.000000000000000000e+00,5.000000000000000000e+00,5.000000000000000000e+00,5.000000000000000000e+00,5.000000000000000000e+00,5.000000000000000000e+00,5.000000000000000000e+00,5.000000000000000000e+00,5.000000000000000000e+00,4.858265876770019531e+00,4.667599678039550781e+00,4.491334438323974609e+00,4.327897071838378906e+00,4.175961971282958984e+00,4.034339904785156250e+00,3.902008533477783203e+00,3.778082609176635742e+00,3.661786079406738281e+00,3.552434921264648438e+00,3.449425935745239258e+00,3.352222442626953125e+00,3.260347127914428711e+00,3.173373460769653320e+00,3.090919494628906250e+00,3.012641668319702148e+00,2.938230991363525391e+00,2.867407321929931641e+00,2.799917697906494141e+00,2.735532045364379883e+00,2.674041032791137695e+00,2.615253448486328125e+00,2.558995246887207031e+00,2.505106449127197266e+00,2.453440427780151367e+00,2.403862714767456055e+00,2.356248855590820312e+00,2.310484409332275391e+00,2.266463994979858398e+00,2.224089622497558594e+00,2.183270692825317383e+00,2.143922805786132812e+00,2.105968475341796875e+00,2.069334268569946289e+00,2.033952951431274414e+00,1.999761104583740234e+00,1.966700077056884766e+00,1.934714078903198242e+00,1.903752207756042480e+00,1.873765349388122559e+00,1.844708800315856934e+00
5.000000000000000000e+00,5.000000000000000000e+00,5.000000000000000000e+00,5.000000000000000000e+00,5.000000000000000000e+00,5.000000000000000000e+00,5.000000000000000000e+00,5.000000000000000000e+00,5.000000000000000000e+00,5.000000000000000000e+00,5.000000000000000000e+00,5.000000000000000000e+00,5.000000000000000000e+00,5.000000000000000000e+00,5.000000000000000000e+00,5.000000000000000000e+00,5.000000000000000000e+00,5.000000000000000000e+00,5.000000000000000000e+00,5.000000000000000000e+00,5.000000000000000000e+00,5.000000000000000000e+00,5.000000000000000000e+00,5.000000000000000000e+00,5.000000000000000000e+00,5.000000000000000000e+00,5.000000000000000000e+00,5.000000000000000000e+00,5.000000000000000000e+00,5.000000000000000000e+00,5.000000000000000000e+00,5.000000000000000000e+00,5.000000000000000000e+00,5.000000000000000000e+00,5.000000000000000000e+00,5.000000000000000000e+00,5.000000000000000000e+00,5.000000000000000000e+00,5.000000000000000000e+00,4.858438014984130859e+00,4.667759418487548828e+00,4.491481781005859375e+00,4.328033924102783203e+00,4.176065444946289062e+00,4.034436225891113281e+00,3.902098894119262695e+00,3.778166770935058594e+00,3.661865234375000000e+00,3.552509784698486328e+00,3.449496507644653320e+00,3.352288961410522461e+00,3.260410070419311523e+00,3.173432826995849609e+00,3.090975999832153320e+00,3.012695550918579102e+00,2.938282251358032227e+00,2.867456197738647461e+00,2.799964189529418945e+00,2.735576152801513672e+00,2.674083232879638672e+00,2.615293979644775391e+00,2.559033870697021484e+00,2.505143642425537109e+00,2.453476190567016602e+00,2.403896808624267578e+00,2.356281757354736328e+00,2.310516119003295898e+00,2.266494274139404297e+00,2.224118947982788086e+00,2.183298826217651367e+00,2.143950223922729492e+00,2.105994701385498047e+00,2.069359540939331055e+00,2.033977508544921875e+00,1.999784946441650391e+00,1.966722965240478516e+00,1.934736490249633789e+00,1.903773546218872070e+00,1.873786091804504395e+00,1.844728946685791016e+00
4.871548652648925781e+00,4.870326995849609375e+00,4.869106292724609375e+00,4.867886543273925781e+00,4.866666793823242188e+00,4.865447998046875000e+00,4.864230155944824219e+00,4.863012313842773438e+00,4.861795425415039062e+00,4.860579013824462891e+00,4.859363079071044922e+00,4.858148097991943359e+00,4.856933116912841797e+00,4.855719566345214844e+00,4.854506492614746094e+00,4.853293418884277344e+00,4.852081298828125000e+00,4.850870132446289062e+00,4.849658966064453125e+00,4.848448753356933594e+00,4.847238540649414062e+00,4.846029758453369141e+00,4.844821453094482422e+00,4.843613147735595703e+00,4.842405796051025391e+00,4.841199398040771484e+00,4.839993000030517578e+00,4.838787555694580078e+00,4.837583065032958984e+00,4.836378097534179688e+00,4.835174560546875000e+00,4.833971500396728516e+00,4.832768917083740234e+00,4.831567287445068359e+00,4.830365657806396484e+00,4.829164981842041016e+00,4.827965259552001953e+00,4.826765537261962891e+00,4.825566768646240234e+00,4.824368476867675781e+00,4.667918205261230469e+00,4.491629123687744141e+00,4.328170776367187500e+00,4.176192283630371094e+00,4.034532546997070312e+00,3.902188539505004883e+00,3.778251409530639648e+00,3.661944627761840820e+00,3.552584648132324219e+00,3.449567079544067383e+00,3.352355241775512695e+00,3.260472774505615234e+00,3.173492670059204102e+00,3.091032505035400391e+00,3.012749195098876953e+00,2.938333272933959961e+00,2.867504596710205078e+00,2.800010442733764648e+00,2.735620498657226562e+00,2.674125432968139648e+00,2.615334510803222656e+00,2.559072732925415039e+00,2.505180835723876953e+00,2.453511714935302734e+00,2.403930902481079102e+00,2.356314659118652344e+00,2.310547590255737305e+00,2.266524791717529297e+00,2.224148273468017578e+00,2.183326959609985352e+00,2.143977403640747070e+00,2.106020927429199219e+00,2.069384813308715820e+00,2.034002065658569336e+00,1.999808549880981445e+00,1.966745734214782715e+00,1.934758543968200684e+00,1.903795003890991211e+00,1.873807072639465332e+00,1.844748973846435547e+00
3.776388168334960938e+00,3.775653839111328125e+00,3.774920225143432617e+00,3.774186849594116211e+00,3.773453950881958008e+00,3.772721290588378906e+00,3.771988868713378906e+00,3.771256208419799805e+00,3.770524263381958008e+00,3.769792795181274414e+00,3.769061565399169922e+00,3.768330574035644531e+00,3.767599344253540039e+00,3.766868829727172852e+00,3.766138792037963867e+00,3.765408754348754883e+00,3.764679193496704102e+00,3.763949871063232422e+00,3.763220548629760742e+00,3.762491703033447266e+00,3.761763334274291992e+00,3.761034965515136719e+00,3.760307073593139648e+00,3.759579181671142578e+00,3.758851766586303711e+00,3.758124828338623047e+00,3.757397890090942383e+00,3.756671428680419922e+00,3.755945205688476562e+00,3.755218982696533203e+00,3.754493236541748047e+00,3.753767967224121094e+00,3.753042697906494141e+00,3.752317905426025391e+00,3.751593112945556641e+00,3.750868797302246094e+00,3.750144720077514648e+00,3.749421119689941406e+00,3.748697757720947266e+00,3.747974395751953125e+00,3.747251272201538086e+00,3.746528625488281250e+00,3.745806455612182617e+00,3.745084285736083984e+00,3.744362592697143555e+00,3.743640661239624023e+00,3.742919445037841797e+00,3.662023782730102539e+00,3.552659273147583008e+00,3.449637174606323242e+00,3.352421998977661133e+00,3.260535955429077148e+00,3.173552274703979492e+00,3.091089248657226562e+00,3.012802839279174805e+00,2.938384294509887695e+00,2.867553472518920898e+00,2.800056934356689453e+00,2.735664844512939453e+00,2.674167871475219727e+00,2.615374803543090820e+00,2.559111356735229492e+00,2.505217790603637695e+00,2.453547477722167969e+00,2.403965234756469727e+00,2.356347560882568359e+00,2.310579299926757812e+00,2.266555070877075195e+00,2.224177360534667969e+00,2.183355331420898438e+00,2.144004583358764648e+00,2.106047153472900391e+00,2.069410324096679688e+00,2.034026384353637695e+00,1.999832153320312500e+00,1.966768860816955566e+00,1.934780597686767578e+00,1.903816580772399902e+00,1.873827815055847168e+00,1.844769120216369629e+00
3.083250284194946289e+00,3.082761049270629883e+00,3.082272052764892578e+00,3.081783056259155273e+00,3.081294059753417969e+00,3.080805540084838867e+00,3.080317020416259766e+00,3.079828739166259766e+00,3.079340696334838867e+00,3.078852653503417969e+00,3.078364610671997070e+00,3.077876806259155273e+00,3.077389478683471680e+00,3.076902151107788086e+00,3.076414823532104492e+00,3.075927495956420898e+00,3.075440645217895508e+00,3.074954032897949219e+00,3.074467420578002930e+00,3.073980808258056641e+00,3.073494434356689453e+00,3.073008298873901367e+00,3.072522163391113281e+00,3.072036504745483398e+00,3.071550846099853516e+00,3.071065187454223633e+00,3.070579767227172852e+00,3.070094585418701172e+00,3.069609403610229492e+00,3.069124460220336914e+00,3.068639755249023438e+00,3.068155288696289062e+00,3.067670583724975586e+00,3.067186355590820312e+00,3.066702127456665039e+00,3.066218137741088867e+00,3.065734386444091797e+00,3.065250396728515625e+00,3.064766883850097656e+00,3.064283609390258789e+00,3.063800334930419922e+00,3.063317298889160156e+00,3.062834501266479492e+00,3.062351465225219727e+00,3.061868906021118164e+00,3.061386346817016602e+00,3.060904026031494141e+00,3.060421943664550781e+00,3.059939622879028320e+00,3.059457778930664062e+00,3.058976173400878906e+00,3.058494567871093750e+00,3.058013200759887695e+00,3.057532072067260742e+00,3.012856721878051758e+00,2.938435554504394531e+00,2.867602109909057617e+00,2.800103425979614258e+00,2.735708951950073242e+00,2.674210071563720703e+00,2.615415334701538086e+00,2.559150218963623047e+00,2.505254983901977539e+00,2.453583002090454102e+00,2.403999328613281250e+00,2.356380224227905273e+00,2.310610771179199219e+00,2.266585588455200195e+00,2.224206686019897461e+00,2.183383464813232422e+00,2.144031763076782227e+00,2.106073379516601562e+00,2.069435596466064453e+00,2.034050941467285156e+00,1.999855995178222656e+00,1.966791629791259766e+00,1.934802889823913574e+00,1.903837919235229492e+00,1.873848438262939453e+00,1.844789385795593262e+00
2.605097293853759766e+00,2.604747772216796875e+00,2.604398727416992188e+00,2.604049682617187500e+00,2.603700637817382812e+00,2.603351831436157227e+00,2.603003025054931641e+00,2.602654218673706055e+00,2.602305412292480469e+00,2.601957082748413086e+00,2.601608514785766602e+00,2.601260423660278320e+00,2.600911855697631836e+00,2.600563764572143555e+00,2.600215673446655273e+00,2.599867820739746094e+00,2.599519968032836914e+00,2.599172115325927734e+00,2.598824262619018555e+00,2.598476648330688477e+00,2.598129272460937500e+00,2.597781896591186523e+00,2.597434520721435547e+00,2.597087144851684570e+00,2.596740007400512695e+00,2.596393108367919922e+00,2.596046209335327148e+00,2.595699310302734375e+00,2.595352649688720703e+00,2.595005750656127930e+00,2.594659328460693359e+00,2.594312667846679688e+00,2.593966484069824219e+00,2.593620061874389648e+00,2.593273878097534180e+00,2.592927694320678711e+00,2.592581748962402344e+00,2.592235803604125977e+00,2.591890096664428711e+00,2.591544389724731445e+00,2.591198444366455078e+00,2.590852975845336914e+00,2.590507507324218750e+00,2.590162038803100586e+00,2.589816808700561523e+00,2.589471578598022461e+00,2.589126348495483398e+00,2.588781595230102539e+00,2.588436603546142578e+00,2.588091850280761719e+00,2.587747097015380859e+00,2.587402343750000000e+00,2.587057828903198242e+00,2.586713314056396484e+00,2.586369037628173828e+00,2.586024761199951172e+00,2.585680484771728516e+00,2.585336446762084961e+00,2.584992408752441406e+00,2.584648609161376953e+00,2.584304809570312500e+00,2.559189081192016602e+00,2.505292177200317383e+00,2.453618526458740234e+00,2.404033660888671875e+00,2.356413125991821289e+00,2.310642480850219727e+00,2.266616106033325195e+00,2.224236011505126953e+00,2.183411598205566406e+00,2.144058942794799805e+00,2.106099605560302734e+00,2.069460868835449219e+00,2.034075498580932617e+00,1.999879598617553711e+00,1.966814398765563965e+00,1.934825062751770020e+00,1.903859376907348633e+00,1.873869419097900391e+00,1.844809412956237793e+00
2.255303621292114258e+00,2.255043268203735352e+00,2.254783153533935547e+00,2.254522800445556641e+00,2.254262924194335938e+00,2.254002809524536133e+00,2.253742694854736328e+00,2.253482818603515625e+00,2.253222942352294922e+00,2.252963066101074219e+00,2.252703428268432617e+00,2.252443552017211914e+00,2.252184152603149414e+00,2.251924514770507812e+00,2.251664876937866211e+00,2.251405477523803711e+00,2.251146316528320312e+00,2.250886678695678711e+00,2.250627517700195312e+00,2.250368356704711914e+00,2.250109195709228516e+00,2.249850034713745117e+00,2.249591112136840820e+00,2.249331712722778320e+00,2.249071359634399414e+00,2.248811006546020508e+00,2.248550653457641602e+00,2.248290538787841797e+00,2.248030424118041992e+00,2.247770309448242188e+00,2.247510194778442383e+00,2.247250318527221680e+00,2.246990203857421875e+00,2.246730327606201172e+00,2.246470689773559570e+00,2.246210813522338867e+00,2.245951175689697266e+00,2.245691537857055664e+00,2.245431900024414062e+00,2.245172500610351562e+00,2.244913101196289062e+00,2.244653701782226562e+00,2.244394302368164062e+00,2.244135141372680664e+00,2.243875741958618164e+00,2.243616819381713867e+00,2.243357658386230469e+00,2.243098735809326172e+00,2.242839574813842773e+00,2.242580652236938477e+00,2.242321968078613281e+00,2.242063283920288086e+00,2.241804361343383789e+00,2.241545915603637695e+00,2.241286993026733398e+00,2.241028547286987305e+00,2.240770101547241211e+00,2.240511655807495117e+00,2.240253448486328125e+00,2.239995002746582031e+00,2.239736795425415039e+00,2.239478588104248047e+00,2.239220380783081055e+00,2.238962411880493164e+00,2.238704442977905273e+00,2.238446474075317383e+00,2.238188505172729492e+00,2.237930774688720703e+00,2.224265336990356445e+00,2.183439970016479492e+00,2.144086122512817383e+00,2.106126070022583008e+00,2.069486141204833984e+00,2.034099817276000977e+00,1.999903202056884766e+00,1.966837525367736816e+00,1.934847116470336914e+00,1.903880953788757324e+00,1.873890161514282227e+00,1.844829559326171875e+00
1.988260149955749512e+00,1.988057732582092285e+00,1.987855434417724609e+00,1.987653374671936035e+00,1.987451076507568359e+00,1.987248897552490234e+00,1.987046718597412109e+00,1.986844778060913086e+00,1.986642718315124512e+00,1.986440658569335938e+00,1.986238956451416016e+00,1.986036896705627441e+00,1.985835075378417969e+00,1.985633373260498047e+00,1.985431551933288574e+00,1.985229730606079102e+00,1.985028147697448730e+00,1.984826445579528809e+00,1.984624862670898438e+00,1.984423398971557617e+00,1.984221816062927246e+00,1.984020233154296875e+00,1.983818888664245605e+00,1.983617424964904785e+00,1.983415961265563965e+00,1.983214855194091797e+00,1.983013510704040527e+00,1.982812166213989258e+00,1.982611179351806641e+00,1.982409954071044922e+00,1.982208728790283203e+00,1.982007741928100586e+00,1.981806635856628418e+00,1.981605648994445801e+00,1.981404781341552734e+00,1.981203794479370117e+00,1.981002807617187500e+00,1.980802178382873535e+00,1.980601310729980469e+00,1.980400443077087402e+00,1.980199933052062988e+00,1.979999184608459473e+00,1.979798436164855957e+00,1.979598045349121094e+00,1.979397416114807129e+00,1.979196786880493164e+00,1.978996515274047852e+00,1.978796005249023438e+00,1.978595614433288574e+00,1.978395342826843262e+00,1.978194952011108398e+00,1.977994680404663086e+00,1.977794528007507324e+00,1.977594256401062012e+00,1.977394104003906250e+00,1.977194190025329590e+00,1.976994037628173828e+00,1.976793885231018066e+00,1.976594090461730957e+00,1.976394057273864746e+00,1.976194143295288086e+00,1.975994348526000977e+00,1.975794434547424316e+00,1.975594639778137207e+00,1.975395083427429199e+00,1.975195288658142090e+00,1.974995493888854980e+00,1.974796056747436523e+00,1.974596381187438965e+00,1.974396824836730957e+00,1.974197506904602051e+00,1.973997950553894043e+00,1.973798394203186035e+00,1.973599195480346680e+00,1.973399758338928223e+00,1.966860294342041016e+00,1.934869408607482910e+00,1.903902292251586914e+00,1.873910903930664062e+00,1.844849824905395508e+00
1.777760863304138184e+00,1.777599215507507324e+00,1.777437448501586914e+00,1.777275681495666504e+00,1.777114152908325195e+00,1.776952505111694336e+00,1.776790857315063477e+00,1.776629447937011719e+00,1.776467800140380859e+00,1.776306271553039551e+00,1.776144742965698242e+00,1.775983452796936035e+00,1.775821924209594727e+00,1.775660634040832520e+00,1.775499224662780762e+00,1.775337815284729004e+00,1.775176525115966797e+00,1.775015354156494141e+00,1.774854063987731934e+00,1.774692773818969727e+00,1.774531722068786621e+00,1.774370551109313965e+00,1.774209380149841309e+00,1.774048328399658203e+00,1.773887276649475098e+00,1.773726105690002441e+00,1.773565292358398438e+00,1.773404240608215332e+00,1.773243188858032227e+00,1.773082375526428223e+00,1.772921442985534668e+00,1.772760510444641113e+00,1.772599816322326660e+00,1.772439002990722656e+00,1.772278189659118652e+00,1.772117495536804199e+00,1.771956682205200195e+00,1.771795988082885742e+00,1.771635413169860840e+00,1.771474719047546387e+00,1.771314144134521484e+00,1.771153688430786133e+00,1.770993113517761230e+00,1.770832538604736328e+00,1.770672082901000977e+00,1.770511627197265625e+00,1.770351171493530273e+00,1.770190834999084473e+00,1.770030379295349121e+00,1.769870042800903320e+00,1.769709825515747070e+00,1.769549489021301270e+00,1.769389152526855469e+00,1.769229054450988770e+00,1.769068837165832520e+00,1.768908619880676270e+00,1.768748641014099121e+00,1.768588423728942871e+00,1.768428325653076172e+00,1.768268346786499023e+00,1.768108367919921875e+00,1.767948269844055176e+00,1.767788410186767578e+00,1.767628431320190430e+00,1.767468452453613281e+00,1.767308712005615234e+00,1.767148852348327637e+00,1.766988992691040039e+00,1.766829252243041992e+00,1.766669511795043945e+00,1.766509652137756348e+00,1.766350150108337402e+00,1.766190409660339355e+00,1.766030669212341309e+00,1.765871167182922363e+00,1.765711545944213867e+00,1.765551924705505371e+00,1.765392541885375977e+00,1.765233039855957031e+00,1.765073537826538086e+00
1.607566118240356445e+00,1.607433795928955078e+00,1.607301712036132812e+00,1.607169508934020996e+00,1.607037186622619629e+00,1.606905102729797363e+00,1.606772899627685547e+00,1.606640815734863281e+00,1.606508731842041016e+00,1.606376647949218750e+00,1.606244564056396484e+00,1.606112599372863770e+00,1.605980515480041504e+00,1.605848550796508789e+00,1.605716586112976074e+00,1.605584621429443359e+00,1.605452656745910645e+00,1.605320811271667480e+00,1.605188965797424316e+00,1.605057001113891602e+00,1.604925155639648438e+00,1.604793429374694824e+00,1.604661583900451660e+00,1.604529857635498047e+00,1.604398012161254883e+00,1.604266285896301270e+00,1.604134559631347656e+00,1.604002952575683594e+00,1.603871226310729980e+00,1.603739500045776367e+00,1.603608012199401855e+00,1.603476285934448242e+00,1.603344678878784180e+00,1.603213191032409668e+00,1.603081703186035156e+00,1.602950096130371094e+00,1.602818727493286133e+00,1.602687120437622070e+00,1.602555632591247559e+00,1.602424383163452148e+00,1.602292895317077637e+00,1.602161407470703125e+00,1.602030158042907715e+00,1.601898789405822754e+00,1.601767420768737793e+00,1.601636171340942383e+00,1.601504921913146973e+00,1.601373553276062012e+00,1.601242423057556152e+00,1.601111173629760742e+00,1.600979924201965332e+00,1.600848913192749023e+00,1.600717663764953613e+00,1.600586533546447754e+00,1.600455522537231445e+00,1.600324392318725586e+00,1.600193262100219727e+00,1.600062370300292969e+00,1.599931240081787109e+00,1.599800109863281250e+00,1.599669218063354492e+00,1.599538207054138184e+00,1.599407315254211426e+00,1.599276423454284668e+00,1.599145531654357910e+00,1.599014639854431152e+00,1.598883867263793945e+00,1.598752975463867188e+00,1.598622083663940430e+00,1.598491430282592773e+00,1.598360657691955566e+00,1.598229885101318359e+00,1.598099231719970703e+00,1.597968459129333496e+00,1.597837686538696289e+00,1.597707152366638184e+00,1.597576498985290527e+00,1.597445845603942871e+00,1.597315311431884766e+00,1.597184658050537109e+00
1.467111587524414062e+00,1.467001438140869141e+00,1.466891169548034668e+00,1.466781139373779297e+00,1.466670989990234375e+00,1.466560959815979004e+00,1.466450929641723633e+00,1.466340780258178711e+00,1.466230750083923340e+00,1.466120839118957520e+00,1.466010808944702148e+00,1.465900778770446777e+00,1.465790867805480957e+00,1.465680837631225586e+00,1.465570807456970215e+00,1.465461015701293945e+00,1.465351104736328125e+00,1.465241074562072754e+00,1.465131282806396484e+00,1.465021491050720215e+00,1.464911580085754395e+00,1.464801788330078125e+00,1.464691996574401855e+00,1.464582085609436035e+00,1.464472413063049316e+00,1.464362621307373047e+00,1.464252829551696777e+00,1.464143276214599609e+00,1.464033484458923340e+00,1.463923692703247070e+00,1.463814020156860352e+00,1.463704466819763184e+00,1.463594794273376465e+00,1.463485121726989746e+00,1.463375568389892578e+00,1.463265895843505859e+00,1.463156342506408691e+00,1.463046789169311523e+00,1.462937235832214355e+00,1.462827682495117188e+00,1.462718248367309570e+00,1.462608695030212402e+00,1.462499141693115234e+00,1.462389826774597168e+00,1.462280273437500000e+00,1.462170839309692383e+00,1.462061524391174316e+00,1.461952090263366699e+00,1.461842656135559082e+00,1.461733460426330566e+00,1.461624026298522949e+00,1.461514592170715332e+00,1.461405396461486816e+00,1.461296081542968750e+00,1.461186766624450684e+00,1.461077570915222168e+00,1.460968255996704102e+00,1.460859060287475586e+00,1.460749864578247070e+00,1.460640668869018555e+00,1.460531353950500488e+00,1.460422277450561523e+00,1.460313081741333008e+00,1.460204005241394043e+00,1.460094928741455078e+00,1.459985733032226562e+00,1.459876656532287598e+00,1.459767699241638184e+00,1.459658622741699219e+00,1.459549427032470703e+00,1.459440588951110840e+00,1.459331512451171875e+00,1.459222435951232910e+00,1.459113597869873047e+00,1.459004640579223633e+00,1.458895564079284668e+00,1.458786725997924805e+00,1.458677768707275391e+00,1.458568930625915527e+00,1.458460092544555664e+00
1.349228143692016602e+00,1.349135041236877441e+00,1.349041819572448730e+00,1.348948717117309570e+00,1.348855614662170410e+00,1.348762512207031250e+00,1.348669290542602539e+00,1.348576307296752930e+00,1.348483204841613770e+00,1.348390102386474609e+00,1.348297119140625000e+00,1.348204016685485840e+00,1.348111033439636230e+00,1.348018050193786621e+00,1.347925066947937012e+00,1.347831964492797852e+00,1.347739100456237793e+00,1.347646117210388184e+00,1.347553133964538574e+00,1.347460269927978516e+00,1.347367405891418457e+00,1.347274422645568848e+00,1.347181558609008789e+00,1.347088694572448730e+00,1.346995830535888672e+00,1.346902966499328613e+00,1.346810102462768555e+00,1.346717238426208496e+00,1.346624493598937988e+00,1.346531629562377930e+00,1.346438884735107422e+00,1.346346139907836914e+00,1.346253395080566406e+00,1.346160531044006348e+00,1.346067905426025391e+00,1.345975160598754883e+00,1.345882415771484375e+00,1.345789790153503418e+00,1.345697045326232910e+00,1.345604300498962402e+00,1.345511555671691895e+00,1.345419049263000488e+00,1.345326304435729980e+00,1.345233678817749023e+00,1.345141172409057617e+00,1.345048546791076660e+00,1.344955921173095703e+00,1.344863414764404297e+00,1.344770789146423340e+00,1.344678163528442383e+00,1.344585776329040527e+00,1.344493150711059570e+00,1.344400644302368164e+00,1.344308257102966309e+00,1.344215631484985352e+00,1.344123125076293945e+00,1.344030737876892090e+00,1.343938350677490234e+00,1.343845844268798828e+00,1.343753457069396973e+00,1.343661069869995117e+00,1.343568563461303711e+00,1.343476295471191406e+00,1.343383908271789551e+00,1.343291521072387695e+00,1.343199253082275391e+00,1.343106865882873535e+00,1.343014478683471680e+00,1.342922210693359375e+00,1.342829942703247070e+00,1.342737555503845215e+00,1.342645406723022461e+00,1.342553138732910156e+00,1.342460870742797852e+00,1.342368602752685547e+00,1.342276453971862793e+00,1.342184185981750488e+00,1.342092037200927734e+00,1.341999769210815430e+00,1.341907620429992676e+00
1.248879790306091309e+00,1.248800039291381836e+00,1.248720288276672363e+00,1.248640418052673340e+00,1.248560667037963867e+00,1.248480916023254395e+00,1.248401045799255371e+00,1.248321294784545898e+00,1.248241662979125977e+00,1.248161792755126953e+00,1.248082041740417480e+00,1.248002409934997559e+00,1.247922658920288086e+00,1.247842907905578613e+00,1.247763276100158691e+00,1.247683644294738770e+00,1.247603893280029297e+00,1.247524380683898926e+00,1.247444629669189453e+00,1.247364997863769531e+00,1.247285366058349609e+00,1.247205734252929688e+00,1.247126102447509766e+00,1.247046589851379395e+00,1.246966958045959473e+00,1.246887326240539551e+00,1.246807813644409180e+00,1.246728301048278809e+00,1.246648669242858887e+00,1.246569156646728516e+00,1.246489644050598145e+00,1.246410131454467773e+00,1.246330618858337402e+00,1.246251106262207031e+00,1.246171593666076660e+00,1.246092200279235840e+00,1.246012687683105469e+00,1.245933175086975098e+00,1.245853781700134277e+00,1.245774388313293457e+00,1.245694875717163086e+00,1.245615601539611816e+00,1.245536088943481445e+00,1.245456695556640625e+00,1.245377421379089355e+00,1.245298027992248535e+00,1.245218634605407715e+00,1.245139241218566895e+00,1.245059967041015625e+00,1.244980573654174805e+00,1.244901180267333984e+00,1.244821906089782715e+00,1.244742631912231445e+00,1.244663238525390625e+00,1.244584083557128906e+00,1.244504809379577637e+00,1.244425415992736816e+00,1.244346261024475098e+00,1.244266986846923828e+00,1.244187712669372559e+00,1.244108557701110840e+00,1.244029283523559570e+00,1.243950128555297852e+00,1.243870973587036133e+00,1.243791699409484863e+00,1.243712544441223145e+00,1.243633508682250977e+00,1.243554234504699707e+00,1.243475079536437988e+00,1.243396043777465820e+00,1.243316888809204102e+00,1.243237733840942383e+00,1.243158698081970215e+00,1.243079543113708496e+00,1.243000507354736328e+00,1.242921471595764160e+00,1.242842316627502441e+00,1.242763280868530273e+00,1.242684364318847656e+00,1.242605209350585938e+00
1.162425041198730469e+00,1.162355780601501465e+00,1.162286639213562012e+00,1.162217617034912109e+00,1.162148475646972656e+00,1.162079334259033203e+00,1.162010192871093750e+00,1.161941051483154297e+00,1.161872029304504395e+00,1.161802887916564941e+00,1.161733865737915039e+00,1.161664724349975586e+00,1.161595702171325684e+00,1.161526679992675781e+00,1.161457538604736328e+00,1.161388635635375977e+00,1.161319494247436523e+00,1.161250472068786621e+00,1.161181569099426270e+00,1.161112546920776367e+00,1.161043524742126465e+00,1.160974502563476562e+00,1.160905480384826660e+00,1.160836577415466309e+00,1.160767674446105957e+00,1.160698652267456055e+00,1.160629630088806152e+00,1.160560727119445801e+00,1.160491824150085449e+00,1.160422801971435547e+00,1.160354018211364746e+00,1.160285115242004395e+00,1.160216093063354492e+00,1.160147309303283691e+00,1.160078406333923340e+00,1.160009503364562988e+00,1.159940719604492188e+00,1.159871816635131836e+00,1.159802913665771484e+00,1.159734129905700684e+00,1.159665226936340332e+00,1.159596443176269531e+00,1.159527659416198730e+00,1.159458756446838379e+00,1.159389972686767578e+00,1.159321188926696777e+00,1.159252405166625977e+00,1.159183621406555176e+00,1.159114956855773926e+00,1.159046173095703125e+00,1.158977389335632324e+00,1.158908605575561523e+00,1.158839941024780273e+00,1.158771157264709473e+00,1.158702373504638672e+00,1.158633708953857422e+00,1.158565044403076172e+00,1.158496379852294922e+00,1.158427596092224121e+00,1.158358931541442871e+00,1.158290266990661621e+00,1.158221602439880371e+00,1.158152937889099121e+00,1.158084273338317871e+00,1.158015727996826172e+00,1.157947063446044922e+00,1.157878398895263672e+00,1.157809853553771973e+00,1.157741189002990723e+00,1.157672643661499023e+00,1.157604098320007324e+00,1.157535433769226074e+00,1.157466888427734375e+00,1.157398343086242676e+00,1.157329797744750977e+00,1.157261252403259277e+00,1.157192707061767578e+00,1.157124161720275879e+00,1.157055616378784180e+00,1.156987190246582031e+00
1.087164878845214844e+00,1.087104439735412598e+00,1.087044000625610352e+00,1.086983442306518555e+00,1.086923003196716309e+00,1.086862564086914062e+00,1.086802124977111816e+00,1.086741685867309570e+00,1.086681246757507324e+00,1.086620807647705078e+00,1.086560368537902832e+00,1.086499929428100586e+00,1.086439490318298340e+00,1.086379170417785645e+00,1.086318731307983398e+00,1.086258292198181152e+00,1.086197972297668457e+00,1.086137533187866211e+00,1.086077213287353516e+00,1.086016893386840820e+00,1.085956454277038574e+00,1.085896134376525879e+00,1.085835814476013184e+00,1.085775375366210938e+00,1.085715055465698242e+00,1.085654735565185547e+00,1.085594415664672852e+00,1.085534095764160156e+00,1.085473895072937012e+00,1.085413575172424316e+00,1.085353255271911621e+00,1.085292935371398926e+00,1.085232615470886230e+00,1.085172414779663086e+00,1.085112214088439941e+00,1.085051894187927246e+00,1.084991574287414551e+00,1.084931373596191406e+00,1.084871172904968262e+00,1.084810853004455566e+00,1.084750652313232422e+00,1.084690451622009277e+00,1.084630250930786133e+00,1.084570050239562988e+00,1.084509849548339844e+00,1.084449648857116699e+00,1.084389448165893555e+00,1.084329247474670410e+00,1.084269046783447266e+00,1.084208965301513672e+00,1.084148764610290527e+00,1.084088563919067383e+00,1.084028482437133789e+00,1.083968281745910645e+00,1.083908200263977051e+00,1.083848118782043457e+00,1.083787918090820312e+00,1.083727836608886719e+00,1.083667755126953125e+00,1.083607673645019531e+00,1.083547472953796387e+00,1.083487510681152344e+00,1.083427429199218750e+00,1.083367228507995605e+00,1.083307147026062012e+00,1.083247184753417969e+00,1.083187103271484375e+00,1.083127140998840332e+00,1.083067059516906738e+00,1.083006978034973145e+00,1.082946896553039551e+00,1.082886934280395508e+00,1.082826972007751465e+00,1.082766890525817871e+00,1.082706928253173828e+00,1.082646965980529785e+00,1.082586884498596191e+00,1.082526922225952148e+00,1.082466959953308105e+00,1.082406997680664062e+00
1.021057605743408203e+00,1.021004199981689453e+00,1.020950913429260254e+00,1.020897507667541504e+00,1.020844221115112305e+00,1.020790934562683105e+00,1.020737528800964355e+00,1.020684242248535156e+00,1.020630955696105957e+00,1.020577549934387207e+00,1.020524263381958008e+00,1.020470976829528809e+00,1.020417690277099609e+00,1.020364403724670410e+00,1.020311117172241211e+00,1.020257830619812012e+00,1.020204544067382812e+00,1.020151376724243164e+00,1.020098090171813965e+00,1.020044803619384766e+00,1.019991517066955566e+00,1.019938349723815918e+00,1.019885063171386719e+00,1.019831895828247070e+00,1.019778609275817871e+00,1.019725322723388672e+00,1.019672155380249023e+00,1.019618988037109375e+00,1.019565701484680176e+00,1.019512534141540527e+00,1.019459366798400879e+00,1.019406199455261230e+00,1.019353032112121582e+00,1.019299864768981934e+00,1.019246578216552734e+00,1.019193530082702637e+00,1.019140362739562988e+00,1.019087195396423340e+00,1.019034028053283691e+00,1.018980860710144043e+00,1.018927693367004395e+00,1.018874645233154297e+00,1.018821477890014648e+00,1.018768310546875000e+00,1.018715262413024902e+00,1.018662095069885254e+00,1.018609046936035156e+00,1.018555879592895508e+00,1.018502831459045410e+00,1.018449664115905762e+00,1.018396615982055664e+00,1.018343567848205566e+00,1.018290519714355469e+00,1.018237471580505371e+00,1.018184304237365723e+00,1.018131256103515625e+00,1.018078327178955078e+00,1.018025159835815430e+00,1.017972111701965332e+00,1.017919182777404785e+00,1.017866134643554688e+00,1.017813086509704590e+00,1.017760038375854492e+00,1.017707109451293945e+00,1.017654061317443848e+00,1.017601132392883301e+00,1.017548084259033203e+00,1.017495036125183105e+00,1.017442107200622559e+00,1.017389059066772461e+00,1.017336130142211914e+00,1.017283201217651367e+00,1.017230153083801270e+00,1.017177224159240723e+00,1.017124295234680176e+00,1.017071366310119629e+00,1.017018437385559082e+00,1.016965389251708984e+00,1.016912579536437988e+00,1.016859650611877441e+00
9.625290632247924805e-01,9.624816775321960449e-01,9.624341726303100586e-01,9.623867869377136230e-01,9.623394608497619629e-01,9.622919559478759766e-01,9.622446298599243164e-01,9.621972441673278809e-01,9.621497988700866699e-01,9.621024727821350098e-01,9.620551466941833496e-01,9.620077013969421387e-01,9.619603753089904785e-01,9.619130492210388184e-01,9.618656039237976074e-01,9.618183374404907227e-01,9.617710113525390625e-01,9.617236256599426270e-01,9.616762995719909668e-01,9.616290330886840820e-01,9.615815877914428711e-01,9.615343213081359863e-01,9.614870548248291016e-01,9.614396691322326660e-01,9.613924026489257812e-01,9.613451361656188965e-01,9.612977504730224609e-01,9.612504839897155762e-01,9.612032771110534668e-01,9.611558914184570312e-01,9.611086249351501465e-01,9.610614180564880371e-01,9.610140919685363770e-01,9.609668254852294922e-01,9.609196186065673828e-01,9.608722925186157227e-01,9.608250856399536133e-01,9.607778787612915039e-01,9.607305526733398438e-01,9.606833457946777344e-01,9.606361389160156250e-01,9.605888724327087402e-01,9.605416655540466309e-01,9.604944586753845215e-01,9.604471921920776367e-01,9.604000449180603027e-01,9.603528380393981934e-01,9.603055715560913086e-01,9.602584242820739746e-01,9.602112770080566406e-01,9.601640105247497559e-01,9.601168632507324219e-01,9.600697159767150879e-01,9.600224494934082031e-01,9.599753618240356445e-01,9.599282145500183105e-01,9.598810076713562012e-01,9.598338603973388672e-01,9.597867727279663086e-01,9.597395062446594238e-01,9.596924185752868652e-01,9.596453309059143066e-01,9.595981240272521973e-01,9.595510363578796387e-01,9.595039486885070801e-01,9.594567418098449707e-01,9.594096541404724121e-01,9.593626260757446289e-01,9.593154191970825195e-01,9.592683911323547363e-01,9.592213034629821777e-01,9.591741561889648438e-01,9.591271281242370605e-01,9.590800404548645020e-01,9.590328931808471680e-01,9.589858651161193848e-01,9.589388370513916016e-01,9.588916897773742676e-01,9.588446617126464844e-01,9.587976932525634766e-01
9.103465676307678223e-01,9.103041887283325195e-01,9.102617502212524414e-01,9.102193713188171387e-01,9.101769924163818359e-01,9.101345539093017578e-01,9.100921750068664551e-01,9.100497961044311523e-01,9.100073575973510742e-01,9.099650382995605469e-01,9.099226593971252441e-01,9.098802208900451660e-01,9.098379015922546387e-01,9.097955822944641113e-01,9.097531437873840332e-01,9.097108244895935059e-01,9.096685051918029785e-01,9.096260666847229004e-01,9.095837473869323730e-01,9.095414280891418457e-01,9.094990491867065430e-01,9.094567298889160156e-01,9.094144105911254883e-01,9.093720316886901855e-01,9.093297719955444336e-01,9.092874526977539062e-01,9.092450737953186035e-01,9.092028141021728516e-01,9.091605544090270996e-01,9.091181755065917969e-01,9.090759158134460449e-01,9.090336561203002930e-01,9.089912772178649902e-01,9.089490175247192383e-01,9.089068174362182617e-01,9.088644385337829590e-01,9.088221788406372070e-01,9.087799787521362305e-01,9.087376594543457031e-01,9.086953997611999512e-01,9.086531996726989746e-01,9.086108803749084473e-01,9.085686206817626953e-01,9.085264205932617188e-01,9.084841012954711914e-01,9.084419012069702148e-01,9.083997011184692383e-01,9.083574414253234863e-01,9.083152413368225098e-01,9.082730412483215332e-01,9.082307219505310059e-01,9.081885814666748047e-01,9.081463813781738281e-01,9.081041216850280762e-01,9.080619215965270996e-01,9.080197811126708984e-01,9.079775214195251465e-01,9.079353809356689453e-01,9.078931808471679688e-01,9.078509807586669922e-01,9.078087806701660156e-01,9.077666401863098145e-01,9.077243804931640625e-01,9.076822996139526367e-01,9.076401591300964355e-01,9.075978994369506836e-01,9.075558185577392578e-01,9.075136780738830566e-01,9.074714779853820801e-01,9.074293375015258789e-01,9.073872566223144531e-01,9.073450565338134766e-01,9.073029160499572754e-01,9.072608351707458496e-01,9.072186350822448730e-01,9.071765542030334473e-01,9.071344733238220215e-01,9.070922732353210449e-01,9.070501923561096191e-01,9.070081710815429688e-01
