5.000000000000000000e+00,5.000000000000000000e+00,5.000000000000000000e+00,5.000000000000000000e+00,5.000000000000000000e+00,5.000000000000000000e+00,5.000000000000000000e+00,5.000000000000000000e+00,5.000000000000000000e+00,5.000000000000000000e+00,5.000000000000000000e+00,5.000000000000000000e+00,5.000000000000000000e+00,5.000000000000000000e+00,5.000000000000000000e+00,5.000000000000000000e+00,5.000000000000000000e+00,5.000000000000000000e+00,5.000000000000000000e+00,5.000000000000000000e+00,5.000000000000000000e+00,5.000000000000000000e+00,5.000000000000000000e+00,5.000000000000000000e+00,5.000000000000000000e+00,5.000000000000000000e+00,5.000000000000000000e+00,5.000000000000000000e+00,5.000000000000000000e+00,5.000000000000000000e+00,5.000000000000000000e+00,5.000000000000000000e+00,5.000000000000000000e+00,5.000000000000000000e+00,5.000000000000000000e+00,5.000000000000000000e+00,5.000000000000000000e+00,5.000000000000000000e+00,5.000000000000000000e+00,4.846454620361328125e+00,4.656792640686035156e+00,4.481416225433349609e+00,4.318769454956054688e+00,4.167515754699707031e+00,4.026497840881347656e+00,3.894711017608642578e+00,3.771277904510498047e+00,3.655427694320678711e+00,3.546483039855957031e+00,3.443844556808471680e+00,3.346979618072509766e+00,3.255415201187133789e+00,3.168726682662963867e+00,3.086535453796386719e+00,3.008500337600708008e+00,2.934313774108886719e+00,2.863697767257690430e+00,2.796400785446166992e+00,2.732193946838378906e+00,2.670869588851928711e+00,2.612237691879272461e+00,2.556124687194824219e+00,2.502371549606323242e+00,2.450832843780517578e+00,2.401373863220214844e+00,2.353872060775756836e+00,2.308212757110595703e+00,2.264291286468505859e+00,2.222010135650634766e+00,2.181278944015502930e+00,2.142014265060424805e+00,2.104138135910034180e+00,2.067578077316284180e+00,2.032267093658447266e+00,1.998141765594482422e+00,1.965143561363220215e+00,1.933217525482177734e+00,1.902312397956848145e+00,1.872379779815673828e+00,1.843374371528625488e+00
5.000000000000000000e+00,5.000000000000000000e+00,5.000000000000000000e+00,5.000000000000000000e+00,5.000000000000000000e+00,5.000000000000000000e+00,5.000000000000000000e+00,5.000000000000000000e+00,5.000000000000000000e+00,5.000000000000000000e+00,5.000000000000000000e+00,5.000000000000000000e+00,5.000000000000000000e+00,5.000000000000000000e+00,5.000000000000000000e+00,5.000000000000000000e+00,5.000000000000000000e+00,5.000000000000000000e+00,5.000000000000000000e+00,5.000000000000000000e+00,5.000000000000000000e+00,5.000000000000000000e+00,5.000000000000000000e+00,5.000000000000000000e+00,5.000000000000000000e+00,5.000000000000000000e+00,5.000000000000000000e+00,5.000000000000000000e+00,5.000000000000000000e+00,5.000000000000000000e+00,5.000000000000000000e+00,5.000000000000000000e+00,5.000000000000000000e+00,5.000000000000000000e+00,5.000000000000000000e+00,5.000000000000000000e+00,5.000000000000000000e+00,5.000000000000000000e+00,5.000000000000000000e+00,4.846592426300048828e+00,4.656919479370117188e+00,4.481533527374267578e+00,4.318879127502441406e+00,4.167617321014404297e+00,4.026592731475830078e+00,3.894800186157226562e+00,3.771360874176025391e+00,3.655506134033203125e+00,3.546556949615478516e+00,3.443914175033569336e+00,3.347045421600341797e+00,3.255477428436279297e+00,3.168785572052001953e+00,3.086591482162475586e+00,3.008553504943847656e+00,2.934364318847656250e+00,2.863745689392089844e+00,2.796446323394775391e+00,2.732237815856933594e+00,2.670911312103271484e+00,2.612277746200561523e+00,2.556162834167480469e+00,2.502408266067504883e+00,2.450867891311645508e+00,2.401407718658447266e+00,2.353904485702514648e+00,2.308243989944458008e+00,2.264321327209472656e+00,2.222038984298706055e+00,2.181306838989257812e+00,2.142041206359863281e+00,2.104164123535156250e+00,2.067603111267089844e+00,2.032291173934936523e+00,1.998165130615234375e+00,1.965166330337524414e+00,1.933239459991455078e+00,1.902333498001098633e+00,1.872400283813476562e+00,1.843394398689270020e+00
5.000000000000000000e+00,5.000000000000000000e+00,5.000000000000000000e+00,5.000000000000000000e+00,5.000000000000000000e+00,5.000000000000000000e+00,5.000000000000000000e+00,5.000000000000000000e+00,5.000000000000000000e+00,5.000000000000000000e+00,5.000000000000000000e+00,5.000000000000000000e+00,5.000000000000000000e+00,5.000000000000000000e+00,5.000000000000000000e+00,5.000000000000000000e+00,5.000000000000000000e+00,5.000000000000000000e+00,5.000000000000000000e+00,5.000000000000000000e+00,5.000000000000000000e+00,5.000000000000000000e+00,5.000000000000000000e+00,5.000000000000000000e+00,5.000000000000000000e+00,5.000000000000000000e+00,5.000000000000000000e+00,5.000000000000000000e+00,5.000000000000000000e+00,5.000000000000000000e+00,5.000000000000000000e+00,5.000000000000000000e+00,5.000000000000000000e+00,5.000000000000000000e+00,5.000000000000000000e+00,5.000000000000000000e+00,5.000000000000000000e+00,5.000000000000000000e+00,5.000000000000000000e+00,4.846730232238769531e+00,4.657046794891357422e+00,4.481651782989501953e+00,4.318988323211669922e+00,4.167719364166259766e+00,4.026688098907470703e+00,3.894889354705810547e+00,3.771444320678710938e+00,3.655584573745727539e+00,3.546630859375000000e+00,3.443983554840087891e+00,3.347111225128173828e+00,3.255539178848266602e+00,3.168844461441040039e+00,3.086647033691406250e+00,3.008606672286987305e+00,2.934414625167846680e+00,2.863793849945068359e+00,2.796492338180541992e+00,2.732281684875488281e+00,2.670953273773193359e+00,2.612317800521850586e+00,2.556201219558715820e+00,2.502444982528686523e+00,2.450903177261352539e+00,2.401441574096679688e+00,2.353936910629272461e+00,2.308275222778320312e+00,2.264351606369018555e+00,2.222067832946777344e+00,2.181334733963012695e+00,2.142067909240722656e+00,2.104190111160278320e+00,2.067628145217895508e+00,2.032315492630004883e+00,1.998188495635986328e+00,1.965188860893249512e+00,1.933261513710021973e+00,1.902354836463928223e+00,1.872420787811279297e+00,1.843414306640625000e+00
5.000000000000000000e+00,5.000000000000000000e+00,5.000000000000000000e+00,5.000000000000000000e+00,5.000000000000000000e+00,5.000000000000000000e+00,5.000000000000000000e+00,5.000000000000000000e+00,5.000000000000000000e+00,5.000000000000000000e+00,5.000000000000000000e+00,5.000000000000000000e+00,5.000000000000000000e+00,5.000000000000000000e+00,5.000000000000000000e+00,5.000000000000000000e+00,5.000000000000000000e+00,5.000000000000000000e+00,5.000000000000000000e+00,5.000000000000000000e+00,5.000000000000000000e+00,5.000000000000000000e+00,5.000000000000000000e+00,5.000000000000000000e+00,5.000000000000000000e+00,5.000000000000000000e+00,5.000000000000000000e+00,5.000000000000000000e+00,5.000000000000000000e+00,5.000000000000000000e+00,5.000000000000000000e+00,5.000000000000000000e+00,5.000000000000000000e+00,5.000000000000000000e+00,5.000000000000000000e+00,5.000000000000000000e+00,5.000000000000000000e+00,5.000000000000000000e+00,5.000000000000000000e+00,4.846868038177490234e+00,4.657173633575439453e+00,4.481769084930419922e+00,4.319097518920898438e+00,4.167820930480957031e+00,4.026782989501953125e+00,3.894977807998657227e+00,3.771528005599975586e+00,3.655662775039672852e+00,3.546704530715942383e+00,3.444053173065185547e+00,3.347177028656005859e+00,3.255601406097412109e+00,3.168903350830078125e+00,3.086703062057495117e+00,3.008659601211547852e+00,2.934465169906616211e+00,2.863841772079467773e+00,2.796538114547729492e+00,2.732325315475463867e+00,2.670995235443115234e+00,2.612357616424560547e+00,2.556239604949951172e+00,2.502481698989868164e+00,2.450938463211059570e+00,2.401475429534912109e+00,2.353969573974609375e+00,2.308306455612182617e+00,2.264381647109985352e+00,2.222096920013427734e+00,2.181362867355346680e+00,2.142094850540161133e+00,2.104216098785400391e+00,2.067653179168701172e+00,2.032339572906494141e+00,1.998211979866027832e+00,1.965211391448974609e+00,1.933283329010009766e+00,1.902376055717468262e+00,1.872441411018371582e+00,1.843434095382690430e+00
5.000000000000000000e+00,5.000000000000000000e+00,5.000000000000000000e+00,5.000000000000000000e+00,5.000000000000000000e+00,5.000000000000000000e+00,5.000000000000000000e+00,5.000000000000000000e+00,5.000000000000000000e+00,5.000000000000000000e+00,5.000000000000000000e+00,5.000000000000000000e+00,5.000000000000000000e+00,5.000000000000000000e+00,5.000000000000000000e+00,5.000000000000000000e+00,5.000000000000000000e+00,5.000000000000000000e+00,5.000000000000000000e+00,5.000000000000000000e+00,5.000000000000000000e+00,5.000000000000000000e+00,5.000000000000000000e+00,5.000000000000000000e+00,5.000000000000000000e+00,5.000000000000000000e+00,5.000000000000000000e+00,5.000000000000000000e+00,5.000000000000000000e+00,5.000000000000000000e+00,5.000000000000000000e+00,5.000000000000000000e+00,5.000000000000000000e+00,5.000000000000000000e+00,5.000000000000000000e+00,5.000000000000000000e+00,5.000000000000000000e+00,5.000000000000000000e+00,5.000000000000000000e+00,4.847005367279052734e+00,4.657301425933837891e+00,4.481887340545654297e+00,4.319207191467285156e+00,4.167922973632812500e+00,4.026878356933593750e+00,3.895066976547241211e+00,3.771611452102661133e+00,3.655741214752197266e+00,3.546778440475463867e+00,3.444122791290283203e+00,3.347242355346679688e+00,3.255663633346557617e+00,3.168962001800537109e+00,3.086759090423583984e+00,3.008712530136108398e+00,2.934515714645385742e+00,2.863889932632446289e+00,2.796584129333496094e+00,2.732368946075439453e+00,2.671036958694458008e+00,2.612397670745849609e+00,2.556277990341186523e+00,2.502518415451049805e+00,2.450973749160766602e+00,2.401509284973144531e+00,2.354001998901367188e+00,2.308337688446044922e+00,2.264411449432373047e+00,2.222126007080078125e+00,2.181390523910522461e+00,2.142121791839599609e+00,2.104241847991943359e+00,2.067678451538085938e+00,2.032363891601562500e+00,1.998235344886779785e+00,1.965234279632568359e+00,1.933305382728576660e+00,1.902397155761718750e+00,1.872461915016174316e+00,1.843454241752624512e+00
5.000000000000000000e+00,5.000000000000000000e+00,5.000000000000000000e+00,5.000000000000000000e+00,5.000000000000000000e+00,5.000000000000000000e+00,5.000000000000000000e+00,5.000000000000000000e+00,5.000000000000000000e+00,5.000000000000000000e+00,5.000000000000000000e+00,5.000000000000000000e+00,5.000000000000000000e+00,5.000000000000000000e+00,5.000000000000000000e+00,5.000000000000000000e+00,5.000000000000000000e+00,5.000000000000000000e+00,5.000000000000000000e+00,5.000000000000000000e+00,5.000000000000000000e+00,5.000000000000000000e+00,5.000000000000000000e+00,5.000000000000000000e+00,5.000000000000000000e+00,5.000000000000000000e+00,5.000000000000000000e+00,5.000000000000000000e+00,5.000000000000000000e+00,5.000000000000000000e+00,5.000000000000000000e+00,5.000000000000000000e+00,5.000000000000000000e+00,5.000000000000000000e+00,5.000000000000000000e+00,5.000000000000000000e+00,5.000000000000000000e+00,5.000000000000000000e+00,5.000000000000000000e+00,4.847143650054931641e+00,4.657428741455078125e+00,4.482004642486572266e+00,4.319316387176513672e+00,4.168025016784667969e+00,4.026973247528076172e+00,3.895155906677246094e+00,3.771694421768188477e+00,3.655819654464721680e+00,3.546851873397827148e+00,3.444192409515380859e+00,3.347308158874511719e+00,3.255725860595703125e+00,3.169021129608154297e+00,3.086814880371093750e+00,3.008765697479248047e+00,2.934566259384155273e+00,2.863938093185424805e+00,2.796629905700683594e+00,2.732412815093994141e+00,2.671078681945800781e+00,2.612437725067138672e+00,2.556316137313842773e+00,2.502555131912231445e+00,2.451008796691894531e+00,2.401543140411376953e+00,2.354034423828125000e+00,2.308368921279907227e+00,2.264441728591918945e+00,2.222154855728149414e+00,2.181418418884277344e+00,2.142148733139038086e+00,2.104267835617065430e+00,2.067703485488891602e+00,2.032388210296630859e+00,1.998258709907531738e+00,1.965256810188293457e+00,1.933327198028564453e+00,1.902418494224548340e+00,1.872482419013977051e+00,1.843474030494689941e+00
5.000000000000000000e+00,5.000000000000000000e+00,5.000000000000000000e+00,5.000000000000000000e+00,5.000000000000000000e+00,5.000000000000000000e+00,5.000000000000000000e+00,5.000000000000000000e+00,5.000000000000000000e+00,5.000000000000000000e+00,5.000000000000000000e+00,5.000000000000000000e+00,5.000000000000000000e+00,5.000000000000000000e+00,5.000000000000000000e+00,5.000000000000000000e+00,5.000000000000000000e+00,5.000000000000000000e+00,5.000000000000000000e+00,5.000000000000000000e+00,5.000000000000000000e+00,5.000000000000000000e+00,5.000000000000000000e+00,5.000000000000000000e+00,5.000000000000000000e+00,5.000000000000000000e+00,5.000000000000000000e+00,5.000000000000000000e+00,5.000000000000000000e+00,5.000000000000000000e+00,5.000000000000000000e+00,5.000000000000000000e+00,5.000000000000000000e+00,5.000000000000000000e+00,5.000000000000000000e+00,5.000000000000000000e+00,5.000000000000000000e+00,5.000000000000000000e+00,5.000000000000000000e+00,4.847280979156494141e+00,4.657555580139160156e+00,4.482122898101806641e+00,4.319426059722900391e+00,4.168127059936523438e+00,4.027068138122558594e+00,3.895245075225830078e+00,3.771778106689453125e+00,3.655898094177246094e+00,3.546925783157348633e+00,3.444261789321899414e+00,3.347373962402343750e+00,3.255787849426269531e+00,3.169080018997192383e+00,3.086870670318603516e+00,3.008818864822387695e+00,2.934616565704345703e+00,2.863986253738403320e+00,2.796675682067871094e+00,2.732456684112548828e+00,2.671120643615722656e+00,2.612477779388427734e+00,2.556354522705078125e+00,2.502591848373413086e+00,2.451044082641601562e+00,2.401576995849609375e+00,2.354067087173461914e+00,2.308400154113769531e+00,2.264471769332885742e+00,2.222183704376220703e+00,2.181446313858032227e+00,2.142175674438476562e+00,2.104293823242187500e+00,2.067728519439697266e+00,2.032412290573120117e+00,1.998282194137573242e+00,1.965279579162597656e+00,1.933349013328552246e+00,1.902439713478088379e+00,1.872503042221069336e+00,1.843494057655334473e+00
5.000000000000000000e+00,5.000000000000000000e+00,5.000000000000000000e+00,5.000000000000000000e+00,5.000000000000000000e+00,5.000000000000000000e+00,5.000000000000000000e+00,5.000000000000000000e+00,5.000000000000000000e+00,5.000000000000000000e+00,5.000000000000000000e+00,5.000000000000000000e+00,5.000000000000000000e+00,5.000000000000000000e+00,5.000000000000000000e+00,5.000000000000000000e+00,5.000000000000000000e+00,5.000000000000000000e+00,5.000000000000000000e+00,5.000000000000000000e+00,5.000000000000000000e+00,5.000000000000000000e+00,5.000000000000000000e+00,5.000000000000000000e+00,5.000000000000000000e+00,5.000000000000000000e+00,5.000000000000000000e+00,5.000000000000000000e+00,5.000000000000000000e+00,5.000000000000000000e+00,5.000000000000000000e+00,5.000000000000000000e+00,5.000000000000000000e+00,5.000000000000000000e+00,5.000000000000000000e+00,5.000000000000000000e+00,5.000000000000000000e+00,5.000000000000000000e+00,5.000000000000000000e+00,4.847419261932373047e+00,4.657682895660400391e+00,4.482240200042724609e+00,4.319535255432128906e+00,4.168228626251220703e+00,4.027163505554199219e+00,3.895333766937255859e+00,3.771861553192138672e+00,3.655976057052612305e+00,3.546999692916870117e+00,3.444331407546997070e+00,3.347439765930175781e+00,3.255850076675415039e+00,3.169138908386230469e+00,3.086926460266113281e+00,3.008872032165527344e+00,2.934667110443115234e+00,2.864034414291381836e+00,2.796721696853637695e+00,2.732500314712524414e+00,2.671162366867065430e+00,2.612517595291137695e+00,2.556392908096313477e+00,2.502628564834594727e+00,2.451079368591308594e+00,2.401610612869262695e+00,2.354099512100219727e+00,2.308431386947631836e+00,2.264501810073852539e+00,2.222212791442871094e+00,2.181474447250366211e+00,2.142202615737915039e+00,2.104319810867309570e+00,2.067753553390502930e+00,2.032436609268188477e+00,1.998305559158325195e+00,1.965302109718322754e+00,1.933371067047119141e+00,1.902460813522338867e+00,1.872523546218872070e+00,1.843513965606689453e+00
5.000000000000000000e+00,5.000000000000000000e+00,5.000000000000000000e+00,5.000000000000000000e+00,5.000000000000000000e+00,5.000000000000000000e+00,5.000000000000000000e+00,5.000000000000000000e+00,5.000000000000000000e+00,5.000000000000000000e+00,5.000000000000000000e+00,5.000000000000000000e+00,5.000000000000000000e+00,5.000000000000000000e+00,5.000000000000000000e+00,5.000000000000000000e+00,5.000000000000000000e+00,5.000000000000000000e+00,5.000000000000000000e+00,5.000000000000000000e+00,5.000000000000000000e+00,5.000000000000000000e+00,5.000000000000000000e+00,5.000000000000000000e+00,5.000000000000000000e+00,5.000000000000000000e+00,5.000000000000000000e+00,5.000000000000000000e+00,5.000000000000000000e+00,5.000000000000000000e+00,5.000000000000000000e+00,5.000000000000000000e+00,5.000000000000000000e+00,5.000000000000000000e+00,5.000000000000000000e+00,5.000000000000000000e+00,5.000000000000000000e+00,5.000000000000000000e+00,5.000000000000000000e+00,4.847556591033935547e+00,4.657810211181640625e+00,4.482358455657958984e+00,4.319644927978515625e+00,4.168330669403076172e+00,4.027258396148681641e+00,3.895422697067260742e+00,3.771944999694824219e+00,3.656054496765136719e+00,3.547073602676391602e+00,3.444401025772094727e+00,3.347505331039428711e+00,3.255912303924560547e+00,3.169197559356689453e+00,3.086982488632202148e+00,3.008924961090087891e+00,2.934717655181884766e+00,2.864082336425781250e+00,2.796767473220825195e+00,2.732544183731079102e+00,2.671204328536987305e+00,2.612557888031005859e+00,2.556431293487548828e+00,2.502665281295776367e+00,2.451114654541015625e+00,2.401644468307495117e+00,2.354131937026977539e+00,2.308462619781494141e+00,2.264531850814819336e+00,2.222241640090942383e+00,2.181502103805541992e+00,2.142229557037353516e+00,2.104345798492431641e+00,2.067778587341308594e+00,2.032460689544677734e+00,1.998329162597656250e+00,1.965324759483337402e+00,1.933392882347106934e+00,1.902482151985168457e+00,1.872544288635253906e+00,1.843533754348754883e+00
5.000000000000000000e+00,5.000000000000000000e+00,5.000000000000000000e+00,5.000000000000000000e+00,5.000000000000000000e+00,5.000000000000000000e+00,5.000000000000000000e+00,5.000000000000000000e+00,5.000000000000000000e+00,5.000000000000000000e+00,5.000000000000000000e+00,5.000000000000000000e+00,5.000000000000000000e+00,5.000000000000000000e+00,5.000000000000000000e+00,5.000000000000000000e+00,5.000000000000000000e+00,5.000000000000000000e+00,5.000000000000000000e+00,5.000000000000000000e+00,5.000000000000000000e+00,5.000000000000000000e+00,5.000000000000000000e+00,5.000000000000000000e+00,5.000000000000000000e+00,5.000000000000000000e+00,5.000000000000000000e+00,5.000000000000000000e+00,5.000000000000000000e+00,5.000000000000000000e+00,5.000000000000000000e+00,5.000000000000000000e+00,5.000000000000000000e+00,5.000000000000000000e+00,5.000000000000000000e+00,5.000000000000000000e+00,5.000000000000000000e+00,5.000000000000000000e+00,5.000000000000000000e+00,4.847694396972656250e+00,4.657937526702880859e+00,4.482476234436035156e+00,4.319754123687744141e+00,4.168432235717773438e+00,4.027353286743164062e+00,3.895511865615844727e+00,3.772028207778930664e+00,3.656133174896240234e+00,3.547147035598754883e+00,3.444470643997192383e+00,3.347571134567260742e+00,3.255974531173706055e+00,3.169256687164306641e+00,3.087038516998291016e+00,3.008978128433227539e+00,2.934768199920654297e+00,2.864130496978759766e+00,2.796813249588012695e+00,2.732588052749633789e+00,2.671246051788330078e+00,2.612597942352294922e+00,2.556469440460205078e+00,2.502701997756958008e+00,2.451149702072143555e+00,2.401678323745727539e+00,2.354164361953735352e+00,2.308494091033935547e+00,2.264561891555786133e+00,2.222270727157592773e+00,2.181529998779296875e+00,2.142256498336791992e+00,2.104371786117553711e+00,2.067803621292114258e+00,2.032485008239746094e+00,1.998352408409118652e+00,1.965347528457641602e+00,1.933414697647094727e+00,1.902503371238708496e+00,1.872564792633056641e+00,1.843553900718688965e+00
5.000000000000000000e+00,5.000000000000000000e+00,5.000000000000000000e+00,5.000000000000000000e+00,5.000000000000000000e+00,5.000000000000000000e+00,5.000000000000000000e+00,5.000000000000000000e+00,5.000000000000000000e+00,5.000000000000000000e+00,5.000000000000000000e+00,5.000000000000000000e+00,5.000000000000000000e+00,5.000000000000000000e+00,5.000000000000000000e+00,5.000000000000000000e+00,5.000000000000000000e+00,5.000000000000000000e+00,5.000000000000000000e+00,5.000000000000000000e+00,5.000000000000000000e+00,5.000000000000000000e+00,5.000000000000000000e+00,5.000000000000000000e+00,5.000000000000000000e+00,5.000000000000000000e+00,4.924852371215820312e+00,5.000000000000000000e+00,5.000000000000000000e+00,5.000000000000000000e+00,5.000000000000000000e+00,5.000000000000000000e+00,5.000000000000000000e+00,5.000000000000000000e+00,5.000000000000000000e+00,5.000000000000000000e+00,5.000000000000000000e+00,5.000000000000000000e+00,5.000000000000000000e+00,4.847832202911376953e+00,4.658064365386962891e+00,4.482594013214111328e+00,4.319863796234130859e+00,4.168534278869628906e+00,4.027448654174804688e+00,3.895601034164428711e+00,3.772111654281616211e+00,3.656211614608764648e+00,3.547220945358276367e+00,3.444540023803710938e+00,3.347636699676513672e+00,3.256036520004272461e+00,3.169315576553344727e+00,3.087094068527221680e+00,3.009031295776367188e+00,2.934818506240844727e+00,2.864178657531738281e+00,2.796859264373779297e+00,2.732631921768188477e+00,2.671288013458251953e+00,2.612637996673583984e+00,2.556507825851440430e+00,2.502738714218139648e+00,2.451184988021850586e+00,2.401712179183959961e+00,2.354197025299072266e+00,2.308525085449218750e+00,2.264591932296752930e+00,2.222299575805664062e+00,2.181558132171630859e+00,2.142283201217651367e+00,2.104397773742675781e+00,2.067828655242919922e+00,2.032509326934814453e+00,1.998375773429870605e+00,1.965370059013366699e+00,1.933436751365661621e+00,1.902524709701538086e+00,1.872585177421569824e+00,1.843573689460754395e+00
5.000000000000000000e+00,5.000000000000000000e+00,5.000000000000000000e+00,5.000000000000000000e+00,5.000000000000000000e+00,5.000000000000000000e+00,5.000000000000000000e+00,5.000000000000000000e+00,5.000000000000000000e+00,5.000000000000000000e+00,5.000000000000000000e+00,5.000000000000000000e+00,5.000000000000000000e+00,5.000000000000000000e+00,5.000000000000000000e+00,5.000000000000000000e+00,5.000000000000000000e+00,5.000000000000000000e+00,5.000000000000000000e+00,5.000000000000000000e+00,5.000000000000000000e+00,5.000000000000000000e+00,5.000000000000000000e+00,5.000000000000000000e+00,5.000000000000000000e+00,4.973063945770263672e+00,4.916457653045654297e+00,5.000000000000000000e+00,5.000000000000000000e+00,5.000000000000000000e+00,5.000000000000000000e+00,5.000000000000000000e+00,5.000000000000000000e+00,5.000000000000000000e+00,5.000000000000000000e+00,5.000000000000000000e+00,5.000000000000000000e+00,5.000000000000000000e+00,5.000000000000000000e+00,4.847970008850097656e+00,4.658191680908203125e+00,4.482711791992187500e+00,4.319972991943359375e+00,4.168636322021484375e+00,4.027543544769287109e+00,3.895689725875854492e+00,3.772195339202880859e+00,3.656289577484130859e+00,3.547294855117797852e+00,3.444609642028808594e+00,3.347702503204345703e+00,3.256098747253417969e+00,3.169374465942382812e+00,3.087150096893310547e+00,3.009084463119506836e+00,2.934869289398193359e+00,2.864226818084716797e+00,2.796905040740966797e+00,2.732675552368164062e+00,2.671329736709594727e+00,2.612677812576293945e+00,2.556546211242675781e+00,2.502775430679321289e+00,2.451220273971557617e+00,2.401745796203613281e+00,2.354229450225830078e+00,2.308556556701660156e+00,2.264622211456298828e+00,2.222328662872314453e+00,2.181586027145385742e+00,2.142310142517089844e+00,2.104423761367797852e+00,2.067853927612304688e+00,2.032533407211303711e+00,1.998399376869201660e+00,1.965392589569091797e+00,1.933458685874938965e+00,1.902545809745788574e+00,1.872605919837951660e+00,1.843593597412109375e+00
5.000000000000000000e+00,5.000000000000000000e+00,5.000000000000000000e+00,5.000000000000000000e+00,5.000000000000000000e+00,5.000000000000000000e+00,5.000000000000000000e+00,5.000000000000000000e+00,5.000000000000000000e+00,5.000000000000000000e+00,5.000000000000000000e+00,5.000000000000000000e+00,5.000000000000000000e+00,5.000000000000000000e+00,5.000000000000000000e+00,5.000000000000000000e+00,5.000000000000000000e+00,5.000000000000000000e+00,5.000000000000000000e+00,5.000000000000000000e+00,5.000000000000000000e+00,5.000000000000000000e+00,5.000000000000000000e+00,5.000000000000000000e+00,5.000000000000000000e+00,5.000000000000000000e+00,4.937446117401123047e+00,5.000000000000000000e+00,5.000000000000000000e+00,5.000000000000000000e+00,5.000000000000000000e+00,5.000000000000000000e+00,5.000000000000000000e+00,5.000000000000000000e+00,5.000000000000000000e+00,5.000000000000000000e+00,5.000000000000000000e+00,5.000000000000000000e+00,5.000000000000000000e+00,4.848107814788818359e+00,4.658318996429443359e+00,4.482829570770263672e+00,4.320082664489746094e+00,4.168738365173339844e+00,4.027638912200927734e+00,3.895778656005859375e+00,3.772278785705566406e+00,3.656368255615234375e+00,3.547368764877319336e+00,3.444679260253906250e+00,3.347768068313598633e+00,3.256160974502563477e+00,3.169433355331420898e+00,3.087206125259399414e+00,3.009137392044067383e+00,2.934919834136962891e+00,2.864274740219116211e+00,2.796951055526733398e+00,2.732719182968139648e+00,2.671371698379516602e+00,2.612717866897583008e+00,2.556584596633911133e+00,2.502812147140502930e+00,2.451255559921264648e+00,2.401779651641845703e+00,2.354261875152587891e+00,2.308587789535522461e+00,2.264652013778686523e+00,2.222357511520385742e+00,2.181613683700561523e+00,2.142337083816528320e+00,2.104449510574340820e+00,2.067878961563110352e+00,2.032557725906372070e+00,1.998422622680664062e+00,1.965415477752685547e+00,1.933480739593505859e+00,1.902566909790039062e+00,1.872626423835754395e+00,1.843613624572753906e+00
5.000000000000000000e+00,5.000000000000000000e+00,5.000000000000000000e+00,5.000000000000000000e+00,5.000000000000000000e+00,5.000000000000000000e+00,5.000000000000000000e+00,5.000000000000000000e+00,5.000000000000000000e+00,5.000000000000000000e+00,5.000000000000000000e+00,5.000000000000000000e+00,5.000000000000000000e+00,5.000000000000000000e+00,5.000000000000000000e+00,5.000000000000000000e+00,5.000000000000000000e+00,5.000000000000000000e+00,5.000000000000000000e+00,5.000000000000000000e+00,5.000000000000000000e+00,5.000000000000000000e+00,5.000000000000000000e+00,4.886532306671142578e+00,4.896549224853515625e+00,4.916123867034912109e+00,4.970219612121582031e+00,5.000000000000000000e+00,5.000000000000000000e+00,5.000000000000000000e+00,5.000000000000000000e+00,5.000000000000000000e+00,5.000000000000000000e+00,5.000000000000000000e+00,5.000000000000000000e+00,5.000000000000000000e+00,5.000000000000000000e+00,5.000000000000000000e+00,5.000000000000000000e+00,4.848245620727539062e+00,4.658446311950683594e+00,4.482947349548339844e+00,4.320191860198974609e+00,4.168839931488037109e+00,4.027733802795410156e+00,3.895867824554443359e+00,3.772361993789672852e+00,3.656446695327758789e+00,3.547442197799682617e+00,3.444748878479003906e+00,3.347833871841430664e+00,3.256223201751708984e+00,3.169492244720458984e+00,3.087261915206909180e+00,3.009190559387207031e+00,2.934970378875732422e+00,2.864322900772094727e+00,2.796996831893920898e+00,2.732763051986694336e+00,2.671413421630859375e+00,2.612757921218872070e+00,2.556622743606567383e+00,2.502848863601684570e+00,2.451290607452392578e+00,2.401813745498657227e+00,2.354294538497924805e+00,2.308619022369384766e+00,2.264682292938232422e+00,2.222386598587036133e+00,2.181641817092895508e+00,2.142364025115966797e+00,2.104475736618041992e+00,2.067903995513916016e+00,2.032581806182861328e+00,1.998445987701416016e+00,1.965438008308410645e+00,1.933502554893493652e+00,1.902588367462158203e+00,1.872646927833557129e+00,1.843633413314819336e+00
5.000000000000000000e+00,5.000000000000000000e+00,5.000000000000000000e+00,5.000000000000000000e+00,5.000000000000000000e+00,5.000000000000000000e+00,5.000000000000000000e+00,5.000000000000000000e+00,5.000000000000000000e+00,5.000000000000000000e+00,5.000000000000000000e+00,5.000000000000000000e+00,5.000000000000000000e+00,5.000000000000000000e+00,5.000000000000000000e+00,5.000000000000000000e+00,5.000000000000000000e+00,5.000000000000000000e+00,5.000000000000000000e+00,5.000000000000000000e+00,5.000000000000000000e+00,5.000000000000000000e+00,5.000000000000000000e+00,4.879706859588623047e+00,4.885357856750488281e+00,4.869186401367187500e+00,4.892543315887451172e+00,4.943926811218261719e+00,5.000000000000000000e+00,5.000000000000000000e+00,5.000000000000000000e+00,5.000000000000000000e+00,5.000000000000000000e+00,5.000000000000000000e+00,5.000000000000000000e+00,5.000000000000000000e+00,5.000000000000000000e+00,5.000000000000000000e+00,5.000000000000000000e+00,4.848383426666259766e+00,4.658573150634765625e+00,4.483065128326416016e+00,4.320301532745361328e+00,4.168941974639892578e+00,4.027829170227050781e+00,3.895956993103027344e+00,3.772445440292358398e+00,3.656525135040283203e+00,3.547516107559204102e+00,3.444818258285522461e+00,3.347899675369262695e+00,3.256285190582275391e+00,3.169551134109497070e+00,3.087317705154418945e+00,3.009243726730346680e+00,2.935020685195922852e+00,2.864371061325073242e+00,2.797042608261108398e+00,2.732806921005249023e+00,2.671455383300781250e+00,2.612797975540161133e+00,2.556661128997802734e+00,2.502885818481445312e+00,2.451325893402099609e+00,2.401847600936889648e+00,2.354326963424682617e+00,2.308650255203247070e+00,2.264712333679199219e+00,2.222415447235107422e+00,2.181669712066650391e+00,2.142390966415405273e+00,2.104501724243164062e+00,2.067929029464721680e+00,2.032606124877929688e+00,1.998469591140747070e+00,1.965460777282714844e+00,1.933524370193481445e+00,1.902609467506408691e+00,1.872667551040649414e+00,1.843653559684753418e+00
5.000000000000000000e+00,5.000000000000000000e+00,5.000000000000000000e+00,5.000000000000000000e+00,5.000000000000000000e+00,5.000000000000000000e+00,5.000000000000000000e+00,5.000000000000000000e+00,5.000000000000000000e+00,5.000000000000000000e+00,5.000000000000000000e+00,5.000000000000000000e+00,5.000000000000000000e+00,5.000000000000000000e+00,5.000000000000000000e+00,5.000000000000000000e+00,5.000000000000000000e+00,5.000000000000000000e+00,5.000000000000000000e+00,5.000000000000000000e+00,5.000000000000000000e+00,5.000000000000000000e+00,5.000000000000000000e+00,4.924826622009277344e+00,4.897859573364257812e+00,4.883515834808349609e+00,4.889976501464843750e+00,4.950644016265869141e+00,5.000000000000000000e+00,5.000000000000000000e+00,5.000000000000000000e+00,5.000000000000000000e+00,5.000000000000000000e+00,5.000000000000000000e+00,5.000000000000000000e+00,5.000000000000000000e+00,5.000000000000000000e+00,5.000000000000000000e+00,5.000000000000000000e+00,4.848521709442138672e+00,4.658700942993164062e+00,4.483182907104492188e+00,4.320410728454589844e+00,4.169043540954589844e+00,4.027924060821533203e+00,3.896045684814453125e+00,3.772529125213623047e+00,3.656603336334228516e+00,3.547590017318725586e+00,3.444887876510620117e+00,3.347965478897094727e+00,3.256347417831420898e+00,3.169610261917114258e+00,3.087373733520507812e+00,3.009296655654907227e+00,2.935071229934692383e+00,2.864419221878051758e+00,2.797088623046875000e+00,2.732850551605224609e+00,2.671497106552124023e+00,2.612838029861450195e+00,2.556699514389038086e+00,2.502922296524047852e+00,2.451361179351806641e+00,2.401881217956542969e+00,2.354359626770019531e+00,2.308681488037109375e+00,2.264742374420166016e+00,2.222444534301757812e+00,2.181697607040405273e+00,2.142417907714843750e+00,2.104527711868286133e+00,2.067954063415527344e+00,2.032630205154418945e+00,1.998492836952209473e+00,1.965483307838439941e+00,1.933546423912048340e+00,1.902630567550659180e+00,1.872688055038452148e+00,1.843673348426818848e+00
5.000000000000000000e+00,5.000000000000000000e+00,5.000000000000000000e+00,5.000000000000000000e+00,5.000000000000000000e+00,5.000000000000000000e+00,5.000000000000000000e+00,5.000000000000000000e+00,5.000000000000000000e+00,5.000000000000000000e+00,5.000000000000000000e+00,5.000000000000000000e+00,5.000000000000000000e+00,5.000000000000000000e+00,5.000000000000000000e+00,5.000000000000000000e+00,5.000000000000000000e+00,5.000000000000000000e+00,5.000000000000000000e+00,5.000000000000000000e+00,5.000000000000000000e+00,5.000000000000000000e+00,5.000000000000000000e+00,5.000000000000000000e+00,4.893716335296630859e+00,4.881795883178710938e+00,4.889591693878173828e+00,4.942093372344970703e+00,5.000000000000000000e+00,5.000000000000000000e+00,5.000000000000000000e+00,5.000000000000000000e+00,5.000000000000000000e+00,5.000000000000000000e+00,5.000000000000000000e+00,5.000000000000000000e+00,5.000000000000000000e+00,5.000000000000000000e+00,5.000000000000000000e+00,4.848659038543701172e+00,4.658827781677246094e+00,4.483301162719726562e+00,4.320520401000976562e+00,4.169145584106445312e+00,4.028019428253173828e+00,3.896134853363037109e+00,3.772612571716308594e+00,3.656681776046752930e+00,3.547663927078247070e+00,3.444957733154296875e+00,3.348031044006347656e+00,3.256409645080566406e+00,3.169668912887573242e+00,3.087429523468017578e+00,3.009349584579467773e+00,2.935121774673461914e+00,2.864467144012451172e+00,2.797134637832641602e+00,2.732894420623779297e+00,2.671539068222045898e+00,2.612878084182739258e+00,2.556737899780273438e+00,2.502959012985229492e+00,2.451396465301513672e+00,2.401915073394775391e+00,2.354391813278198242e+00,2.308712720870971680e+00,2.264772415161132812e+00,2.222473382949829102e+00,2.181725502014160156e+00,2.142444849014282227e+00,2.104553461074829102e+00,2.067979097366333008e+00,2.032654523849487305e+00,1.998516440391540527e+00,1.965505957603454590e+00,1.933568239212036133e+00,1.902652025222778320e+00,1.872708797454833984e+00,1.843693256378173828e+00
5.000000000000000000e+00,5.000000000000000000e+00,5.000000000000000000e+00,5.000000000000000000e+00,5.000000000000000000e+00,5.000000000000000000e+00,5.000000000000000000e+00,5.000000000000000000e+00,5.000000000000000000e+00,5.000000000000000000e+00,5.000000000000000000e+00,5.000000000000000000e+00,5.000000000000000000e+00,5.000000000000000000e+00,5.000000000000000000e+00,5.000000000000000000e+00,5.000000000000000000e+00,5.000000000000000000e+00,5.000000000000000000e+00,5.000000000000000000e+00,5.000000000000000000e+00,5.000000000000000000e+00,5.000000000000000000e+00,5.000000000000000000e+00,4.911371707916259766e+00,4.865567207336425781e+00,4.881136894226074219e+00,4.921065807342529297e+00,5.000000000000000000e+00,5.000000000000000000e+00,5.000000000000000000e+00,5.000000000000000000e+00,5.000000000000000000e+00,5.000000000000000000e+00,5.000000000000000000e+00,5.000000000000000000e+00,5.000000000000000000e+00,5.000000000000000000e+00,5.000000000000000000e+00,4.848797321319580078e+00,4.658955097198486328e+00,4.483418941497802734e+00,4.320629596710205078e+00,4.169247627258300781e+00,4.028114318847656250e+00,3.896223783493041992e+00,3.772695779800415039e+00,3.656760215759277344e+00,3.547737360000610352e+00,3.445027351379394531e+00,3.348096847534179688e+00,3.256471872329711914e+00,3.169727802276611328e+00,3.087485551834106445e+00,3.009402751922607422e+00,2.935172319412231445e+00,2.864515304565429688e+00,2.797180175781250000e+00,2.732938289642333984e+00,2.671580791473388672e+00,2.612918138504028320e+00,2.556776046752929688e+00,2.502995967864990234e+00,2.451431512832641602e+00,2.401948928833007812e+00,2.354424476623535156e+00,2.308743953704833984e+00,2.264802455902099609e+00,2.222502470016479492e+00,2.181753396987915039e+00,2.142471790313720703e+00,2.104579448699951172e+00,2.068004369735717773e+00,2.032678842544555664e+00,1.998539805412292480e+00,1.965528726577758789e+00,1.933590054512023926e+00,1.902673125267028809e+00,1.872729301452636719e+00,1.843713283538818359e+00
5.000000000000000000e+00,5.000000000000000000e+00,5.000000000000000000e+00,5.000000000000000000e+00,5.000000000000000000e+00,5.000000000000000000e+00,5.000000000000000000e+00,5.000000000000000000e+00,5.000000000000000000e+00,5.000000000000000000e+00,5.000000000000000000e+00,5.000000000000000000e+00,5.000000000000000000e+00,5.000000000000000000e+00,5.000000000000000000e+00,5.000000000000000000e+00,5.000000000000000000e+00,5.000000000000000000e+00,5.000000000000000000e+00,5.000000000000000000e+00,5.000000000000000000e+00,5.000000000000000000e+00,5.000000000000000000e+00,5.000000000000000000e+00,4.851574897766113281e+00,4.879273891448974609e+00,4.893093585968017578e+00,4.938957691192626953e+00,5.000000000000000000e+00,5.000000000000000000e+00,5.000000000000000000e+00,5.000000000000000000e+00,5.000000000000000000e+00,5.000000000000000000e+00,5.000000000000000000e+00,5.000000000000000000e+00,5.000000000000000000e+00,5.000000000000000000e+00,5.000000000000000000e+00,4.848935127258300781e+00,4.659082412719726562e+00,4.483536720275878906e+00,4.320738792419433594e+00,4.169349670410156250e+00,4.028209686279296875e+00,3.896312952041625977e+00,3.772779226303100586e+00,3.656838655471801758e+00,3.547811269760131836e+00,3.445096731185913086e+00,3.348162651062011719e+00,3.256533861160278320e+00,3.169786930084228516e+00,3.087541341781616211e+00,3.009455919265747070e+00,2.935222625732421875e+00,2.864563465118408203e+00,2.797226190567016602e+00,2.732982158660888672e+00,2.671622753143310547e+00,2.612958192825317383e+00,2.556814432144165039e+00,2.503032684326171875e+00,2.451466798782348633e+00,2.401982784271240234e+00,2.354456901550292969e+00,2.308775186538696289e+00,2.264832735061645508e+00,2.222531318664550781e+00,2.181781291961669922e+00,2.142498493194580078e+00,2.104605436325073242e+00,2.068029403686523438e+00,2.032703161239624023e+00,1.998563051223754883e+00,1.965551257133483887e+00,1.933612227439880371e+00,1.902694463729858398e+00,1.872749686241149902e+00,1.843733191490173340e+00
5.000000000000000000e+00,5.000000000000000000e+00,5.000000000000000000e+00,5.000000000000000000e+00,5.000000000000000000e+00,5.000000000000000000e+00,5.000000000000000000e+00,5.000000000000000000e+00,5.000000000000000000e+00,5.000000000000000000e+00,5.000000000000000000e+00,5.000000000000000000e+00,5.000000000000000000e+00,5.000000000000000000e+00,5.000000000000000000e+00,5.000000000000000000e+00,5.000000000000000000e+00,5.000000000000000000e+00,5.000000000000000000e+00,5.000000000000000000e+00,5.000000000000000000e+00,5.000000000000000000e+00,5.000000000000000000e+00,5.000000000000000000e+00,4.806074142456054688e+00,4.868619441986083984e+00,4.965595245361328125e+00,4.890575408935546875e+00,5.000000000000000000e+00,5.000000000000000000e+00,5.000000000000000000e+00,5.000000000000000000e+00,5.000000000000000000e+00,5.000000000000000000e+00,5.000000000000000000e+00,5.000000000000000000e+00,5.000000000000000000e+00,5.000000000000000000e+00,5.000000000000000000e+00,4.849072933197021484e+00,4.659209728240966797e+00,4.483654499053955078e+00,4.320848464965820312e+00,4.169451236724853516e+00,4.028304576873779297e+00,3.896401643753051758e+00,3.772862911224365234e+00,3.656916856765747070e+00,3.547885179519653320e+00,3.445166349411010742e+00,3.348228454589843750e+00,3.256596088409423828e+00,3.169845819473266602e+00,3.087597131729125977e+00,3.009509086608886719e+00,2.935273170471191406e+00,2.864611864089965820e+00,2.797272205352783203e+00,2.733025789260864258e+00,2.671664714813232422e+00,2.612998008728027344e+00,2.556852817535400391e+00,2.503069162368774414e+00,2.451502084732055664e+00,2.402016401290893555e+00,2.354489564895629883e+00,2.308806419372558594e+00,2.264862775802612305e+00,2.222560167312622070e+00,2.181809186935424805e+00,2.142525434494018555e+00,2.104631423950195312e+00,2.068054437637329102e+00,2.032727241516113281e+00,1.998586654663085938e+00,1.965573787689208984e+00,1.933634042739868164e+00,1.902715682983398438e+00,1.872770428657531738e+00,1.843752980232238770e+00
5.000000000000000000e+00,5.000000000000000000e+00,5.000000000000000000e+00,5.000000000000000000e+00,5.000000000000000000e+00,5.000000000000000000e+00,5.000000000000000000e+00,5.000000000000000000e+00,5.000000000000000000e+00,5.000000000000000000e+00,5.000000000000000000e+00,5.000000000000000000e+00,5.000000000000000000e+00,5.000000000000000000e+00,5.000000000000000000e+00,5.000000000000000000e+00,5.000000000000000000e+00,5.000000000000000000e+00,5.000000000000000000e+00,5.000000000000000000e+00,5.000000000000000000e+00,5.000000000000000000e+00,5.000000000000000000e+00,5.000000000000000000e+00,4.762124061584472656e+00,4.858643054962158203e+00,5.000000000000000000e+00,4.865817546844482422e+00,4.934311866760253906e+00,5.000000000000000000e+00,5.000000000000000000e+00,5.000000000000000000e+00,5.000000000000000000e+00,5.000000000000000000e+00,5.000000000000000000e+00,5.000000000000000000e+00,5.000000000000000000e+00,5.000000000000000000e+00,5.000000000000000000e+00,4.849210739135742188e+00,4.659337043762207031e+00,4.483772277832031250e+00,4.320957660675048828e+00,4.169553756713867188e+00,4.028399944305419922e+00,3.896490812301635742e+00,3.772946357727050781e+00,3.656995296478271484e+00,3.547959089279174805e+00,3.445235967636108398e+00,3.348293781280517578e+00,3.256658315658569336e+00,3.169904470443725586e+00,3.087653160095214844e+00,3.009562015533447266e+00,2.935323953628540039e+00,2.864659786224365234e+00,2.797317981719970703e+00,2.733069658279418945e+00,2.671706438064575195e+00,2.613038063049316406e+00,2.556891202926635742e+00,2.503106117248535156e+00,2.451537370681762695e+00,2.402050495147705078e+00,2.354521989822387695e+00,2.308837652206420898e+00,2.264892816543579102e+00,2.222589254379272461e+00,2.181837081909179688e+00,2.142552375793457031e+00,2.104657411575317383e+00,2.068079471588134766e+00,2.032751560211181641e+00,1.998610019683837891e+00,1.965596675872802734e+00,1.933656096458435059e+00,1.902736783027648926e+00,1.872790932655334473e+00,1.843773126602172852e+00
5.000000000000000000e+00,5.000000000000000000e+00,5.000000000000000000e+00,5.000000000000000000e+00,5.000000000000000000e+00,5.000000000000000000e+00,5.000000000000000000e+00,5.000000000000000000e+00,5.000000000000000000e+00,5.000000000000000000e+00,5.000000000000000000e+00,5.000000000000000000e+00,5.000000000000000000e+00,5.000000000000000000e+00,5.000000000000000000e+00,5.000000000000000000e+00,5.000000000000000000e+00,5.000000000000000000e+00,5.000000000000000000e+00,5.000000000000000000e+00,5.000000000000000000e+00,5.000000000000000000e+00,5.000000000000000000e+00,5.000000000000000000e+00,5.000000000000000000e+00,4.863468647003173828e+00,5.000000000000000000e+00,4.842571258544921875e+00,5.000000000000000000e+00,5.000000000000000000e+00,5.000000000000000000e+00,5.000000000000000000e+00,5.000000000000000000e+00,5.000000000000000000e+00,5.000000000000000000e+00,5.000000000000000000e+00,5.000000000000000000e+00,5.000000000000000000e+00,5.000000000000000000e+00,4.849348545074462891e+00,4.659464359283447266e+00,4.483890533447265625e+00,4.321067333221435547e+00,4.169655323028564453e+00,4.028494834899902344e+00,3.896579980850219727e+00,3.773029565811157227e+00,3.657073974609375000e+00,3.548032522201538086e+00,3.445305585861206055e+00,3.348359823226928711e+00,3.256720781326293945e+00,3.169963598251342773e+00,3.087709188461303711e+00,3.009615182876586914e+00,2.935374498367309570e+00,2.864707946777343750e+00,2.797363996505737305e+00,2.733113527297973633e+00,2.671748161315917969e+00,2.613078117370605469e+00,2.556929349899291992e+00,2.503142833709716797e+00,2.451572418212890625e+00,2.402084350585937500e+00,2.354554414749145508e+00,2.308869123458862305e+00,2.264922857284545898e+00,2.222618341445922852e+00,2.181864976882934570e+00,2.142579317092895508e+00,2.104683399200439453e+00,2.068104743957519531e+00,2.032775640487670898e+00,1.998633384704589844e+00,1.965619206428527832e+00,1.933677911758422852e+00,1.902758121490478516e+00,1.872811436653137207e+00,1.843792915344238281e+00
5.000000000000000000e+00,5.000000000000000000e+00,5.000000000000000000e+00,5.000000000000000000e+00,5.000000000000000000e+00,5.000000000000000000e+00,5.000000000000000000e+00,5.000000000000000000e+00,5.000000000000000000e+00,5.000000000000000000e+00,5.000000000000000000e+00,5.000000000000000000e+00,5.000000000000000000e+00,5.000000000000000000e+00,5.000000000000000000e+00,5.000000000000000000e+00,5.000000000000000000e+00,5.000000000000000000e+00,5.000000000000000000e+00,5.000000000000000000e+00,5.000000000000000000e+00,5.000000000000000000e+00,5.000000000000000000e+00,5.000000000000000000e+00,5.000000000000000000e+00,4.866543292999267578e+00,5.000000000000000000e+00,4.814637184143066406e+00,5.000000000000000000e+00,5.000000000000000000e+00,5.000000000000000000e+00,5.000000000000000000e+00,5.000000000000000000e+00,5.000000000000000000e+00,5.000000000000000000e+00,5.000000000000000000e+00,5.000000000000000000e+00,5.000000000000000000e+00,5.000000000000000000e+00,4.849486351013183594e+00,4.659591674804687500e+00,4.484008312225341797e+00,4.321177005767822266e+00,4.169757366180419922e+00,4.028590202331542969e+00,3.896669149398803711e+00,3.773113250732421875e+00,3.657152414321899414e+00,3.548106431961059570e+00,3.445375442504882812e+00,3.348425626754760742e+00,3.256782531738281250e+00,3.170022487640380859e+00,3.087764739990234375e+00,3.009668350219726562e+00,2.935424804687500000e+00,2.864756107330322266e+00,2.797409772872924805e+00,2.733157396316528320e+00,2.671790122985839844e+00,2.613118410110473633e+00,2.556967735290527344e+00,2.503179550170898438e+00,2.451607704162597656e+00,2.402118206024169922e+00,2.354587078094482422e+00,2.308900117874145508e+00,2.264952898025512695e+00,2.222647190093994141e+00,2.181892871856689453e+00,2.142606258392333984e+00,2.104709386825561523e+00,2.068129539489746094e+00,2.032799959182739258e+00,1.998656868934631348e+00,1.965641975402832031e+00,1.933699727058410645e+00,1.902779340744018555e+00,1.872832059860229492e+00,1.843812942504882812e+00
5.000000000000000000e+00,5.000000000000000000e+00,5.000000000000000000e+00,5.000000000000000000e+00,5.000000000000000000e+00,5.000000000000000000e+00,5.000000000000000000e+00,5.000000000000000000e+00,5.000000000000000000e+00,5.000000000000000000e+00,5.000000000000000000e+00,5.000000000000000000e+00,5.000000000000000000e+00,5.000000000000000000e+00,5.000000000000000000e+00,5.000000000000000000e+00,5.000000000000000000e+00,5.000000000000000000e+00,5.000000000000000000e+00,5.000000000000000000e+00,5.000000000000000000e+00,5.000000000000000000e+00,5.000000000000000000e+00,5.000000000000000000e+00,5.000000000000000000e+00,4.867201328277587891e+00,5.000000000000000000e+00,4.809942245483398438e+00,5.000000000000000000e+00,5.000000000000000000e+00,5.000000000000000000e+00,5.000000000000000000e+00,5.000000000000000000e+00,5.000000000000000000e+00,5.000000000000000000e+00,5.000000000000000000e+00,5.000000000000000000e+00,5.000000000000000000e+00,5.000000000000000000e+00,4.849623680114746094e+00,4.659718990325927734e+00,4.484126567840576172e+00,4.321286201477050781e+00,4.169859409332275391e+00,4.028685569763183594e+00,3.896757841110229492e+00,3.773196697235107422e+00,3.657230615615844727e+00,3.548180341720581055e+00,3.445444822311401367e+00,3.348491430282592773e+00,3.256844997406005859e+00,3.170081615447998047e+00,3.087820768356323242e+00,3.009721517562866211e+00,2.935475349426269531e+00,2.864804267883300781e+00,2.797455549240112305e+00,2.733201026916503906e+00,2.671832084655761719e+00,2.613158226013183594e+00,2.557006120681762695e+00,2.503216266632080078e+00,2.451642990112304688e+00,2.402151823043823242e+00,2.354619503021240234e+00,2.308931589126586914e+00,2.264983177185058594e+00,2.222676038742065430e+00,2.181921005249023438e+00,2.142633199691772461e+00,2.104735374450683594e+00,2.068154811859130859e+00,2.032824277877807617e+00,1.998680233955383301e+00,1.965664625167846680e+00,1.933721780776977539e+00,1.902800440788269043e+00,1.872852563858032227e+00,1.843832850456237793e+00
5.000000000000000000e+00,5.000000000000000000e+00,5.000000000000000000e+00,5.000000000000000000e+00,5.000000000000000000e+00,5.000000000000000000e+00,5.000000000000000000e+00,5.000000000000000000e+00,5.000000000000000000e+00,5.000000000000000000e+00,5.000000000000000000e+00,5.000000000000000000e+00,5.000000000000000000e+00,5.000000000000000000e+00,5.000000000000000000e+00,5.000000000000000000e+00,5.000000000000000000e+00,5.000000000000000000e+00,5.000000000000000000e+00,5.000000000000000000e+00,5.000000000000000000e+00,5.000000000000000000e+00,5.000000000000000000e+00,5.000000000000000000e+00,5.000000000000000000e+00,4.907402515411376953e+00,5.000000000000000000e+00,4.847153663635253906e+00,5.000000000000000000e+00,5.000000000000000000e+00,5.000000000000000000e+00,5.000000000000000000e+00,5.000000000000000000e+00,5.000000000000000000e+00,5.000000000000000000e+00,5.000000000000000000e+00,5.000000000000000000e+00,5.000000000000000000e+00,5.000000000000000000e+00,4.849761009216308594e+00,4.659846305847167969e+00,4.484243869781494141e+00,4.321395874023437500e+00,4.169961452484130859e+00,4.028780460357666016e+00,3.896847009658813477e+00,3.773280382156372070e+00,3.657309055328369141e+00,3.548254251480102539e+00,3.445514440536499023e+00,3.348556756973266602e+00,3.256907224655151367e+00,3.170140266418457031e+00,3.087876796722412109e+00,3.009774446487426758e+00,2.935525894165039062e+00,2.864852190017700195e+00,2.797501564025878906e+00,2.733244895935058594e+00,2.671874046325683594e+00,2.613198280334472656e+00,2.557044506072998047e+00,2.503252983093261719e+00,2.451678276062011719e+00,2.402185678482055664e+00,2.354652166366577148e+00,2.308962821960449219e+00,2.265012979507446289e+00,2.222705125808715820e+00,2.181948661804199219e+00,2.142660140991210938e+00,2.104761362075805664e+00,2.068179845809936523e+00,2.032848358154296875e+00,1.998703837394714355e+00,1.965687155723571777e+00,1.933743715286254883e+00,1.902821779251098633e+00,1.872873306274414062e+00,1.843852639198303223e+00
5.000000000000000000e+00,5.000000000000000000e+00,5.000000000000000000e+00,5.000000000000000000e+00,5.000000000000000000e+00,5.000000000000000000e+00,5.000000000000000000e+00,5.000000000000000000e+00,5.000000000000000000e+00,5.000000000000000000e+00,5.000000000000000000e+00,5.000000000000000000e+00,5.000000000000000000e+00,5.000000000000000000e+00,5.000000000000000000e+00,5.000000000000000000e+00,5.000000000000000000e+00,5.000000000000000000e+00,5.000000000000000000e+00,5.000000000000000000e+00,5.000000000000000000e+00,5.000000000000000000e+00,5.000000000000000000e+00,5.000000000000000000e+00,5.000000000000000000e+00,5.000000000000000000e+00,5.000000000000000000e+00,4.856976032257080078e+00,5.000000000000000000e+00,5.000000000000000000e+00,5.000000000000000000e+00,5.000000000000000000e+00,5.000000000000000000e+00,5.000000000000000000e+00,5.000000000000000000e+00,5.000000000000000000e+00,5.000000000000000000e+00,5.000000000000000000e+00,5.000000000000000000e+00,4.849898815155029297e+00,4.659972667694091797e+00,4.484362125396728516e+00,4.321505069732666016e+00,4.170063018798828125e+00,4.028875827789306641e+00,3.896936178207397461e+00,3.773363590240478516e+00,3.657387733459472656e+00,3.548327922821044922e+00,3.445584058761596680e+00,3.348622798919677734e+00,3.256969451904296875e+00,3.170199155807495117e+00,3.087932825088500977e+00,3.009827852249145508e+00,2.935576677322387695e+00,2.864900350570678711e+00,2.797547578811645508e+00,2.733288764953613281e+00,2.671915769577026367e+00,2.613238334655761719e+00,2.557082653045654297e+00,2.503289699554443359e+00,2.451713562011718750e+00,2.402219533920288086e+00,2.354684591293334961e+00,2.308994054794311523e+00,2.265043258666992188e+00,2.222734212875366211e+00,2.181976795196533203e+00,2.142687082290649414e+00,2.104787349700927734e+00,2.068204879760742188e+00,2.032872676849365234e+00,1.998727202415466309e+00,1.965709924697875977e+00,1.933765530586242676e+00,1.902842998504638672e+00,1.872893810272216797e+00,1.843872785568237305e+00
5.000000000000000000e+00,5.000000000000000000e+00,5.000000000000000000e+00,5.000000000000000000e+00,5.000000000000000000e+00,5.000000000000000000e+00,5.000000000000000000e+00,5.000000000000000000e+00,5.000000000000000000e+00,5.000000000000000000e+00,5.000000000000000000e+00,5.000000000000000000e+00,5.000000000000000000e+00,5.000000000000000000e+00,5.000000000000000000e+00,5.000000000000000000e+00,5.000000000000000000e+00,5.000000000000000000e+00,5.000000000000000000e+00,5.000000000000000000e+00,5.000000000000000000e+00,5.000000000000000000e+00,5.000000000000000000e+00,5.000000000000000000e+00,5.000000000000000000e+00,5.000000000000000000e+00,5.000000000000000000e+00,4.859292984008789062e+00,5.000000000000000000e+00,5.000000000000000000e+00,5.000000000000000000e+00,5.000000000000000000e+00,5.000000000000000000e+00,5.000000000000000000e+00,5.000000000000000000e+00,5.000000000000000000e+00,5.000000000000000000e+00,5.000000000000000000e+00,5.000000000000000000e+00,4.850036621093750000e+00,4.660099506378173828e+00,4.484478950500488281e+00,4.321614742279052734e+00,4.170165061950683594e+00,4.028971195220947266e+00,3.897025346755981445e+00,3.773447036743164062e+00,3.657466173171997070e+00,3.548401832580566406e+00,3.445653915405273438e+00,3.348688602447509766e+00,3.257031440734863281e+00,3.170258283615112305e+00,3.087988376617431641e+00,3.009881019592285156e+00,2.935626983642578125e+00,2.864948511123657227e+00,2.797593355178833008e+00,2.733332633972167969e+00,2.671957492828369141e+00,2.613278388977050781e+00,2.557121038436889648e+00,2.503326654434204102e+00,2.451748847961425781e+00,2.402253389358520508e+00,2.354717016220092773e+00,2.309025287628173828e+00,2.265073299407958984e+00,2.222763061523437500e+00,2.182004690170288086e+00,2.142714023590087891e+00,2.104813337326049805e+00,2.068229913711547852e+00,2.032896995544433594e+00,1.998750448226928711e+00,1.965732455253601074e+00,1.933787584304809570e+00,1.902864336967468262e+00,1.872914314270019531e+00,1.843892574310302734e+00
5.000000000000000000e+00,5.000000000000000000e+00,5.000000000000000000e+00,5.000000000000000000e+00,5.000000000000000000e+00,5.000000000000000000e+00,5.000000000000000000e+00,5.000000000000000000e+00,5.000000000000000000e+00,5.000000000000000000e+00,5.000000000000000000e+00,5.000000000000000000e+00,5.000000000000000000e+00,5.000000000000000000e+00,5.000000000000000000e+00,5.000000000000000000e+00,5.000000000000000000e+00,5.000000000000000000e+00,5.000000000000000000e+00,5.000000000000000000e+00,5.000000000000000000e+00,5.000000000000000000e+00,5.000000000000000000e+00,5.000000000000000000e+00,5.000000000000000000e+00,5.000000000000000000e+00,5.000000000000000000e+00,4.872341156005859375e+00,5.000000000000000000e+00,5.000000000000000000e+00,5.000000000000000000e+00,5.000000000000000000e+00,5.000000000000000000e+00,5.000000000000000000e+00,5.000000000000000000e+00,5.000000000000000000e+00,5.000000000000000000e+00,5.000000000000000000e+00,5.000000000000000000e+00,4.850173950195312500e+00,4.660226821899414062e+00,4.484596729278564453e+00,4.321723461151123047e+00,4.170267105102539062e+00,4.029066085815429688e+00,3.897114038467407227e+00,3.773530721664428711e+00,3.657544374465942383e+00,3.548475742340087891e+00,3.445723295211791992e+00,3.348754405975341797e+00,3.257093667984008789e+00,3.170317173004150391e+00,3.088044404983520508e+00,3.009934186935424805e+00,2.935677528381347656e+00,2.864996671676635742e+00,2.797639131546020508e+00,2.733376264572143555e+00,2.671999454498291016e+00,2.613318443298339844e+00,2.557159423828125000e+00,2.503363132476806641e+00,2.451784133911132812e+00,2.402287244796752930e+00,2.354749679565429688e+00,2.309056520462036133e+00,2.265103340148925781e+00,2.222791910171508789e+00,2.182032585144042969e+00,2.142740964889526367e+00,2.104839324951171875e+00,2.068254947662353516e+00,2.032921075820922852e+00,1.998774051666259766e+00,1.965755105018615723e+00,1.933809399604797363e+00,1.902885437011718750e+00,1.872934937477111816e+00,1.843912482261657715e+00
5.000000000000000000e+00,5.000000000000000000e+00,5.000000000000000000e+00,5.000000000000000000e+00,5.000000000000000000e+00,5.000000000000000000e+00,5.000000000000000000e+00,5.000000000000000000e+00,5.000000000000000000e+00,5.000000000000000000e+00,5.000000000000000000e+00,5.000000000000000000e+00,5.000000000000000000e+00,5.000000000000000000e+00,5.000000000000000000e+00,5.000000000000000000e+00,5.000000000000000000e+00,5.000000000000000000e+00,5.000000000000000000e+00,5.000000000000000000e+00,5.000000000000000000e+00,5.000000000000000000e+00,5.000000000000000000e+00,5.000000000000000000e+00,5.000000000000000000e+00,5.000000000000000000e+00,5.000000000000000000e+00,4.877627849578857422e+00,5.000000000000000000e+00,5.000000000000000000e+00,5.000000000000000000e+00,5.000000000000000000e+00,5.000000000000000000e+00,5.000000000000000000e+00,5.000000000000000000e+00,5.000000000000000000e+00,5.000000000000000000e+00,5.000000000000000000e+00,5.000000000000000000e+00,4.850311756134033203e+00,4.660354137420654297e+00,4.484714508056640625e+00,4.321833133697509766e+00,4.170369148254394531e+00,4.029161453247070312e+00,3.897203207015991211e+00,3.773614406585693359e+00,3.657622814178466797e+00,3.548549652099609375e+00,3.445792913436889648e+00,3.348819971084594727e+00,3.257155895233154297e+00,3.170376062393188477e+00,3.088100433349609375e+00,3.009987115859985352e+00,2.935728073120117188e+00,2.865044593811035156e+00,2.797685146331787109e+00,2.733420133590698242e+00,2.672041416168212891e+00,2.613358497619628906e+00,2.557197809219360352e+00,2.503400087356567383e+00,2.451819419860839844e+00,2.402321100234985352e+00,2.354782104492187500e+00,2.309087753295898438e+00,2.265133380889892578e+00,2.222820997238159180e+00,2.182060480117797852e+00,2.142767906188964844e+00,2.104865312576293945e+00,2.068280220031738281e+00,2.032945394515991211e+00,1.998797416687011719e+00,1.965777873992919922e+00,1.933831453323364258e+00,1.902906656265258789e+00,1.872955441474914551e+00,1.843932509422302246e+00
4.875521183013916016e+00,4.874310493469238281e+00,4.873100757598876953e+00,4.871891498565673828e+00,4.870683193206787109e+00,4.869474887847900391e+00,4.868267536163330078e+00,4.867061138153076172e+00,4.865854740142822266e+00,4.864649295806884766e+00,4.863444328308105469e+00,4.862239837646484375e+00,4.861036300659179688e+00,4.859832763671875000e+00,4.858630180358886719e+00,4.857428073883056641e+00,4.856226921081542969e+00,4.855026245117187500e+00,4.853826045989990234e+00,4.852626800537109375e+00,4.851427555084228516e+00,4.850229263305664062e+00,4.849031448364257812e+00,4.847834110260009766e+00,4.846637248992919922e+00,4.845441341400146484e+00,4.844245910644531250e+00,4.843050956726074219e+00,4.841856479644775391e+00,4.840662479400634766e+00,4.839469432830810547e+00,4.838277339935302734e+00,4.837085247039794922e+00,4.835894107818603516e+00,4.834702968597412109e+00,4.833512783050537109e+00,4.832323074340820312e+00,4.831134319305419922e+00,4.829945564270019531e+00,4.828757762908935547e+00,4.660480976104736328e+00,4.484832286834716797e+00,4.321942329406738281e+00,4.170470237731933594e+00,4.029256343841552734e+00,3.897292375564575195e+00,3.773697614669799805e+00,3.657701492309570312e+00,3.548623323440551758e+00,3.445862531661987305e+00,3.348885774612426758e+00,3.257218360900878906e+00,3.170434951782226562e+00,3.088156461715698242e+00,3.010040283203125000e+00,2.935778617858886719e+00,2.865092992782592773e+00,2.797731161117553711e+00,2.733464002609252930e+00,2.672083139419555664e+00,2.613398551940917969e+00,2.557235956192016602e+00,2.503436803817749023e+00,2.451854467391967773e+00,2.402354955673217773e+00,2.354814529418945312e+00,2.309119224548339844e+00,2.265163421630859375e+00,2.222850084304809570e+00,2.182088375091552734e+00,2.142794847488403320e+00,2.104891300201416016e+00,2.068305253982543945e+00,2.032969474792480469e+00,1.998820781707763672e+00,1.965800523757934570e+00,1.933853387832641602e+00,1.902927994728088379e+00,1.872975945472717285e+00,1.843952417373657227e+00
3.778357744216918945e+00,3.777630805969238281e+00,3.776904106140136719e+00,3.776177644729614258e+00,3.775451660156250000e+00,3.774725675582885742e+00,3.774000167846679688e+00,3.773275375366210938e+00,3.772550344467163086e+00,3.771825551986694336e+00,3.771100997924804688e+00,3.770376920700073242e+00,3.769653081893920898e+00,3.768929481506347656e+00,3.768206119537353516e+00,3.767482995986938477e+00,3.766760110855102539e+00,3.766037702560424805e+00,3.765315532684326172e+00,3.764593362808227539e+00,3.763871669769287109e+00,3.763150453567504883e+00,3.762429237365722656e+00,3.761708498001098633e+00,3.760987758636474609e+00,3.760267496109008789e+00,3.759547472000122070e+00,3.758827924728393555e+00,3.758108377456665039e+00,3.757389068603515625e+00,3.756670236587524414e+00,3.755951881408691406e+00,3.755233526229858398e+00,3.754515409469604492e+00,3.753797769546508789e+00,3.753080129623413086e+00,3.752362966537475586e+00,3.751645803451538086e+00,3.750929117202758789e+00,3.750212669372558594e+00,3.749496459960937500e+00,3.748780488967895508e+00,3.748064994812011719e+00,3.747349500656127930e+00,3.746634483337402344e+00,3.745919704437255859e+00,3.745205163955688477e+00,3.657779932022094727e+00,3.548697233200073242e+00,3.445932388305664062e+00,3.348951578140258789e+00,3.257280349731445312e+00,3.170494079589843750e+00,3.088212251663208008e+00,3.010093450546264648e+00,2.935829162597656250e+00,2.865141153335571289e+00,2.797776937484741211e+00,2.733507871627807617e+00,2.672125101089477539e+00,2.613438606262207031e+00,2.557274341583251953e+00,2.503473520278930664e+00,2.451889753341674805e+00,2.402388811111450195e+00,2.354847192764282227e+00,2.309150218963623047e+00,2.265193700790405273e+00,2.222878932952880859e+00,2.182116270065307617e+00,2.142821550369262695e+00,2.104917287826538086e+00,2.068330287933349609e+00,2.032993793487548828e+00,1.998844265937805176e+00,1.965823292732238770e+00,1.933875203132629395e+00,1.902949094772338867e+00,1.872996687889099121e+00,1.843972444534301758e+00
3.084285497665405273e+00,3.083801031112670898e+00,3.083316802978515625e+00,3.082832574844360352e+00,3.082348585128784180e+00,3.081864833831787109e+00,3.081381320953369141e+00,3.080898046493530273e+00,3.080414533615112305e+00,3.079931497573852539e+00,3.079448223114013672e+00,3.078965425491333008e+00,3.078482627868652344e+00,3.078000068664550781e+00,3.077517509460449219e+00,3.077035188674926758e+00,3.076553106307983398e+00,3.076071023941040039e+00,3.075589179992675781e+00,3.075107574462890625e+00,3.074625968933105469e+00,3.074144601821899414e+00,3.073663234710693359e+00,3.073182106018066406e+00,3.072701215744018555e+00,3.072220325469970703e+00,3.071739673614501953e+00,3.071259260177612305e+00,3.070778846740722656e+00,3.070298671722412109e+00,3.069818735122680664e+00,3.069339036941528320e+00,3.068859338760375977e+00,3.068379640579223633e+00,3.067900180816650391e+00,3.067420959472656250e+00,3.066941738128662109e+00,3.066462755203247070e+00,3.065984010696411133e+00,3.065505266189575195e+00,3.065026760101318359e+00,3.064548492431640625e+00,3.064070224761962891e+00,3.063591957092285156e+00,3.063114166259765625e+00,3.062636375427246094e+00,3.062158584594726562e+00,3.061681032180786133e+00,3.061203718185424805e+00,3.060726642608642578e+00,3.060249567031860352e+00,3.059772491455078125e+00,3.059295892715454102e+00,3.058819055557250977e+00,3.010146617889404297e+00,2.935879707336425781e+00,2.865189313888549805e+00,2.797822952270507812e+00,2.733551502227783203e+00,2.672167062759399414e+00,2.613478660583496094e+00,2.557312726974487305e+00,2.503510236740112305e+00,2.451925039291381836e+00,2.402422666549682617e+00,2.354879617691040039e+00,2.309181690216064453e+00,2.265223741531372070e+00,2.222908020019531250e+00,2.182144165039062500e+00,2.142848491668701172e+00,2.104943275451660156e+00,2.068355321884155273e+00,2.033018112182617188e+00,1.998867630958557129e+00,1.965845823287963867e+00,1.933897256851196289e+00,1.902970314025878906e+00,1.873017191886901855e+00,1.843992352485656738e+00
2.605638027191162109e+00,2.605292320251464844e+00,2.604946613311767578e+00,2.604601144790649414e+00,2.604255676269531250e+00,2.603910207748413086e+00,2.603564977645874023e+00,2.603219985961914062e+00,2.602874755859375000e+00,2.602529764175415039e+00,2.602184772491455078e+00,2.601840019226074219e+00,2.601495265960693359e+00,2.601150512695312500e+00,2.600805997848510742e+00,2.600461483001708984e+00,2.600117206573486328e+00,2.599772930145263672e+00,2.599428653717041016e+00,2.599084615707397461e+00,2.598740577697753906e+00,2.598396539688110352e+00,2.598052740097045898e+00,2.597709178924560547e+00,2.597365379333496094e+00,2.597021818161010742e+00,2.596678495407104492e+00,2.596334934234619141e+00,2.595991849899291992e+00,2.595648527145385742e+00,2.595305442810058594e+00,2.594962596893310547e+00,2.594619750976562500e+00,2.594276905059814453e+00,2.593934059143066406e+00,2.593591451644897461e+00,2.593248844146728516e+00,2.592906475067138672e+00,2.592564105987548828e+00,2.592221736907958984e+00,2.591879606246948242e+00,2.591537475585937500e+00,2.591195344924926758e+00,2.590853452682495117e+00,2.590511798858642578e+00,2.590169906616210938e+00,2.589828252792358398e+00,2.589486598968505859e+00,2.589145183563232422e+00,2.588803768157958984e+00,2.588462591171264648e+00,2.588121414184570312e+00,2.587780237197875977e+00,2.587439298629760742e+00,2.587098360061645508e+00,2.586757421493530273e+00,2.586416721343994141e+00,2.586076259613037109e+00,2.585735559463500977e+00,2.585395097732543945e+00,2.585054874420166016e+00,2.557351112365722656e+00,2.503546953201293945e+00,2.451960325241088867e+00,2.402456521987915039e+00,2.354912281036376953e+00,2.309212923049926758e+00,2.265253782272338867e+00,2.222936868667602539e+00,2.182172060012817383e+00,2.142875432968139648e+00,2.104969024658203125e+00,2.068380594253540039e+00,2.033042192459106445e+00,1.998891234397888184e+00,1.965868353843688965e+00,1.933919072151184082e+00,1.902991652488708496e+00,1.873037815093994141e+00,1.844012141227722168e+00
2.255604028701782227e+00,2.255344629287719727e+00,2.255084991455078125e+00,2.254825830459594727e+00,2.254566431045532227e+00,2.254307270050048828e+00,2.254047870635986328e+00,2.253788709640502930e+00,2.253529787063598633e+00,2.253270626068115234e+00,2.253011703491210938e+00,2.252753019332885742e+00,2.252494096755981445e+00,2.252235174179077148e+00,2.251976490020751953e+00,2.251717805862426758e+00,2.251459121704101562e+00,2.251200675964355469e+00,2.250942230224609375e+00,2.250683784484863281e+00,2.250425338745117188e+00,2.250167131423950195e+00,2.249908924102783203e+00,2.249650716781616211e+00,2.249392747879028320e+00,2.249135017395019531e+00,2.248877286911010742e+00,2.248619794845581055e+00,2.248362302780151367e+00,2.248104810714721680e+00,2.247847557067871094e+00,2.247590303421020508e+00,2.247333049774169922e+00,2.247075796127319336e+00,2.246818780899047852e+00,2.246561527252197266e+00,2.246304512023925781e+00,2.246047735214233398e+00,2.245790719985961914e+00,2.245533704757690430e+00,2.245276927947998047e+00,2.245020389556884766e+00,2.244763612747192383e+00,2.244507074356079102e+00,2.244250535964965820e+00,2.243993997573852539e+00,2.243737459182739258e+00,2.243481159210205078e+00,2.243224859237670898e+00,2.242968559265136719e+00,2.242712259292602539e+00,2.242456197738647461e+00,2.242200136184692383e+00,2.241944074630737305e+00,2.241688013076782227e+00,2.241432189941406250e+00,2.241176366806030273e+00,2.240920782089233398e+00,2.240664958953857422e+00,2.240409374237060547e+00,2.240153551101684570e+00,2.239897966384887695e+00,2.239642620086669922e+00,2.239387035369873047e+00,2.239131689071655273e+00,2.238876342773437500e+00,2.238621234893798828e+00,2.238365888595581055e+00,2.222965955734252930e+00,2.182199954986572266e+00,2.142902374267578125e+00,2.104995250701904297e+00,2.068405628204345703e+00,2.033066511154174805e+00,1.998914599418640137e+00,1.965891242027282715e+00,1.933940887451171875e+00,1.903012871742248535e+00,1.873058319091796875e+00,1.844032287597656250e+00
1.988495349884033203e+00,1.988293647766113281e+00,1.988091945648193359e+00,1.987890243530273438e+00,1.987688660621643066e+00,1.987487435340881348e+00,1.987285852432250977e+00,1.987084388732910156e+00,1.986882925033569336e+00,1.986681580543518066e+00,1.986480236053466797e+00,1.986279129981994629e+00,1.986077904701232910e+00,1.985876679420471191e+00,1.985675454139709473e+00,1.985474228858947754e+00,1.985273241996765137e+00,1.985072374343872070e+00,1.984871387481689453e+00,1.984670400619506836e+00,1.984469413757324219e+00,1.984268426895141602e+00,1.984067797660827637e+00,1.983867049217224121e+00,1.983666181564331055e+00,1.983465433120727539e+00,1.983264803886413574e+00,1.983064293861389160e+00,1.982863783836364746e+00,1.982663154602050781e+00,1.982462644577026367e+00,1.982262134552001953e+00,1.982061624526977539e+00,1.981861472129821777e+00,1.981661081314086914e+00,1.981460690498352051e+00,1.981260418891906738e+00,1.981060147285461426e+00,1.980859994888305664e+00,1.980659961700439453e+00,1.980459928512573242e+00,1.980259776115417480e+00,1.980059742927551270e+00,1.979859709739685059e+00,1.979659914970397949e+00,1.979460000991821289e+00,1.979260087013244629e+00,1.979060292243957520e+00,1.978860497474670410e+00,1.978660941123962402e+00,1.978461146354675293e+00,1.978261470794677734e+00,1.978061795234680176e+00,1.977862238883972168e+00,1.977662563323974609e+00,1.977463364601135254e+00,1.977263808250427246e+00,1.977064371109008789e+00,1.976864933967590332e+00,1.976665616035461426e+00,1.976466298103332520e+00,1.976267218589782715e+00,1.976067900657653809e+00,1.975868701934814453e+00,1.975669503211975098e+00,1.975470423698425293e+00,1.975271582603454590e+00,1.975072503089904785e+00,1.974873423576354980e+00,1.974674463272094727e+00,1.974475622177124023e+00,1.974276900291442871e+00,1.974078059196472168e+00,1.973879218101501465e+00,1.973680496215820312e+00,1.965913772583007812e+00,1.933963060379028320e+00,1.903034210205078125e+00,1.873078823089599609e+00,1.844052076339721680e+00
1.777950406074523926e+00,1.777789115905761719e+00,1.777627825736999512e+00,1.777466654777526855e+00,1.777305483818054199e+00,1.777144432067871094e+00,1.776983380317687988e+00,1.776822328567504883e+00,1.776661157608032227e+00,1.776500225067138672e+00,1.776339173316955566e+00,1.776178359985351562e+00,1.776017427444458008e+00,1.775856494903564453e+00,1.775695681571960449e+00,1.775534749031066895e+00,1.775373935699462891e+00,1.775213360786437988e+00,1.775052547454833984e+00,1.774891853332519531e+00,1.774731040000915527e+00,1.774570345878601074e+00,1.774409890174865723e+00,1.774249315261840820e+00,1.774088740348815918e+00,1.773928165435791016e+00,1.773767590522766113e+00,1.773607254028320312e+00,1.773446798324584961e+00,1.773286342620849609e+00,1.773125886917114258e+00,1.772965550422668457e+00,1.772805094718933105e+00,1.772644996643066406e+00,1.772484660148620605e+00,1.772324323654174805e+00,1.772164106369018555e+00,1.772003889083862305e+00,1.771843671798706055e+00,1.771683692932128906e+00,1.771523594856262207e+00,1.771363496780395508e+00,1.771203398704528809e+00,1.771043300628662109e+00,1.770883560180664062e+00,1.770723581314086914e+00,1.770563602447509766e+00,1.770403623580932617e+00,1.770243763923645020e+00,1.770084023475646973e+00,1.769924163818359375e+00,1.769764304161071777e+00,1.769604563713073730e+00,1.769444823265075684e+00,1.769285082817077637e+00,1.769125580787658691e+00,1.768965840339660645e+00,1.768806219100952148e+00,1.768646597862243652e+00,1.768487095832824707e+00,1.768327474594116211e+00,1.768168091773986816e+00,1.768008589744567871e+00,1.767849206924438477e+00,1.767689704895019531e+00,1.767530322074890137e+00,1.767371058464050293e+00,1.767211794853210449e+00,1.767052412033081055e+00,1.766893148422241211e+00,1.766733884811401367e+00,1.766574740409851074e+00,1.766415596008300781e+00,1.766256451606750488e+00,1.766097187995910645e+00,1.765938162803649902e+00,1.765779018402099609e+00,1.765620112419128418e+00,1.765461087226867676e+00,1.765302181243896484e+00
1.607722163200378418e+00,1.607590317726135254e+00,1.607458472251892090e+00,1.607326626777648926e+00,1.607194900512695312e+00,1.607063174247741699e+00,1.606931447982788086e+00,1.606799721717834473e+00,1.606667995452880859e+00,1.606536269187927246e+00,1.606404662132263184e+00,1.606273174285888672e+00,1.606141567230224609e+00,1.606009960174560547e+00,1.605878353118896484e+00,1.605746746063232422e+00,1.605615258216857910e+00,1.605483889579772949e+00,1.605352282524108887e+00,1.605220913887023926e+00,1.605089426040649414e+00,1.604957938194274902e+00,1.604826688766479492e+00,1.604695320129394531e+00,1.604563951492309570e+00,1.604432582855224609e+00,1.604301214218139648e+00,1.604170083999633789e+00,1.604038834571838379e+00,1.603907585144042969e+00,1.603776335716247559e+00,1.603645086288452148e+00,1.603513836860656738e+00,1.603382825851440430e+00,1.603251695632934570e+00,1.603120565414428711e+00,1.602989435195922852e+00,1.602858304977416992e+00,1.602727293968200684e+00,1.602596402168273926e+00,1.602465391159057617e+00,1.602334380149841309e+00,1.602203369140625000e+00,1.602072358131408691e+00,1.601941585540771484e+00,1.601810693740844727e+00,1.601679801940917969e+00,1.601548910140991211e+00,1.601418018341064453e+00,1.601287364959716797e+00,1.601156592369079590e+00,1.601025819778442383e+00,1.600895047187805176e+00,1.600764274597167969e+00,1.600633502006530762e+00,1.600502967834472656e+00,1.600372314453125000e+00,1.600241661071777344e+00,1.600111007690429688e+00,1.599980354309082031e+00,1.599849700927734375e+00,1.599719285964965820e+00,1.599588751792907715e+00,1.599458217620849609e+00,1.599327683448791504e+00,1.599197149276733398e+00,1.599066853523254395e+00,1.598936438560485840e+00,1.598806023597717285e+00,1.598675608634948730e+00,1.598545193672180176e+00,1.598415017127990723e+00,1.598284602165222168e+00,1.598154306411743164e+00,1.598024010658264160e+00,1.597893714904785156e+00,1.597763419151306152e+00,1.597633361816406250e+00,1.597503185272216797e+00,1.597373008728027344e+00
1.467242479324340820e+00,1.467132687568664551e+00,1.467022776603698730e+00,1.466912984848022461e+00,1.466803193092346191e+00,1.466693639755249023e+00,1.466583847999572754e+00,1.466474175453186035e+00,1.466364383697509766e+00,1.466254711151123047e+00,1.466145038604736328e+00,1.466035485267639160e+00,1.465925812721252441e+00,1.465816140174865723e+00,1.465706586837768555e+00,1.465596914291381836e+00,1.465487360954284668e+00,1.465377926826477051e+00,1.465268373489379883e+00,1.465158820152282715e+00,1.465049386024475098e+00,1.464939832687377930e+00,1.464830517768859863e+00,1.464720964431762695e+00,1.464611530303955078e+00,1.464502096176147461e+00,1.464392662048339844e+00,1.464283347129821777e+00,1.464174032211303711e+00,1.464064598083496094e+00,1.463955283164978027e+00,1.463845968246459961e+00,1.463736653327941895e+00,1.463627457618713379e+00,1.463518142700195312e+00,1.463408827781677246e+00,1.463299632072448730e+00,1.463190317153930664e+00,1.463081121444702148e+00,1.462972044944763184e+00,1.462862849235534668e+00,1.462753653526306152e+00,1.462644577026367188e+00,1.462535381317138672e+00,1.462426424026489258e+00,1.462317347526550293e+00,1.462208151817321777e+00,1.462099075317382812e+00,1.461990118026733398e+00,1.461881160736083984e+00,1.461772084236145020e+00,1.461663126945495605e+00,1.461554050445556641e+00,1.461445093154907227e+00,1.461336135864257812e+00,1.461227297782897949e+00,1.461118459701538086e+00,1.461009502410888672e+00,1.460900545120239258e+00,1.460791707038879395e+00,1.460682868957519531e+00,1.460574150085449219e+00,1.460465312004089355e+00,1.460356473922729492e+00,1.460247635841369629e+00,1.460138916969299316e+00,1.460030198097229004e+00,1.459921479225158691e+00,1.459812760353088379e+00,1.459704041481018066e+00,1.459595322608947754e+00,1.459486722946166992e+00,1.459378123283386230e+00,1.459269404411315918e+00,1.459160804748535156e+00,1.459052205085754395e+00,1.458943605422973633e+00,1.458835124969482422e+00,1.458726525306701660e+00,1.458617925643920898e+00
1.349339723587036133e+00,1.349246740341186523e+00,1.349153876304626465e+00,1.349061012268066406e+00,1.348968148231506348e+00,1.348875403404235840e+00,1.348782658576965332e+00,1.348689794540405273e+00,1.348597049713134766e+00,1.348504185676574707e+00,1.348411440849304199e+00,1.348318815231323242e+00,1.348226070404052734e+00,1.348133325576782227e+00,1.348040580749511719e+00,1.347947835922241211e+00,1.347855210304260254e+00,1.347762584686279297e+00,1.347669959068298340e+00,1.347577333450317383e+00,1.347484588623046875e+00,1.347391963005065918e+00,1.347299575805664062e+00,1.347206950187683105e+00,1.347114324569702148e+00,1.347021698951721191e+00,1.346929192543029785e+00,1.346836686134338379e+00,1.346744179725646973e+00,1.346651673316955566e+00,1.346559166908264160e+00,1.346466660499572754e+00,1.346374154090881348e+00,1.346281766891479492e+00,1.346189260482788086e+00,1.346096873283386230e+00,1.346004366874694824e+00,1.345911979675292969e+00,1.345819592475891113e+00,1.345727205276489258e+00,1.345634818077087402e+00,1.345542430877685547e+00,1.345450162887573242e+00,1.345357775688171387e+00,1.345265507698059082e+00,1.345173239707946777e+00,1.345080852508544922e+00,1.344988584518432617e+00,1.344896316528320312e+00,1.344804048538208008e+00,1.344711780548095703e+00,1.344619631767272949e+00,1.344527363777160645e+00,1.344435095787048340e+00,1.344342947006225586e+00,1.344250798225402832e+00,1.344158649444580078e+00,1.344066381454467773e+00,1.343974232673645020e+00,1.343882083892822266e+00,1.343789935111999512e+00,1.343697905540466309e+00,1.343605875968933105e+00,1.343513727188110352e+00,1.343421578407287598e+00,1.343329548835754395e+00,1.343237638473510742e+00,1.343145489692687988e+00,1.343053460121154785e+00,1.342961430549621582e+00,1.342869520187377930e+00,1.342777609825134277e+00,1.342685580253601074e+00,1.342593550682067871e+00,1.342501640319824219e+00,1.342409729957580566e+00,1.342317700386047363e+00,1.342225909233093262e+00,1.342133998870849609e+00,1.342042088508605957e+00
1.248976111412048340e+00,1.248896479606628418e+00,1.248816847801208496e+00,1.248737335205078125e+00,1.248657822608947754e+00,1.248578310012817383e+00,1.248498797416687012e+00,1.248419284820556641e+00,1.248339772224426270e+00,1.248260259628295898e+00,1.248180747032165527e+00,1.248101353645324707e+00,1.248021960258483887e+00,1.247942447662353516e+00,1.247863054275512695e+00,1.247783541679382324e+00,1.247704148292541504e+00,1.247624754905700684e+00,1.247545361518859863e+00,1.247465968132019043e+00,1.247386574745178223e+00,1.247307181358337402e+00,1.247227907180786133e+00,1.247148513793945312e+00,1.247069239616394043e+00,1.246989846229553223e+00,1.246910572052001953e+00,1.246831297874450684e+00,1.246752023696899414e+00,1.246672630310058594e+00,1.246593356132507324e+00,1.246514081954956055e+00,1.246434807777404785e+00,1.246355652809143066e+00,1.246276378631591797e+00,1.246197223663330078e+00,1.246117949485778809e+00,1.246038675308227539e+00,1.245959520339965820e+00,1.245880365371704102e+00,1.245801210403442383e+00,1.245722055435180664e+00,1.245642900466918945e+00,1.245563626289367676e+00,1.245484590530395508e+00,1.245405435562133789e+00,1.245326399803161621e+00,1.245247244834899902e+00,1.245168089866638184e+00,1.245089054107666016e+00,1.245010018348693848e+00,1.244930982589721680e+00,1.244851827621459961e+00,1.244772791862487793e+00,1.244693756103515625e+00,1.244614839553833008e+00,1.244535803794860840e+00,1.244456768035888672e+00,1.244377732276916504e+00,1.244298696517944336e+00,1.244219779968261719e+00,1.244140863418579102e+00,1.244061946868896484e+00,1.243982911109924316e+00,1.243903994560241699e+00,1.243825078010559082e+00,1.243746161460876465e+00,1.243667244911193848e+00,1.243588328361511230e+00,1.243509531021118164e+00,1.243430614471435547e+00,1.243351817131042480e+00,1.243272900581359863e+00,1.243194103240966797e+00,1.243115186691284180e+00,1.243036389350891113e+00,1.242957592010498047e+00,1.242878794670104980e+00,1.242799997329711914e+00,1.242721199989318848e+00
1.162508964538574219e+00,1.162439942359924316e+00,1.162371039390563965e+00,1.162302136421203613e+00,1.162233233451843262e+00,1.162164330482482910e+00,1.162095427513122559e+00,1.162026524543762207e+00,1.161957621574401855e+00,1.161888837814331055e+00,1.161819934844970703e+00,1.161751151084899902e+00,1.161682248115539551e+00,1.161613464355468750e+00,1.161544561386108398e+00,1.161475777626037598e+00,1.161406874656677246e+00,1.161338210105895996e+00,1.161269426345825195e+00,1.161200523376464844e+00,1.161131739616394043e+00,1.161062955856323242e+00,1.160994291305541992e+00,1.160925507545471191e+00,1.160856723785400391e+00,1.160788059234619141e+00,1.160719275474548340e+00,1.160650610923767090e+00,1.160581946372985840e+00,1.160513162612915039e+00,1.160444498062133789e+00,1.160375714302062988e+00,1.160307049751281738e+00,1.160238504409790039e+00,1.160169720649719238e+00,1.160101056098937988e+00,1.160032391548156738e+00,1.159963726997375488e+00,1.159895181655883789e+00,1.159826517105102539e+00,1.159757971763610840e+00,1.159689307212829590e+00,1.159620642662048340e+00,1.159552097320556641e+00,1.159483551979064941e+00,1.159415006637573242e+00,1.159346342086791992e+00,1.159277796745300293e+00,1.159209251403808594e+00,1.159140825271606445e+00,1.159072279930114746e+00,1.159003734588623047e+00,1.158935189247131348e+00,1.158866643905639648e+00,1.158798098564147949e+00,1.158729672431945801e+00,1.158661127090454102e+00,1.158592700958251953e+00,1.158524155616760254e+00,1.158455729484558105e+00,1.158387184143066406e+00,1.158318877220153809e+00,1.158250451087951660e+00,1.158182024955749512e+00,1.158113598823547363e+00,1.158045172691345215e+00,1.157976746559143066e+00,1.157908439636230469e+00,1.157840013504028320e+00,1.157771587371826172e+00,1.157703161239624023e+00,1.157634854316711426e+00,1.157566547393798828e+00,1.157498121261596680e+00,1.157429814338684082e+00,1.157361507415771484e+00,1.157293081283569336e+00,1.157224893569946289e+00,1.157156586647033691e+00,1.157088279724121094e+00
1.087238907814025879e+00,1.087178587913513184e+00,1.087118268013000488e+00,1.087057948112487793e+00,1.086997747421264648e+00,1.086937546730041504e+00,1.086877226829528809e+00,1.086816906929016113e+00,1.086756706237792969e+00,1.086696386337280273e+00,1.086636185646057129e+00,1.086575984954833984e+00,1.086515784263610840e+00,1.086455583572387695e+00,1.086395382881164551e+00,1.086335062980651855e+00,1.086274862289428711e+00,1.086214780807495117e+00,1.086154580116271973e+00,1.086094379425048828e+00,1.086034178733825684e+00,1.085973978042602539e+00,1.085913896560668945e+00,1.085853815078735352e+00,1.085793614387512207e+00,1.085733532905578613e+00,1.085673332214355469e+00,1.085613250732421875e+00,1.085553169250488281e+00,1.085492968559265137e+00,1.085432887077331543e+00,1.085372805595397949e+00,1.085312724113464355e+00,1.085252642631530762e+00,1.085192561149597168e+00,1.085132479667663574e+00,1.085072398185729980e+00,1.085012316703796387e+00,1.084952354431152344e+00,1.084892272949218750e+00,1.084832310676574707e+00,1.084772229194641113e+00,1.084712147712707520e+00,1.084652185440063477e+00,1.084592223167419434e+00,1.084532141685485840e+00,1.084472179412841797e+00,1.084412217140197754e+00,1.084352135658264160e+00,1.084292292594909668e+00,1.084232330322265625e+00,1.084172368049621582e+00,1.084112286567687988e+00,1.084052324295043945e+00,1.083992481231689453e+00,1.083932518959045410e+00,1.083872556686401367e+00,1.083812713623046875e+00,1.083752751350402832e+00,1.083692789077758789e+00,1.083632946014404297e+00,1.083573102951049805e+00,1.083513140678405762e+00,1.083453297615051270e+00,1.083393335342407227e+00,1.083333492279052734e+00,1.083273649215698242e+00,1.083213806152343750e+00,1.083153963088989258e+00,1.083094120025634766e+00,1.083034276962280273e+00,1.082974433898925781e+00,1.082914590835571289e+00,1.082854866981506348e+00,1.082795023918151855e+00,1.082735180854797363e+00,1.082675337791442871e+00,1.082615613937377930e+00,1.082555770874023438e+00,1.082496047019958496e+00
1.021123290061950684e+00,1.021070122718811035e+00,1.021016955375671387e+00,1.020963668823242188e+00,1.020910501480102539e+00,1.020857453346252441e+00,1.020804286003112793e+00,1.020751118659973145e+00,1.020697951316833496e+00,1.020644783973693848e+00,1.020591616630554199e+00,1.020538568496704102e+00,1.020485401153564453e+00,1.020432233810424805e+00,1.020379185676574707e+00,1.020326018333435059e+00,1.020272970199584961e+00,1.020219922065734863e+00,1.020166754722595215e+00,1.020113706588745117e+00,1.020060539245605469e+00,1.020007491111755371e+00,1.019954442977905273e+00,1.019901394844055176e+00,1.019848346710205078e+00,1.019795298576354980e+00,1.019742250442504883e+00,1.019689202308654785e+00,1.019636154174804688e+00,1.019583106040954590e+00,1.019530057907104492e+00,1.019477128982543945e+00,1.019424080848693848e+00,1.019371151924133301e+00,1.019318103790283203e+00,1.019265055656433105e+00,1.019212126731872559e+00,1.019159078598022461e+00,1.019106030464172363e+00,1.019053101539611816e+00,1.019000172615051270e+00,1.018947243690490723e+00,1.018894195556640625e+00,1.018841266632080078e+00,1.018788337707519531e+00,1.018735408782958984e+00,1.018682479858398438e+00,1.018629550933837891e+00,1.018576622009277344e+00,1.018523693084716797e+00,1.018470764160156250e+00,1.018417835235595703e+00,1.018364906311035156e+00,1.018312096595764160e+00,1.018259167671203613e+00,1.018206357955932617e+00,1.018153429031372070e+00,1.018100500106811523e+00,1.018047690391540527e+00,1.017994761466979980e+00,1.017941832542419434e+00,1.017889142036437988e+00,1.017836213111877441e+00,1.017783403396606445e+00,1.017730474472045898e+00,1.017677664756774902e+00,1.017624855041503906e+00,1.017572045326232910e+00,1.017519235610961914e+00,1.017466425895690918e+00,1.017413616180419922e+00,1.017360806465148926e+00,1.017307996749877930e+00,1.017255187034606934e+00,1.017202496528625488e+00,1.017149686813354492e+00,1.017096877098083496e+00,1.017044186592102051e+00,1.016991376876831055e+00,1.016938567161560059e+00
9.625878334045410156e-01,9.625405073165893555e-01,9.624933004379272461e-01,9.624460339546203613e-01,9.623987078666687012e-01,9.623515605926513672e-01,9.623043537139892578e-01,9.622570872306823730e-01,9.622098207473754883e-01,9.621626138687133789e-01,9.621154069900512695e-01,9.620681405067443848e-01,9.620209336280822754e-01,9.619737267494201660e-01,9.619265198707580566e-01,9.618793129920959473e-01,9.618321061134338379e-01,9.617850184440612793e-01,9.617378115653991699e-01,9.616906046867370605e-01,9.616434574127197266e-01,9.615962505340576172e-01,9.615491032600402832e-01,9.615018963813781738e-01,9.614547491073608398e-01,9.614076018333435059e-01,9.613604545593261719e-01,9.613134264945983887e-01,9.612662792205810547e-01,9.612191319465637207e-01,9.611719846725463867e-01,9.611248373985290527e-01,9.610776901245117188e-01,9.610306024551391602e-01,9.609834551811218262e-01,9.609363675117492676e-01,9.608892202377319336e-01,9.608421325683593750e-01,9.607950448989868164e-01,9.607480168342590332e-01,9.607009291648864746e-01,9.606538414955139160e-01,9.606067538261413574e-01,9.605597257614135742e-01,9.605126380920410156e-01,9.604655504226684570e-01,9.604184627532958984e-01,9.603714346885681152e-01,9.603243470191955566e-01,9.602774381637573242e-01,9.602304100990295410e-01,9.601833224296569824e-01,9.601362943649291992e-01,9.600892663002014160e-01,9.600422382354736328e-01,9.599952101707458496e-01,9.599481821060180664e-01,9.599012136459350586e-01,9.598541855812072754e-01,9.598071575164794922e-01,9.597601890563964844e-01,9.597132802009582520e-01,9.596663117408752441e-01,9.596192836761474609e-01,9.595723152160644531e-01,9.595253467559814453e-01,9.594783782958984375e-01,9.594314098358154297e-01,9.593844413757324219e-01,9.593374729156494141e-01,9.592905044555664062e-01,9.592437148094177246e-01,9.591967463493347168e-01,9.591497778892517090e-01,9.591028690338134766e-01,9.590559601783752441e-01,9.590089917182922363e-01,9.589620828628540039e-01,9.589151740074157715e-01,9.588682651519775391e-01
9.103995561599731445e-01,9.103572368621826172e-01,9.103149771690368652e-01,9.102727174758911133e-01,9.102303981781005859e-01,9.101881384849548340e-01,9.101458787918090820e-01,9.101036190986633301e-01,9.100613594055175781e-01,9.100190997123718262e-01,9.099768400192260742e-01,9.099346995353698730e-01,9.098924398422241211e-01,9.098502397537231445e-01,9.098079800605773926e-01,9.097657799720764160e-01,9.097235202789306641e-01,9.096813201904296875e-01,9.096390604972839355e-01,9.095968604087829590e-01,9.095546603202819824e-01,9.095124602317810059e-01,9.094703197479248047e-01,9.094281196594238281e-01,9.093859791755676270e-01,9.093437790870666504e-01,9.093015789985656738e-01,9.092593789100646973e-01,9.092171788215637207e-01,9.091750383377075195e-01,9.091328382492065430e-01,9.090906977653503418e-01,9.090484976768493652e-01,9.090064764022827148e-01,9.089643359184265137e-01,9.089221358299255371e-01,9.088799953460693359e-01,9.088378548622131348e-01,9.087957143783569336e-01,9.087535738945007324e-01,9.087114334106445312e-01,9.086692929267883301e-01,9.086272120475769043e-01,9.085850715637207031e-01,9.085430502891540527e-01,9.085009694099426270e-01,9.084588289260864258e-01,9.084167480468750000e-01,9.083746075630187988e-01,9.083325266838073730e-01,9.082904458045959473e-01,9.082483649253845215e-01,9.082062840461730957e-01,9.081642031669616699e-01,9.081221222877502441e-01,9.080801010131835938e-01,9.080380797386169434e-01,9.079959988594055176e-01,9.079539179801940918e-01,9.079118371009826660e-01,9.078698158264160156e-01,9.078277349472045898e-01,9.077857136726379395e-01,9.077436327934265137e-01,9.077016115188598633e-01,9.076595902442932129e-01,9.076176285743713379e-01,9.075756072998046875e-01,9.075335860252380371e-01,9.074915647506713867e-01,9.074495434761047363e-01,9.074075818061828613e-01,9.073655605316162109e-01,9.073235392570495605e-01,9.072815179824829102e-01,9.072395563125610352e-01,9.071975350379943848e-01,9.071556925773620605e-01,9.071136713027954102e-01,9.070717096328735352e-01
8.635790944099426270e-01,8.635410666465759277e-01,8.635030388832092285e-01,8.634649515151977539e-01,8.634269237518310547e-01,8.633890151977539062e-01,8.633509874343872070e-01,8.633129596710205078e-01,8.632749319076538086e-01,8.632369041442871094e-01,8.631988763809204102e-01,8.631608486175537109e-01,8.631228208541870117e-01,8.630848526954650879e-01,8.630468249320983887e-01,8.630087971687316895e-01,8.629708290100097656e-01,8.629329204559326172e-01,8.628948926925659180e-01,8.628569245338439941e-01,8.628189563751220703e-01,8.627809882164001465e-01,8.627429604530334473e-01,8.627049922943115234e-01,8.626670241355895996e-01,8.626290559768676758e-01,8.625910878181457520e-01,8.625532388687133789e-01,8.625152707099914551e-01,8.624773025512695312e-01,8.624393939971923828e-01,8.624014258384704590e-01,8.623634576797485352e-01,8.623255491256713867e-01,8.622875809669494629e-01,8.622496724128723145e-01,8.622117042541503906e-01,8.621737957000732422e-01,8.621358871459960938e-01,8.620980381965637207e-01,8.620601296424865723e-01,8.620222210884094238e-01,8.619843125343322754e-01,8.619464039802551270e-01,8.619084954261779785e-01,8.618705868721008301e-01,8.618326783180236816e-01,8.617947697639465332e-01,8.617569208145141602e-01,8.617190718650817871e-01,8.616812229156494141e-01,8.616433143615722656e-01,8.616054654121398926e-01,8.615675568580627441e-01,8.615297079086303711e-01,8.614918589591979980e-01,8.614539504051208496e-01,8.614161014556884766e-01,8.613782525062561035e-01,8.613404035568237305e-01,8.613025546073913574e-01,8.612647652626037598e-01,8.612269163131713867e-01,8.611891269683837891e-01,8.611512780189514160e-01,8.611134290695190430e-01,8.610755801200866699e-01,8.610377907752990723e-01,8.609999418258666992e-01,8.609620928764343262e-01,8.609243035316467285e-01,8.608865737915039062e-01,8.608487844467163086e-01,8.608109354972839355e-01,8.607731461524963379e-01,8.607353568077087402e-01,8.606975674629211426e-01,8.606597781181335449e-01,8.606219887733459473e-01,8.605841994285583496e-01
8.213390111923217773e-01,8.213045597076416016e-01,8.212701678276062012e-01,8.212357759475708008e-01,8.212013244628906250e-01,8.211669325828552246e-01,8.211325407028198242e-01,8.210981488227844238e-01,8.210637569427490234e-01,8.210293650627136230e-01,8.209949731826782227e-01,8.209606409072875977e-01,8.209262490272521973e-01,8.208918571472167969e-01,8.208575248718261719e-01,8.208231329917907715e-01,8.207887411117553711e-01,8.207544088363647461e-01,8.207200169563293457e-01,8.206856250762939453e-01,8.206512928009033203e-01,8.206169605255126953e-01,8.205826878547668457e-01,8.205482959747314453e-01,8.205139636993408203e-01,8.204796314239501953e-01,8.204452395439147949e-01,8.204109072685241699e-01,8.203765749931335449e-01,8.203422427177429199e-01,8.203079104423522949e-01,8.202735781669616699e-01,8.202392458915710449e-01,8.202050328254699707e-01,8.201707005500793457e-01,8.201363682746887207e-01,8.201020359992980957e-01,8.200677037239074707e-01,8.200334310531616211e-01,8.199990987777709961e-01,8.199648261070251465e-01,8.199304938316345215e-01,8.198962211608886719e-01,8.198618888854980469e-01,8.198276758193969727e-01,8.197934031486511230e-01,8.197591304779052734e-01,8.197248578071594238e-01,8.196905255317687988e-01,8.196562528610229492e-01,8.196219801902770996e-01,8.195877075195312500e-01,8.195534348487854004e-01,8.195191621780395508e-01,8.194848895072937012e-01,8.194507360458374023e-01,8.194164633750915527e-01,8.193821907043457031e-01,8.193479776382446289e-01,8.193137049674987793e-01,8.192794322967529297e-01,8.192452192306518555e-01,8.192109465599060059e-01,8.191767334938049316e-01,8.191425204277038574e-01,8.191082477569580078e-01,8.190740942955017090e-01,8.190398812294006348e-01,8.190056681632995605e-01,8.189714550971984863e-01,8.189372420310974121e-01,8.189030289649963379e-01,8.188688158988952637e-01,8.188346028327941895e-01,8.188003897666931152e-01,8.187661767005920410e-01,8.187319636344909668e-01,8.186978101730346680e-01,8.186636567115783691e-01,8.186294436454772949e-01
