5.000000000000000000e+00,5.000000000000000000e+00,5.000000000000000000e+00,5.000000000000000000e+00,5.000000000000000000e+00,5.000000000000000000e+00,5.000000000000000000e+00,5.000000000000000000e+00,5.000000000000000000e+00,5.000000000000000000e+00,5.000000000000000000e+00,5.000000000000000000e+00,5.000000000000000000e+00,5.000000000000000000e+00,5.000000000000000000e+00,5.000000000000000000e+00,5.000000000000000000e+00,5.000000000000000000e+00,5.000000000000000000e+00,5.000000000000000000e+00,5.000000000000000000e+00,5.000000000000000000e+00,5.000000000000000000e+00,5.000000000000000000e+00,4.227769851684570312e+00,4.264568805694580078e+00,5.000000000000000000e+00,5.000000000000000000e+00,5.000000000000000000e+00,5.000000000000000000e+00,5.000000000000000000e+00,5.000000000000000000e+00,5.000000000000000000e+00,5.000000000000000000e+00,5.000000000000000000e+00,5.000000000000000000e+00,5.000000000000000000e+00,5.000000000000000000e+00,5.000000000000000000e+00,4.850411891937255859e+00,4.660426616668701172e+00,4.484762668609619141e+00,4.321860790252685547e+00,4.170378208160400391e+00,4.029154777526855469e+00,3.897183179855346680e+00,3.773582458496093750e+00,3.657580614089965820e+00,3.548498153686523438e+00,3.445733785629272461e+00,3.348753929138183594e+00,3.257083654403686523e+00,3.170298337936401367e+00,3.088017940521240234e+00,3.009900569915771484e+00,2.935637712478637695e+00,2.864951133728027344e+00,2.797588825225830078e+00,2.733321428298950195e+00,2.671940326690673828e+00,2.613255739212036133e+00,2.557093381881713867e+00,2.503294229507446289e+00,2.451712131500244141e+00,2.402213096618652344e+00,2.354673147201538086e+00,2.308978319168090820e+00,2.265023231506347656e+00,2.222710371017456055e+00,2.181949615478515625e+00,2.142656803131103516e+00,2.104753971099853516e+00,2.068168640136718750e+00,2.032834053039550781e+00,1.998686194419860840e+00,1.965666651725769043e+00,1.933720231056213379e+00,1.902795910835266113e+00,1.872844815254211426e+00,1.843822121620178223e+00
5.000000000000000000e+00,5.000000000000000000e+00,5.000000000000000000e+00,5.000000000000000000e+00,5.000000000000000000e+00,5.000000000000000000e+00,5.000000000000000000e+00,5.000000000000000000e+00,5.000000000000000000e+00,5.000000000000000000e+00,5.000000000000000000e+00,5.000000000000000000e+00,5.000000000000000000e+00,5.000000000000000000e+00,5.000000000000000000e+00,5.000000000000000000e+00,5.000000000000000000e+00,5.000000000000000000e+00,5.000000000000000000e+00,5.000000000000000000e+00,5.000000000000000000e+00,5.000000000000000000e+00,5.000000000000000000e+00,5.000000000000000000e+00,4.233393669128417969e+00,4.265635013580322266e+00,5.000000000000000000e+00,5.000000000000000000e+00,5.000000000000000000e+00,5.000000000000000000e+00,5.000000000000000000e+00,5.000000000000000000e+00,5.000000000000000000e+00,5.000000000000000000e+00,5.000000000000000000e+00,5.000000000000000000e+00,5.000000000000000000e+00,5.000000000000000000e+00,5.000000000000000000e+00,4.850550651550292969e+00,4.660554409027099609e+00,4.484881401062011719e+00,4.321970462799072266e+00,4.170480251312255859e+00,4.029250621795654297e+00,3.897272348403930664e+00,3.773666143417358398e+00,3.657659530639648438e+00,3.548572540283203125e+00,3.445803403854370117e+00,3.348819971084594727e+00,3.257146120071411133e+00,3.170357704162597656e+00,3.088073968887329102e+00,3.009953737258911133e+00,2.935688495635986328e+00,2.864999771118164062e+00,2.797634840011596680e+00,2.733365297317504883e+00,2.671982526779174805e+00,2.613296031951904297e+00,2.557131767272949219e+00,2.503331184387207031e+00,2.451747655868530273e+00,2.402247190475463867e+00,2.354705810546875000e+00,2.309009790420532227e+00,2.265053510665893555e+00,2.222739696502685547e+00,2.181977510452270508e+00,2.142683744430541992e+00,2.104779958724975586e+00,2.068193912506103516e+00,2.032858133316040039e+00,1.998709559440612793e+00,1.965689420700073242e+00,1.933742284774780273e+00,1.902817010879516602e+00,1.872865557670593262e+00,1.843842148780822754e+00
5.000000000000000000e+00,5.000000000000000000e+00,5.000000000000000000e+00,5.000000000000000000e+00,5.000000000000000000e+00,5.000000000000000000e+00,5.000000000000000000e+00,5.000000000000000000e+00,5.000000000000000000e+00,5.000000000000000000e+00,5.000000000000000000e+00,5.000000000000000000e+00,5.000000000000000000e+00,5.000000000000000000e+00,5.000000000000000000e+00,5.000000000000000000e+00,5.000000000000000000e+00,5.000000000000000000e+00,5.000000000000000000e+00,5.000000000000000000e+00,5.000000000000000000e+00,5.000000000000000000e+00,5.000000000000000000e+00,5.000000000000000000e+00,4.262356281280517578e+00,4.279936790466308594e+00,5.000000000000000000e+00,5.000000000000000000e+00,5.000000000000000000e+00,5.000000000000000000e+00,5.000000000000000000e+00,5.000000000000000000e+00,5.000000000000000000e+00,5.000000000000000000e+00,5.000000000000000000e+00,5.000000000000000000e+00,5.000000000000000000e+00,5.000000000000000000e+00,5.000000000000000000e+00,4.850688934326171875e+00,4.660681724548339844e+00,4.484999656677246094e+00,4.322080135345458984e+00,4.170582771301269531e+00,4.029345989227294922e+00,3.897361993789672852e+00,3.773749828338623047e+00,3.657738208770751953e+00,3.548646450042724609e+00,3.445873498916625977e+00,3.348885774612426758e+00,3.257208585739135742e+00,3.170416593551635742e+00,3.088130235671997070e+00,3.010006904602050781e+00,2.935739040374755859e+00,2.865047931671142578e+00,2.797680854797363281e+00,2.733409166336059570e+00,2.672024488449096680e+00,2.613336086273193359e+00,2.557170391082763672e+00,2.503367900848388672e+00,2.451782941818237305e+00,2.402281045913696289e+00,2.354738473892211914e+00,2.309041023254394531e+00,2.265083789825439453e+00,2.222768545150756836e+00,2.182005643844604492e+00,2.142710685729980469e+00,2.104805946350097656e+00,2.068219184875488281e+00,2.032882690429687500e+00,1.998733162879943848e+00,1.965712070465087891e+00,1.933764338493347168e+00,1.902838468551635742e+00,1.872886061668395996e+00,1.843862175941467285e+00
5.000000000000000000e+00,5.000000000000000000e+00,5.000000000000000000e+00,5.000000000000000000e+00,5.000000000000000000e+00,5.000000000000000000e+00,5.000000000000000000e+00,5.000000000000000000e+00,5.000000000000000000e+00,5.000000000000000000e+00,5.000000000000000000e+00,5.000000000000000000e+00,5.000000000000000000e+00,5.000000000000000000e+00,5.000000000000000000e+00,5.000000000000000000e+00,5.000000000000000000e+00,5.000000000000000000e+00,5.000000000000000000e+00,5.000000000000000000e+00,5.000000000000000000e+00,5.000000000000000000e+00,4.197429180145263672e+00,4.222868442535400391e+00,4.231441974639892578e+00,4.389094829559326172e+00,5.000000000000000000e+00,5.000000000000000000e+00,5.000000000000000000e+00,5.000000000000000000e+00,5.000000000000000000e+00,5.000000000000000000e+00,5.000000000000000000e+00,5.000000000000000000e+00,5.000000000000000000e+00,5.000000000000000000e+00,5.000000000000000000e+00,5.000000000000000000e+00,5.000000000000000000e+00,4.850827693939208984e+00,4.660809516906738281e+00,4.485117912292480469e+00,4.322190284729003906e+00,4.170685291290283203e+00,4.029441356658935547e+00,3.897451162338256836e+00,3.773833751678466797e+00,3.657817125320434570e+00,3.548720359802246094e+00,3.445943355560302734e+00,3.348951816558837891e+00,3.257271051406860352e+00,3.170475721359252930e+00,3.088186264038085938e+00,3.010060548782348633e+00,2.935790061950683594e+00,2.865096092224121094e+00,2.797726869583129883e+00,2.733453273773193359e+00,2.672066450119018555e+00,2.613376140594482422e+00,2.557208776473999023e+00,2.503404855728149414e+00,2.451818466186523438e+00,2.402314901351928711e+00,2.354771137237548828e+00,2.309072494506835938e+00,2.265113830566406250e+00,2.222797632217407227e+00,2.182033538818359375e+00,2.142737627029418945e+00,2.104832172393798828e+00,2.068244218826293945e+00,2.032906770706176758e+00,1.998756647109985352e+00,1.965734839439392090e+00,1.933786273002624512e+00,1.902859807014465332e+00,1.872906684875488281e+00,1.843882322311401367e+00
5.000000000000000000e+00,5.000000000000000000e+00,5.000000000000000000e+00,5.000000000000000000e+00,5.000000000000000000e+00,5.000000000000000000e+00,5.000000000000000000e+00,5.000000000000000000e+00,5.000000000000000000e+00,5.000000000000000000e+00,5.000000000000000000e+00,5.000000000000000000e+00,5.000000000000000000e+00,5.000000000000000000e+00,5.000000000000000000e+00,5.000000000000000000e+00,5.000000000000000000e+00,5.000000000000000000e+00,5.000000000000000000e+00,5.000000000000000000e+00,5.000000000000000000e+00,4.164692878723144531e+00,4.185258865356445312e+00,4.183839797973632812e+00,4.219375610351562500e+00,4.263651847839355469e+00,4.329191207885742188e+00,4.408786773681640625e+00,5.000000000000000000e+00,5.000000000000000000e+00,5.000000000000000000e+00,5.000000000000000000e+00,5.000000000000000000e+00,5.000000000000000000e+00,5.000000000000000000e+00,5.000000000000000000e+00,5.000000000000000000e+00,5.000000000000000000e+00,5.000000000000000000e+00,4.850965499877929688e+00,4.660937309265136719e+00,4.485236167907714844e+00,4.322299957275390625e+00,4.170787334442138672e+00,4.029536724090576172e+00,3.897540330886840820e+00,3.773917436599731445e+00,3.657895565032958984e+00,3.548794746398925781e+00,3.446012973785400391e+00,3.349017620086669922e+00,3.257333278656005859e+00,3.170535087585449219e+00,3.088242292404174805e+00,3.010113716125488281e+00,2.935840606689453125e+00,2.865144491195678711e+00,2.797772884368896484e+00,2.733497142791748047e+00,2.672108411788940430e+00,2.613416433334350586e+00,2.557247161865234375e+00,2.503441572189331055e+00,2.451853752136230469e+00,2.402348995208740234e+00,2.354803562164306641e+00,2.309103727340698242e+00,2.265144109725952148e+00,2.222826719284057617e+00,2.182061433792114258e+00,2.142764806747436523e+00,2.104858160018920898e+00,2.068269491195678711e+00,2.032931089401245117e+00,1.998780012130737305e+00,1.965757608413696289e+00,1.933808326721191406e+00,1.902880907058715820e+00,1.872927427291870117e+00,1.843902111053466797e+00
5.000000000000000000e+00,5.000000000000000000e+00,5.000000000000000000e+00,5.000000000000000000e+00,5.000000000000000000e+00,5.000000000000000000e+00,5.000000000000000000e+00,5.000000000000000000e+00,5.000000000000000000e+00,5.000000000000000000e+00,5.000000000000000000e+00,5.000000000000000000e+00,5.000000000000000000e+00,5.000000000000000000e+00,5.000000000000000000e+00,5.000000000000000000e+00,5.000000000000000000e+00,5.000000000000000000e+00,5.000000000000000000e+00,5.000000000000000000e+00,5.000000000000000000e+00,4.178372383117675781e+00,4.191725254058837891e+00,4.182847023010253906e+00,4.194334983825683594e+00,4.241654396057128906e+00,4.298727035522460938e+00,4.435278415679931641e+00,5.000000000000000000e+00,5.000000000000000000e+00,5.000000000000000000e+00,5.000000000000000000e+00,5.000000000000000000e+00,5.000000000000000000e+00,5.000000000000000000e+00,5.000000000000000000e+00,5.000000000000000000e+00,5.000000000000000000e+00,5.000000000000000000e+00,4.851104259490966797e+00,4.661065578460693359e+00,4.485354423522949219e+00,4.322410106658935547e+00,4.170889854431152344e+00,4.029632568359375000e+00,3.897629976272583008e+00,3.774001359939575195e+00,3.657974243164062500e+00,3.548868656158447266e+00,3.446083068847656250e+00,3.349083900451660156e+00,3.257395744323730469e+00,3.170593976974487305e+00,3.088298559188842773e+00,3.010167121887207031e+00,2.935891151428222656e+00,2.865192651748657227e+00,2.797819137573242188e+00,2.733541250228881836e+00,2.672150373458862305e+00,2.613456487655639648e+00,2.557285785675048828e+00,2.503478527069091797e+00,2.451889038085937500e+00,2.402382850646972656e+00,2.354836463928222656e+00,2.309135198593139648e+00,2.265174150466918945e+00,2.222855806350708008e+00,2.182089567184448242e+00,2.142791748046875000e+00,2.104884147644042969e+00,2.068294525146484375e+00,2.032955408096313477e+00,1.998803615570068359e+00,1.965780138969421387e+00,1.933830380439758301e+00,1.902902364730834961e+00,1.872948169708251953e+00,1.843922257423400879e+00
5.000000000000000000e+00,5.000000000000000000e+00,5.000000000000000000e+00,5.000000000000000000e+00,5.000000000000000000e+00,5.000000000000000000e+00,5.000000000000000000e+00,5.000000000000000000e+00,5.000000000000000000e+00,5.000000000000000000e+00,5.000000000000000000e+00,5.000000000000000000e+00,5.000000000000000000e+00,5.000000000000000000e+00,5.000000000000000000e+00,5.000000000000000000e+00,5.000000000000000000e+00,5.000000000000000000e+00,5.000000000000000000e+00,5.000000000000000000e+00,5.000000000000000000e+00,4.177815914154052734e+00,4.180573463439941406e+00,4.199340820312500000e+00,4.199314117431640625e+00,4.229102611541748047e+00,4.313296794891357422e+00,4.450320243835449219e+00,5.000000000000000000e+00,5.000000000000000000e+00,5.000000000000000000e+00,5.000000000000000000e+00,5.000000000000000000e+00,5.000000000000000000e+00,5.000000000000000000e+00,5.000000000000000000e+00,5.000000000000000000e+00,5.000000000000000000e+00,5.000000000000000000e+00,4.851242542266845703e+00,4.661192893981933594e+00,4.485473155975341797e+00,4.322519779205322266e+00,4.170991897583007812e+00,4.029727935791015625e+00,3.897719144821166992e+00,3.774085044860839844e+00,3.658053159713745117e+00,3.548942565917968750e+00,3.446152925491333008e+00,3.349149703979492188e+00,3.257458209991455078e+00,3.170653104782104492e+00,3.088354587554931641e+00,3.010220289230346680e+00,2.935942173004150391e+00,2.865240812301635742e+00,2.797865152359008789e+00,2.733585119247436523e+00,2.672192573547363281e+00,2.613496780395507812e+00,2.557324171066284180e+00,2.503515481948852539e+00,2.451924562454223633e+00,2.402416706085205078e+00,2.354868888854980469e+00,2.309166431427001953e+00,2.265204429626464844e+00,2.222884893417358398e+00,2.182117700576782227e+00,2.142818689346313477e+00,2.104910373687744141e+00,2.068319797515869141e+00,2.032979726791381836e+00,1.998827219009399414e+00,1.965803027153015137e+00,1.933852195739746094e+00,1.902923703193664551e+00,1.872968673706054688e+00,1.843942284584045410e+00
5.000000000000000000e+00,5.000000000000000000e+00,5.000000000000000000e+00,5.000000000000000000e+00,5.000000000000000000e+00,5.000000000000000000e+00,5.000000000000000000e+00,5.000000000000000000e+00,5.000000000000000000e+00,5.000000000000000000e+00,5.000000000000000000e+00,5.000000000000000000e+00,5.000000000000000000e+00,5.000000000000000000e+00,5.000000000000000000e+00,5.000000000000000000e+00,5.000000000000000000e+00,5.000000000000000000e+00,5.000000000000000000e+00,5.000000000000000000e+00,5.000000000000000000e+00,4.179943561553955078e+00,4.178442478179931641e+00,4.209443569183349609e+00,4.201420783996582031e+00,4.232161998748779297e+00,4.305327892303466797e+00,4.464595794677734375e+00,5.000000000000000000e+00,5.000000000000000000e+00,5.000000000000000000e+00,5.000000000000000000e+00,5.000000000000000000e+00,5.000000000000000000e+00,5.000000000000000000e+00,5.000000000000000000e+00,5.000000000000000000e+00,5.000000000000000000e+00,5.000000000000000000e+00,4.851381301879882812e+00,4.661320686340332031e+00,4.485591411590576172e+00,4.322629928588867188e+00,4.171094417572021484e+00,4.029823303222656250e+00,3.897808790206909180e+00,3.774168729782104492e+00,3.658131599426269531e+00,3.549016952514648438e+00,3.446222782135009766e+00,3.349215507507324219e+00,3.257520675659179688e+00,3.170712471008300781e+00,3.088410854339599609e+00,3.010273456573486328e+00,2.935992717742919922e+00,2.865289449691772461e+00,2.797911405563354492e+00,2.733628988265991211e+00,2.672234535217285156e+00,2.613537073135375977e+00,2.557362794876098633e+00,2.503552198410034180e+00,2.451959848403930664e+00,2.402450799942016602e+00,2.354901552200317383e+00,2.309197902679443359e+00,2.265234708786010742e+00,2.222913980484008789e+00,2.182145595550537109e+00,2.142845630645751953e+00,2.104936361312866211e+00,2.068344831466674805e+00,2.033004283905029297e+00,1.998850464820861816e+00,1.965825796127319336e+00,1.933874249458312988e+00,1.902945041656494141e+00,1.872989296913146973e+00,1.843962192535400391e+00
5.000000000000000000e+00,5.000000000000000000e+00,5.000000000000000000e+00,5.000000000000000000e+00,5.000000000000000000e+00,5.000000000000000000e+00,5.000000000000000000e+00,5.000000000000000000e+00,5.000000000000000000e+00,5.000000000000000000e+00,5.000000000000000000e+00,5.000000000000000000e+00,5.000000000000000000e+00,5.000000000000000000e+00,5.000000000000000000e+00,5.000000000000000000e+00,5.000000000000000000e+00,5.000000000000000000e+00,5.000000000000000000e+00,5.000000000000000000e+00,5.000000000000000000e+00,4.166922569274902344e+00,4.170478343963623047e+00,4.191817760467529297e+00,4.188702106475830078e+00,4.222915172576904297e+00,4.286099433898925781e+00,4.491285800933837891e+00,5.000000000000000000e+00,5.000000000000000000e+00,5.000000000000000000e+00,5.000000000000000000e+00,5.000000000000000000e+00,5.000000000000000000e+00,5.000000000000000000e+00,5.000000000000000000e+00,5.000000000000000000e+00,5.000000000000000000e+00,5.000000000000000000e+00,4.851519584655761719e+00,4.661448955535888672e+00,4.485709667205810547e+00,4.322739601135253906e+00,4.171196460723876953e+00,4.029919147491455078e+00,3.897898197174072266e+00,3.774252653121948242e+00,3.658210277557373047e+00,3.549090862274169922e+00,3.446292638778686523e+00,3.349281787872314453e+00,3.257582902908325195e+00,3.170771360397338867e+00,3.088466882705688477e+00,3.010327100753784180e+00,2.936043262481689453e+00,2.865337610244750977e+00,2.797957181930541992e+00,2.733673095703125000e+00,2.672276258468627930e+00,2.613577127456665039e+00,2.557401180267333984e+00,2.503589153289794922e+00,2.451995134353637695e+00,2.402484655380249023e+00,2.354934215545654297e+00,2.309229373931884766e+00,2.265264749526977539e+00,2.222943067550659180e+00,2.182173728942871094e+00,2.142872810363769531e+00,2.104962348937988281e+00,2.068370103836059570e+00,2.033028364181518555e+00,1.998874068260192871e+00,1.965848326683044434e+00,1.933896303176879883e+00,1.902966141700744629e+00,1.873010039329528809e+00,1.843982219696044922e+00
5.000000000000000000e+00,5.000000000000000000e+00,5.000000000000000000e+00,5.000000000000000000e+00,5.000000000000000000e+00,5.000000000000000000e+00,5.000000000000000000e+00,5.000000000000000000e+00,5.000000000000000000e+00,5.000000000000000000e+00,5.000000000000000000e+00,5.000000000000000000e+00,5.000000000000000000e+00,5.000000000000000000e+00,5.000000000000000000e+00,5.000000000000000000e+00,5.000000000000000000e+00,5.000000000000000000e+00,5.000000000000000000e+00,5.000000000000000000e+00,5.000000000000000000e+00,5.000000000000000000e+00,4.108665466308593750e+00,4.195785522460937500e+00,4.204783439636230469e+00,4.237244129180908203e+00,4.318100452423095703e+00,4.472114562988281250e+00,5.000000000000000000e+00,5.000000000000000000e+00,5.000000000000000000e+00,5.000000000000000000e+00,5.000000000000000000e+00,5.000000000000000000e+00,5.000000000000000000e+00,5.000000000000000000e+00,5.000000000000000000e+00,5.000000000000000000e+00,5.000000000000000000e+00,4.851657867431640625e+00,4.661576747894287109e+00,4.485827922821044922e+00,4.322849750518798828e+00,4.171298980712890625e+00,4.030014514923095703e+00,3.897987365722656250e+00,3.774336338043212891e+00,3.658289194107055664e+00,3.549165248870849609e+00,3.446362257003784180e+00,3.349347591400146484e+00,3.257645606994628906e+00,3.170830726623535156e+00,3.088522911071777344e+00,3.010380268096923828e+00,2.936094045639038086e+00,2.865386009216308594e+00,2.798003196716308594e+00,2.733716964721679688e+00,2.672318458557128906e+00,2.613617420196533203e+00,2.557439565658569336e+00,2.503626108169555664e+00,2.452030658721923828e+00,2.402518749237060547e+00,2.354966878890991211e+00,2.309260606765747070e+00,2.265295028686523438e+00,2.222972154617309570e+00,2.182201623916625977e+00,2.142899751663208008e+00,2.104988574981689453e+00,2.068395376205444336e+00,2.033052682876586914e+00,1.998897671699523926e+00,1.965871214866638184e+00,1.933918356895446777e+00,1.902987599372863770e+00,1.873030543327331543e+00,1.844002246856689453e+00
5.000000000000000000e+00,5.000000000000000000e+00,5.000000000000000000e+00,5.000000000000000000e+00,5.000000000000000000e+00,5.000000000000000000e+00,5.000000000000000000e+00,5.000000000000000000e+00,5.000000000000000000e+00,5.000000000000000000e+00,5.000000000000000000e+00,5.000000000000000000e+00,5.000000000000000000e+00,5.000000000000000000e+00,5.000000000000000000e+00,5.000000000000000000e+00,5.000000000000000000e+00,5.000000000000000000e+00,5.000000000000000000e+00,5.000000000000000000e+00,5.000000000000000000e+00,5.000000000000000000e+00,4.066395759582519531e+00,4.202469348907470703e+00,4.245755672454833984e+00,4.243104934692382812e+00,4.237120151519775391e+00,4.458053112030029297e+00,5.000000000000000000e+00,5.000000000000000000e+00,5.000000000000000000e+00,5.000000000000000000e+00,5.000000000000000000e+00,5.000000000000000000e+00,5.000000000000000000e+00,5.000000000000000000e+00,5.000000000000000000e+00,5.000000000000000000e+00,5.000000000000000000e+00,4.851796627044677734e+00,4.661704063415527344e+00,4.485946178436279297e+00,4.322959423065185547e+00,4.171401500701904297e+00,4.030109882354736328e+00,3.898077011108398438e+00,3.774420022964477539e+00,3.658367872238159180e+00,3.549239158630371094e+00,3.446432352066040039e+00,3.349413633346557617e+00,3.257707834243774414e+00,3.170889854431152344e+00,3.088579177856445312e+00,3.010433435440063477e+00,2.936144828796386719e+00,2.865434169769287109e+00,2.798049449920654297e+00,2.733760833740234375e+00,2.672360420227050781e+00,2.613657474517822266e+00,2.557478189468383789e+00,2.503662824630737305e+00,2.452065944671630859e+00,2.402552604675292969e+00,2.354999542236328125e+00,2.309291839599609375e+00,2.265325069427490234e+00,2.223001003265380859e+00,2.182229757308959961e+00,2.142926692962646484e+00,2.105014562606811523e+00,2.068420410156250000e+00,2.033077001571655273e+00,1.998921036720275879e+00,1.965893983840942383e+00,1.933940291404724121e+00,1.903008937835693359e+00,1.873051166534423828e+00,1.844022154808044434e+00
5.000000000000000000e+00,5.000000000000000000e+00,5.000000000000000000e+00,5.000000000000000000e+00,5.000000000000000000e+00,5.000000000000000000e+00,5.000000000000000000e+00,5.000000000000000000e+00,5.000000000000000000e+00,5.000000000000000000e+00,5.000000000000000000e+00,5.000000000000000000e+00,5.000000000000000000e+00,5.000000000000000000e+00,5.000000000000000000e+00,5.000000000000000000e+00,5.000000000000000000e+00,5.000000000000000000e+00,5.000000000000000000e+00,5.000000000000000000e+00,5.000000000000000000e+00,5.000000000000000000e+00,3.992965698242187500e+00,4.209205150604248047e+00,4.251537799835205078e+00,4.203985214233398438e+00,4.192947864532470703e+00,4.459801197052001953e+00,5.000000000000000000e+00,5.000000000000000000e+00,5.000000000000000000e+00,5.000000000000000000e+00,5.000000000000000000e+00,5.000000000000000000e+00,5.000000000000000000e+00,5.000000000000000000e+00,5.000000000000000000e+00,5.000000000000000000e+00,5.000000000000000000e+00,4.851934909820556641e+00,4.661832332611083984e+00,4.486064910888671875e+00,4.323069572448730469e+00,4.171504020690917969e+00,4.030205726623535156e+00,3.898166179656982422e+00,3.774503946304321289e+00,3.658446788787841797e+00,3.549313068389892578e+00,3.446502208709716797e+00,3.349479675292968750e+00,3.257770299911499023e+00,3.170948743820190430e+00,3.088635206222534180e+00,3.010486841201782227e+00,2.936195611953735352e+00,2.865482330322265625e+00,2.798095464706420898e+00,2.733804941177368164e+00,2.672402620315551758e+00,2.613697528839111328e+00,2.557516574859619141e+00,2.503699779510498047e+00,2.452101230621337891e+00,2.402586460113525391e+00,2.355031967163085938e+00,2.309323310852050781e+00,2.265355348587036133e+00,2.223030090332031250e+00,2.182257652282714844e+00,2.142953872680664062e+00,2.105040788650512695e+00,2.068445444107055664e+00,2.033101320266723633e+00,1.998944520950317383e+00,1.965916752815246582e+00,1.933962345123291016e+00,1.903030037879943848e+00,1.873071908950805664e+00,1.844042181968688965e+00
5.000000000000000000e+00,5.000000000000000000e+00,5.000000000000000000e+00,5.000000000000000000e+00,5.000000000000000000e+00,5.000000000000000000e+00,5.000000000000000000e+00,5.000000000000000000e+00,5.000000000000000000e+00,5.000000000000000000e+00,5.000000000000000000e+00,5.000000000000000000e+00,5.000000000000000000e+00,5.000000000000000000e+00,5.000000000000000000e+00,5.000000000000000000e+00,5.000000000000000000e+00,5.000000000000000000e+00,5.000000000000000000e+00,5.000000000000000000e+00,5.000000000000000000e+00,5.000000000000000000e+00,3.962272405624389648e+00,4.230937957763671875e+00,4.273677825927734375e+00,4.196859836578369141e+00,4.166375160217285156e+00,4.432462215423583984e+00,5.000000000000000000e+00,5.000000000000000000e+00,5.000000000000000000e+00,5.000000000000000000e+00,5.000000000000000000e+00,5.000000000000000000e+00,5.000000000000000000e+00,5.000000000000000000e+00,5.000000000000000000e+00,5.000000000000000000e+00,5.000000000000000000e+00,4.852073192596435547e+00,4.661960124969482422e+00,4.486183166503906250e+00,4.323179721832275391e+00,4.171606063842773438e+00,4.030301094055175781e+00,3.898255348205566406e+00,3.774587631225585938e+00,3.658525466918945312e+00,3.549387454986572266e+00,3.446571826934814453e+00,3.349545717239379883e+00,3.257832765579223633e+00,3.171008110046386719e+00,3.088691234588623047e+00,3.010540008544921875e+00,2.936246156692504883e+00,2.865530967712402344e+00,2.798141241073608398e+00,2.733848810195922852e+00,2.672444581985473633e+00,2.613737821578979492e+00,2.557554960250854492e+00,2.503736495971679688e+00,2.452136754989624023e+00,2.402620553970336914e+00,2.355064630508422852e+00,2.309354782104492188e+00,2.265385627746582031e+00,2.223059415817260742e+00,2.182285547256469727e+00,2.142980813980102539e+00,2.105066776275634766e+00,2.068470716476440430e+00,2.033125638961791992e+00,1.998968124389648438e+00,1.965939402580261230e+00,1.933984398841857910e+00,1.903051495552062988e+00,1.873092412948608398e+00,1.844062209129333496e+00
5.000000000000000000e+00,5.000000000000000000e+00,5.000000000000000000e+00,5.000000000000000000e+00,5.000000000000000000e+00,5.000000000000000000e+00,5.000000000000000000e+00,5.000000000000000000e+00,5.000000000000000000e+00,5.000000000000000000e+00,5.000000000000000000e+00,5.000000000000000000e+00,5.000000000000000000e+00,5.000000000000000000e+00,5.000000000000000000e+00,5.000000000000000000e+00,5.000000000000000000e+00,5.000000000000000000e+00,5.000000000000000000e+00,5.000000000000000000e+00,5.000000000000000000e+00,5.000000000000000000e+00,5.000000000000000000e+00,4.257389545440673828e+00,4.306320190429687500e+00,4.185961723327636719e+00,4.136253356933593750e+00,5.000000000000000000e+00,5.000000000000000000e+00,5.000000000000000000e+00,5.000000000000000000e+00,5.000000000000000000e+00,5.000000000000000000e+00,5.000000000000000000e+00,5.000000000000000000e+00,5.000000000000000000e+00,5.000000000000000000e+00,5.000000000000000000e+00,5.000000000000000000e+00,4.852211952209472656e+00,4.662087917327880859e+00,4.486301422119140625e+00,4.323289394378662109e+00,4.171708583831787109e+00,4.030396938323974609e+00,3.898344993591308594e+00,3.774671792984008789e+00,3.658603906631469727e+00,3.549461364746093750e+00,3.446641921997070312e+00,3.349611759185791016e+00,3.257894992828369141e+00,3.171067237854003906e+00,3.088747501373291016e+00,3.010593652725219727e+00,2.936296939849853516e+00,2.865579128265380859e+00,2.798187494277954102e+00,2.733892917633056641e+00,2.672486305236816406e+00,2.613778114318847656e+00,2.557593584060668945e+00,2.503773689270019531e+00,2.452172040939331055e+00,2.402654409408569336e+00,2.355097293853759766e+00,2.309386253356933594e+00,2.265415668487548828e+00,2.223088264465332031e+00,2.182313680648803711e+00,2.143007755279541016e+00,2.105092763900756836e+00,2.068495988845825195e+00,2.033149957656860352e+00,1.998991727828979492e+00,1.965962171554565430e+00,1.934006214141845703e+00,1.903072834014892578e+00,1.873113155364990234e+00,1.844082117080688477e+00
5.000000000000000000e+00,5.000000000000000000e+00,5.000000000000000000e+00,5.000000000000000000e+00,5.000000000000000000e+00,5.000000000000000000e+00,5.000000000000000000e+00,5.000000000000000000e+00,5.000000000000000000e+00,5.000000000000000000e+00,5.000000000000000000e+00,5.000000000000000000e+00,5.000000000000000000e+00,5.000000000000000000e+00,5.000000000000000000e+00,5.000000000000000000e+00,5.000000000000000000e+00,5.000000000000000000e+00,5.000000000000000000e+00,5.000000000000000000e+00,5.000000000000000000e+00,5.000000000000000000e+00,5.000000000000000000e+00,4.279962539672851562e+00,4.333775997161865234e+00,5.000000000000000000e+00,4.103276729583740234e+00,5.000000000000000000e+00,5.000000000000000000e+00,5.000000000000000000e+00,5.000000000000000000e+00,5.000000000000000000e+00,5.000000000000000000e+00,5.000000000000000000e+00,5.000000000000000000e+00,5.000000000000000000e+00,5.000000000000000000e+00,5.000000000000000000e+00,5.000000000000000000e+00,4.852350234985351562e+00,4.662215709686279297e+00,4.486420154571533203e+00,4.323399066925048828e+00,4.171811103820800781e+00,4.030492305755615234e+00,3.898434400558471680e+00,3.774755477905273438e+00,3.658682823181152344e+00,3.549535512924194336e+00,3.446711778640747070e+00,3.349677801132202148e+00,3.257957696914672852e+00,3.171126127243041992e+00,3.088803529739379883e+00,3.010646820068359375e+00,2.936347723007202148e+00,2.865627288818359375e+00,2.798233509063720703e+00,2.733936786651611328e+00,2.672528505325317383e+00,2.613818168640136719e+00,2.557631969451904297e+00,2.503810405731201172e+00,2.452207326889038086e+00,2.402688264846801758e+00,2.355129957199096680e+00,2.309417486190795898e+00,2.265445947647094727e+00,2.223117351531982422e+00,2.182341575622558594e+00,2.143034934997558594e+00,2.105118989944458008e+00,2.068521022796630859e+00,2.033174276351928711e+00,1.999015092849731445e+00,1.965984940528869629e+00,1.934028387069702148e+00,1.903094053268432617e+00,1.873133778572082520e+00,1.844102144241333008e+00
5.000000000000000000e+00,5.000000000000000000e+00,5.000000000000000000e+00,5.000000000000000000e+00,5.000000000000000000e+00,5.000000000000000000e+00,5.000000000000000000e+00,5.000000000000000000e+00,5.000000000000000000e+00,5.000000000000000000e+00,5.000000000000000000e+00,5.000000000000000000e+00,5.000000000000000000e+00,5.000000000000000000e+00,5.000000000000000000e+00,5.000000000000000000e+00,5.000000000000000000e+00,5.000000000000000000e+00,5.000000000000000000e+00,5.000000000000000000e+00,5.000000000000000000e+00,5.000000000000000000e+00,5.000000000000000000e+00,4.304740428924560547e+00,5.000000000000000000e+00,5.000000000000000000e+00,4.117145061492919922e+00,5.000000000000000000e+00,5.000000000000000000e+00,5.000000000000000000e+00,5.000000000000000000e+00,5.000000000000000000e+00,5.000000000000000000e+00,5.000000000000000000e+00,5.000000000000000000e+00,5.000000000000000000e+00,5.000000000000000000e+00,5.000000000000000000e+00,5.000000000000000000e+00,4.852488517761230469e+00,4.662343502044677734e+00,4.486538410186767578e+00,4.323509216308593750e+00,4.171913146972656250e+00,4.030587673187255859e+00,3.898524045944213867e+00,3.774839162826538086e+00,3.658761501312255859e+00,3.549609661102294922e+00,3.446781873703002930e+00,3.349743604660034180e+00,3.258019924163818359e+00,3.171185493469238281e+00,3.088859796524047852e+00,3.010699987411499023e+00,2.936398267745971680e+00,2.865675687789916992e+00,2.798279762268066406e+00,2.733980655670166016e+00,2.672570466995239258e+00,2.613858461380004883e+00,2.557670593261718750e+00,2.503847122192382812e+00,2.452242851257324219e+00,2.402722358703613281e+00,2.355162620544433594e+00,2.309448719024658203e+00,2.265475988388061523e+00,2.223146438598632812e+00,2.182369709014892578e+00,2.143061876296997070e+00,2.105144977569580078e+00,2.068546295166015625e+00,2.033198595046997070e+00,1.999038696289062500e+00,1.966007590293884277e+00,1.934050440788269043e+00,1.903115391731262207e+00,1.873154282569885254e+00,1.844122290611267090e+00
5.000000000000000000e+00,5.000000000000000000e+00,5.000000000000000000e+00,5.000000000000000000e+00,5.000000000000000000e+00,5.000000000000000000e+00,5.000000000000000000e+00,5.000000000000000000e+00,5.000000000000000000e+00,5.000000000000000000e+00,5.000000000000000000e+00,5.000000000000000000e+00,5.000000000000000000e+00,5.000000000000000000e+00,5.000000000000000000e+00,5.000000000000000000e+00,5.000000000000000000e+00,5.000000000000000000e+00,5.000000000000000000e+00,5.000000000000000000e+00,5.000000000000000000e+00,5.000000000000000000e+00,4.420598030090332031e+00,4.355112552642822266e+00,5.000000000000000000e+00,5.000000000000000000e+00,4.139428138732910156e+00,4.220135211944580078e+00,5.000000000000000000e+00,5.000000000000000000e+00,5.000000000000000000e+00,5.000000000000000000e+00,5.000000000000000000e+00,5.000000000000000000e+00,5.000000000000000000e+00,5.000000000000000000e+00,5.000000000000000000e+00,5.000000000000000000e+00,5.000000000000000000e+00,4.852626800537109375e+00,4.662471294403076172e+00,4.486656665802001953e+00,4.323619365692138672e+00,4.172015666961669922e+00,4.030683517456054688e+00,3.898613214492797852e+00,3.774923086166381836e+00,3.658840179443359375e+00,3.549683809280395508e+00,3.446851730346679688e+00,3.349809885025024414e+00,3.258082389831542969e+00,3.171244621276855469e+00,3.088915824890136719e+00,3.010753393173217773e+00,2.936449050903320312e+00,2.865723848342895508e+00,2.798325777053833008e+00,2.734024763107299805e+00,2.672612428665161133e+00,2.613898515701293945e+00,2.557708978652954102e+00,2.503884315490722656e+00,2.452278137207031250e+00,2.402756214141845703e+00,2.355195283889770508e+00,2.309480190277099609e+00,2.265506029129028320e+00,2.223175525665283203e+00,2.182397842407226562e+00,2.143088817596435547e+00,2.105170965194702148e+00,2.068571329116821289e+00,2.033222913742065430e+00,1.999062180519104004e+00,1.966030359268188477e+00,1.934072256088256836e+00,1.903136730194091797e+00,1.873175024986267090e+00,1.844142079353332520e+00
5.000000000000000000e+00,5.000000000000000000e+00,5.000000000000000000e+00,5.000000000000000000e+00,5.000000000000000000e+00,5.000000000000000000e+00,5.000000000000000000e+00,5.000000000000000000e+00,5.000000000000000000e+00,5.000000000000000000e+00,5.000000000000000000e+00,5.000000000000000000e+00,5.000000000000000000e+00,5.000000000000000000e+00,5.000000000000000000e+00,5.000000000000000000e+00,5.000000000000000000e+00,5.000000000000000000e+00,5.000000000000000000e+00,5.000000000000000000e+00,5.000000000000000000e+00,5.000000000000000000e+00,4.460772037506103516e+00,4.443719863891601562e+00,5.000000000000000000e+00,5.000000000000000000e+00,4.132334709167480469e+00,5.000000000000000000e+00,5.000000000000000000e+00,5.000000000000000000e+00,5.000000000000000000e+00,5.000000000000000000e+00,5.000000000000000000e+00,5.000000000000000000e+00,5.000000000000000000e+00,5.000000000000000000e+00,5.000000000000000000e+00,5.000000000000000000e+00,5.000000000000000000e+00,4.852764606475830078e+00,4.662598609924316406e+00,4.486774921417236328e+00,4.323729515075683594e+00,4.172118186950683594e+00,4.030778884887695312e+00,3.898702383041381836e+00,3.775006771087646484e+00,3.658919095993041992e+00,3.549757957458496094e+00,3.446921348571777344e+00,3.349875688552856445e+00,3.258144855499267578e+00,3.171303987503051758e+00,3.088971853256225586e+00,3.010806798934936523e+00,2.936499834060668945e+00,2.865772485733032227e+00,2.798371791839599609e+00,2.734068632125854492e+00,2.672654628753662109e+00,2.613938808441162109e+00,2.557747364044189453e+00,2.503921031951904297e+00,2.452313423156738281e+00,2.402790307998657227e+00,2.355227708816528320e+00,2.309511661529541016e+00,2.265536308288574219e+00,2.223204612731933594e+00,2.182425737380981445e+00,2.143115758895874023e+00,2.105196952819824219e+00,2.068596601486206055e+00,2.033247232437133789e+00,1.999085545539855957e+00,1.966053128242492676e+00,1.934094309806823730e+00,1.903157949447631836e+00,1.873195767402648926e+00,1.844162225723266602e+00
5.000000000000000000e+00,5.000000000000000000e+00,5.000000000000000000e+00,5.000000000000000000e+00,5.000000000000000000e+00,5.000000000000000000e+00,5.000000000000000000e+00,5.000000000000000000e+00,5.000000000000000000e+00,5.000000000000000000e+00,5.000000000000000000e+00,5.000000000000000000e+00,5.000000000000000000e+00,5.000000000000000000e+00,5.000000000000000000e+00,5.000000000000000000e+00,5.000000000000000000e+00,5.000000000000000000e+00,5.000000000000000000e+00,5.000000000000000000e+00,5.000000000000000000e+00,5.000000000000000000e+00,4.508749485015869141e+00,4.499314785003662109e+00,5.000000000000000000e+00,5.000000000000000000e+00,4.124704837799072266e+00,5.000000000000000000e+00,5.000000000000000000e+00,5.000000000000000000e+00,5.000000000000000000e+00,5.000000000000000000e+00,5.000000000000000000e+00,5.000000000000000000e+00,5.000000000000000000e+00,5.000000000000000000e+00,5.000000000000000000e+00,5.000000000000000000e+00,5.000000000000000000e+00,4.852902412414550781e+00,4.662725925445556641e+00,4.486893177032470703e+00,4.323839187622070312e+00,4.172220230102539062e+00,4.030874252319335938e+00,3.898792266845703125e+00,3.775090456008911133e+00,3.658997774124145508e+00,3.549832105636596680e+00,3.446991443634033203e+00,3.349941492080688477e+00,3.258207321166992188e+00,3.171363115310668945e+00,3.089028120040893555e+00,3.010859966278076172e+00,2.936550617218017578e+00,2.865820646286010742e+00,2.798417806625366211e+00,2.734112501144409180e+00,2.672696590423583984e+00,2.613979101181030273e+00,2.557785987854003906e+00,2.503957748413085938e+00,2.452348947525024414e+00,2.402824163436889648e+00,2.355260610580444336e+00,2.309542894363403320e+00,2.265566587448120117e+00,2.223233699798583984e+00,2.182453870773315430e+00,2.143142938613891602e+00,2.105223178863525391e+00,2.068621635437011719e+00,2.033271551132202148e+00,1.999109148979187012e+00,1.966075778007507324e+00,1.934116363525390625e+00,1.903179287910461426e+00,1.873216271400451660e+00,1.844182252883911133e+00
5.000000000000000000e+00,5.000000000000000000e+00,5.000000000000000000e+00,5.000000000000000000e+00,5.000000000000000000e+00,5.000000000000000000e+00,5.000000000000000000e+00,5.000000000000000000e+00,5.000000000000000000e+00,5.000000000000000000e+00,5.000000000000000000e+00,5.000000000000000000e+00,5.000000000000000000e+00,5.000000000000000000e+00,5.000000000000000000e+00,5.000000000000000000e+00,5.000000000000000000e+00,5.000000000000000000e+00,5.000000000000000000e+00,5.000000000000000000e+00,5.000000000000000000e+00,5.000000000000000000e+00,4.562338829040527344e+00,4.564137935638427734e+00,5.000000000000000000e+00,5.000000000000000000e+00,4.120876789093017578e+00,5.000000000000000000e+00,5.000000000000000000e+00,5.000000000000000000e+00,5.000000000000000000e+00,5.000000000000000000e+00,5.000000000000000000e+00,5.000000000000000000e+00,5.000000000000000000e+00,5.000000000000000000e+00,5.000000000000000000e+00,5.000000000000000000e+00,5.000000000000000000e+00,4.853040695190429688e+00,4.662853240966796875e+00,4.487010955810546875e+00,4.323948860168457031e+00,4.172322750091552734e+00,4.030970096588134766e+00,3.898881435394287109e+00,3.775174617767333984e+00,3.659076690673828125e+00,3.549906015396118164e+00,3.447061300277709961e+00,3.350007772445678711e+00,3.258270025253295898e+00,3.171422004699707031e+00,3.089084148406982422e+00,3.010913372039794922e+00,2.936601400375366211e+00,2.865868806838989258e+00,2.798463821411132812e+00,2.734156608581542969e+00,2.672738790512084961e+00,2.614019155502319336e+00,2.557824373245239258e+00,2.503994941711425781e+00,2.452384233474731445e+00,2.402858257293701172e+00,2.355293035507202148e+00,2.309574365615844727e+00,2.265596866607666016e+00,2.223262786865234375e+00,2.182481765747070312e+00,2.143169879913330078e+00,2.105249166488647461e+00,2.068646907806396484e+00,2.033295869827270508e+00,1.999132752418518066e+00,1.966098546981811523e+00,1.934138298034667969e+00,1.903200626373291016e+00,1.873236894607543945e+00,1.844202280044555664e+00
5.000000000000000000e+00,5.000000000000000000e+00,5.000000000000000000e+00,5.000000000000000000e+00,5.000000000000000000e+00,5.000000000000000000e+00,5.000000000000000000e+00,5.000000000000000000e+00,5.000000000000000000e+00,5.000000000000000000e+00,5.000000000000000000e+00,5.000000000000000000e+00,5.000000000000000000e+00,5.000000000000000000e+00,5.000000000000000000e+00,5.000000000000000000e+00,5.000000000000000000e+00,5.000000000000000000e+00,5.000000000000000000e+00,5.000000000000000000e+00,5.000000000000000000e+00,5.000000000000000000e+00,4.641244411468505859e+00,4.592553138732910156e+00,5.000000000000000000e+00,5.000000000000000000e+00,4.134987354278564453e+00,5.000000000000000000e+00,5.000000000000000000e+00,5.000000000000000000e+00,5.000000000000000000e+00,5.000000000000000000e+00,5.000000000000000000e+00,5.000000000000000000e+00,5.000000000000000000e+00,5.000000000000000000e+00,5.000000000000000000e+00,5.000000000000000000e+00,5.000000000000000000e+00,4.853178501129150391e+00,4.662981033325195312e+00,4.487129211425781250e+00,4.324058532714843750e+00,4.172425270080566406e+00,4.031065464019775391e+00,3.898971080780029297e+00,3.775258302688598633e+00,3.659155368804931641e+00,3.549980401992797852e+00,3.447131395339965820e+00,3.350073575973510742e+00,3.258332252502441406e+00,3.171481370925903320e+00,3.089140415191650391e+00,3.010966777801513672e+00,2.936651945114135742e+00,2.865917205810546875e+00,2.798510074615478516e+00,2.734200477600097656e+00,2.672780513763427734e+00,2.614059448242187500e+00,2.557862997055053711e+00,2.504031658172607422e+00,2.452419519424438477e+00,2.402892351150512695e+00,2.355325698852539062e+00,2.309605598449707031e+00,2.265626907348632812e+00,2.223291873931884766e+00,2.182509899139404297e+00,2.143196821212768555e+00,2.105275154113769531e+00,2.068672180175781250e+00,2.033320188522338867e+00,1.999156117439270020e+00,1.966121315956115723e+00,1.934160351753234863e+00,1.903221964836120605e+00,1.873257637023925781e+00,1.844222187995910645e+00
4.875492572784423828e+00,4.874282360076904297e+00,4.873072147369384766e+00,4.871862888336181641e+00,4.870654106140136719e+00,4.869445800781250000e+00,4.868238449096679688e+00,4.867031574249267578e+00,4.865825176239013672e+00,4.864619255065917969e+00,4.863414287567138672e+00,4.862209796905517578e+00,4.861005783081054688e+00,4.859802246093750000e+00,4.858599662780761719e+00,4.857397556304931641e+00,4.856195926666259766e+00,4.854994773864746094e+00,4.853794574737548828e+00,4.852594852447509766e+00,4.851395606994628906e+00,4.850197315216064453e+00,4.848999023437500000e+00,4.513104438781738281e+00,4.846604824066162109e+00,4.845408439636230469e+00,4.122535228729248047e+00,3.990139722824096680e+00,4.841823101043701172e+00,4.840629577636718750e+00,4.839436054229736328e+00,4.838243484497070312e+00,4.837050914764404297e+00,4.835859775543212891e+00,4.834668636322021484e+00,4.833478450775146484e+00,4.832288265228271484e+00,4.831099510192871094e+00,4.829910755157470703e+00,4.828722953796386719e+00,4.663108348846435547e+00,4.487246990203857422e+00,4.324168205261230469e+00,4.172526836395263672e+00,4.031161308288574219e+00,3.899060249328613281e+00,3.775342464447021484e+00,3.659233808517456055e+00,3.550054311752319336e+00,3.447201013565063477e+00,3.350139856338500977e+00,3.258394479751586914e+00,3.171540498733520508e+00,3.089196443557739258e+00,3.011020183563232422e+00,2.936702728271484375e+00,2.865965604782104492e+00,2.798556089401245117e+00,2.734244585037231445e+00,2.672822475433349609e+00,2.614099502563476562e+00,2.557901382446289062e+00,2.504068613052368164e+00,2.452455043792724609e+00,2.402926206588745117e+00,2.355358362197875977e+00,2.309637069702148438e+00,2.265657186508178711e+00,2.223320960998535156e+00,2.182537794113159180e+00,2.143224000930786133e+00,2.105301380157470703e+00,2.068697214126586914e+00,2.033344507217407227e+00,1.999179601669311523e+00,1.966143965721130371e+00,1.934182405471801758e+00,1.903243184089660645e+00,1.873278379440307617e+00,1.844242215156555176e+00
3.778339624404907227e+00,3.777612447738647461e+00,3.776885747909545898e+00,3.776159524917602539e+00,3.775432825088500977e+00,3.774707078933715820e+00,3.773981571197509766e+00,3.773256063461303711e+00,3.772531270980834961e+00,3.771806001663208008e+00,3.771081686019897461e+00,3.770357370376586914e+00,3.769633531570434570e+00,3.768909454345703125e+00,3.768186092376708984e+00,3.767463207244873047e+00,3.766740322113037109e+00,3.766017436981201172e+00,3.765295267105102539e+00,3.764573097229003906e+00,3.763851404190063477e+00,3.763130187988281250e+00,3.762408494949340820e+00,3.761687755584716797e+00,3.760967254638671875e+00,3.760246992111206055e+00,3.759526491165161133e+00,3.758806705474853516e+00,3.758087396621704102e+00,3.757368087768554688e+00,3.756648778915405273e+00,3.755930185317993164e+00,3.755211830139160156e+00,3.754493713378906250e+00,3.753775358200073242e+00,3.753057956695556641e+00,3.752340555191040039e+00,3.751623630523681641e+00,3.750906944274902344e+00,3.750190019607543945e+00,3.749473810195922852e+00,3.748758077621459961e+00,3.748042345046997070e+00,3.747326612472534180e+00,3.746611595153808594e+00,3.745896577835083008e+00,3.745182037353515625e+00,3.659312963485717773e+00,3.550128698348999023e+00,3.447270870208740234e+00,3.350205659866333008e+00,3.258457183837890625e+00,3.171599864959716797e+00,3.089252471923828125e+00,3.011073350906372070e+00,2.936753511428833008e+00,2.866014003753662109e+00,2.798602104187011719e+00,2.734288454055786133e+00,2.672864675521850586e+00,2.614139795303344727e+00,2.557939767837524414e+00,2.504105567932128906e+00,2.452490329742431641e+00,2.402960300445556641e+00,2.355391025543212891e+00,2.309668540954589844e+00,2.265687465667724609e+00,2.223350048065185547e+00,2.182565927505493164e+00,2.143250942230224609e+00,2.105327367782592773e+00,2.068722486495971680e+00,2.033368825912475586e+00,1.999203205108642578e+00,1.966166734695434570e+00,1.934204459190368652e+00,1.903264522552490234e+00,1.873298883438110352e+00,1.844262361526489258e+00
3.084272384643554688e+00,3.083787918090820312e+00,3.083303689956665039e+00,3.082819700241088867e+00,3.082335472106933594e+00,3.081851482391357422e+00,3.081367969512939453e+00,3.080884456634521484e+00,3.080400943756103516e+00,3.079917430877685547e+00,3.079434394836425781e+00,3.078951597213745117e+00,3.078468799591064453e+00,3.077986001968383789e+00,3.077503442764282227e+00,3.077021121978759766e+00,3.076539039611816406e+00,3.076056718826293945e+00,3.075574874877929688e+00,3.075093030929565430e+00,3.074611663818359375e+00,3.074130296707153320e+00,3.073648691177368164e+00,3.073167562484741211e+00,3.072686672210693359e+00,3.072205781936645508e+00,3.071724891662597656e+00,3.071244478225708008e+00,3.070764064788818359e+00,3.070283889770507812e+00,3.069803476333618164e+00,3.069323539733886719e+00,3.068843841552734375e+00,3.068364143371582031e+00,3.067884445190429688e+00,3.067405223846435547e+00,3.066926002502441406e+00,3.066447019577026367e+00,3.065968275070190430e+00,3.065489292144775391e+00,3.065010786056518555e+00,3.064532518386840820e+00,3.064054250717163086e+00,3.063575744628906250e+00,3.063097953796386719e+00,3.062620162963867188e+00,3.062142372131347656e+00,3.061664581298828125e+00,3.061187267303466797e+00,3.060709953308105469e+00,3.060233116149902344e+00,3.059756040573120117e+00,3.059278964996337891e+00,3.058802366256713867e+00,3.011126518249511719e+00,2.936804294586181641e+00,2.866062164306640625e+00,2.798648357391357422e+00,2.734332561492919922e+00,2.672906637191772461e+00,2.614180088043212891e+00,2.557978391647338867e+00,2.504142284393310547e+00,2.452525854110717773e+00,2.402994155883789062e+00,2.355423688888549805e+00,2.309699773788452148e+00,2.265717506408691406e+00,2.223379135131835938e+00,2.182593822479248047e+00,2.143277883529663086e+00,2.105353355407714844e+00,2.068747520446777344e+00,2.033393144607543945e+00,1.999226570129394531e+00,1.966189622879028320e+00,1.934226274490356445e+00,1.903285980224609375e+00,1.873319506645202637e+00,1.844282150268554688e+00
2.605628013610839844e+00,2.605282306671142578e+00,2.604936838150024414e+00,2.604591131210327148e+00,2.604245424270629883e+00,2.603900194168090820e+00,2.603554725646972656e+00,2.603209495544433594e+00,2.602864503860473633e+00,2.602519273757934570e+00,2.602174282073974609e+00,2.601829528808593750e+00,2.601484775543212891e+00,2.601140022277832031e+00,2.600795269012451172e+00,2.600450992584228516e+00,2.600106477737426758e+00,2.599761962890625000e+00,2.599417924880981445e+00,2.599073648452758789e+00,2.598729610443115234e+00,2.598385810852050781e+00,2.598041772842407227e+00,2.597697973251342773e+00,2.597354412078857422e+00,2.597010850906372070e+00,2.596667051315307617e+00,2.596323728561401367e+00,2.595980405807495117e+00,2.595637321472167969e+00,2.595293998718261719e+00,2.594950914382934570e+00,2.594608068466186523e+00,2.594265222549438477e+00,2.593922376632690430e+00,2.593579769134521484e+00,2.593237161636352539e+00,2.592894554138183594e+00,2.592552185058593750e+00,2.592209815979003906e+00,2.591867685317993164e+00,2.591525554656982422e+00,2.591183423995971680e+00,2.590841293334960938e+00,2.590499401092529297e+00,2.590157747268676758e+00,2.589816093444824219e+00,2.589474439620971680e+00,2.589132785797119141e+00,2.588791370391845703e+00,2.588450193405151367e+00,2.588109016418457031e+00,2.587767601013183594e+00,2.587426662445068359e+00,2.587085723876953125e+00,2.586744785308837891e+00,2.586403846740722656e+00,2.586063146591186523e+00,2.585722684860229492e+00,2.585382223129272461e+00,2.585041522979736328e+00,2.558016777038574219e+00,2.504179239273071289e+00,2.452561140060424805e+00,2.403028011322021484e+00,2.355456352233886719e+00,2.309731245040893555e+00,2.265747785568237305e+00,2.223408222198486328e+00,2.182621955871582031e+00,2.143305063247680664e+00,2.105379581451416016e+00,2.068772792816162109e+00,2.033417463302612305e+00,1.999250173568725586e+00,1.966212391853332520e+00,1.934248447418212891e+00,1.903307080268859863e+00,1.873340249061584473e+00,1.844302296638488770e+00
2.255595684051513672e+00,2.255336284637451172e+00,2.255076646804809570e+00,2.254817247390747070e+00,2.254557847976684570e+00,2.254298686981201172e+00,2.254039525985717773e+00,2.253780364990234375e+00,2.253521203994750977e+00,2.253262042999267578e+00,2.253003120422363281e+00,2.252744197845458984e+00,2.252485513687133789e+00,2.252226591110229492e+00,2.251967906951904297e+00,2.251708984375000000e+00,2.251450300216674805e+00,2.251191854476928711e+00,2.250933170318603516e+00,2.250674724578857422e+00,2.250416517257690430e+00,2.250158071517944336e+00,2.249899864196777344e+00,2.249641656875610352e+00,2.249383926391601562e+00,2.249126195907592773e+00,2.248868465423583984e+00,2.248610973358154297e+00,2.248353481292724609e+00,2.248095989227294922e+00,2.247838497161865234e+00,2.247581243515014648e+00,2.247323751449584961e+00,2.247066736221313477e+00,2.246809482574462891e+00,2.246552228927612305e+00,2.246295213699340820e+00,2.246038198471069336e+00,2.245781421661376953e+00,2.245524406433105469e+00,2.245267629623413086e+00,2.245010852813720703e+00,2.244754076004028320e+00,2.244497299194335938e+00,2.244240760803222656e+00,2.243984460830688477e+00,2.243727922439575195e+00,2.243471384048461914e+00,2.243215084075927734e+00,2.242958784103393555e+00,2.242702484130859375e+00,2.242446422576904297e+00,2.242190122604370117e+00,2.241934299468994141e+00,2.241678237915039062e+00,2.241422414779663086e+00,2.241166353225708008e+00,2.240910530090332031e+00,2.240654706954956055e+00,2.240399122238159180e+00,2.240143299102783203e+00,2.239887714385986328e+00,2.239632368087768555e+00,2.239376783370971680e+00,2.239121198654174805e+00,2.238865852355957031e+00,2.238610744476318359e+00,2.238355398178100586e+00,2.223437309265136719e+00,2.182649850845336914e+00,2.143332004547119141e+00,2.105405569076538086e+00,2.068798065185546875e+00,2.033441781997680664e+00,1.999273777008056641e+00,1.966234922409057617e+00,1.934270501136779785e+00,1.903328418731689453e+00,1.873360753059387207e+00,1.844322323799133301e+00
1.988488078117370605e+00,1.988286375999450684e+00,1.988084673881530762e+00,1.987882971763610840e+00,1.987681388854980469e+00,1.987479805946350098e+00,1.987278342247009277e+00,1.987076878547668457e+00,1.986875414848327637e+00,1.986674070358276367e+00,1.986472725868225098e+00,1.986271381378173828e+00,1.986070156097412109e+00,1.985869050025939941e+00,1.985667943954467773e+00,1.985466718673706055e+00,1.985265612602233887e+00,1.985064625740051270e+00,1.984863638877868652e+00,1.984662652015686035e+00,1.984461665153503418e+00,1.984260678291320801e+00,1.984059810638427734e+00,1.983859062194824219e+00,1.983658194541931152e+00,1.983457565307617188e+00,1.983256816864013672e+00,1.983056187629699707e+00,1.982855796813964844e+00,1.982655167579650879e+00,1.982454657554626465e+00,1.982254147529602051e+00,1.982053637504577637e+00,1.981853246688842773e+00,1.981652855873107910e+00,1.981452584266662598e+00,1.981252193450927734e+00,1.981052041053771973e+00,1.980851769447326660e+00,1.980651617050170898e+00,1.980451464653015137e+00,1.980251312255859375e+00,1.980051517486572266e+00,1.979851484298706055e+00,1.979651570320129395e+00,1.979451656341552734e+00,1.979251742362976074e+00,1.979051828384399414e+00,1.978852033615112305e+00,1.978652238845825195e+00,1.978452563285827637e+00,1.978252887725830078e+00,1.978053212165832520e+00,1.977853536605834961e+00,1.977653980255126953e+00,1.977454423904418945e+00,1.977254986763000488e+00,1.977055788040161133e+00,1.976856350898742676e+00,1.976656913757324219e+00,1.976457595825195312e+00,1.976258277893066406e+00,1.976059079170227051e+00,1.975859880447387695e+00,1.975660681724548340e+00,1.975461602210998535e+00,1.975262522697448730e+00,1.975063443183898926e+00,1.974864363670349121e+00,1.974665403366088867e+00,1.974466562271118164e+00,1.974267601966857910e+00,1.974068999290466309e+00,1.973870158195495605e+00,1.973671436309814453e+00,1.966257810592651367e+00,1.934292316436767578e+00,1.903349876403808594e+00,1.873381495475769043e+00,1.844342231750488281e+00
1.777943730354309082e+00,1.777782440185546875e+00,1.777621269226074219e+00,1.777459979057312012e+00,1.777298808097839355e+00,1.777137756347656250e+00,1.776976585388183594e+00,1.776815652847290039e+00,1.776654601097106934e+00,1.776493549346923828e+00,1.776332616806030273e+00,1.776171565055847168e+00,1.776010632514953613e+00,1.775849699974060059e+00,1.775688886642456055e+00,1.775527954101562500e+00,1.775367140769958496e+00,1.775206327438354492e+00,1.775045633316040039e+00,1.774884819984436035e+00,1.774724125862121582e+00,1.774563670158386230e+00,1.774402976036071777e+00,1.774242401123046875e+00,1.774081707000732422e+00,1.773921251296997070e+00,1.773760676383972168e+00,1.773600101470947266e+00,1.773439645767211914e+00,1.773279190063476562e+00,1.773118734359741211e+00,1.772958397865295410e+00,1.772798061370849609e+00,1.772637724876403809e+00,1.772477388381958008e+00,1.772317051887512207e+00,1.772157073020935059e+00,1.771996855735778809e+00,1.771836638450622559e+00,1.771676421165466309e+00,1.771516323089599609e+00,1.771356225013732910e+00,1.771196126937866211e+00,1.771036028861999512e+00,1.770876049995422363e+00,1.770716071128845215e+00,1.770556092262268066e+00,1.770396113395690918e+00,1.770236253738403320e+00,1.770076394081115723e+00,1.769916534423828125e+00,1.769756913185119629e+00,1.769597053527832031e+00,1.769437313079833984e+00,1.769277572631835938e+00,1.769117951393127441e+00,1.768958210945129395e+00,1.768798589706420898e+00,1.768638968467712402e+00,1.768479347229003906e+00,1.768319845199584961e+00,1.768160343170166016e+00,1.768000841140747070e+00,1.767841339111328125e+00,1.767681837081909180e+00,1.767522692680358887e+00,1.767363309860229492e+00,1.767203927040100098e+00,1.767044544219970703e+00,1.766885280609130859e+00,1.766726016998291016e+00,1.766566753387451172e+00,1.766407608985900879e+00,1.766248345375061035e+00,1.766089200973510742e+00,1.765930175781250000e+00,1.765771031379699707e+00,1.765612006187438965e+00,1.765452980995178223e+00,1.765293955802917480e+00
1.607716202735900879e+00,1.607584476470947266e+00,1.607452630996704102e+00,1.607320785522460938e+00,1.607189059257507324e+00,1.607057213783264160e+00,1.606925487518310547e+00,1.606793761253356934e+00,1.606662034988403320e+00,1.606530308723449707e+00,1.606398701667785645e+00,1.606266975402832031e+00,1.606135368347167969e+00,1.606003761291503906e+00,1.605872154235839844e+00,1.605740785598754883e+00,1.605609178543090820e+00,1.605477690696716309e+00,1.605346202850341797e+00,1.605214715003967285e+00,1.605083227157592773e+00,1.604951858520507812e+00,1.604820370674133301e+00,1.604689002037048340e+00,1.604557633399963379e+00,1.604426264762878418e+00,1.604295015335083008e+00,1.604163646697998047e+00,1.604032397270202637e+00,1.603901147842407227e+00,1.603770017623901367e+00,1.603638768196105957e+00,1.603507637977600098e+00,1.603376388549804688e+00,1.603245258331298828e+00,1.603114128112792969e+00,1.602982997894287109e+00,1.602851867675781250e+00,1.602720856666564941e+00,1.602589845657348633e+00,1.602458834648132324e+00,1.602327823638916016e+00,1.602196812629699707e+00,1.602065801620483398e+00,1.601935029029846191e+00,1.601804137229919434e+00,1.601673245429992676e+00,1.601542353630065918e+00,1.601411461830139160e+00,1.601280689239501953e+00,1.601149797439575195e+00,1.601019024848937988e+00,1.600888252258300781e+00,1.600757598876953125e+00,1.600626826286315918e+00,1.600496053695678711e+00,1.600365400314331055e+00,1.600234746932983398e+00,1.600104093551635742e+00,1.599973559379577637e+00,1.599843025207519531e+00,1.599712371826171875e+00,1.599581837654113770e+00,1.599451303482055664e+00,1.599320769309997559e+00,1.599190354347229004e+00,1.599059820175170898e+00,1.598929405212402344e+00,1.598798990249633789e+00,1.598668575286865234e+00,1.598538160324096680e+00,1.598407864570617676e+00,1.598277449607849121e+00,1.598147273063659668e+00,1.598016977310180664e+00,1.597886681556701660e+00,1.597756505012512207e+00,1.597626209259033203e+00,1.597496032714843750e+00,1.597365856170654297e+00
1.467237114906311035e+00,1.467127203941345215e+00,1.467017412185668945e+00,1.466907620429992676e+00,1.466797828674316406e+00,1.466688036918640137e+00,1.466578364372253418e+00,1.466468572616577148e+00,1.466358900070190430e+00,1.466249346733093262e+00,1.466139674186706543e+00,1.466030001640319824e+00,1.465920329093933105e+00,1.465810656547546387e+00,1.465701103210449219e+00,1.465591430664062500e+00,1.465481877326965332e+00,1.465372323989868164e+00,1.465262770652770996e+00,1.465153217315673828e+00,1.465043663978576660e+00,1.464934229850769043e+00,1.464824676513671875e+00,1.464715361595153809e+00,1.464605927467346191e+00,1.464496493339538574e+00,1.464387059211730957e+00,1.464277625083923340e+00,1.464168310165405273e+00,1.464058876037597656e+00,1.463949561119079590e+00,1.463840246200561523e+00,1.463730931282043457e+00,1.463621616363525391e+00,1.463512301445007324e+00,1.463402986526489258e+00,1.463293790817260742e+00,1.463184475898742676e+00,1.463075399398803711e+00,1.462966203689575195e+00,1.462857007980346680e+00,1.462747812271118164e+00,1.462638616561889648e+00,1.462529540061950684e+00,1.462420463562011719e+00,1.462311267852783203e+00,1.462202191352844238e+00,1.462093114852905273e+00,1.461984038352966309e+00,1.461875081062316895e+00,1.461766004562377930e+00,1.461657047271728516e+00,1.461547970771789551e+00,1.461439132690429688e+00,1.461330175399780273e+00,1.461221218109130859e+00,1.461112260818481445e+00,1.461003422737121582e+00,1.460894465446472168e+00,1.460785627365112305e+00,1.460676789283752441e+00,1.460567951202392578e+00,1.460459113121032715e+00,1.460350275039672852e+00,1.460241436958312988e+00,1.460132718086242676e+00,1.460023880004882812e+00,1.459915280342102051e+00,1.459806561470031738e+00,1.459697842597961426e+00,1.459589123725891113e+00,1.459480404853820801e+00,1.459371685981750488e+00,1.459263086318969727e+00,1.459154486656188965e+00,1.459045767784118652e+00,1.458937168121337891e+00,1.458828568458557129e+00,1.458720088005065918e+00,1.458611488342285156e+00
1.349334716796875000e+00,1.349241733551025391e+00,1.349148988723754883e+00,1.349056124687194824e+00,1.348963260650634766e+00,1.348870515823364258e+00,1.348777651786804199e+00,1.348684787750244141e+00,1.348592042922973633e+00,1.348499298095703125e+00,1.348406434059143066e+00,1.348313689231872559e+00,1.348220944404602051e+00,1.348128199577331543e+00,1.348035454750061035e+00,1.347942829132080078e+00,1.347850084304809570e+00,1.347757577896118164e+00,1.347664833068847656e+00,1.347572207450866699e+00,1.347479581832885742e+00,1.347386956214904785e+00,1.347294330596923828e+00,1.347201704978942871e+00,1.347109079360961914e+00,1.347016572952270508e+00,1.346923947334289551e+00,1.346831440925598145e+00,1.346738934516906738e+00,1.346646308898925781e+00,1.346553802490234375e+00,1.346461415290832520e+00,1.346368908882141113e+00,1.346276521682739258e+00,1.346184015274047852e+00,1.346091508865356445e+00,1.345999121665954590e+00,1.345906615257263184e+00,1.345814228057861328e+00,1.345721840858459473e+00,1.345629453659057617e+00,1.345537066459655762e+00,1.345444679260253906e+00,1.345352411270141602e+00,1.345260024070739746e+00,1.345167636871337891e+00,1.345075488090515137e+00,1.344983220100402832e+00,1.344890832901000977e+00,1.344798564910888672e+00,1.344706296920776367e+00,1.344614028930664062e+00,1.344521880149841309e+00,1.344429612159729004e+00,1.344337344169616699e+00,1.344245195388793945e+00,1.344153046607971191e+00,1.344060778617858887e+00,1.343968629837036133e+00,1.343876481056213379e+00,1.343784332275390625e+00,1.343692302703857422e+00,1.343600273132324219e+00,1.343508124351501465e+00,1.343416094779968262e+00,1.343323945999145508e+00,1.343231916427612305e+00,1.343139886856079102e+00,1.343047857284545898e+00,1.342955827713012695e+00,1.342863798141479492e+00,1.342771768569946289e+00,1.342679738998413086e+00,1.342587828636169434e+00,1.342495799064636230e+00,1.342404007911682129e+00,1.342312097549438477e+00,1.342220187187194824e+00,1.342128157615661621e+00,1.342036366462707520e+00
1.248971462249755859e+00,1.248891949653625488e+00,1.248812317848205566e+00,1.248732805252075195e+00,1.248653292655944824e+00,1.248573660850524902e+00,1.248494148254394531e+00,1.248414635658264160e+00,1.248335123062133789e+00,1.248255610466003418e+00,1.248176097869873047e+00,1.248096704483032227e+00,1.248017311096191406e+00,1.247937798500061035e+00,1.247858405113220215e+00,1.247778892517089844e+00,1.247699499130249023e+00,1.247620105743408203e+00,1.247540593147277832e+00,1.247461199760437012e+00,1.247381806373596191e+00,1.247302412986755371e+00,1.247223138809204102e+00,1.247143745422363281e+00,1.247064352035522461e+00,1.246985077857971191e+00,1.246905803680419922e+00,1.246826529502868652e+00,1.246747136116027832e+00,1.246667861938476562e+00,1.246588587760925293e+00,1.246509313583374023e+00,1.246430039405822754e+00,1.246350765228271484e+00,1.246271491050720215e+00,1.246192216873168945e+00,1.246113061904907227e+00,1.246033787727355957e+00,1.245954632759094238e+00,1.245875358581542969e+00,1.245796322822570801e+00,1.245717167854309082e+00,1.245637893676757812e+00,1.245558738708496094e+00,1.245479583740234375e+00,1.245400547981262207e+00,1.245321393013000488e+00,1.245242238044738770e+00,1.245163083076477051e+00,1.245084047317504883e+00,1.245004892349243164e+00,1.244925856590270996e+00,1.244846820831298828e+00,1.244767785072326660e+00,1.244688749313354492e+00,1.244609713554382324e+00,1.244530677795410156e+00,1.244451642036437988e+00,1.244372725486755371e+00,1.244293689727783203e+00,1.244214653968811035e+00,1.244135737419128418e+00,1.244056701660156250e+00,1.243977785110473633e+00,1.243898868560791016e+00,1.243819832801818848e+00,1.243740916252136230e+00,1.243661999702453613e+00,1.243583083152770996e+00,1.243504285812377930e+00,1.243425488471984863e+00,1.243346571922302246e+00,1.243267655372619629e+00,1.243188858032226562e+00,1.243109941482543945e+00,1.243031144142150879e+00,1.242952346801757812e+00,1.242873549461364746e+00,1.242794632911682129e+00,1.242715835571289062e+00
1.162504673004150391e+00,1.162435770034790039e+00,1.162366747856140137e+00,1.162297844886779785e+00,1.162229061126708984e+00,1.162160158157348633e+00,1.162091255187988281e+00,1.162022352218627930e+00,1.161953449249267578e+00,1.161884546279907227e+00,1.161815643310546875e+00,1.161746740341186523e+00,1.161677956581115723e+00,1.161609053611755371e+00,1.161540269851684570e+00,1.161471366882324219e+00,1.161402583122253418e+00,1.161333799362182617e+00,1.161264896392822266e+00,1.161196231842041016e+00,1.161127448081970215e+00,1.161058664321899414e+00,1.160989880561828613e+00,1.160921096801757812e+00,1.160852313041687012e+00,1.160783648490905762e+00,1.160714864730834961e+00,1.160646080970764160e+00,1.160577416419982910e+00,1.160508632659912109e+00,1.160439968109130859e+00,1.160371303558349609e+00,1.160302519798278809e+00,1.160233974456787109e+00,1.160165309906005859e+00,1.160096645355224609e+00,1.160027980804443359e+00,1.159959316253662109e+00,1.159890651702880859e+00,1.159821987152099609e+00,1.159753322601318359e+00,1.159684777259826660e+00,1.159616112709045410e+00,1.159547567367553711e+00,1.159478902816772461e+00,1.159410357475280762e+00,1.159341692924499512e+00,1.159273147583007812e+00,1.159204721450805664e+00,1.159136176109313965e+00,1.159067630767822266e+00,1.158999085426330566e+00,1.158930540084838867e+00,1.158861994743347168e+00,1.158793449401855469e+00,1.158724904060363770e+00,1.158656477928161621e+00,1.158587932586669922e+00,1.158519506454467773e+00,1.158450961112976074e+00,1.158382534980773926e+00,1.158314108848571777e+00,1.158245682716369629e+00,1.158177256584167480e+00,1.158108830451965332e+00,1.158040404319763184e+00,1.157971978187561035e+00,1.157903552055358887e+00,1.157835245132446289e+00,1.157766819000244141e+00,1.157698392868041992e+00,1.157630085945129395e+00,1.157561659812927246e+00,1.157493352890014648e+00,1.157424926757812500e+00,1.157356619834899902e+00,1.157288312911987305e+00,1.157220005989074707e+00,1.157151699066162109e+00,1.157083392143249512e+00
1.087234973907470703e+00,1.087174654006958008e+00,1.087114334106445312e+00,1.087054014205932617e+00,1.086993813514709473e+00,1.086933493614196777e+00,1.086873173713684082e+00,1.086812973022460938e+00,1.086752653121948242e+00,1.086692452430725098e+00,1.086632132530212402e+00,1.086571931838989258e+00,1.086511731147766113e+00,1.086451530456542969e+00,1.086391329765319824e+00,1.086331129074096680e+00,1.086270928382873535e+00,1.086210727691650391e+00,1.086150527000427246e+00,1.086090326309204102e+00,1.086030125617980957e+00,1.085969924926757812e+00,1.085909843444824219e+00,1.085849642753601074e+00,1.085789442062377930e+00,1.085729360580444336e+00,1.085669159889221191e+00,1.085609078407287598e+00,1.085548996925354004e+00,1.085488915443420410e+00,1.085428714752197266e+00,1.085368633270263672e+00,1.085308551788330078e+00,1.085248470306396484e+00,1.085188388824462891e+00,1.085128307342529297e+00,1.085068225860595703e+00,1.085008144378662109e+00,1.084948062896728516e+00,1.084888100624084473e+00,1.084828019142150879e+00,1.084768056869506836e+00,1.084707975387573242e+00,1.084647893905639648e+00,1.084587931632995605e+00,1.084527969360351562e+00,1.084467887878417969e+00,1.084407925605773926e+00,1.084347963333129883e+00,1.084287881851196289e+00,1.084227919578552246e+00,1.084167957305908203e+00,1.084107995033264160e+00,1.084048032760620117e+00,1.083988070487976074e+00,1.083928108215332031e+00,1.083868265151977539e+00,1.083808302879333496e+00,1.083748459815979004e+00,1.083688497543334961e+00,1.083628535270690918e+00,1.083568692207336426e+00,1.083508729934692383e+00,1.083448886871337891e+00,1.083388924598693848e+00,1.083329081535339355e+00,1.083269238471984863e+00,1.083209395408630371e+00,1.083149433135986328e+00,1.083089590072631836e+00,1.083029747009277344e+00,1.082970023155212402e+00,1.082910180091857910e+00,1.082850337028503418e+00,1.082790493965148926e+00,1.082730650901794434e+00,1.082670927047729492e+00,1.082611083984375000e+00,1.082551240921020508e+00,1.082491517066955566e+00
1.021119594573974609e+00,1.021066308021545410e+00,1.021013140678405762e+00,1.020959973335266113e+00,1.020906805992126465e+00,1.020853638648986816e+00,1.020800471305847168e+00,1.020747423171997070e+00,1.020694255828857422e+00,1.020641088485717773e+00,1.020587921142578125e+00,1.020534753799438477e+00,1.020481586456298828e+00,1.020428538322448730e+00,1.020375370979309082e+00,1.020322203636169434e+00,1.020269155502319336e+00,1.020215988159179688e+00,1.020162940025329590e+00,1.020109891891479492e+00,1.020056724548339844e+00,1.020003676414489746e+00,1.019950628280639648e+00,1.019897580146789551e+00,1.019844532012939453e+00,1.019791483879089355e+00,1.019738435745239258e+00,1.019685387611389160e+00,1.019632339477539062e+00,1.019579291343688965e+00,1.019526243209838867e+00,1.019473195075988770e+00,1.019420146942138672e+00,1.019367098808288574e+00,1.019314169883728027e+00,1.019261121749877930e+00,1.019208192825317383e+00,1.019155144691467285e+00,1.019102215766906738e+00,1.019049167633056641e+00,1.018996238708496094e+00,1.018943190574645996e+00,1.018890261650085449e+00,1.018837332725524902e+00,1.018784284591674805e+00,1.018731355667114258e+00,1.018678426742553711e+00,1.018625497817993164e+00,1.018572568893432617e+00,1.018519639968872070e+00,1.018466711044311523e+00,1.018413901329040527e+00,1.018360972404479980e+00,1.018308043479919434e+00,1.018255114555358887e+00,1.018202185630798340e+00,1.018149375915527344e+00,1.018096446990966797e+00,1.018043518066406250e+00,1.017990708351135254e+00,1.017937779426574707e+00,1.017884969711303711e+00,1.017832040786743164e+00,1.017779231071472168e+00,1.017726421356201172e+00,1.017673611640930176e+00,1.017620801925659180e+00,1.017567873001098633e+00,1.017515063285827637e+00,1.017462253570556641e+00,1.017409443855285645e+00,1.017356634140014648e+00,1.017303824424743652e+00,1.017251014709472656e+00,1.017198204994201660e+00,1.017145514488220215e+00,1.017092704772949219e+00,1.017039895057678223e+00,1.016987085342407227e+00,1.016934394836425781e+00
9.625843763351440430e-01,9.625371098518371582e-01,9.624898433685302734e-01,9.624425768852233887e-01,9.623953104019165039e-01,9.623480439186096191e-01,9.623007774353027344e-01,9.622535705566406250e-01,9.622063040733337402e-01,9.621590971946716309e-01,9.621118307113647461e-01,9.620646238327026367e-01,9.620174169540405273e-01,9.619702100753784180e-01,9.619230031967163086e-01,9.618757963180541992e-01,9.618285894393920898e-01,9.617813825607299805e-01,9.617341756820678711e-01,9.616869688034057617e-01,9.616398215293884277e-01,9.615926146507263184e-01,9.615454673767089844e-01,9.614982604980468750e-01,9.614511132240295410e-01,9.614039659500122070e-01,9.613568186759948730e-01,9.613096714019775391e-01,9.612625241279602051e-01,9.612154960632324219e-01,9.611683487892150879e-01,9.611212015151977539e-01,9.610740542411804199e-01,9.610269665718078613e-01,9.609798192977905273e-01,9.609327316284179688e-01,9.608855843544006348e-01,9.608384966850280762e-01,9.607914090156555176e-01,9.607443213462829590e-01,9.606972336769104004e-01,9.606501460075378418e-01,9.606030583381652832e-01,9.605559706687927246e-01,9.605088829994201660e-01,9.604617953300476074e-01,9.604147672653198242e-01,9.603676795959472656e-01,9.603206515312194824e-01,9.602735638618469238e-01,9.602265357971191406e-01,9.601795077323913574e-01,9.601324796676635742e-01,9.600854516029357910e-01,9.600384235382080078e-01,9.599913954734802246e-01,9.599443674087524414e-01,9.598973393440246582e-01,9.598504304885864258e-01,9.598034620285034180e-01,9.597564339637756348e-01,9.597094655036926270e-01,9.596624374389648438e-01,9.596154689788818359e-01,9.595685005187988281e-01,9.595215320587158203e-01,9.594745635986328125e-01,9.594275951385498047e-01,9.593806266784667969e-01,9.593336582183837891e-01,9.592866897583007812e-01,9.592397212982177734e-01,9.591928124427795410e-01,9.591458439826965332e-01,9.590989351272583008e-01,9.590519666671752930e-01,9.590050578117370605e-01,9.589581489562988281e-01,9.589112401008605957e-01,9.588643312454223633e-01
9.103961586952209473e-01,9.103538990020751953e-01,9.103116393089294434e-01,9.102693200111389160e-01,9.102270603179931641e-01,9.101848006248474121e-01,9.101425409317016602e-01,9.101002812385559082e-01,9.100580811500549316e-01,9.100158810615539551e-01,9.099736213684082031e-01,9.099313616752624512e-01,9.098891019821166992e-01,9.098468422889709473e-01,9.098046422004699707e-01,9.097623825073242188e-01,9.097201824188232422e-01,9.096779823303222656e-01,9.096357226371765137e-01,9.095935225486755371e-01,9.095513224601745605e-01,9.095091223716735840e-01,9.094669222831726074e-01,9.094247221946716309e-01,9.093825221061706543e-01,9.093403220176696777e-01,9.092981219291687012e-01,9.092559218406677246e-01,9.092137813568115234e-01,9.091715812683105469e-01,9.091293811798095703e-01,9.090872406959533691e-01,9.090451002120971680e-01,9.090029001235961914e-01,9.089607596397399902e-01,9.089186191558837891e-01,9.088764786720275879e-01,9.088343977928161621e-01,9.087922573089599609e-01,9.087501168251037598e-01,9.087079763412475586e-01,9.086658954620361328e-01,9.086237549781799316e-01,9.085816144943237305e-01,9.085395336151123047e-01,9.084973931312561035e-01,9.084553122520446777e-01,9.084131717681884766e-01,9.083710908889770508e-01,9.083290100097656250e-01,9.082868695259094238e-01,9.082447886466979980e-01,9.082027077674865723e-01,9.081606268882751465e-01,9.081185460090637207e-01,9.080764651298522949e-01,9.080344438552856445e-01,9.079923629760742188e-01,9.079502820968627930e-01,9.079082608222961426e-01,9.078661799430847168e-01,9.078240990638732910e-01,9.077820777893066406e-01,9.077400565147399902e-01,9.076979756355285645e-01,9.076559543609619141e-01,9.076139926910400391e-01,9.075719714164733887e-01,9.075299501419067383e-01,9.074879288673400879e-01,9.074459671974182129e-01,9.074039459228515625e-01,9.073619246482849121e-01,9.073199033737182617e-01,9.072779417037963867e-01,9.072359204292297363e-01,9.071938991546630859e-01,9.071519374847412109e-01,9.071099758148193359e-01,9.070679545402526855e-01
8.635759949684143066e-01,8.635379672050476074e-01,8.634998798370361328e-01,8.634618520736694336e-01,8.634238243103027344e-01,8.633857965469360352e-01,8.633477687835693359e-01,8.633097410202026367e-01,8.632717132568359375e-01,8.632336854934692383e-01,8.631956577301025391e-01,8.631576299667358398e-01,8.631196618080139160e-01,8.630816340446472168e-01,8.630436062812805176e-01,8.630056381225585938e-01,8.629677295684814453e-01,8.629297018051147461e-01,8.628917336463928223e-01,8.628537654876708984e-01,8.628157377243041992e-01,8.627777695655822754e-01,8.627398014068603516e-01,8.627018332481384277e-01,8.626638650894165039e-01,8.626258969306945801e-01,8.625879287719726562e-01,8.625499606132507324e-01,8.625119924545288086e-01,8.624740242958068848e-01,8.624361157417297363e-01,8.623981475830078125e-01,8.623601794242858887e-01,8.623222708702087402e-01,8.622843027114868164e-01,8.622463941574096680e-01,8.622084259986877441e-01,8.621705174446105957e-01,8.621326088905334473e-01,8.620947003364562988e-01,8.620567321777343750e-01,8.620188236236572266e-01,8.619809150695800781e-01,8.619430065155029297e-01,8.619050979614257812e-01,8.618673086166381836e-01,8.618294000625610352e-01,8.617914915084838867e-01,8.617536425590515137e-01,8.617157340049743652e-01,8.616778254508972168e-01,8.616399765014648438e-01,8.616020679473876953e-01,8.615642189979553223e-01,8.615263700485229492e-01,8.614884614944458008e-01,8.614506125450134277e-01,8.614127635955810547e-01,8.613749146461486816e-01,8.613370656967163086e-01,8.612992167472839355e-01,8.612613677978515625e-01,8.612235188484191895e-01,8.611856698989868164e-01,8.611478209495544434e-01,8.611099720001220703e-01,8.610721230506896973e-01,8.610343337059020996e-01,8.609964847564697266e-01,8.609586954116821289e-01,8.609208464622497559e-01,8.608830571174621582e-01,8.608452081680297852e-01,8.608074188232421875e-01,8.607696890830993652e-01,8.607318997383117676e-01,8.606941103935241699e-01,8.606563210487365723e-01,8.606185317039489746e-01,8.605807423591613770e-01
8.213360309600830078e-01,8.213016390800476074e-01,8.212671875953674316e-01,8.212327957153320312e-01,8.211984038352966309e-01,8.211639523506164551e-01,8.211295604705810547e-01,8.210951685905456543e-01,8.210607767105102539e-01,8.210263848304748535e-01,8.209919929504394531e-01,8.209576010704040527e-01,8.209232091903686523e-01,8.208888173103332520e-01,8.208544850349426270e-01,8.208200931549072266e-01,8.207857012748718262e-01,8.207513093948364258e-01,8.207169771194458008e-01,8.206825852394104004e-01,8.206482529640197754e-01,8.206138610839843750e-01,8.205795288085937500e-01,8.205451965332031250e-01,8.205109238624572754e-01,8.204765319824218750e-01,8.204421997070312500e-01,8.204078674316406250e-01,8.203735351562500000e-01,8.203392028808593750e-01,8.203048706054687500e-01,8.202705383300781250e-01,8.202362060546875000e-01,8.202018737792968750e-01,8.201675415039062500e-01,8.201332092285156250e-01,8.200989365577697754e-01,8.200646042823791504e-01,8.200302720069885254e-01,8.199959993362426758e-01,8.199616670608520508e-01,8.199273943901062012e-01,8.198930621147155762e-01,8.198587894439697266e-01,8.198245167732238770e-01,8.197901844978332520e-01,8.197559118270874023e-01,8.197216391563415527e-01,8.196873664855957031e-01,8.196530938148498535e-01,8.196187615394592285e-01,8.195844888687133789e-01,8.195502161979675293e-01,8.195160627365112305e-01,8.194817900657653809e-01,8.194475173950195312e-01,8.194132447242736816e-01,8.193790316581726074e-01,8.193447589874267578e-01,8.193104863166809082e-01,8.192762732505798340e-01,8.192420005798339844e-01,8.192077875137329102e-01,8.191735148429870605e-01,8.191393017768859863e-01,8.191050887107849121e-01,8.190708160400390625e-01,8.190366029739379883e-01,8.190023899078369141e-01,8.189681768417358398e-01,8.189339637756347656e-01,8.188997507095336914e-01,8.188655376434326172e-01,8.188313245773315430e-01,8.187971115112304688e-01,8.187628984451293945e-01,8.187286853790283203e-01,8.186944723129272461e-01,8.186602592468261719e-01,8.186261057853698730e-01
7.830354571342468262e-01,7.830041646957397461e-01,7.829729318618774414e-01,7.829416990280151367e-01,7.829104065895080566e-01,7.828791737556457520e-01,7.828478813171386719e-01,7.828166484832763672e-01,7.827853560447692871e-01,7.827541232109069824e-01,7.827228307723999023e-01,7.826915979385375977e-01,7.826603055000305176e-01,7.826290726661682129e-01,7.825978398323059082e-01,7.825665473937988281e-01,7.825353145599365234e-01,7.825040817260742188e-01,7.824728488922119141e-01,7.824416160583496094e-01,7.824103832244873047e-01,7.823791503906250000e-01,7.823479175567626953e-01,7.823166847229003906e-01,7.822854518890380859e-01,7.822542190551757812e-01,7.822229862213134766e-01,7.821918129920959473e-01,7.821605801582336426e-01,7.821293473243713379e-01,7.820981740951538086e-01,7.820669412612915039e-01,7.820358276367187500e-01,7.820045948028564453e-01,7.819734215736389160e-01,7.819421887397766113e-01,7.819110155105590820e-01,7.818798422813415527e-01,7.818486094474792480e-01,7.818174362182617188e-01,7.817862629890441895e-01,7.817550897598266602e-01,7.817239165306091309e-01,7.816927433013916016e-01,7.816615700721740723e-01,7.816303968429565430e-01,7.815992236137390137e-01,7.815680503845214844e-01,7.815368771553039551e-01,7.815057039260864258e-01,7.814745306968688965e-01,7.814433574676513672e-01,7.814122438430786133e-01,7.813810706138610840e-01,7.813498973846435547e-01,7.813187837600708008e-01,7.812876105308532715e-01,7.812564969062805176e-01,7.812253236770629883e-01,7.811942100524902344e-01,7.811630964279174805e-01,7.811319828033447266e-01,7.811008691787719727e-01,7.810697555541992188e-01,7.810386419296264648e-01,7.810075283050537109e-01,7.809763550758361816e-01,7.809452414512634277e-01,7.809141278266906738e-01,7.808830142021179199e-01,7.808519005775451660e-01,7.808207869529724121e-01,7.807897329330444336e-01,7.807586193084716797e-01,7.807275056838989258e-01,7.806963920593261719e-01,7.806653380393981934e-01,7.806342244148254395e-01,7.806031107902526855e-01,7.805720567703247070e-01
7.481479048728942871e-01,7.481193542480468750e-01,7.480907440185546875e-01,7.480621933937072754e-01,7.480336427688598633e-01,7.480050921440124512e-01,7.479766011238098145e-01,7.479480504989624023e-01,7.479194998741149902e-01,7.478909492492675781e-01,7.478623986244201660e-01,7.478339672088623047e-01,7.478054165840148926e-01,7.477768659591674805e-01,7.477483749389648438e-01,7.477198243141174316e-01,7.476912736892700195e-01,7.476627826690673828e-01,7.476342320442199707e-01,7.476057410240173340e-01,7.475772500038146973e-01,7.475486993789672852e-01,7.475202083587646484e-01,7.474916577339172363e-01,7.474631667137145996e-01,7.474346756935119629e-01,7.474061846733093262e-01,7.473776936531066895e-01,7.473492026329040527e-01,7.473206520080566406e-01,7.472921609878540039e-01,7.472636699676513672e-01,7.472351789474487305e-01,7.472066879272460938e-01,7.471782565116882324e-01,7.471497654914855957e-01,7.471212744712829590e-01,7.470927834510803223e-01,7.470642924308776855e-01,7.470358610153198242e-01,7.470073699951171875e-01,7.469789385795593262e-01,7.469505071640014648e-01,7.469220161437988281e-01,7.468935847282409668e-01,7.468650937080383301e-01,7.468366622924804688e-01,7.468081712722778320e-01,7.467797398567199707e-01,7.467512488365173340e-01,7.467228174209594727e-01,7.466943860054016113e-01,7.466659545898437500e-01,7.466374635696411133e-01,7.466090321540832520e-01,7.465806007385253906e-01,7.465521693229675293e-01,7.465237379074096680e-01,7.464953064918518066e-01,7.464668750762939453e-01,7.464384436607360840e-01,7.464100122451782227e-01,7.463815808296203613e-01,7.463531494140625000e-01,7.463247179985046387e-01,7.462963461875915527e-01,7.462679147720336914e-01,7.462394833564758301e-01,7.462111115455627441e-01,7.461826801300048828e-01,7.461543083190917969e-01,7.461259365081787109e-01,7.460975050926208496e-01,7.460691332817077637e-01,7.460407018661499023e-01,7.460123300552368164e-01,7.459839582443237305e-01,7.459555268287658691e-01,7.459271550178527832e-01,7.458987832069396973e-01
7.162364721298217773e-01,7.162103056907653809e-01,7.161841392517089844e-01,7.161579728126525879e-01,7.161318063735961914e-01,7.161056399345397949e-01,7.160794734954833984e-01,7.160533070564270020e-01,7.160271406173706055e-01,7.160009741783142090e-01,7.159748077392578125e-01,7.159486413002014160e-01,7.159225344657897949e-01,7.158963680267333984e-01,7.158702015876770020e-01,7.158440947532653809e-01,7.158179283142089844e-01,7.157917618751525879e-01,7.157656550407409668e-01,7.157394886016845703e-01,7.157134413719177246e-01,7.156872749328613281e-01,7.156611680984497070e-01,7.156350612640380859e-01,7.156088948249816895e-01,7.155827879905700684e-01,7.155566811561584473e-01,7.155305147171020508e-01,7.155044078826904297e-01,7.154783010482788086e-01,7.154521942138671875e-01,7.154260873794555664e-01,7.153999209403991699e-01,7.153738141059875488e-01,7.153477072715759277e-01,7.153216004371643066e-01,7.152954936027526855e-01,7.152693867683410645e-01,7.152432799339294434e-01,7.152172327041625977e-01,7.151911258697509766e-01,7.151650190353393555e-01,7.151389122009277344e-01,7.151128053665161133e-01,7.150867581367492676e-01,7.150606513023376465e-01,7.150345444679260254e-01,7.150084972381591797e-01,7.149823904037475586e-01,7.149564027786254883e-01,7.149302959442138672e-01,7.149041891098022461e-01,7.148781418800354004e-01,7.148520946502685547e-01,7.148259878158569336e-01,7.147999405860900879e-01,7.147738337516784668e-01,7.147477865219116211e-01,7.147217392921447754e-01,7.146956920623779297e-01,7.146695852279663086e-01,7.146435379981994629e-01,7.146174907684326172e-01,7.145914435386657715e-01,7.145653963088989258e-01,7.145393490791320801e-01,7.145133018493652344e-01,7.144872546195983887e-01,7.144612073898315430e-01,7.144351601600646973e-01,7.144091129302978516e-01,7.143830657005310059e-01,7.143570184707641602e-01,7.143309712409973145e-01,7.143049836158752441e-01,7.142789363861083984e-01,7.142528891563415527e-01,7.142268419265747070e-01,7.142009139060974121e-01,7.141748666763305664e-01
6.869359612464904785e-01,6.869119405746459961e-01,6.868878602981567383e-01,6.868637800216674805e-01,6.868396997451782227e-01,6.868156194686889648e-01,6.867915391921997070e-01,6.867675185203552246e-01,6.867434382438659668e-01,6.867193579673767090e-01,6.866953372955322266e-01,6.866712570190429688e-01,6.866471767425537109e-01,6.866231560707092285e-01,6.865990757942199707e-01,6.865750551223754883e-01,6.865509748458862305e-01,6.865269541740417480e-01,6.865028738975524902e-01,6.864788532257080078e-01,6.864547729492187500e-01,6.864307522773742676e-01,6.864067316055297852e-01,6.863827109336853027e-01,6.863586306571960449e-01,6.863346099853515625e-01,6.863105893135070801e-01,6.862865686416625977e-01,6.862625479698181152e-01,6.862385272979736328e-01,6.862145066261291504e-01,6.861904859542846680e-01,6.861664652824401855e-01,6.861424446105957031e-01,6.861184239387512207e-01,6.860944032669067383e-01,6.860703825950622559e-01,6.860463619232177734e-01,6.860223412513732910e-01,6.859983801841735840e-01,6.859743595123291016e-01,6.859503388404846191e-01,6.859263181686401367e-01,6.859022974967956543e-01,6.858783364295959473e-01,6.858543157577514648e-01,6.858302950859069824e-01,6.858063340187072754e-01,6.857823133468627930e-01,6.857583522796630859e-01,6.857343316078186035e-01,6.857103705406188965e-01,6.856863498687744141e-01,6.856623888015747070e-01,6.856383681297302246e-01,6.856144070625305176e-01,6.855904459953308105e-01,6.855664849281311035e-01,6.855425238609313965e-01,6.855185627937316895e-01,6.854945421218872070e-01,6.854705810546875000e-01,6.854466199874877930e-01,6.854226589202880859e-01,6.853986978530883789e-01,6.853747367858886719e-01,6.853507161140441895e-01,6.853267550468444824e-01,6.853027939796447754e-01,6.852788329124450684e-01,6.852548718452453613e-01,6.852309107780456543e-01,6.852070093154907227e-01,6.851830482482910156e-01,6.851590871810913086e-01,6.851351261138916016e-01,6.851111650466918945e-01,6.850872039794921875e-01,6.850633025169372559e-01,6.850393414497375488e-01
6.599385142326354980e-01,6.599163413047790527e-01,6.598941087722778320e-01,6.598718762397766113e-01,6.598496437072753906e-01,6.598274707794189453e-01,6.598052382469177246e-01,6.597830653190612793e-01,6.597608923912048340e-01,6.597386598587036133e-01,6.597164869308471680e-01,6.596942543983459473e-01,6.596720814704895020e-01,6.596498489379882812e-01,6.596276760101318359e-01,6.596054434776306152e-01,6.595832705497741699e-01,6.595610380172729492e-01,6.595388650894165039e-01,6.595166921615600586e-01,6.594944596290588379e-01,6.594722867012023926e-01,6.594501137733459473e-01,6.594279408454895020e-01,6.594057083129882812e-01,6.593835353851318359e-01,6.593613624572753906e-01,6.593391895294189453e-01,6.593170166015625000e-01,6.592948436737060547e-01,6.592726707458496094e-01,6.592504978179931641e-01,6.592283248901367188e-01,6.592061519622802734e-01,6.591839790344238281e-01,6.591618061065673828e-01,6.591396927833557129e-01,6.591175198554992676e-01,6.590953469276428223e-01,6.590731739997863770e-01,6.590510010719299316e-01,6.590288281440734863e-01,6.590067148208618164e-01,6.589845418930053711e-01,6.589623689651489258e-01,6.589402556419372559e-01,6.589180827140808105e-01,6.588959097862243652e-01,6.588737964630126953e-01,6.588516235351562500e-01,6.588294506072998047e-01,6.588073372840881348e-01,6.587851643562316895e-01,6.587630510330200195e-01,6.587408781051635742e-01,6.587187647819519043e-01,6.586966514587402344e-01,6.586744785308837891e-01,6.586523652076721191e-01,6.586301922798156738e-01,6.586080789566040039e-01,6.585859656333923340e-01,6.585638523101806641e-01,6.585416793823242188e-01,6.585195660591125488e-01,6.584975123405456543e-01,6.584753990173339844e-01,6.584532856941223145e-01,6.584311127662658691e-01,6.584089994430541992e-01,6.583868861198425293e-01,6.583647727966308594e-01,6.583426594734191895e-01,6.583205461502075195e-01,6.582984328269958496e-01,6.582763195037841797e-01,6.582542061805725098e-01,6.582320928573608398e-01,6.582100391387939453e-01,6.581879258155822754e-01
6.349829435348510742e-01,6.349623799324035645e-01,6.349418163299560547e-01,6.349212527275085449e-01,6.349006891250610352e-01,6.348801255226135254e-01,6.348595619201660156e-01,6.348389983177185059e-01,6.348184347152709961e-01,6.347978711128234863e-01,6.347773075103759766e-01,6.347567439079284668e-01,6.347361803054809570e-01,6.347156167030334473e-01,6.346950531005859375e-01,6.346745491027832031e-01,6.346539855003356934e-01,6.346334815025329590e-01,6.346129179000854492e-01,6.345923542976379395e-01,6.345717906951904297e-01,6.345512866973876953e-01,6.345307230949401855e-01,6.345102190971374512e-01,6.344896554946899414e-01,6.344690918922424316e-01,6.344485878944396973e-01,6.344280242919921875e-01,6.344075202941894531e-01,6.343869566917419434e-01,6.343664526939392090e-01,6.343458890914916992e-01,6.343253850936889648e-01,6.343048214912414551e-01,6.342843174934387207e-01,6.342638134956359863e-01,6.342432498931884766e-01,6.342227458953857422e-01,6.342022418975830078e-01,6.341816782951354980e-01,6.341611742973327637e-01,6.341406702995300293e-01,6.341201663017272949e-01,6.340996026992797852e-01,6.340791583061218262e-01,6.340586543083190918e-01,6.340381503105163574e-01,6.340176463127136230e-01,6.339971423149108887e-01,6.339766383171081543e-01,6.339561343193054199e-01,6.339356303215026855e-01,6.339151263236999512e-01,6.338946223258972168e-01,6.338741183280944824e-01,6.338536143302917480e-01,6.338331103324890137e-01,6.338126063346862793e-01,6.337921023368835449e-01,6.337715983390808105e-01,6.337510943412780762e-01,6.337306499481201172e-01,6.337101459503173828e-01,6.336896419525146484e-01,6.336691379547119141e-01,6.336486935615539551e-01,6.336281895637512207e-01,6.336076855659484863e-01,6.335872411727905273e-01,6.335667371749877930e-01,6.335462331771850586e-01,6.335257887840270996e-01,6.335052847862243652e-01,6.334848999977111816e-01,6.334643959999084473e-01,6.334439516067504883e-01,6.334234476089477539e-01,6.334030032157897949e-01,6.333824992179870605e-01,6.333620548248291016e-01
6.118460297584533691e-01,6.118268966674804688e-01,6.118078231811523438e-01,6.117886900901794434e-01,6.117696166038513184e-01,6.117505431175231934e-01,6.117314100265502930e-01,6.117123365402221680e-01,6.116932630538940430e-01,6.116741299629211426e-01,6.116550564765930176e-01,6.116359829902648926e-01,6.116169095039367676e-01,6.115977764129638672e-01,6.115787029266357422e-01,6.115596294403076172e-01,6.115405559539794922e-01,6.115214824676513672e-01,6.115024089813232422e-01,6.114833354949951172e-01,6.114642620086669922e-01,6.114451885223388672e-01,6.114261150360107422e-01,6.114070415496826172e-01,6.113879680633544922e-01,6.113688945770263672e-01,6.113498210906982422e-01,6.113308072090148926e-01,6.113117337226867676e-01,6.112926602363586426e-01,6.112735867500305176e-01,6.112545132637023926e-01,6.112354397773742676e-01,6.112163662910461426e-01,6.111973524093627930e-01,6.111782789230346680e-01,6.111592054367065430e-01,6.111401319503784180e-01,6.111211180686950684e-01,6.111020445823669434e-01,6.110829710960388184e-01,6.110639572143554688e-01,6.110448837280273438e-01,6.110258102416992188e-01,6.110067963600158691e-01,6.109877228736877441e-01,6.109687089920043945e-01,6.109496355056762695e-01,6.109306216239929199e-01,6.109115481376647949e-01,6.108925342559814453e-01,6.108734607696533203e-01,6.108544468879699707e-01,6.108354330062866211e-01,6.108164191246032715e-01,6.107974052429199219e-01,6.107783317565917969e-01,6.107593178749084473e-01,6.107403039932250977e-01,6.107212305068969727e-01,6.107022166252136230e-01,6.106832027435302734e-01,6.106641888618469238e-01,6.106451153755187988e-01,6.106261014938354492e-01,6.106070876121520996e-01,6.105880737304687500e-01,6.105690598487854004e-01,6.105500459671020508e-01,6.105310320854187012e-01,6.105119585990905762e-01,6.104929447174072266e-01,6.104739308357238770e-01,6.104549169540405273e-01,6.104359030723571777e-01,6.104168891906738281e-01,6.103978753089904785e-01,6.103789210319519043e-01,6.103599071502685547e-01,6.103408932685852051e-01
5.903357863426208496e-01,5.903180241584777832e-01,5.903002619743347168e-01,5.902824997901916504e-01,5.902647376060485840e-01,5.902469754219055176e-01,5.902291536331176758e-01,5.902113914489746094e-01,5.901936292648315430e-01,5.901758670806884766e-01,5.901581048965454102e-01,5.901403427124023438e-01,5.901225209236145020e-01,5.901047587394714355e-01,5.900869965553283691e-01,5.900692343711853027e-01,5.900514721870422363e-01,5.900337100028991699e-01,5.900159478187561035e-01,5.899981856346130371e-01,5.899804234504699707e-01,5.899626612663269043e-01,5.899448990821838379e-01,5.899271965026855469e-01,5.899094343185424805e-01,5.898916721343994141e-01,5.898739099502563477e-01,5.898561477661132812e-01,5.898384451866149902e-01,5.898206830024719238e-01,5.898029208183288574e-01,5.897852182388305664e-01,5.897674560546875000e-01,5.897496938705444336e-01,5.897319912910461426e-01,5.897142291069030762e-01,5.896964669227600098e-01,5.896787643432617188e-01,5.896610021591186523e-01,5.896432399749755859e-01,5.896255373954772949e-01,5.896077752113342285e-01,5.895900726318359375e-01,5.895723104476928711e-01,5.895546078681945801e-01,5.895368456840515137e-01,5.895191431045532227e-01,5.895013809204101562e-01,5.894836783409118652e-01,5.894659161567687988e-01,5.894482135772705078e-01,5.894304513931274414e-01,5.894127488136291504e-01,5.893950462341308594e-01,5.893772840499877930e-01,5.893595814704895020e-01,5.893418788909912109e-01,5.893241167068481445e-01,5.893064141273498535e-01,5.892887115478515625e-01,5.892710089683532715e-01,5.892533063888549805e-01,5.892356038093566895e-01,5.892179012298583984e-01,5.892001390457153320e-01,5.891824364662170410e-01,5.891647338867187500e-01,5.891470313072204590e-01,5.891293287277221680e-01,5.891116261482238770e-01,5.890939235687255859e-01,5.890762209892272949e-01,5.890585184097290039e-01,5.890408158302307129e-01,5.890231132507324219e-01,5.890054106712341309e-01,5.889877080917358398e-01,5.889700055122375488e-01,5.889523029327392578e-01,5.889346003532409668e-01
