5.000000000000000000e+00,5.000000000000000000e+00,5.000000000000000000e+00,5.000000000000000000e+00,5.000000000000000000e+00,5.000000000000000000e+00,5.000000000000000000e+00,5.000000000000000000e+00,5.000000000000000000e+00,5.000000000000000000e+00,5.000000000000000000e+00,5.000000000000000000e+00,5.000000000000000000e+00,5.000000000000000000e+00,5.000000000000000000e+00,5.000000000000000000e+00,5.000000000000000000e+00,5.000000000000000000e+00,5.000000000000000000e+00,5.000000000000000000e+00,5.000000000000000000e+00,5.000000000000000000e+00,5.000000000000000000e+00,5.000000000000000000e+00,5.000000000000000000e+00,5.000000000000000000e+00,5.000000000000000000e+00,5.000000000000000000e+00,5.000000000000000000e+00,5.000000000000000000e+00,5.000000000000000000e+00,5.000000000000000000e+00,5.000000000000000000e+00,1.759364485740661621e+00,1.718276977539062500e+00,1.720398426055908203e+00,1.797183632850646973e+00,1.801662445068359375e+00,1.797403573989868164e+00,1.797194600105285645e+00,1.803249597549438477e+00,1.807145357131958008e+00,1.831502676010131836e+00,1.861195206642150879e+00,2.037879943847656250e+00,2.079135179519653320e+00,3.772933721542358398e+00,3.656975030899047852e+00,3.547931671142578125e+00,3.445202827453613281e+00,3.348255395889282227e+00,3.256615161895751953e+00,3.169857025146484375e+00,3.087601661682128906e+00,3.009507656097412109e+00,2.935266256332397461e+00,2.864599704742431641e+00,2.797255516052246094e+00,2.733005285263061523e+00,2.671640396118164062e+00,2.612970590591430664e+00,2.556822061538696289e+00,2.503035783767700195e+00,2.451466083526611328e+00,2.401978254318237305e+00,2.354449272155761719e+00,2.308764457702636719e+00,2.264818906784057617e+00,2.222514867782592773e+00,2.181762218475341797e+00,2.142477273941040039e+00,2.104582071304321289e+00,2.068004131317138672e+00,2.032675743103027344e+00,1.998534321784973145e+00,1.965520858764648438e+00,1.933580279350280762e+00,1.902661204338073730e+00,1.872715473175048828e+00,1.843697667121887207e+00
5.000000000000000000e+00,5.000000000000000000e+00,5.000000000000000000e+00,5.000000000000000000e+00,5.000000000000000000e+00,5.000000000000000000e+00,5.000000000000000000e+00,5.000000000000000000e+00,5.000000000000000000e+00,5.000000000000000000e+00,5.000000000000000000e+00,5.000000000000000000e+00,5.000000000000000000e+00,5.000000000000000000e+00,5.000000000000000000e+00,5.000000000000000000e+00,5.000000000000000000e+00,5.000000000000000000e+00,5.000000000000000000e+00,5.000000000000000000e+00,5.000000000000000000e+00,5.000000000000000000e+00,5.000000000000000000e+00,5.000000000000000000e+00,5.000000000000000000e+00,5.000000000000000000e+00,5.000000000000000000e+00,5.000000000000000000e+00,5.000000000000000000e+00,5.000000000000000000e+00,5.000000000000000000e+00,5.000000000000000000e+00,5.000000000000000000e+00,5.000000000000000000e+00,1.696961522102355957e+00,1.685316443443298340e+00,1.815509915351867676e+00,1.802462697029113770e+00,1.799539208412170410e+00,1.801748037338256836e+00,1.807817816734313965e+00,1.819985151290893555e+00,1.844209790229797363e+00,1.877249598503112793e+00,2.028150320053100586e+00,2.046047210693359375e+00,3.773016929626464844e+00,3.657053232192993164e+00,3.548004865646362305e+00,3.445271730422973633e+00,3.348320722579956055e+00,3.256676673889160156e+00,3.169915676116943359e+00,3.087657451629638672e+00,3.009560108184814453e+00,2.935316324234008789e+00,2.864647388458251953e+00,2.797301292419433594e+00,2.733048915863037109e+00,2.671681880950927734e+00,2.613010168075561523e+00,2.556860208511352539e+00,2.503072500228881836e+00,2.451501131057739258e+00,2.402011871337890625e+00,2.354481458663940430e+00,2.308795452117919922e+00,2.264848709106445312e+00,2.222543716430664062e+00,2.181790113449096680e+00,2.142503976821899414e+00,2.104607820510864258e+00,2.068028926849365234e+00,2.032700061798095703e+00,1.998557567596435547e+00,1.965543389320373535e+00,1.933602094650268555e+00,1.902682423591613770e+00,1.872735977172851562e+00,1.843717575073242188e+00
5.000000000000000000e+00,5.000000000000000000e+00,5.000000000000000000e+00,5.000000000000000000e+00,5.000000000000000000e+00,5.000000000000000000e+00,5.000000000000000000e+00,5.000000000000000000e+00,5.000000000000000000e+00,5.000000000000000000e+00,5.000000000000000000e+00,5.000000000000000000e+00,5.000000000000000000e+00,5.000000000000000000e+00,5.000000000000000000e+00,5.000000000000000000e+00,5.000000000000000000e+00,5.000000000000000000e+00,5.000000000000000000e+00,5.000000000000000000e+00,5.000000000000000000e+00,5.000000000000000000e+00,5.000000000000000000e+00,5.000000000000000000e+00,5.000000000000000000e+00,5.000000000000000000e+00,5.000000000000000000e+00,5.000000000000000000e+00,5.000000000000000000e+00,5.000000000000000000e+00,5.000000000000000000e+00,5.000000000000000000e+00,5.000000000000000000e+00,5.000000000000000000e+00,1.678463101387023926e+00,1.668094038963317871e+00,1.708110213279724121e+00,1.803472876548767090e+00,1.802172183990478516e+00,1.818201661109924316e+00,1.829833626747131348e+00,1.842732906341552734e+00,1.865205883979797363e+00,1.870293736457824707e+00,2.024802446365356445e+00,2.038385868072509766e+00,3.773099660873413086e+00,3.657130956649780273e+00,3.548078298568725586e+00,3.445341110229492188e+00,3.348386049270629883e+00,3.256738424301147461e+00,3.169974088668823242e+00,3.087712764739990234e+00,3.009613037109375000e+00,2.935366868972778320e+00,2.864695072174072266e+00,2.797346830368041992e+00,2.733092308044433594e+00,2.671723604202270508e+00,2.613050222396850586e+00,2.556898117065429688e+00,2.503108739852905273e+00,2.451536178588867188e+00,2.402045488357543945e+00,2.354513883590698242e+00,2.308826446533203125e+00,2.264878511428833008e+00,2.222572326660156250e+00,2.181817770004272461e+00,2.142530918121337891e+00,2.104633808135986328e+00,2.068053722381591797e+00,2.032723903656005859e+00,1.998580932617187500e+00,1.965566039085388184e+00,1.933624029159545898e+00,1.902703285217285156e+00,1.872756242752075195e+00,1.843737244606018066e+00
5.000000000000000000e+00,5.000000000000000000e+00,5.000000000000000000e+00,5.000000000000000000e+00,5.000000000000000000e+00,5.000000000000000000e+00,5.000000000000000000e+00,5.000000000000000000e+00,5.000000000000000000e+00,5.000000000000000000e+00,5.000000000000000000e+00,5.000000000000000000e+00,5.000000000000000000e+00,5.000000000000000000e+00,5.000000000000000000e+00,5.000000000000000000e+00,5.000000000000000000e+00,5.000000000000000000e+00,5.000000000000000000e+00,5.000000000000000000e+00,5.000000000000000000e+00,5.000000000000000000e+00,5.000000000000000000e+00,5.000000000000000000e+00,5.000000000000000000e+00,5.000000000000000000e+00,5.000000000000000000e+00,5.000000000000000000e+00,5.000000000000000000e+00,5.000000000000000000e+00,5.000000000000000000e+00,5.000000000000000000e+00,5.000000000000000000e+00,5.000000000000000000e+00,1.674162864685058594e+00,1.651976466178894043e+00,1.812960863113403320e+00,1.807420492172241211e+00,1.806495666503906250e+00,1.831668972969055176e+00,1.844878911972045898e+00,1.845623731613159180e+00,1.823834896087646484e+00,1.805112481117248535e+00,1.827732801437377930e+00,2.032462120056152344e+00,3.773182868957519531e+00,3.657208681106567383e+00,3.548151493072509766e+00,3.445410013198852539e+00,3.348451375961303711e+00,3.256800413131713867e+00,3.170032739639282227e+00,3.087768316268920898e+00,3.009665727615356445e+00,2.935416936874389648e+00,2.864742994308471680e+00,2.797392368316650391e+00,2.733135700225830078e+00,2.671765089035034180e+00,2.613089799880981445e+00,2.556936264038085938e+00,2.503145456314086914e+00,2.451570987701416016e+00,2.402079105377197266e+00,2.354546070098876953e+00,2.308857440948486328e+00,2.264908552169799805e+00,2.222601175308227539e+00,2.181845426559448242e+00,2.142557621002197266e+00,2.104659557342529297e+00,2.068078756332397461e+00,2.032748222351074219e+00,1.998604059219360352e+00,1.965588331222534180e+00,1.933645606040954590e+00,1.902724504470825195e+00,1.872776746749877930e+00,1.843757033348083496e+00
5.000000000000000000e+00,5.000000000000000000e+00,5.000000000000000000e+00,5.000000000000000000e+00,5.000000000000000000e+00,5.000000000000000000e+00,5.000000000000000000e+00,5.000000000000000000e+00,5.000000000000000000e+00,5.000000000000000000e+00,5.000000000000000000e+00,5.000000000000000000e+00,5.000000000000000000e+00,5.000000000000000000e+00,5.000000000000000000e+00,5.000000000000000000e+00,5.000000000000000000e+00,5.000000000000000000e+00,5.000000000000000000e+00,5.000000000000000000e+00,5.000000000000000000e+00,5.000000000000000000e+00,5.000000000000000000e+00,5.000000000000000000e+00,5.000000000000000000e+00,5.000000000000000000e+00,5.000000000000000000e+00,5.000000000000000000e+00,5.000000000000000000e+00,5.000000000000000000e+00,5.000000000000000000e+00,5.000000000000000000e+00,5.000000000000000000e+00,5.000000000000000000e+00,1.660755872726440430e+00,1.627245187759399414e+00,1.616718173027038574e+00,1.632081747055053711e+00,1.810037136077880859e+00,1.833106756210327148e+00,1.870218396186828613e+00,1.821576118469238281e+00,1.796488642692565918e+00,1.788389563560485840e+00,1.787381649017333984e+00,1.844377279281616211e+00,3.773265600204467773e+00,3.657286882400512695e+00,3.548225164413452148e+00,3.445479393005371094e+00,3.348516464233398438e+00,3.256861925125122070e+00,3.170091152191162109e+00,3.087823867797851562e+00,3.009718656539916992e+00,2.935467004776000977e+00,2.864790678024291992e+00,2.797437906265258789e+00,2.733179330825805664e+00,2.671806812286376953e+00,2.613129615783691406e+00,2.556974411010742188e+00,2.503181934356689453e+00,2.451606035232543945e+00,2.402112722396850586e+00,2.354578495025634766e+00,2.308888435363769531e+00,2.264938354492187500e+00,2.222630023956298828e+00,2.181873321533203125e+00,2.142584323883056641e+00,2.104685306549072266e+00,2.068103551864624023e+00,2.032772064208984375e+00,1.998627424240112305e+00,1.965610861778259277e+00,1.933667421340942383e+00,1.902745604515075684e+00,1.872797131538391113e+00,1.843776941299438477e+00
5.000000000000000000e+00,5.000000000000000000e+00,5.000000000000000000e+00,5.000000000000000000e+00,5.000000000000000000e+00,5.000000000000000000e+00,5.000000000000000000e+00,5.000000000000000000e+00,5.000000000000000000e+00,5.000000000000000000e+00,5.000000000000000000e+00,5.000000000000000000e+00,5.000000000000000000e+00,5.000000000000000000e+00,5.000000000000000000e+00,5.000000000000000000e+00,5.000000000000000000e+00,5.000000000000000000e+00,5.000000000000000000e+00,5.000000000000000000e+00,5.000000000000000000e+00,5.000000000000000000e+00,5.000000000000000000e+00,5.000000000000000000e+00,5.000000000000000000e+00,5.000000000000000000e+00,5.000000000000000000e+00,5.000000000000000000e+00,5.000000000000000000e+00,5.000000000000000000e+00,5.000000000000000000e+00,5.000000000000000000e+00,5.000000000000000000e+00,5.000000000000000000e+00,1.647414445877075195e+00,1.607419371604919434e+00,1.588854789733886719e+00,1.612948656082153320e+00,1.812414884567260742e+00,1.831779599189758301e+00,1.862191796302795410e+00,1.819565892219543457e+00,1.783372879028320312e+00,1.776910185813903809e+00,1.770494103431701660e+00,1.809597969055175781e+00,3.773348808288574219e+00,3.657364606857299805e+00,3.548298120498657227e+00,3.445548295974731445e+00,3.348582029342651367e+00,3.256923913955688477e+00,3.170149564743041992e+00,3.087879419326782227e+00,3.009771347045898438e+00,2.935517311096191406e+00,2.864838600158691406e+00,2.797483444213867188e+00,2.733222723007202148e+00,2.671848297119140625e+00,2.613169431686401367e+00,2.557012557983398438e+00,2.503218412399291992e+00,2.451641082763671875e+00,2.402146339416503906e+00,2.354610681533813477e+00,2.308919668197631836e+00,2.264968156814575195e+00,2.222658634185791016e+00,2.181900978088378906e+00,2.142611026763916016e+00,2.104711055755615234e+00,2.068128585815429688e+00,2.032796144485473633e+00,1.998650670051574707e+00,1.965633511543273926e+00,1.933689236640930176e+00,1.902766823768615723e+00,1.872817635536193848e+00,1.843796610832214355e+00
5.000000000000000000e+00,5.000000000000000000e+00,5.000000000000000000e+00,5.000000000000000000e+00,5.000000000000000000e+00,5.000000000000000000e+00,5.000000000000000000e+00,5.000000000000000000e+00,5.000000000000000000e+00,5.000000000000000000e+00,5.000000000000000000e+00,5.000000000000000000e+00,5.000000000000000000e+00,5.000000000000000000e+00,5.000000000000000000e+00,5.000000000000000000e+00,5.000000000000000000e+00,5.000000000000000000e+00,5.000000000000000000e+00,5.000000000000000000e+00,5.000000000000000000e+00,5.000000000000000000e+00,5.000000000000000000e+00,5.000000000000000000e+00,5.000000000000000000e+00,5.000000000000000000e+00,5.000000000000000000e+00,5.000000000000000000e+00,5.000000000000000000e+00,5.000000000000000000e+00,5.000000000000000000e+00,5.000000000000000000e+00,5.000000000000000000e+00,5.000000000000000000e+00,1.644398212432861328e+00,1.595480322837829590e+00,1.818359732627868652e+00,1.818225502967834473e+00,1.818259596824645996e+00,1.835574388504028320e+00,1.886634230613708496e+00,1.820536136627197266e+00,1.778902888298034668e+00,1.765209317207336426e+00,1.759889483451843262e+00,1.777753591537475586e+00,3.773431301116943359e+00,3.657442808151245117e+00,3.548371791839599609e+00,3.445617437362670898e+00,3.348647117614746094e+00,3.256985664367675781e+00,3.170208215713500977e+00,3.087934970855712891e+00,3.009824037551879883e+00,2.935567378997802734e+00,2.864886522293090820e+00,2.797529220581054688e+00,2.733266353607177734e+00,2.671889781951904297e+00,2.613209009170532227e+00,2.557050466537475586e+00,2.503254890441894531e+00,2.451676130294799805e+00,2.402179956436157227e+00,2.354642868041992188e+00,2.308950662612915039e+00,2.264997959136962891e+00,2.222687482833862305e+00,2.181928634643554688e+00,2.142637729644775391e+00,2.104736804962158203e+00,2.068153381347656250e+00,2.032820224761962891e+00,1.998674035072326660e+00,1.965655803680419922e+00,1.933710932731628418e+00,1.902787685394287109e+00,1.872837901115417480e+00,1.843816399574279785e+00
5.000000000000000000e+00,5.000000000000000000e+00,5.000000000000000000e+00,5.000000000000000000e+00,5.000000000000000000e+00,5.000000000000000000e+00,5.000000000000000000e+00,5.000000000000000000e+00,5.000000000000000000e+00,5.000000000000000000e+00,5.000000000000000000e+00,5.000000000000000000e+00,5.000000000000000000e+00,5.000000000000000000e+00,5.000000000000000000e+00,5.000000000000000000e+00,5.000000000000000000e+00,5.000000000000000000e+00,5.000000000000000000e+00,5.000000000000000000e+00,5.000000000000000000e+00,5.000000000000000000e+00,5.000000000000000000e+00,5.000000000000000000e+00,5.000000000000000000e+00,5.000000000000000000e+00,5.000000000000000000e+00,5.000000000000000000e+00,5.000000000000000000e+00,5.000000000000000000e+00,5.000000000000000000e+00,5.000000000000000000e+00,5.000000000000000000e+00,5.000000000000000000e+00,1.636468648910522461e+00,1.594475626945495605e+00,1.827546834945678711e+00,1.826757788658142090e+00,1.826066732406616211e+00,1.844724297523498535e+00,1.916010856628417969e+00,1.820241689682006836e+00,1.778550982475280762e+00,1.751384615898132324e+00,1.747382044792175293e+00,1.747415781021118164e+00,1.808250188827514648e+00,3.657520532608032227e+00,3.548444986343383789e+00,3.445686817169189453e+00,3.348712682723999023e+00,3.257047176361083984e+00,3.170266628265380859e+00,3.087990522384643555e+00,3.009876966476440430e+00,2.935617685317993164e+00,2.864934206008911133e+00,2.797574520111083984e+00,2.733309984207153320e+00,2.671931505203247070e+00,2.613249063491821289e+00,2.557088613510131836e+00,2.503291368484497070e+00,2.451711177825927734e+00,2.402213573455810547e+00,2.354675292968750000e+00,2.308981657028198242e+00,2.265027761459350586e+00,2.222716093063354492e+00,2.181956291198730469e+00,2.142664432525634766e+00,2.104762792587280273e+00,2.068178415298461914e+00,2.032844305038452148e+00,1.998697161674499512e+00,1.965678453445434570e+00,1.933732748031616211e+00,1.902808904647827148e+00,1.872858405113220215e+00,1.843836307525634766e+00
5.000000000000000000e+00,5.000000000000000000e+00,5.000000000000000000e+00,5.000000000000000000e+00,5.000000000000000000e+00,5.000000000000000000e+00,5.000000000000000000e+00,5.000000000000000000e+00,5.000000000000000000e+00,5.000000000000000000e+00,5.000000000000000000e+00,5.000000000000000000e+00,5.000000000000000000e+00,5.000000000000000000e+00,5.000000000000000000e+00,5.000000000000000000e+00,5.000000000000000000e+00,5.000000000000000000e+00,5.000000000000000000e+00,5.000000000000000000e+00,5.000000000000000000e+00,5.000000000000000000e+00,5.000000000000000000e+00,5.000000000000000000e+00,5.000000000000000000e+00,5.000000000000000000e+00,5.000000000000000000e+00,5.000000000000000000e+00,5.000000000000000000e+00,5.000000000000000000e+00,5.000000000000000000e+00,5.000000000000000000e+00,5.000000000000000000e+00,5.000000000000000000e+00,5.000000000000000000e+00,1.880856752395629883e+00,1.838513135910034180e+00,1.836782932281494141e+00,1.836084246635437012e+00,1.859956145286560059e+00,4.660413742065429688e+00,1.834246635437011719e+00,1.778199195861816406e+00,1.738142013549804688e+00,1.734672307968139648e+00,1.731216549873352051e+00,1.771330595016479492e+00,3.657598495483398438e+00,3.548518180847167969e+00,3.445755720138549805e+00,3.348777770996093750e+00,3.257109165191650391e+00,3.170325279235839844e+00,3.088045835494995117e+00,3.009929418563842773e+00,2.935667753219604492e+00,2.864982128143310547e+00,2.797620296478271484e+00,2.733353376388549805e+00,2.671972990036010742e+00,2.613288640975952148e+00,2.557126760482788086e+00,2.503327846527099609e+00,2.451746225357055664e+00,2.402247190475463867e+00,2.354707479476928711e+00,2.309012651443481445e+00,2.265057802200317383e+00,2.222744941711425781e+00,2.181983947753906250e+00,2.142691135406494141e+00,2.104788541793823242e+00,2.068203210830688477e+00,2.032868385314941406e+00,1.998720526695251465e+00,1.965700984001159668e+00,1.933754563331604004e+00,1.902830004692077637e+00,1.872878909111022949e+00,1.843856096267700195e+00
5.000000000000000000e+00,5.000000000000000000e+00,5.000000000000000000e+00,5.000000000000000000e+00,5.000000000000000000e+00,5.000000000000000000e+00,5.000000000000000000e+00,5.000000000000000000e+00,5.000000000000000000e+00,5.000000000000000000e+00,5.000000000000000000e+00,5.000000000000000000e+00,5.000000000000000000e+00,5.000000000000000000e+00,5.000000000000000000e+00,5.000000000000000000e+00,5.000000000000000000e+00,5.000000000000000000e+00,5.000000000000000000e+00,5.000000000000000000e+00,5.000000000000000000e+00,5.000000000000000000e+00,5.000000000000000000e+00,5.000000000000000000e+00,5.000000000000000000e+00,5.000000000000000000e+00,5.000000000000000000e+00,5.000000000000000000e+00,5.000000000000000000e+00,5.000000000000000000e+00,5.000000000000000000e+00,5.000000000000000000e+00,5.000000000000000000e+00,5.000000000000000000e+00,5.000000000000000000e+00,1.897785186767578125e+00,1.849611997604370117e+00,1.847103953361511230e+00,1.846212267875671387e+00,1.876382589340209961e+00,4.660540580749511719e+00,1.856342196464538574e+00,1.777128100395202637e+00,1.735640287399291992e+00,1.720368146896362305e+00,1.719207167625427246e+00,1.728527784347534180e+00,3.657676219940185547e+00,3.548591613769531250e+00,3.445825099945068359e+00,3.348842859268188477e+00,3.257170915603637695e+00,3.170383691787719727e+00,3.088101625442504883e+00,3.009982347488403320e+00,2.935717821121215820e+00,2.865029811859130859e+00,2.797665834426879883e+00,2.733397006988525391e+00,2.672014713287353516e+00,2.613328456878662109e+00,2.557164669036865234e+00,2.503364324569702148e+00,2.451781272888183594e+00,2.402280807495117188e+00,2.354739904403686523e+00,2.309043645858764648e+00,2.265087604522705078e+00,2.222773790359497070e+00,2.182011842727661133e+00,2.142718076705932617e+00,2.104814291000366211e+00,2.068228244781494141e+00,2.032892465591430664e+00,1.998743772506713867e+00,1.965723514556884766e+00,1.933776378631591797e+00,1.902850985527038574e+00,1.872899174690246582e+00,1.843875765800476074e+00
5.000000000000000000e+00,5.000000000000000000e+00,5.000000000000000000e+00,5.000000000000000000e+00,5.000000000000000000e+00,5.000000000000000000e+00,5.000000000000000000e+00,5.000000000000000000e+00,5.000000000000000000e+00,5.000000000000000000e+00,5.000000000000000000e+00,5.000000000000000000e+00,5.000000000000000000e+00,5.000000000000000000e+00,5.000000000000000000e+00,5.000000000000000000e+00,5.000000000000000000e+00,5.000000000000000000e+00,5.000000000000000000e+00,5.000000000000000000e+00,5.000000000000000000e+00,5.000000000000000000e+00,5.000000000000000000e+00,5.000000000000000000e+00,5.000000000000000000e+00,5.000000000000000000e+00,5.000000000000000000e+00,5.000000000000000000e+00,5.000000000000000000e+00,5.000000000000000000e+00,5.000000000000000000e+00,5.000000000000000000e+00,5.000000000000000000e+00,5.000000000000000000e+00,5.000000000000000000e+00,1.919459342956542969e+00,1.860845327377319336e+00,1.858307003974914551e+00,1.856452703475952148e+00,1.889871716499328613e+00,4.660666942596435547e+00,4.484991073608398438e+00,1.773936748504638672e+00,1.733145833015441895e+00,1.703816175460815430e+00,1.703872799873352051e+00,1.704015254974365234e+00,3.657754182815551758e+00,3.548664808273315430e+00,3.445894002914428711e+00,3.348908424377441406e+00,3.257232904434204102e+00,3.170442104339599609e+00,3.088156938552856445e+00,3.010035037994384766e+00,2.935768127441406250e+00,2.865077733993530273e+00,2.797711610794067383e+00,2.733440399169921875e+00,2.672056198120117188e+00,2.613368272781372070e+00,2.557202816009521484e+00,2.503401041030883789e+00,2.451816082000732422e+00,2.402314424514770508e+00,2.354772090911865234e+00,2.309074878692626953e+00,2.265117645263671875e+00,2.222802400588989258e+00,2.182039499282836914e+00,2.142744779586791992e+00,2.104840040206909180e+00,2.068253040313720703e+00,2.032916545867919922e+00,1.998766899108886719e+00,1.965745925903320312e+00,1.933798074722290039e+00,1.902872085571289062e+00,1.872919678688049316e+00,1.843895673751831055e+00
5.000000000000000000e+00,5.000000000000000000e+00,5.000000000000000000e+00,5.000000000000000000e+00,5.000000000000000000e+00,5.000000000000000000e+00,5.000000000000000000e+00,5.000000000000000000e+00,5.000000000000000000e+00,5.000000000000000000e+00,5.000000000000000000e+00,5.000000000000000000e+00,5.000000000000000000e+00,5.000000000000000000e+00,5.000000000000000000e+00,5.000000000000000000e+00,5.000000000000000000e+00,5.000000000000000000e+00,5.000000000000000000e+00,5.000000000000000000e+00,5.000000000000000000e+00,5.000000000000000000e+00,5.000000000000000000e+00,5.000000000000000000e+00,5.000000000000000000e+00,5.000000000000000000e+00,5.000000000000000000e+00,5.000000000000000000e+00,5.000000000000000000e+00,5.000000000000000000e+00,5.000000000000000000e+00,5.000000000000000000e+00,5.000000000000000000e+00,5.000000000000000000e+00,5.000000000000000000e+00,1.943124413490295410e+00,1.873655080795288086e+00,1.868517994880676270e+00,1.866687297821044922e+00,1.903351426124572754e+00,4.660793304443359375e+00,4.485107898712158203e+00,1.799328088760375977e+00,1.730658650398254395e+00,1.701412200927734375e+00,1.689054131507873535e+00,1.690890908241271973e+00,3.657832145690917969e+00,3.548738479614257812e+00,3.445963144302368164e+00,3.348973512649536133e+00,3.257294416427612305e+00,3.170500993728637695e+00,3.088212728500366211e+00,3.010087728500366211e+00,2.935818195343017578e+00,2.865125417709350586e+00,2.797756910324096680e+00,2.733484029769897461e+00,2.672097682952880859e+00,2.613407850265502930e+00,2.557240962982177734e+00,2.503437280654907227e+00,2.451851129531860352e+00,2.402348041534423828e+00,2.354804277420043945e+00,2.309105873107910156e+00,2.265147447586059570e+00,2.222831249237060547e+00,2.182067394256591797e+00,2.142771482467651367e+00,2.104865789413452148e+00,2.068278074264526367e+00,2.032940626144409180e+00,1.998790264129638672e+00,1.965768456459045410e+00,1.933819890022277832e+00,1.902893304824829102e+00,1.872940182685852051e+00,1.843915462493896484e+00
5.000000000000000000e+00,5.000000000000000000e+00,5.000000000000000000e+00,5.000000000000000000e+00,5.000000000000000000e+00,5.000000000000000000e+00,5.000000000000000000e+00,5.000000000000000000e+00,5.000000000000000000e+00,5.000000000000000000e+00,5.000000000000000000e+00,5.000000000000000000e+00,5.000000000000000000e+00,5.000000000000000000e+00,5.000000000000000000e+00,5.000000000000000000e+00,5.000000000000000000e+00,5.000000000000000000e+00,5.000000000000000000e+00,5.000000000000000000e+00,5.000000000000000000e+00,5.000000000000000000e+00,5.000000000000000000e+00,5.000000000000000000e+00,5.000000000000000000e+00,5.000000000000000000e+00,5.000000000000000000e+00,5.000000000000000000e+00,5.000000000000000000e+00,5.000000000000000000e+00,5.000000000000000000e+00,5.000000000000000000e+00,5.000000000000000000e+00,5.000000000000000000e+00,5.000000000000000000e+00,1.964517235755920410e+00,1.890156626701354980e+00,1.876498460769653320e+00,1.876714229583740234e+00,1.916414976119995117e+00,4.660920143127441406e+00,4.485225200653076172e+00,4.322295188903808594e+00,1.727325916290283203e+00,1.698734760284423828e+00,1.679980874061584473e+00,1.683822631835937500e+00,3.657909870147705078e+00,3.548811674118041992e+00,3.446032524108886719e+00,3.349039077758789062e+00,3.257356166839599609e+00,3.170559406280517578e+00,3.088268041610717773e+00,3.010140657424926758e+00,2.935868501663208008e+00,2.865173339843750000e+00,2.797802448272705078e+00,2.733527421951293945e+00,2.672139406204223633e+00,2.613447904586791992e+00,2.557279109954833984e+00,2.503473758697509766e+00,2.451886177062988281e+00,2.402381658554077148e+00,2.354836702346801758e+00,2.309136867523193359e+00,2.265177249908447266e+00,2.222860097885131836e+00,2.182095050811767578e+00,2.142798185348510742e+00,2.104891777038574219e+00,2.068302869796752930e+00,2.032964706420898438e+00,1.998813629150390625e+00,1.965790987014770508e+00,1.933841705322265625e+00,1.902914404869079590e+00,1.872960448265075684e+00,1.843935132026672363e+00
5.000000000000000000e+00,5.000000000000000000e+00,5.000000000000000000e+00,5.000000000000000000e+00,5.000000000000000000e+00,5.000000000000000000e+00,5.000000000000000000e+00,5.000000000000000000e+00,5.000000000000000000e+00,5.000000000000000000e+00,5.000000000000000000e+00,5.000000000000000000e+00,5.000000000000000000e+00,5.000000000000000000e+00,5.000000000000000000e+00,5.000000000000000000e+00,5.000000000000000000e+00,5.000000000000000000e+00,5.000000000000000000e+00,5.000000000000000000e+00,5.000000000000000000e+00,5.000000000000000000e+00,5.000000000000000000e+00,5.000000000000000000e+00,5.000000000000000000e+00,5.000000000000000000e+00,5.000000000000000000e+00,5.000000000000000000e+00,5.000000000000000000e+00,5.000000000000000000e+00,5.000000000000000000e+00,5.000000000000000000e+00,5.000000000000000000e+00,5.000000000000000000e+00,5.000000000000000000e+00,1.981073617935180664e+00,1.906951665878295898e+00,1.884547233581542969e+00,1.890611767768859863e+00,1.926473259925842285e+00,4.661046504974365234e+00,4.485342502593994141e+00,4.322403907775878906e+00,1.769468188285827637e+00,1.702008128166198730e+00,1.682855963706970215e+00,1.686262488365173340e+00,3.657988071441650391e+00,3.548884868621826172e+00,3.446101427078247070e+00,3.349104404449462891e+00,3.257418155670166016e+00,3.170618057250976562e+00,3.088323593139648438e+00,3.010193347930908203e+00,2.935918807983398438e+00,2.865221023559570312e+00,2.797848224639892578e+00,2.733571052551269531e+00,2.672180891036987305e+00,2.613487482070922852e+00,2.557317018508911133e+00,2.503510475158691406e+00,2.451921224594116211e+00,2.402415275573730469e+00,2.354868888854980469e+00,2.309167861938476562e+00,2.265207290649414062e+00,2.222888946533203125e+00,2.182122707366943359e+00,2.142824888229370117e+00,2.104917526245117188e+00,2.068327903747558594e+00,2.032988786697387695e+00,1.998836874961853027e+00,1.965813398361206055e+00,1.933863401412963867e+00,1.902935385704040527e+00,1.872980952262878418e+00,1.843955039978027344e+00
5.000000000000000000e+00,5.000000000000000000e+00,5.000000000000000000e+00,5.000000000000000000e+00,5.000000000000000000e+00,5.000000000000000000e+00,5.000000000000000000e+00,5.000000000000000000e+00,5.000000000000000000e+00,5.000000000000000000e+00,5.000000000000000000e+00,5.000000000000000000e+00,5.000000000000000000e+00,5.000000000000000000e+00,5.000000000000000000e+00,5.000000000000000000e+00,5.000000000000000000e+00,5.000000000000000000e+00,5.000000000000000000e+00,5.000000000000000000e+00,5.000000000000000000e+00,5.000000000000000000e+00,5.000000000000000000e+00,5.000000000000000000e+00,5.000000000000000000e+00,5.000000000000000000e+00,5.000000000000000000e+00,5.000000000000000000e+00,5.000000000000000000e+00,5.000000000000000000e+00,5.000000000000000000e+00,5.000000000000000000e+00,5.000000000000000000e+00,5.000000000000000000e+00,5.000000000000000000e+00,5.000000000000000000e+00,1.924047589302062988e+00,1.896502494812011719e+00,1.903739929199218750e+00,4.851214885711669922e+00,4.661172866821289062e+00,4.485459804534912109e+00,4.322512626647949219e+00,4.170989990234375000e+00,1.710280060768127441e+00,1.690428614616394043e+00,1.690857887268066406e+00,3.658065795898437500e+00,3.548958301544189453e+00,3.446170806884765625e+00,3.349169492721557617e+00,3.257479667663574219e+00,3.170676469802856445e+00,3.088379383087158203e+00,3.010246276855468750e+00,2.935969114303588867e+00,2.865268707275390625e+00,2.797893762588500977e+00,2.733614444732666016e+00,2.672222614288330078e+00,2.613527297973632812e+00,2.557355165481567383e+00,2.503546714782714844e+00,2.451956272125244141e+00,2.402448892593383789e+00,2.354901313781738281e+00,2.309198856353759766e+00,2.265237092971801758e+00,2.222917556762695312e+00,2.182150602340698242e+00,2.142851829528808594e+00,2.104943275451660156e+00,2.068352699279785156e+00,2.033012866973876953e+00,1.998860001564025879e+00,1.965835928916931152e+00,1.933885216712951660e+00,1.902956485748291016e+00,1.873001456260681152e+00,1.843974947929382324e+00
5.000000000000000000e+00,5.000000000000000000e+00,5.000000000000000000e+00,5.000000000000000000e+00,5.000000000000000000e+00,5.000000000000000000e+00,5.000000000000000000e+00,5.000000000000000000e+00,5.000000000000000000e+00,5.000000000000000000e+00,5.000000000000000000e+00,5.000000000000000000e+00,5.000000000000000000e+00,5.000000000000000000e+00,5.000000000000000000e+00,5.000000000000000000e+00,5.000000000000000000e+00,5.000000000000000000e+00,5.000000000000000000e+00,5.000000000000000000e+00,5.000000000000000000e+00,5.000000000000000000e+00,5.000000000000000000e+00,5.000000000000000000e+00,5.000000000000000000e+00,5.000000000000000000e+00,5.000000000000000000e+00,5.000000000000000000e+00,5.000000000000000000e+00,5.000000000000000000e+00,5.000000000000000000e+00,5.000000000000000000e+00,5.000000000000000000e+00,5.000000000000000000e+00,5.000000000000000000e+00,2.011825084686279297e+00,1.942814826965332031e+00,1.907353520393371582e+00,1.916547417640686035e+00,4.851351261138916016e+00,4.661299705505371094e+00,4.485577106475830078e+00,4.322621345520019531e+00,4.171091556549072266e+00,1.718568325042724609e+00,1.698924422264099121e+00,1.695478320121765137e+00,3.658143758773803711e+00,3.549031496047973633e+00,3.446239948272705078e+00,3.349235057830810547e+00,3.257541656494140625e+00,3.170735120773315430e+00,3.088434696197509766e+00,3.010298967361450195e+00,2.936019182205200195e+00,2.865316867828369141e+00,2.797939538955688477e+00,2.733657836914062500e+00,2.672264099121093750e+00,2.613567113876342773e+00,2.557393312454223633e+00,2.503583431243896484e+00,2.451991081237792969e+00,2.402482509613037109e+00,2.354933500289916992e+00,2.309230089187622070e+00,2.265266895294189453e+00,2.222946405410766602e+00,2.182178258895874023e+00,2.142878293991088867e+00,2.104969024658203125e+00,2.068377733230590820e+00,2.033036947250366211e+00,1.998883366584777832e+00,1.965858459472656250e+00,1.933907032012939453e+00,1.902977585792541504e+00,1.873021960258483887e+00,1.843994617462158203e+00
5.000000000000000000e+00,5.000000000000000000e+00,5.000000000000000000e+00,5.000000000000000000e+00,5.000000000000000000e+00,5.000000000000000000e+00,5.000000000000000000e+00,5.000000000000000000e+00,5.000000000000000000e+00,5.000000000000000000e+00,5.000000000000000000e+00,5.000000000000000000e+00,5.000000000000000000e+00,5.000000000000000000e+00,5.000000000000000000e+00,5.000000000000000000e+00,5.000000000000000000e+00,5.000000000000000000e+00,5.000000000000000000e+00,5.000000000000000000e+00,5.000000000000000000e+00,5.000000000000000000e+00,5.000000000000000000e+00,5.000000000000000000e+00,5.000000000000000000e+00,5.000000000000000000e+00,5.000000000000000000e+00,5.000000000000000000e+00,5.000000000000000000e+00,5.000000000000000000e+00,5.000000000000000000e+00,5.000000000000000000e+00,5.000000000000000000e+00,5.000000000000000000e+00,5.000000000000000000e+00,2.007788419723510742e+00,1.952727317810058594e+00,1.924246907234191895e+00,1.943704366683959961e+00,4.851488590240478516e+00,4.661426067352294922e+00,4.485693931579589844e+00,4.322730541229248047e+00,4.171192646026611328e+00,1.723603963851928711e+00,1.707506060600280762e+00,1.701582431793212891e+00,1.737476229667663574e+00,3.549105167388916016e+00,3.446308851242065430e+00,3.349300146102905273e+00,3.257603406906127930e+00,3.170793533325195312e+00,3.088490486145019531e+00,3.010351896286010742e+00,2.936069250106811523e+00,2.865364551544189453e+00,2.797985076904296875e+00,2.733701467514038086e+00,2.672305822372436523e+00,2.613606691360473633e+00,2.557431221008300781e+00,2.503619909286499023e+00,2.452026367187500000e+00,2.402516126632690430e+00,2.354965686798095703e+00,2.309261083602905273e+00,2.265296936035156250e+00,2.222975254058837891e+00,2.182205915451049805e+00,2.142905235290527344e+00,2.104994773864746094e+00,2.068402528762817383e+00,2.033061027526855469e+00,1.998906731605529785e+00,1.965881109237670898e+00,1.933928608894348145e+00,1.902998566627502441e+00,1.873042225837707520e+00,1.844014406204223633e+00
5.000000000000000000e+00,5.000000000000000000e+00,5.000000000000000000e+00,5.000000000000000000e+00,5.000000000000000000e+00,5.000000000000000000e+00,5.000000000000000000e+00,5.000000000000000000e+00,5.000000000000000000e+00,5.000000000000000000e+00,5.000000000000000000e+00,5.000000000000000000e+00,5.000000000000000000e+00,5.000000000000000000e+00,5.000000000000000000e+00,5.000000000000000000e+00,5.000000000000000000e+00,5.000000000000000000e+00,5.000000000000000000e+00,5.000000000000000000e+00,5.000000000000000000e+00,5.000000000000000000e+00,5.000000000000000000e+00,5.000000000000000000e+00,5.000000000000000000e+00,5.000000000000000000e+00,5.000000000000000000e+00,5.000000000000000000e+00,5.000000000000000000e+00,5.000000000000000000e+00,5.000000000000000000e+00,5.000000000000000000e+00,5.000000000000000000e+00,5.000000000000000000e+00,5.000000000000000000e+00,2.004569292068481445e+00,1.970434427261352539e+00,1.951684474945068359e+00,1.995062232017517090e+00,4.851625919342041016e+00,4.661552906036376953e+00,4.485811233520507812e+00,4.322839260101318359e+00,4.171294212341308594e+00,1.726653695106506348e+00,1.709088563919067383e+00,1.702775359153747559e+00,1.732660770416259766e+00,3.549178361892700195e+00,3.446378231048583984e+00,3.349365711212158203e+00,3.257665395736694336e+00,3.170851945877075195e+00,3.088545799255371094e+00,3.010404586791992188e+00,2.936119556427001953e+00,2.865412473678588867e+00,2.798030614852905273e+00,2.733745098114013672e+00,2.672347307205200195e+00,2.613646745681762695e+00,2.557469606399536133e+00,2.503656387329101562e+00,2.452061176300048828e+00,2.402549743652343750e+00,2.354998111724853516e+00,2.309292316436767578e+00,2.265326738357543945e+00,2.223003864288330078e+00,2.182233572006225586e+00,2.142931938171386719e+00,2.105020761489868164e+00,2.068427562713623047e+00,2.033084869384765625e+00,1.998929858207702637e+00,1.965903401374816895e+00,1.933950543403625488e+00,1.903019785881042480e+00,1.873062729835510254e+00,1.844034314155578613e+00
5.000000000000000000e+00,5.000000000000000000e+00,5.000000000000000000e+00,5.000000000000000000e+00,5.000000000000000000e+00,5.000000000000000000e+00,5.000000000000000000e+00,5.000000000000000000e+00,5.000000000000000000e+00,5.000000000000000000e+00,5.000000000000000000e+00,5.000000000000000000e+00,5.000000000000000000e+00,5.000000000000000000e+00,5.000000000000000000e+00,5.000000000000000000e+00,5.000000000000000000e+00,5.000000000000000000e+00,5.000000000000000000e+00,5.000000000000000000e+00,5.000000000000000000e+00,5.000000000000000000e+00,5.000000000000000000e+00,5.000000000000000000e+00,5.000000000000000000e+00,5.000000000000000000e+00,5.000000000000000000e+00,5.000000000000000000e+00,5.000000000000000000e+00,5.000000000000000000e+00,5.000000000000000000e+00,5.000000000000000000e+00,5.000000000000000000e+00,5.000000000000000000e+00,5.000000000000000000e+00,2.018618106842041016e+00,1.995352149009704590e+00,1.988690853118896484e+00,5.000000000000000000e+00,4.851762294769287109e+00,4.661678791046142578e+00,4.485928535461425781e+00,4.322947978973388672e+00,4.171395301818847656e+00,1.726297259330749512e+00,1.704901337623596191e+00,1.699125766754150391e+00,1.717738747596740723e+00,3.549251556396484375e+00,3.446447372436523438e+00,3.349431037902832031e+00,3.257727146148681641e+00,3.170910835266113281e+00,3.088601589202880859e+00,3.010457277297973633e+00,2.936169624328613281e+00,2.865460157394409180e+00,2.798076152801513672e+00,2.733788728713989258e+00,2.672388792037963867e+00,2.613686323165893555e+00,2.557507514953613281e+00,2.503692865371704102e+00,2.452096223831176758e+00,2.402583122253417969e+00,2.355030298233032227e+00,2.309323310852050781e+00,2.265356540679931641e+00,2.223032712936401367e+00,2.182261466979980469e+00,2.142958641052246094e+00,2.105046510696411133e+00,2.068452358245849609e+00,2.033109188079833984e+00,1.998953104019165039e+00,1.965926051139831543e+00,1.933972358703613281e+00,1.903040885925292969e+00,1.873083233833312988e+00,1.844054102897644043e+00
5.000000000000000000e+00,5.000000000000000000e+00,5.000000000000000000e+00,5.000000000000000000e+00,5.000000000000000000e+00,5.000000000000000000e+00,5.000000000000000000e+00,5.000000000000000000e+00,5.000000000000000000e+00,5.000000000000000000e+00,5.000000000000000000e+00,5.000000000000000000e+00,5.000000000000000000e+00,5.000000000000000000e+00,5.000000000000000000e+00,5.000000000000000000e+00,5.000000000000000000e+00,5.000000000000000000e+00,5.000000000000000000e+00,5.000000000000000000e+00,5.000000000000000000e+00,5.000000000000000000e+00,5.000000000000000000e+00,5.000000000000000000e+00,5.000000000000000000e+00,5.000000000000000000e+00,5.000000000000000000e+00,5.000000000000000000e+00,5.000000000000000000e+00,5.000000000000000000e+00,5.000000000000000000e+00,5.000000000000000000e+00,5.000000000000000000e+00,5.000000000000000000e+00,5.000000000000000000e+00,2.035871744155883789e+00,2.014577865600585938e+00,2.026614904403686523e+00,5.000000000000000000e+00,4.851900577545166016e+00,4.661805629730224609e+00,4.486045837402343750e+00,4.323057174682617188e+00,4.171496391296386719e+00,1.725940942764282227e+00,1.700134158134460449e+00,1.695491790771484375e+00,1.703071475028991699e+00,3.549325227737426758e+00,3.446516752243041992e+00,3.349496364593505859e+00,3.257788658142089844e+00,3.170969247817993164e+00,3.088657140731811523e+00,3.010510206222534180e+00,2.936220169067382812e+00,2.865507841110229492e+00,2.798121690750122070e+00,2.733832120895385742e+00,2.672430515289306641e+00,2.613726377487182617e+00,2.557545661926269531e+00,2.503729343414306641e+00,2.452131271362304688e+00,2.402616977691650391e+00,2.355062723159790039e+00,2.309354305267333984e+00,2.265386343002319336e+00,2.223061561584472656e+00,2.182289123535156250e+00,2.142985343933105469e+00,2.105072498321533203e+00,2.068477392196655273e+00,2.033133029937744141e+00,1.998976469039916992e+00,1.965948581695556641e+00,1.933994174003601074e+00,1.903061866760253906e+00,1.873103499412536621e+00,1.844073772430419922e+00
5.000000000000000000e+00,5.000000000000000000e+00,5.000000000000000000e+00,5.000000000000000000e+00,5.000000000000000000e+00,5.000000000000000000e+00,5.000000000000000000e+00,5.000000000000000000e+00,5.000000000000000000e+00,5.000000000000000000e+00,5.000000000000000000e+00,5.000000000000000000e+00,5.000000000000000000e+00,5.000000000000000000e+00,5.000000000000000000e+00,5.000000000000000000e+00,5.000000000000000000e+00,5.000000000000000000e+00,5.000000000000000000e+00,5.000000000000000000e+00,5.000000000000000000e+00,5.000000000000000000e+00,5.000000000000000000e+00,5.000000000000000000e+00,5.000000000000000000e+00,5.000000000000000000e+00,5.000000000000000000e+00,5.000000000000000000e+00,5.000000000000000000e+00,5.000000000000000000e+00,5.000000000000000000e+00,5.000000000000000000e+00,5.000000000000000000e+00,5.000000000000000000e+00,5.000000000000000000e+00,2.053130865097045898e+00,2.029306173324584961e+00,2.049122810363769531e+00,5.000000000000000000e+00,4.852038383483886719e+00,4.661931991577148438e+00,4.486163139343261719e+00,4.323165416717529297e+00,4.171597957611083984e+00,1.725584864616394043e+00,1.695393443107604980e+00,1.690881848335266113e+00,1.688652396202087402e+00,3.549398422241210938e+00,3.446585655212402344e+00,3.349561691284179688e+00,3.257850646972656250e+00,3.171027898788452148e+00,3.088712453842163086e+00,3.010562896728515625e+00,2.936270236968994141e+00,2.865555763244628906e+00,2.798167467117309570e+00,2.733875513076782227e+00,2.672472000122070312e+00,2.613765954971313477e+00,2.557583808898925781e+00,2.503765821456909180e+00,2.452166318893432617e+00,2.402650594711303711e+00,2.355095148086547852e+00,2.309385299682617188e+00,2.265416383743286133e+00,2.223090410232543945e+00,2.182316780090332031e+00,2.143012046813964844e+00,2.105098247528076172e+00,2.068502187728881836e+00,2.033157348632812500e+00,1.998999595642089844e+00,1.965970873832702637e+00,1.934015870094299316e+00,1.903082966804504395e+00,1.873124003410339355e+00,1.844093680381774902e+00
5.000000000000000000e+00,5.000000000000000000e+00,5.000000000000000000e+00,5.000000000000000000e+00,5.000000000000000000e+00,5.000000000000000000e+00,5.000000000000000000e+00,5.000000000000000000e+00,5.000000000000000000e+00,5.000000000000000000e+00,5.000000000000000000e+00,5.000000000000000000e+00,5.000000000000000000e+00,5.000000000000000000e+00,5.000000000000000000e+00,5.000000000000000000e+00,5.000000000000000000e+00,5.000000000000000000e+00,5.000000000000000000e+00,5.000000000000000000e+00,5.000000000000000000e+00,5.000000000000000000e+00,5.000000000000000000e+00,5.000000000000000000e+00,5.000000000000000000e+00,5.000000000000000000e+00,5.000000000000000000e+00,5.000000000000000000e+00,5.000000000000000000e+00,5.000000000000000000e+00,5.000000000000000000e+00,5.000000000000000000e+00,5.000000000000000000e+00,5.000000000000000000e+00,5.000000000000000000e+00,2.071049928665161133e+00,2.045568466186523438e+00,2.070098638534545898e+00,5.000000000000000000e+00,4.852176189422607422e+00,4.662059307098388672e+00,4.486279964447021484e+00,4.323274612426757812e+00,4.171699523925781250e+00,1.725369215011596680e+00,1.692472696304321289e+00,1.686396598815917969e+00,1.681919455528259277e+00,3.549471855163574219e+00,3.446655035018920898e+00,3.349626779556274414e+00,3.257912397384643555e+00,3.171086311340332031e+00,3.088768243789672852e+00,3.010615825653076172e+00,2.936320304870605469e+00,2.865603446960449219e+00,2.798213005065917969e+00,2.733919143676757812e+00,2.672513723373413086e+00,2.613805770874023438e+00,2.557621717453002930e+00,2.503802299499511719e+00,2.452201366424560547e+00,2.402684211730957031e+00,2.355127334594726562e+00,2.309416294097900391e+00,2.265446186065673828e+00,2.223119020462036133e+00,2.182344675064086914e+00,2.143038988113403320e+00,2.105123996734619141e+00,2.068527221679687500e+00,2.033181428909301758e+00,1.999022960662841797e+00,1.965993523597717285e+00,1.934037685394287109e+00,1.903104186058044434e+00,1.873144507408142090e+00,1.844113588333129883e+00
5.000000000000000000e+00,5.000000000000000000e+00,5.000000000000000000e+00,5.000000000000000000e+00,5.000000000000000000e+00,5.000000000000000000e+00,5.000000000000000000e+00,5.000000000000000000e+00,5.000000000000000000e+00,5.000000000000000000e+00,5.000000000000000000e+00,5.000000000000000000e+00,5.000000000000000000e+00,5.000000000000000000e+00,5.000000000000000000e+00,5.000000000000000000e+00,5.000000000000000000e+00,5.000000000000000000e+00,5.000000000000000000e+00,5.000000000000000000e+00,5.000000000000000000e+00,5.000000000000000000e+00,5.000000000000000000e+00,5.000000000000000000e+00,5.000000000000000000e+00,5.000000000000000000e+00,5.000000000000000000e+00,5.000000000000000000e+00,5.000000000000000000e+00,5.000000000000000000e+00,5.000000000000000000e+00,5.000000000000000000e+00,5.000000000000000000e+00,5.000000000000000000e+00,5.000000000000000000e+00,2.089954853057861328e+00,2.063814163208007812e+00,2.092595815658569336e+00,5.000000000000000000e+00,4.852313995361328125e+00,4.662187099456787109e+00,4.486397743225097656e+00,4.323382854461669922e+00,4.171800613403320312e+00,4.030487060546875000e+00,1.695179939270019531e+00,1.682626366615295410e+00,1.678169250488281250e+00,3.549545049667358398e+00,3.446724176406860352e+00,3.349692344665527344e+00,3.257974386215209961e+00,3.171144723892211914e+00,3.088823556900024414e+00,3.010668516159057617e+00,2.936370611190795898e+00,2.865651607513427734e+00,2.798258543014526367e+00,2.733962535858154297e+00,2.672555208206176758e+00,2.613845586776733398e+00,2.557660102844238281e+00,2.503839015960693359e+00,2.452236175537109375e+00,2.402717828750610352e+00,2.355159759521484375e+00,2.309447526931762695e+00,2.265476226806640625e+00,2.223147869110107422e+00,2.182372331619262695e+00,2.143065690994262695e+00,2.105149745941162109e+00,2.068552017211914062e+00,2.033205270767211914e+00,1.999046325683593750e+00,1.966016054153442383e+00,1.934059500694274902e+00,1.903125286102294922e+00,1.873165011405944824e+00,1.844133257865905762e+00
5.000000000000000000e+00,5.000000000000000000e+00,5.000000000000000000e+00,5.000000000000000000e+00,5.000000000000000000e+00,5.000000000000000000e+00,5.000000000000000000e+00,5.000000000000000000e+00,5.000000000000000000e+00,5.000000000000000000e+00,5.000000000000000000e+00,5.000000000000000000e+00,5.000000000000000000e+00,5.000000000000000000e+00,5.000000000000000000e+00,5.000000000000000000e+00,5.000000000000000000e+00,5.000000000000000000e+00,5.000000000000000000e+00,5.000000000000000000e+00,5.000000000000000000e+00,5.000000000000000000e+00,5.000000000000000000e+00,5.000000000000000000e+00,5.000000000000000000e+00,5.000000000000000000e+00,5.000000000000000000e+00,5.000000000000000000e+00,5.000000000000000000e+00,5.000000000000000000e+00,5.000000000000000000e+00,5.000000000000000000e+00,5.000000000000000000e+00,5.000000000000000000e+00,5.000000000000000000e+00,2.110481739044189453e+00,2.089464187622070312e+00,2.118757486343383789e+00,5.000000000000000000e+00,4.852452278137207031e+00,4.662314414978027344e+00,4.486515522003173828e+00,4.323492527008056641e+00,4.171901702880859375e+00,4.030581474304199219e+00,1.697895765304565430e+00,1.678873062133789062e+00,1.681746602058410645e+00,3.549618721008300781e+00,3.446793079376220703e+00,3.349757671356201172e+00,3.258036136627197266e+00,3.171203613281250000e+00,3.088879346847534180e+00,3.010720968246459961e+00,2.936420679092407227e+00,2.865699291229248047e+00,2.798304319381713867e+00,2.734006166458129883e+00,2.672596693038940430e+00,2.613885402679443359e+00,2.557698011398315430e+00,2.503875494003295898e+00,2.452271461486816406e+00,2.402751445770263672e+00,2.355191946029663086e+00,2.309478521347045898e+00,2.265506029129028320e+00,2.223176717758178711e+00,2.182400226593017578e+00,2.143092393875122070e+00,2.105175495147705078e+00,2.068577051162719727e+00,2.033229589462280273e+00,1.999069571495056152e+00,1.966038465499877930e+00,1.934081196784973145e+00,1.903146266937255859e+00,1.873185276985168457e+00,1.844153046607971191e+00
4.874340057373046875e+00,4.873142719268798828e+00,4.871946334838867188e+00,4.870750427246093750e+00,4.869554996490478516e+00,4.868360519409179688e+00,4.867166519165039062e+00,4.865972995758056641e+00,4.864779949188232422e+00,4.863587856292724609e+00,4.862395763397216797e+00,4.861205101013183594e+00,4.860014438629150391e+00,4.858824253082275391e+00,4.857635021209716797e+00,4.856446266174316406e+00,4.855257987976074219e+00,4.854070663452148438e+00,4.852883338928222656e+00,4.851696968078613281e+00,4.850511074066162109e+00,4.849325656890869141e+00,4.848140716552734375e+00,4.846956729888916016e+00,4.845773220062255859e+00,4.844590187072753906e+00,4.843407630920410156e+00,4.842225551605224609e+00,4.841044902801513672e+00,4.839863777160644531e+00,4.838683605194091797e+00,4.837503910064697266e+00,4.836325168609619141e+00,4.835146427154541016e+00,4.833969116210937500e+00,2.131673097610473633e+00,2.110770463943481445e+00,4.830438613891601562e+00,4.829263210296630859e+00,4.828087806701660156e+00,4.662441730499267578e+00,4.486633777618408203e+00,4.323602199554443359e+00,4.172003269195556641e+00,4.030676364898681641e+00,1.700620293617248535e+00,1.675990343093872070e+00,1.681361436843872070e+00,3.549691915512084961e+00,3.446862697601318359e+00,3.349823236465454102e+00,3.258097887039184570e+00,3.171262025833129883e+00,3.088934898376464844e+00,3.010774135589599609e+00,2.936471223831176758e+00,2.865746974945068359e+00,2.798349857330322266e+00,2.734049797058105469e+00,2.672638416290283203e+00,2.613925218582153320e+00,2.557736158370971680e+00,2.503911972045898438e+00,2.452306270599365234e+00,2.402785062789916992e+00,2.355224370956420898e+00,2.309509754180908203e+00,2.265535831451416016e+00,2.223205327987670898e+00,2.182427883148193359e+00,2.143119096755981445e+00,2.105201482772827148e+00,2.068601846694946289e+00,2.033253431320190430e+00,1.999092698097229004e+00,1.966060996055603027e+00,1.934103012084960938e+00,1.903167366981506348e+00,1.873205780982971191e+00,1.844172954559326172e+00
3.777402400970458984e+00,3.776683568954467773e+00,3.775964736938476562e+00,3.775246381759643555e+00,3.774528264999389648e+00,3.773810386657714844e+00,3.773092746734619141e+00,3.772375583648681641e+00,3.771658897399902344e+00,3.770942211151123047e+00,3.770225763320922852e+00,3.769509315490722656e+00,3.768793582916259766e+00,3.768077850341796875e+00,3.767362356185913086e+00,3.766647338867187500e+00,3.765932559967041016e+00,3.765217781066894531e+00,3.764503479003906250e+00,3.763789415359497070e+00,3.763076066970825195e+00,3.762362718582153320e+00,3.761649370193481445e+00,3.760936498641967773e+00,3.760223865509033203e+00,3.759511232376098633e+00,3.758799076080322266e+00,3.758087396621704102e+00,3.757375717163085938e+00,3.756664276123046875e+00,3.755953311920166016e+00,3.755242824554443359e+00,3.754532337188720703e+00,3.753822088241577148e+00,3.753112077713012695e+00,2.166465520858764648e+00,2.131052017211914062e+00,3.750983715057373047e+00,3.750274658203125000e+00,3.749566078186035156e+00,3.748857736587524414e+00,3.748149633407592773e+00,3.747441768646240234e+00,3.746734380722045898e+00,3.746027231216430664e+00,1.703353643417358398e+00,1.674247264862060547e+00,1.675238251686096191e+00,3.549765110015869141e+00,3.446931600570678711e+00,3.349888324737548828e+00,3.258159875869750977e+00,3.171320676803588867e+00,3.088990211486816406e+00,3.010826826095581055e+00,2.936521291732788086e+00,2.865794897079467773e+00,2.798395395278930664e+00,2.734093427658081055e+00,2.672679901123046875e+00,2.613965034484863281e+00,2.557774305343627930e+00,2.503948450088500977e+00,2.452341556549072266e+00,2.402818679809570312e+00,2.355256557464599609e+00,2.309540748596191406e+00,2.265565633773803711e+00,2.223234176635742188e+00,2.182455539703369141e+00,2.143145799636840820e+00,2.105227231979370117e+00,2.068626880645751953e+00,2.033277750015258789e+00,1.999116063117980957e+00,1.966083526611328125e+00,1.934124827384948730e+00,1.903188586235046387e+00,1.873226284980773926e+00,1.844192743301391602e+00
3.083484888076782227e+00,3.083005666732788086e+00,3.082526922225952148e+00,3.082047939300537109e+00,3.081569433212280273e+00,3.081090927124023438e+00,3.080612897872924805e+00,3.080134630203247070e+00,3.079656600952148438e+00,3.079178810119628906e+00,3.078701019287109375e+00,3.078223466873168945e+00,3.077745914459228516e+00,3.077268600463867188e+00,3.076791524887084961e+00,3.076314449310302734e+00,3.075837612152099609e+00,3.075361251831054688e+00,3.074884653091430664e+00,3.074408292770385742e+00,3.073931932449340820e+00,3.073455810546875000e+00,3.072979927062988281e+00,3.072504043579101562e+00,3.072028398513793945e+00,3.071552753448486328e+00,3.071077346801757812e+00,3.070602178573608398e+00,3.070127248764038086e+00,3.069652318954467773e+00,3.069177627563476562e+00,3.068702936172485352e+00,3.068228483200073242e+00,3.067754030227661133e+00,3.067279815673828125e+00,2.175144195556640625e+00,2.144805192947387695e+00,3.065858364105224609e+00,3.065384626388549805e+00,3.064911127090454102e+00,3.064438104629516602e+00,3.063964843750000000e+00,3.063491821289062500e+00,3.063019037246704102e+00,3.062546253204345703e+00,1.706095814704895020e+00,1.688984274864196777e+00,1.685354232788085938e+00,3.060656785964965820e+00,3.060184717178344727e+00,3.059712886810302734e+00,3.059241294860839844e+00,3.058769702911376953e+00,3.058298349380493164e+00,3.010879755020141602e+00,2.936571359634399414e+00,2.865842580795288086e+00,2.798440933227539062e+00,2.734136819839477539e+00,2.672721624374389648e+00,2.614004850387573242e+00,2.557812213897705078e+00,2.503984928131103516e+00,2.452376365661621094e+00,2.402852296829223633e+00,2.355288982391357422e+00,2.309571743011474609e+00,2.265595674514770508e+00,2.223263025283813477e+00,2.182483434677124023e+00,2.143172740936279297e+00,2.105252981185913086e+00,2.068651676177978516e+00,2.033301591873168945e+00,1.999139428138732910e+00,1.966106176376342773e+00,1.934146761894226074e+00,1.903209447860717773e+00,1.873246550559997559e+00,1.844212412834167480e+00
2.604949474334716797e+00,2.604607582092285156e+00,2.604265689849853516e+00,2.603924036026000977e+00,2.603582382202148438e+00,2.603240966796875000e+00,2.602899312973022461e+00,2.602558135986328125e+00,2.602216720581054688e+00,2.601875543594360352e+00,2.601534366607666016e+00,2.601193428039550781e+00,2.600852489471435547e+00,2.600511550903320312e+00,2.600171089172363281e+00,2.599830389022827148e+00,2.599489688873291016e+00,2.599149227142333984e+00,2.598808765411376953e+00,2.598468542098999023e+00,2.598128318786621094e+00,2.597788095474243164e+00,2.597448110580444336e+00,2.597108125686645508e+00,2.596768140792846680e+00,2.596428632736206055e+00,2.596088886260986328e+00,2.595749378204345703e+00,2.595409870147705078e+00,2.595070362091064453e+00,2.594731092453002930e+00,2.594391822814941406e+00,2.594052553176879883e+00,2.593713521957397461e+00,2.593374490737915039e+00,2.155998706817626953e+00,2.121245145797729492e+00,2.116090059280395508e+00,2.592019796371459961e+00,2.591681241989135742e+00,2.591342687606811523e+00,2.591004371643066406e+00,2.590666055679321289e+00,2.590327978134155273e+00,2.589989900588989258e+00,2.589651823043823242e+00,1.678387522697448730e+00,1.653796792030334473e+00,2.588638544082641602e+00,2.588300943374633789e+00,2.587963342666625977e+00,2.587625741958618164e+00,2.587288379669189453e+00,2.586951017379760742e+00,2.586613893508911133e+00,2.586276769638061523e+00,2.585939645767211914e+00,2.585602760314941406e+00,2.585265874862670898e+00,2.584929227828979492e+00,2.584592580795288086e+00,2.557850599288940430e+00,2.504021644592285156e+00,2.452411413192749023e+00,2.402885913848876953e+00,2.355321168899536133e+00,2.309602737426757812e+00,2.265625476837158203e+00,2.223291635513305664e+00,2.182511091232299805e+00,2.143199443817138672e+00,2.105278730392456055e+00,2.068676710128784180e+00,2.033325910568237305e+00,1.999162554740905762e+00,1.966128468513488770e+00,1.934168338775634766e+00,1.903230667114257812e+00,1.873267054557800293e+00,1.844232320785522461e+00
2.255025863647460938e+00,2.254768133163452148e+00,2.254510402679443359e+00,2.254252910614013672e+00,2.253995180130004883e+00,2.253737688064575195e+00,2.253480434417724609e+00,2.253223180770874023e+00,2.252965688705444336e+00,2.252708435058593750e+00,2.252451181411743164e+00,2.252194166183471680e+00,2.251937150955200195e+00,2.251680135726928711e+00,2.251423120498657227e+00,2.251166343688964844e+00,2.250909328460693359e+00,2.250652551651000977e+00,2.250396013259887695e+00,2.250139236450195312e+00,2.249882698059082031e+00,2.249626159667968750e+00,2.249369621276855469e+00,2.249113321304321289e+00,2.248857498168945312e+00,2.248602867126464844e+00,2.248347997665405273e+00,2.248093366622924805e+00,2.247838497161865234e+00,2.247584104537963867e+00,2.247329473495483398e+00,2.247074842453002930e+00,2.246820449829101562e+00,2.246566057205200195e+00,2.246311902999877930e+00,2.246057748794555664e+00,2.091363906860351562e+00,2.081849336624145508e+00,2.070927858352661133e+00,2.245041131973266602e+00,2.244787216186523438e+00,2.244533300399780273e+00,2.244279384613037109e+00,2.244025707244873047e+00,2.243771791458129883e+00,2.243518352508544922e+00,1.667406320571899414e+00,1.622625231742858887e+00,1.577022075653076172e+00,1.532089471817016602e+00,1.526681661605834961e+00,2.241997480392456055e+00,2.241744041442871094e+00,2.241490840911865234e+00,2.241237640380859375e+00,2.240984678268432617e+00,2.240731477737426758e+00,2.240478754043579102e+00,2.240225791931152344e+00,2.239972829818725586e+00,2.239720106124877930e+00,2.239467144012451172e+00,2.239214420318603516e+00,2.238961935043334961e+00,2.238709211349487305e+00,2.238456726074218750e+00,2.238204240798950195e+00,2.237951755523681641e+00,2.223320722579956055e+00,2.182538747787475586e+00,2.143226146697998047e+00,2.105304479598999023e+00,2.068701505661010742e+00,2.033349752426147461e+00,1.999185800552368164e+00,1.966151118278503418e+00,1.934190154075622559e+00,1.903251767158508301e+00,1.873287558555603027e+00,1.844252228736877441e+00
1.988044381141662598e+00,1.987844109535217285e+00,1.987643718719482422e+00,1.987443566322326660e+00,1.987243533134460449e+00,1.987043142318725586e+00,1.986843228340148926e+00,1.986643195152282715e+00,1.986443042755126953e+00,1.986243128776550293e+00,1.986043095588684082e+00,1.985843300819396973e+00,1.985643506050109863e+00,1.985443472862243652e+00,1.985243797302246094e+00,1.985044121742248535e+00,1.984844326972961426e+00,1.984644770622253418e+00,1.984445214271545410e+00,1.984245419502258301e+00,1.984045982360839844e+00,1.983846306800842285e+00,1.983646988868713379e+00,1.983447670936584473e+00,1.983248114585876465e+00,1.983048915863037109e+00,1.982849717140197754e+00,1.982650279998779297e+00,1.982451081275939941e+00,1.982252001762390137e+00,1.982052803039550781e+00,1.981853723526000977e+00,1.981654763221740723e+00,1.981455564498901367e+00,1.981256723403930664e+00,1.981057643890380859e+00,1.980858802795410156e+00,1.980659961700439453e+00,1.980461001396179199e+00,1.980262398719787598e+00,1.980063676834106445e+00,1.979864835739135742e+00,1.979666233062744141e+00,1.979467749595642090e+00,1.979269027709960938e+00,1.979070544242858887e+00,1.678341031074523926e+00,1.646479129791259766e+00,1.568825721740722656e+00,1.566660165786743164e+00,1.616097450256347656e+00,1.977880120277404785e+00,1.977681756019592285e+00,1.977483630180358887e+00,1.977285504341125488e+00,1.977087140083312988e+00,1.976889133453369141e+00,1.976691246032714844e+00,1.976493000984191895e+00,1.976295113563537598e+00,1.976096987724304199e+00,1.975899219512939453e+00,1.975701451301574707e+00,1.975503444671630859e+00,1.975305676460266113e+00,1.975108027458190918e+00,1.974910259246826172e+00,1.974712610244750977e+00,1.974515080451965332e+00,1.974317312240600586e+00,1.974119901657104492e+00,1.973922252655029297e+00,1.973724842071533203e+00,1.973527431488037109e+00,1.973329901695251465e+00,1.966173648834228516e+00,1.934212088584899902e+00,1.903272986412048340e+00,1.873307824134826660e+00,1.844271898269653320e+00
1.777588605880737305e+00,1.777428627014160156e+00,1.777268409729003906e+00,1.777108311653137207e+00,1.776948332786560059e+00,1.776788234710693359e+00,1.776628255844116211e+00,1.776468157768249512e+00,1.776308298110961914e+00,1.776148438453674316e+00,1.775988459587097168e+00,1.775828719139099121e+00,1.775668978691101074e+00,1.775508999824523926e+00,1.775349378585815430e+00,1.775189638137817383e+00,1.775029778480529785e+00,1.774870157241821289e+00,1.774710416793823242e+00,1.774550914764404297e+00,1.774391293525695801e+00,1.774231672286987305e+00,1.774072170257568359e+00,1.773912787437438965e+00,1.773753166198730469e+00,1.773593783378601074e+00,1.773434400558471680e+00,1.773274898529052734e+00,1.773115634918212891e+00,1.772956371307373047e+00,1.772796869277954102e+00,1.772637724876403809e+00,1.772478342056274414e+00,1.772319197654724121e+00,1.772160053253173828e+00,1.772000670433044434e+00,1.771841645240783691e+00,1.771682620048522949e+00,1.771523356437683105e+00,1.771364450454711914e+00,1.771205425262451172e+00,1.771046400070190430e+00,1.770887494087219238e+00,1.770728349685668945e+00,1.770569562911987305e+00,1.770410776138305664e+00,1.770251750946044922e+00,1.770092964172363281e+00,1.769934296607971191e+00,1.769775390625000000e+00,1.769616723060607910e+00,1.769458055496215820e+00,1.769299268722534180e+00,1.769140720367431641e+00,1.768982052803039551e+00,1.768823385238647461e+00,1.768664836883544922e+00,1.768506288528442383e+00,1.768347740173339844e+00,1.768189430236816406e+00,1.768030762672424316e+00,1.767872452735900879e+00,1.767714142799377441e+00,1.767555594444274902e+00,1.767397403717041016e+00,1.767239093780517578e+00,1.767080664634704590e+00,1.766922473907470703e+00,1.766764163970947266e+00,1.766606092453002930e+00,1.766447901725769043e+00,1.766289710998535156e+00,1.766131639480590820e+00,1.765973567962646484e+00,1.765815496444702148e+00,1.765657544136047363e+00,1.765499591827392578e+00,1.765341520309448242e+00,1.765183687210083008e+00,1.765025734901428223e+00
1.607425570487976074e+00,1.607294678688049316e+00,1.607163548469543457e+00,1.607032775878906250e+00,1.606901764869689941e+00,1.606770992279052734e+00,1.606640219688415527e+00,1.606509208679199219e+00,1.606378555297851562e+00,1.606247782707214355e+00,1.606116890907287598e+00,1.605986237525939941e+00,1.605855584144592285e+00,1.605724811553955078e+00,1.605594158172607422e+00,1.605463624000549316e+00,1.605332851409912109e+00,1.605202317237854004e+00,1.605071544647216797e+00,1.604941129684448242e+00,1.604810595512390137e+00,1.604679942131042480e+00,1.604549527168273926e+00,1.604419112205505371e+00,1.604288578033447266e+00,1.604158163070678711e+00,1.604027748107910156e+00,1.603897333145141602e+00,1.603766918182373047e+00,1.603636503219604492e+00,1.603506207466125488e+00,1.603375911712646484e+00,1.603245615959167480e+00,1.603115320205688477e+00,1.602985143661499023e+00,1.602854847908020020e+00,1.602724671363830566e+00,1.602594614028930664e+00,1.602464318275451660e+00,1.602334260940551758e+00,1.602204084396362305e+00,1.602073907852172852e+00,1.601943969726562500e+00,1.601813793182373047e+00,1.601683735847473145e+00,1.601553797721862793e+00,1.601423740386962891e+00,1.601293802261352539e+00,1.601163864135742188e+00,1.601033926010131836e+00,1.600903987884521484e+00,1.600774168968200684e+00,1.600644230842590332e+00,1.600514411926269531e+00,1.600384473800659180e+00,1.600254774093627930e+00,1.600125074386596680e+00,1.599995136260986328e+00,1.599865436553955078e+00,1.599735736846923828e+00,1.599605917930603027e+00,1.599476337432861328e+00,1.599346756935119629e+00,1.599217057228088379e+00,1.599087476730346680e+00,1.598957777023315430e+00,1.598828196525573730e+00,1.598698735237121582e+00,1.598569154739379883e+00,1.598439693450927734e+00,1.598310232162475586e+00,1.598180651664733887e+00,1.598051309585571289e+00,1.597921848297119141e+00,1.597792387008666992e+00,1.597663044929504395e+00,1.597533702850341797e+00,1.597404241561889648e+00,1.597275018692016602e+00,1.597145676612854004e+00
1.466994643211364746e+00,1.466885447502136230e+00,1.466776490211486816e+00,1.466667413711547852e+00,1.466558337211608887e+00,1.466449379920959473e+00,1.466340422630310059e+00,1.466231346130371094e+00,1.466122508049011230e+00,1.466013550758361816e+00,1.465904593467712402e+00,1.465795755386352539e+00,1.465686798095703125e+00,1.465577840805053711e+00,1.465469121932983398e+00,1.465360164642333984e+00,1.465251326560974121e+00,1.465142607688903809e+00,1.465033769607543945e+00,1.464924931526184082e+00,1.464816212654113770e+00,1.464707493782043457e+00,1.464598774909973145e+00,1.464490056037902832e+00,1.464381337165832520e+00,1.464272618293762207e+00,1.464163899421691895e+00,1.464055299758911133e+00,1.463946700096130371e+00,1.463837981224060059e+00,1.463729500770568848e+00,1.463620901107788086e+00,1.463512301445007324e+00,1.463403820991516113e+00,1.463295221328735352e+00,1.463186621665954590e+00,1.463078260421752930e+00,1.462969779968261719e+00,1.462861180305480957e+00,1.462752819061279297e+00,1.462644338607788086e+00,1.462535858154296875e+00,1.462427496910095215e+00,1.462319135665893555e+00,1.462210774421691895e+00,1.462102413177490234e+00,1.461994051933288574e+00,1.461885690689086914e+00,1.461777448654174805e+00,1.461669087409973145e+00,1.461560845375061035e+00,1.461452484130859375e+00,1.461344361305236816e+00,1.461236119270324707e+00,1.461127877235412598e+00,1.461019635200500488e+00,1.460911512374877930e+00,1.460803270339965820e+00,1.460695147514343262e+00,1.460587143898010254e+00,1.460478901863098145e+00,1.460370898246765137e+00,1.460262775421142578e+00,1.460154652595520020e+00,1.460046648979187012e+00,1.459938526153564453e+00,1.459830522537231445e+00,1.459722518920898438e+00,1.459614515304565430e+00,1.459506630897521973e+00,1.459398627281188965e+00,1.459290623664855957e+00,1.459182739257812500e+00,1.459074854850769043e+00,1.458966851234436035e+00,1.458859086036682129e+00,1.458751082420349121e+00,1.458643317222595215e+00,1.458535552024841309e+00,1.458427667617797852e+00
1.349129438400268555e+00,1.349037051200866699e+00,1.348944902420043945e+00,1.348852634429931641e+00,1.348760366439819336e+00,1.348668217658996582e+00,1.348576068878173828e+00,1.348483800888061523e+00,1.348391771316528320e+00,1.348299622535705566e+00,1.348207473754882812e+00,1.348115324974060059e+00,1.348023176193237305e+00,1.347931146621704102e+00,1.347839117050170898e+00,1.347746968269348145e+00,1.347654938697814941e+00,1.347562909126281738e+00,1.347470760345458984e+00,1.347378849983215332e+00,1.347286820411682129e+00,1.347194790840148926e+00,1.347102880477905273e+00,1.347010970115661621e+00,1.346918940544128418e+00,1.346827030181884766e+00,1.346735000610351562e+00,1.346643090248107910e+00,1.346551299095153809e+00,1.346459269523620605e+00,1.346367478370666504e+00,1.346275568008422852e+00,1.346183657646179199e+00,1.346091866493225098e+00,1.346000075340270996e+00,1.345908164978027344e+00,1.345816373825073242e+00,1.345724582672119141e+00,1.345632791519165039e+00,1.345541119575500488e+00,1.345449209213256836e+00,1.345357537269592285e+00,1.345265865325927734e+00,1.345174074172973633e+00,1.345082402229309082e+00,1.344990730285644531e+00,1.344898939132690430e+00,1.344807386398315430e+00,1.344715595245361328e+00,1.344624042510986328e+00,1.344532370567321777e+00,1.344440698623657227e+00,1.344349145889282227e+00,1.344257593154907227e+00,1.344165921211242676e+00,1.344074368476867676e+00,1.343982815742492676e+00,1.343891263008117676e+00,1.343799710273742676e+00,1.343708276748657227e+00,1.343616724014282227e+00,1.343525290489196777e+00,1.343433737754821777e+00,1.343342304229736328e+00,1.343250870704650879e+00,1.343159317970275879e+00,1.343067884445190430e+00,1.342976570129394531e+00,1.342885017395019531e+00,1.342793703079223633e+00,1.342702388763427734e+00,1.342610955238342285e+00,1.342519521713256836e+00,1.342428207397460938e+00,1.342336893081665039e+00,1.342245578765869141e+00,1.342154145240783691e+00,1.342062950134277344e+00,1.341971635818481445e+00,1.341880321502685547e+00
1.248795390129089355e+00,1.248716235160827637e+00,1.248637318611145020e+00,1.248558282852172852e+00,1.248479247093200684e+00,1.248400211334228516e+00,1.248321294784545898e+00,1.248242259025573730e+00,1.248163342475891113e+00,1.248084306716918945e+00,1.248005390167236328e+00,1.247926473617553711e+00,1.247847557067871094e+00,1.247768640518188477e+00,1.247689723968505859e+00,1.247610807418823242e+00,1.247531890869140625e+00,1.247453093528747559e+00,1.247374176979064941e+00,1.247295379638671875e+00,1.247216463088989258e+00,1.247137665748596191e+00,1.247058868408203125e+00,1.246979951858520508e+00,1.246901154518127441e+00,1.246822357177734375e+00,1.246743559837341309e+00,1.246664762496948242e+00,1.246586084365844727e+00,1.246507287025451660e+00,1.246428489685058594e+00,1.246349811553955078e+00,1.246271014213562012e+00,1.246192336082458496e+00,1.246113538742065430e+00,1.246034860610961914e+00,1.245956301689147949e+00,1.245877504348754883e+00,1.245798826217651367e+00,1.245720267295837402e+00,1.245641589164733887e+00,1.245562911033630371e+00,1.245484352111816406e+00,1.245405673980712891e+00,1.245327115058898926e+00,1.245248556137084961e+00,1.245169878005981445e+00,1.245091319084167480e+00,1.245012640953063965e+00,1.244934201240539551e+00,1.244855642318725586e+00,1.244777083396911621e+00,1.244698524475097656e+00,1.244620084762573242e+00,1.244541525840759277e+00,1.244463086128234863e+00,1.244384527206420898e+00,1.244306087493896484e+00,1.244227647781372070e+00,1.244149088859558105e+00,1.244070649147033691e+00,1.243992209434509277e+00,1.243913769721984863e+00,1.243835330009460449e+00,1.243757009506225586e+00,1.243678569793701172e+00,1.243600130081176758e+00,1.243521809577941895e+00,1.243443369865417480e+00,1.243365049362182617e+00,1.243286728858947754e+00,1.243208408355712891e+00,1.243130087852478027e+00,1.243051648139953613e+00,1.242973446846008301e+00,1.242895126342773438e+00,1.242816805839538574e+00,1.242738485336303711e+00,1.242660284042358398e+00,1.242581963539123535e+00
1.162351846694946289e+00,1.162283420562744141e+00,1.162214875221252441e+00,1.162146449089050293e+00,1.162078022956848145e+00,1.162009596824645996e+00,1.161941170692443848e+00,1.161872744560241699e+00,1.161804318428039551e+00,1.161735892295837402e+00,1.161667466163635254e+00,1.161599159240722656e+00,1.161530613899230957e+00,1.161462306976318359e+00,1.161394000053405762e+00,1.161325573921203613e+00,1.161257266998291016e+00,1.161188960075378418e+00,1.161120533943176270e+00,1.161052227020263672e+00,1.160983800888061523e+00,1.160915613174438477e+00,1.160847306251525879e+00,1.160778999328613281e+00,1.160710692405700684e+00,1.160642385482788086e+00,1.160574078559875488e+00,1.160505890846252441e+00,1.160437583923339844e+00,1.160369277000427246e+00,1.160301089286804199e+00,1.160232782363891602e+00,1.160164594650268555e+00,1.160096406936645508e+00,1.160028219223022461e+00,1.159960031509399414e+00,1.159891843795776367e+00,1.159823656082153320e+00,1.159755468368530273e+00,1.159687280654907227e+00,1.159619092941284180e+00,1.159551024436950684e+00,1.159482836723327637e+00,1.159414649009704590e+00,1.159346580505371094e+00,1.159278392791748047e+00,1.159210324287414551e+00,1.159142255783081055e+00,1.159074068069458008e+00,1.159005999565124512e+00,1.158937931060791016e+00,1.158869862556457520e+00,1.158801794052124023e+00,1.158733725547790527e+00,1.158665657043457031e+00,1.158597588539123535e+00,1.158529520034790039e+00,1.158461570739746094e+00,1.158393502235412598e+00,1.158325552940368652e+00,1.158257603645324707e+00,1.158189654350280762e+00,1.158121585845947266e+00,1.158053636550903320e+00,1.157985687255859375e+00,1.157917618751525879e+00,1.157849788665771484e+00,1.157781839370727539e+00,1.157713890075683594e+00,1.157645940780639648e+00,1.157577991485595703e+00,1.157510042190551758e+00,1.157442212104797363e+00,1.157374262809753418e+00,1.157306432723999023e+00,1.157238483428955078e+00,1.157170653343200684e+00,1.157102823257446289e+00,1.157034993171691895e+00,1.156967043876647949e+00
1.087101101875305176e+00,1.087041139602661133e+00,1.086981296539306641e+00,1.086921453475952148e+00,1.086861491203308105e+00,1.086801648139953613e+00,1.086741805076599121e+00,1.086681962013244629e+00,1.086622118949890137e+00,1.086562275886535645e+00,1.086502432823181152e+00,1.086442589759826660e+00,1.086382746696472168e+00,1.086322903633117676e+00,1.086263179779052734e+00,1.086203336715698242e+00,1.086143493652343750e+00,1.086083650588989258e+00,1.086023926734924316e+00,1.085964202880859375e+00,1.085904359817504883e+00,1.085844635963439941e+00,1.085784912109375000e+00,1.085725069046020508e+00,1.085665345191955566e+00,1.085605740547180176e+00,1.085545897483825684e+00,1.085486173629760742e+00,1.085426568984985352e+00,1.085366725921630859e+00,1.085307121276855469e+00,1.085247397422790527e+00,1.085187673568725586e+00,1.085128068923950195e+00,1.085068345069885254e+00,1.085008621215820312e+00,1.084949016571044922e+00,1.084889292716979980e+00,1.084829688072204590e+00,1.084770083427429199e+00,1.084710359573364258e+00,1.084650754928588867e+00,1.084591031074523926e+00,1.084531426429748535e+00,1.084471940994262695e+00,1.084412217140197754e+00,1.084352731704711914e+00,1.084293127059936523e+00,1.084233522415161133e+00,1.084173917770385742e+00,1.084114432334899902e+00,1.084054708480834961e+00,1.083995223045349121e+00,1.083935737609863281e+00,1.083876132965087891e+00,1.083816647529602051e+00,1.083757042884826660e+00,1.083697557449340820e+00,1.083638072013854980e+00,1.083578467369079590e+00,1.083518981933593750e+00,1.083459496498107910e+00,1.083400011062622070e+00,1.083340525627136230e+00,1.083281040191650391e+00,1.083221554756164551e+00,1.083162069320678711e+00,1.083102583885192871e+00,1.083043098449707031e+00,1.082983732223510742e+00,1.082924246788024902e+00,1.082864761352539062e+00,1.082805395126342773e+00,1.082745909690856934e+00,1.082686543464660645e+00,1.082627177238464355e+00,1.082567691802978516e+00,1.082508325576782227e+00,1.082448840141296387e+00,1.082389473915100098e+00
1.021001338958740234e+00,1.020948529243469238e+00,1.020895719528198242e+00,1.020842790603637695e+00,1.020789980888366699e+00,1.020737290382385254e+00,1.020684361457824707e+00,1.020631670951843262e+00,1.020578861236572266e+00,1.020526051521301270e+00,1.020473241806030273e+00,1.020420551300048828e+00,1.020367741584777832e+00,1.020314931869506836e+00,1.020262122154235840e+00,1.020209431648254395e+00,1.020156621932983398e+00,1.020103931427001953e+00,1.020051121711730957e+00,1.019998431205749512e+00,1.019945740699768066e+00,1.019892930984497070e+00,1.019840240478515625e+00,1.019787549972534180e+00,1.019734859466552734e+00,1.019682168960571289e+00,1.019629478454589844e+00,1.019576787948608398e+00,1.019523978233337402e+00,1.019471406936645508e+00,1.019418716430664062e+00,1.019366025924682617e+00,1.019313335418701172e+00,1.019260764122009277e+00,1.019208073616027832e+00,1.019155383110046387e+00,1.019102811813354492e+00,1.019050121307373047e+00,1.018997550010681152e+00,1.018944859504699707e+00,1.018892288208007812e+00,1.018839597702026367e+00,1.018787026405334473e+00,1.018734455108642578e+00,1.018681883811950684e+00,1.018629193305969238e+00,1.018576622009277344e+00,1.018524050712585449e+00,1.018471479415893555e+00,1.018418908119201660e+00,1.018366336822509766e+00,1.018313765525817871e+00,1.018261194229125977e+00,1.018208622932434082e+00,1.018156170845031738e+00,1.018103599548339844e+00,1.018051028251647949e+00,1.017998576164245605e+00,1.017946004867553711e+00,1.017893433570861816e+00,1.017840981483459473e+00,1.017788529396057129e+00,1.017735958099365234e+00,1.017683506011962891e+00,1.017630934715270996e+00,1.017578482627868652e+00,1.017526030540466309e+00,1.017473459243774414e+00,1.017421007156372070e+00,1.017368674278259277e+00,1.017316102981567383e+00,1.017263650894165039e+00,1.017211318016052246e+00,1.017158746719360352e+00,1.017106413841247559e+00,1.017053961753845215e+00,1.017001509666442871e+00,1.016949057579040527e+00,1.016896605491638184e+00,1.016844272613525391e+00
9.624791145324707031e-01,9.624322056770324707e-01,9.623852372169494629e-01,9.623382091522216797e-01,9.622913002967834473e-01,9.622443914413452148e-01,9.621974825859069824e-01,9.621505737304687500e-01,9.621036648750305176e-01,9.620566964149475098e-01,9.620097875595092773e-01,9.619629383087158203e-01,9.619160294532775879e-01,9.618691802024841309e-01,9.618221521377563477e-01,9.617753028869628906e-01,9.617284536361694336e-01,9.616816043853759766e-01,9.616347551345825195e-01,9.615879058837890625e-01,9.615409374237060547e-01,9.614940881729125977e-01,9.614472389221191406e-01,9.614004492759704590e-01,9.613536000251770020e-01,9.613066911697387695e-01,9.612598419189453125e-01,9.612130522727966309e-01,9.611662626266479492e-01,9.611194133758544922e-01,9.610726237297058105e-01,9.610257148742675781e-01,9.609789252281188965e-01,9.609321355819702148e-01,9.608854055404663086e-01,9.608386158943176270e-01,9.607918262481689453e-01,9.607449769973754883e-01,9.606981873512268066e-01,9.606514573097229004e-01,9.606046676635742188e-01,9.605579376220703125e-01,9.605110883712768555e-01,9.604643583297729492e-01,9.604176282882690430e-01,9.603708982467651367e-01,9.603241682052612305e-01,9.602774381637573242e-01,9.602305889129638672e-01,9.601839184761047363e-01,9.601371884346008301e-01,9.600904583930969238e-01,9.600437879562377930e-01,9.599969983100891113e-01,9.599502682685852051e-01,9.599035978317260742e-01,9.598569273948669434e-01,9.598102569580078125e-01,9.597635865211486816e-01,9.597167968750000000e-01,9.596701264381408691e-01,9.596234560012817383e-01,9.595768451690673828e-01,9.595301747322082520e-01,9.594834446907043457e-01,9.594367742538452148e-01,9.593901634216308594e-01,9.593434929847717285e-01,9.592968821525573730e-01,9.592502713203430176e-01,9.592035412788391113e-01,9.591569304466247559e-01,9.591103196144104004e-01,9.590637087821960449e-01,9.590170979499816895e-01,9.589704275131225586e-01,9.589238166809082031e-01,9.588772654533386230e-01,9.588306546211242676e-01,9.587841033935546875e-01
9.103019237518310547e-01,9.102599620819091797e-01,9.102180004119873047e-01,9.101759791374206543e-01,9.101340174674987793e-01,9.100920557975769043e-01,9.100500345230102539e-01,9.100080728530883789e-01,9.099661111831665039e-01,9.099241495132446289e-01,9.098821878433227539e-01,9.098401665687561035e-01,9.097982048988342285e-01,9.097563028335571289e-01,9.097143411636352539e-01,9.096724390983581543e-01,9.096304774284362793e-01,9.095885157585144043e-01,9.095465540885925293e-01,9.095046520233154297e-01,9.094627499580383301e-01,9.094208478927612305e-01,9.093788266181945801e-01,9.093369841575622559e-01,9.092950820922851562e-01,9.092531800270080566e-01,9.092112779617309570e-01,9.091694355010986328e-01,9.091274142265319824e-01,9.090855717658996582e-01,9.090437293052673340e-01,9.090018272399902344e-01,9.089599847793579102e-01,9.089181423187255859e-01,9.088761806488037109e-01,9.088343381881713867e-01,9.087924957275390625e-01,9.087506532669067383e-01,9.087088108062744141e-01,9.086668491363525391e-01,9.086250066757202148e-01,9.085832238197326660e-01,9.085413813591003418e-01,9.084995388984680176e-01,9.084577560424804688e-01,9.084158539772033691e-01,9.083740115165710449e-01,9.083322286605834961e-01,9.082904458045959473e-01,9.082486629486083984e-01,9.082067608833312988e-01,9.081649780273437500e-01,9.081231951713562012e-01,9.080814123153686523e-01,9.080396294593811035e-01,9.079978466033935547e-01,9.079560041427612305e-01,9.079142212867736816e-01,9.078724384307861328e-01,9.078307151794433594e-01,9.077889323234558105e-01,9.077470898628234863e-01,9.077053666114807129e-01,9.076635837554931641e-01,9.076218605041503906e-01,9.075801372528076172e-01,9.075384140014648438e-01,9.074965715408325195e-01,9.074548482894897461e-01,9.074131250381469727e-01,9.073714613914489746e-01,9.073297381401062012e-01,9.072878956794738770e-01,9.072462320327758789e-01,9.072045087814331055e-01,9.071628451347351074e-01,9.071211218833923340e-01,9.070794582366943359e-01,9.070376753807067871e-01,9.069960117340087891e-01
8.634911179542541504e-01,8.634533286094665527e-01,8.634155392646789551e-01,8.633776903152465820e-01,8.633399605751037598e-01,8.633021712303161621e-01,8.632644414901733398e-01,8.632266521453857422e-01,8.631888031959533691e-01,8.631510734558105469e-01,8.631133437156677246e-01,8.630756139755249023e-01,8.630378842353820801e-01,8.630000948905944824e-01,8.629623055458068848e-01,8.629245758056640625e-01,8.628868460655212402e-01,8.628491163253784180e-01,8.628113865852355957e-01,8.627737164497375488e-01,8.627358675003051758e-01,8.626981973648071289e-01,8.626604676246643066e-01,8.626227974891662598e-01,8.625850677490234375e-01,8.625472784042358398e-01,8.625096082687377930e-01,8.624719381332397461e-01,8.624342083930969238e-01,8.623965382575988770e-01,8.623588681221008301e-01,8.623210787773132324e-01,8.622834086418151855e-01,8.622457385063171387e-01,8.622080683708190918e-01,8.621704578399658203e-01,8.621326684951782227e-01,8.620950579643249512e-01,8.620573878288269043e-01,8.620197176933288574e-01,8.619821071624755859e-01,8.619444370269775391e-01,8.619067072868347168e-01,8.618690967559814453e-01,8.618314266204833984e-01,8.617938160896301270e-01,8.617562055587768555e-01,8.617184758186340332e-01,8.616808652877807617e-01,8.616432547569274902e-01,8.616056442260742188e-01,8.615680336952209473e-01,8.615304231643676758e-01,8.614927530288696289e-01,8.614551424980163574e-01,8.614175319671630859e-01,8.613799214363098145e-01,8.613423705101013184e-01,8.613046407699584961e-01,8.612670898437500000e-01,8.612294793128967285e-01,8.611919283866882324e-01,8.611543774604797363e-01,8.611167669296264648e-01,8.610791563987731934e-01,8.610415458679199219e-01,8.610039949417114258e-01,8.609664440155029297e-01,8.609288930892944336e-01,8.608912825584411621e-01,8.608537316322326660e-01,8.608161807060241699e-01,8.607786297798156738e-01,8.607410788536071777e-01,8.607035279273986816e-01,8.606659173965454102e-01,8.606284260749816895e-01,8.605908751487731934e-01,8.605533838272094727e-01,8.605158329010009766e-01
8.212590813636779785e-01,8.212249279022216797e-01,8.211907148361206055e-01,8.211565613746643066e-01,8.211224079132080078e-01,8.210881948471069336e-01,8.210540413856506348e-01,8.210198879241943359e-01,8.209857344627380371e-01,8.209515810012817383e-01,8.209174275398254395e-01,8.208832144737243652e-01,8.208490610122680664e-01,8.208149671554565430e-01,8.207808136940002441e-01,8.207466602325439453e-01,8.207125663757324219e-01,8.206783533096313477e-01,8.206441998481750488e-01,8.206101059913635254e-01,8.205760121345520020e-01,8.205418586730957031e-01,8.205077052116394043e-01,8.204736113548278809e-01,8.204394578933715820e-01,8.204053640365600586e-01,8.203712701797485352e-01,8.203371763229370117e-01,8.203030228614807129e-01,8.202689290046691895e-01,8.202348351478576660e-01,8.202007412910461426e-01,8.201666474342346191e-01,8.201324939727783203e-01,8.200984597206115723e-01,8.200643658638000488e-01,8.200302720069885254e-01,8.199962377548217773e-01,8.199621438980102539e-01,8.199280500411987305e-01,8.198939561843872070e-01,8.198599219322204590e-01,8.198258280754089355e-01,8.197917938232421875e-01,8.197576999664306641e-01,8.197236061096191406e-01,8.196895718574523926e-01,8.196555376052856445e-01,8.196215033531188965e-01,8.195874691009521484e-01,8.195533752441406250e-01,8.195193409919738770e-01,8.194853067398071289e-01,8.194512724876403809e-01,8.194172978401184082e-01,8.193832039833068848e-01,8.193491697311401367e-01,8.193151354789733887e-01,8.192811608314514160e-01,8.192471265792846680e-01,8.192131519317626953e-01,8.191790580749511719e-01,8.191450834274291992e-01,8.191110491752624512e-01,8.190770745277404785e-01,8.190430998802185059e-01,8.190091252326965332e-01,8.189750313758850098e-01,8.189410567283630371e-01,8.189070820808410645e-01,8.188731074333190918e-01,8.188391327857971191e-01,8.188050985336303711e-01,8.187711238861083984e-01,8.187371492385864258e-01,8.187031745910644531e-01,8.186692595481872559e-01,8.186352849006652832e-01,8.186012506484985352e-01,8.185672760009765625e-01
7.829655408859252930e-01,7.829344868659973145e-01,7.829034328460693359e-01,7.828723192214965820e-01,7.828412652015686035e-01,7.828102111816406250e-01,7.827791571617126465e-01,7.827481031417846680e-01,7.827169895172119141e-01,7.826859354972839355e-01,7.826549410820007324e-01,7.826238870620727539e-01,7.825928330421447754e-01,7.825618386268615723e-01,7.825307250022888184e-01,7.824997305870056152e-01,7.824686765670776367e-01,7.824376821517944336e-01,7.824066281318664551e-01,7.823755741119384766e-01,7.823445200920104980e-01,7.823135256767272949e-01,7.822825312614440918e-01,7.822515368461608887e-01,7.822205424308776855e-01,7.821894288063049316e-01,7.821584343910217285e-01,7.821274399757385254e-01,7.820964455604553223e-01,7.820655107498168945e-01,7.820343971252441406e-01,7.820034623146057129e-01,7.819724678993225098e-01,7.819414734840393066e-01,7.819104790687561035e-01,7.818795442581176758e-01,7.818484902381896973e-01,7.818174958229064941e-01,7.817865610122680664e-01,7.817555665969848633e-01,7.817246317863464355e-01,7.816935777664184570e-01,7.816626429557800293e-01,7.816317081451416016e-01,7.816007137298583984e-01,7.815697789192199707e-01,7.815388441085815430e-01,7.815077900886535645e-01,7.814768552780151367e-01,7.814459204673767090e-01,7.814149856567382812e-01,7.813840508460998535e-01,7.813530564308166504e-01,7.813221216201782227e-01,7.812911868095397949e-01,7.812602519989013672e-01,7.812293171882629395e-01,7.811984419822692871e-01,7.811674475669860840e-01,7.811365127563476562e-01,7.811055779457092285e-01,7.810747027397155762e-01,7.810437679290771484e-01,7.810128927230834961e-01,7.809818983078002930e-01,7.809510231018066406e-01,7.809200882911682129e-01,7.808892130851745605e-01,7.808583378791809082e-01,7.808273434638977051e-01,7.807964682579040527e-01,7.807655930519104004e-01,7.807347178459167480e-01,7.807038426399230957e-01,7.806729674339294434e-01,7.806419730186462402e-01,7.806110978126525879e-01,7.805802226066589355e-01,7.805494070053100586e-01,7.805185317993164062e-01
7.480838894844055176e-01,7.480555176734924316e-01,7.480272054672241211e-01,7.479988336563110352e-01,7.479705214500427246e-01,7.479420900344848633e-01,7.479137778282165527e-01,7.478854060173034668e-01,7.478570938110351562e-01,7.478287220001220703e-01,7.478004097938537598e-01,7.477720379829406738e-01,7.477436661720275879e-01,7.477153539657592773e-01,7.476870417594909668e-01,7.476587295532226562e-01,7.476302981376647949e-01,7.476019859313964844e-01,7.475736737251281738e-01,7.475453615188598633e-01,7.475170493125915527e-01,7.474887371063232422e-01,7.474603652954101562e-01,7.474320530891418457e-01,7.474038004875183105e-01,7.473754882812500000e-01,7.473471760749816895e-01,7.473188042640686035e-01,7.472904920578002930e-01,7.472622394561767578e-01,7.472339272499084473e-01,7.472056746482849121e-01,7.471773624420166016e-01,7.471489906311035156e-01,7.471207380294799805e-01,7.470924258232116699e-01,7.470641732215881348e-01,7.470359206199645996e-01,7.470075488090515137e-01,7.469792962074279785e-01,7.469510436058044434e-01,7.469227313995361328e-01,7.468944787979125977e-01,7.468662261962890625e-01,7.468379139900207520e-01,7.468096613883972168e-01,7.467814087867736816e-01,7.467531561851501465e-01,7.467249035835266113e-01,7.466966509819030762e-01,7.466683387756347656e-01,7.466400861740112305e-01,7.466118335723876953e-01,7.465835809707641602e-01,7.465553283691406250e-01,7.465270757675170898e-01,7.464988231658935547e-01,7.464705705642700195e-01,7.464423775672912598e-01,7.464141249656677246e-01,7.463858723640441895e-01,7.463576197624206543e-01,7.463293671607971191e-01,7.463011741638183594e-01,7.462729811668395996e-01,7.462447285652160645e-01,7.462164759635925293e-01,7.461882233619689941e-01,7.461600303649902344e-01,7.461318373680114746e-01,7.461036443710327148e-01,7.460754513740539551e-01,7.460471391677856445e-01,7.460189461708068848e-01,7.459907531738281250e-01,7.459625601768493652e-01,7.459343671798706055e-01,7.459061145782470703e-01,7.458779215812683105e-01,7.458497285842895508e-01
7.161777615547180176e-01,7.161517739295959473e-01,7.161257266998291016e-01,7.160997390747070312e-01,7.160737514495849609e-01,7.160478234291076660e-01,7.160218358039855957e-01,7.159958481788635254e-01,7.159698009490966797e-01,7.159438729286193848e-01,7.159178853034973145e-01,7.158918976783752441e-01,7.158659696578979492e-01,7.158399224281311035e-01,7.158139348030090332e-01,7.157880067825317383e-01,7.157620191574096680e-01,7.157360911369323730e-01,7.157101631164550781e-01,7.156841158866882324e-01,7.156581878662109375e-01,7.156322002410888672e-01,7.156062722206115723e-01,7.155803442001342773e-01,7.155543565750122070e-01,7.155283689498901367e-01,7.155024409294128418e-01,7.154765129089355469e-01,7.154505848884582520e-01,7.154246568679809570e-01,7.153986692428588867e-01,7.153727412223815918e-01,7.153468132019042969e-01,7.153208851814270020e-01,7.152949571609497070e-01,7.152689695358276367e-01,7.152430415153503418e-01,7.152171730995178223e-01,7.151912450790405273e-01,7.151653170585632324e-01,7.151393890380859375e-01,7.151134610176086426e-01,7.150875329971313477e-01,7.150616049766540527e-01,7.150357365608215332e-01,7.150098085403442383e-01,7.149839401245117188e-01,7.149579524993896484e-01,7.149320840835571289e-01,7.149061560630798340e-01,7.148802876472473145e-01,7.148543596267700195e-01,7.148284316062927246e-01,7.148025631904602051e-01,7.147766351699829102e-01,7.147507667541503906e-01,7.147248983383178711e-01,7.146990299224853516e-01,7.146731019020080566e-01,7.146471738815307617e-01,7.146213054656982422e-01,7.145954370498657227e-01,7.145695686340332031e-01,7.145436406135559082e-01,7.145177721977233887e-01,7.144919037818908691e-01,7.144660353660583496e-01,7.144402265548706055e-01,7.144143581390380859e-01,7.143884301185607910e-01,7.143625617027282715e-01,7.143366932868957520e-01,7.143108844757080078e-01,7.142850160598754883e-01,7.142590880393981934e-01,7.142332792282104492e-01,7.142074108123779297e-01,7.141815423965454102e-01,7.141557335853576660e-01,7.141298651695251465e-01
6.868818998336791992e-01,6.868579983711242676e-01,6.868340969085693359e-01,6.868101954460144043e-01,6.867862939834594727e-01,6.867623329162597656e-01,6.867384314537048340e-01,6.867145299911499023e-01,6.866906285285949707e-01,6.866667866706848145e-01,6.866428256034851074e-01,6.866189241409301758e-01,6.865950226783752441e-01,6.865711808204650879e-01,6.865472793579101562e-01,6.865233778953552246e-01,6.864994764328002930e-01,6.864755749702453613e-01,6.864517331123352051e-01,6.864278316497802734e-01,6.864039897918701172e-01,6.863800287246704102e-01,6.863561868667602539e-01,6.863322854042053223e-01,6.863084435462951660e-01,6.862846016883850098e-01,6.862607002258300781e-01,6.862367987632751465e-01,6.862129569053649902e-01,6.861891150474548340e-01,6.861652135848999023e-01,6.861413717269897461e-01,6.861175298690795898e-01,6.860936284065246582e-01,6.860697865486145020e-01,6.860459446907043457e-01,6.860221028327941895e-01,6.859982609748840332e-01,6.859743595123291016e-01,6.859505176544189453e-01,6.859266757965087891e-01,6.859028339385986328e-01,6.858789920806884766e-01,6.858551502227783203e-01,6.858312487602233887e-01,6.858074665069580078e-01,6.857836246490478516e-01,6.857597827911376953e-01,6.857359409332275391e-01,6.857120990753173828e-01,6.856882572174072266e-01,6.856644749641418457e-01,6.856406331062316895e-01,6.856167912483215332e-01,6.855930089950561523e-01,6.855691075325012207e-01,6.855453252792358398e-01,6.855214834213256836e-01,6.854977011680603027e-01,6.854739189147949219e-01,6.854500174522399902e-01,6.854262351989746094e-01,6.854024529457092285e-01,6.853786110877990723e-01,6.853548288345336914e-01,6.853310465812683105e-01,6.853072047233581543e-01,6.852833628654479980e-01,6.852595806121826172e-01,6.852357983589172363e-01,6.852120161056518555e-01,6.851881742477416992e-01,6.851643919944763184e-01,6.851406097412109375e-01,6.851168274879455566e-01,6.850930452346801758e-01,6.850692629814147949e-01,6.850454211235046387e-01,6.850216388702392578e-01,6.849979162216186523e-01
6.598886251449584961e-01,6.598665118217468262e-01,6.598443984985351562e-01,6.598223447799682617e-01,6.598002910614013672e-01,6.597782373428344727e-01,6.597561836242675781e-01,6.597341299057006836e-01,6.597120761871337891e-01,6.596900224685668945e-01,6.596679687500000000e-01,6.596459150314331055e-01,6.596238613128662109e-01,6.596017479896545410e-01,6.595797538757324219e-01,6.595577001571655273e-01,6.595356464385986328e-01,6.595135927200317383e-01,6.594915390014648438e-01,6.594694852828979492e-01,6.594474315643310547e-01,6.594254374504089355e-01,6.594033837318420410e-01,6.593813896179199219e-01,6.593592762947082520e-01,6.593372821807861328e-01,6.593152284622192383e-01,6.592932343482971191e-01,6.592711806297302246e-01,6.592491865158081055e-01,6.592271327972412109e-01,6.592050790786743164e-01,6.591830849647521973e-01,6.591610908508300781e-01,6.591390371322631836e-01,6.591169834136962891e-01,6.590949892997741699e-01,6.590729951858520508e-01,6.590509414672851562e-01,6.590289473533630371e-01,6.590069532394409180e-01,6.589848995208740234e-01,6.589629054069519043e-01,6.589409112930297852e-01,6.589189171791076660e-01,6.588969230651855469e-01,6.588748693466186523e-01,6.588528752326965332e-01,6.588308811187744141e-01,6.588088870048522949e-01,6.587868928909301758e-01,6.587648987770080566e-01,6.587428450584411621e-01,6.587209105491638184e-01,6.586989164352416992e-01,6.586769223213195801e-01,6.586549282073974609e-01,6.586329340934753418e-01,6.586109399795532227e-01,6.585889458656311035e-01,6.585670113563537598e-01,6.585450172424316406e-01,6.585230231285095215e-01,6.585010290145874023e-01,6.584790349006652832e-01,6.584571003913879395e-01,6.584351062774658203e-01,6.584131717681884766e-01,6.583911180496215820e-01,6.583691835403442383e-01,6.583471894264221191e-01,6.583252549171447754e-01,6.583033204078674316e-01,6.582813262939453125e-01,6.582593321800231934e-01,6.582373976707458496e-01,6.582154631614685059e-01,6.581934690475463867e-01,6.581715345382690430e-01,6.581496000289916992e-01
