5.000000000000000000e+00,5.000000000000000000e+00,5.000000000000000000e+00,5.000000000000000000e+00,5.000000000000000000e+00,5.000000000000000000e+00,5.000000000000000000e+00,5.000000000000000000e+00,5.000000000000000000e+00,5.000000000000000000e+00,5.000000000000000000e+00,5.000000000000000000e+00,5.000000000000000000e+00,5.000000000000000000e+00,5.000000000000000000e+00,5.000000000000000000e+00,5.000000000000000000e+00,5.000000000000000000e+00,5.000000000000000000e+00,5.000000000000000000e+00,5.000000000000000000e+00,5.000000000000000000e+00,5.000000000000000000e+00,5.000000000000000000e+00,5.000000000000000000e+00,5.000000000000000000e+00,5.000000000000000000e+00,5.000000000000000000e+00,5.000000000000000000e+00,5.000000000000000000e+00,5.000000000000000000e+00,5.000000000000000000e+00,5.000000000000000000e+00,5.000000000000000000e+00,5.000000000000000000e+00,5.000000000000000000e+00,5.000000000000000000e+00,5.000000000000000000e+00,5.000000000000000000e+00,5.000000000000000000e+00,4.673226356506347656e+00,4.496519565582275391e+00,4.332688808441162109e+00,4.180377006530761719e+00,4.038410186767578125e+00,3.905769109725952148e+00,3.781564235687255859e+00,3.665015220642089844e+00,3.555435657501220703e+00,3.452218294143676758e+00,3.354824781417846680e+00,3.262776136398315430e+00,3.175643682479858398e+00,3.093043804168701172e+00,3.014631986618041992e+00,2.940097808837890625e+00,2.869159936904907227e+00,2.801564693450927734e+00,2.737081050872802734e+00,2.675499200820922852e+00,2.616627216339111328e+00,2.560290575027465820e+00,2.506328582763671875e+00,2.454594135284423828e+00,2.404952287673950195e+00,2.357278823852539062e+00,2.311458349227905273e+00,2.267385482788085938e+00,2.224961757659912109e+00,2.184096336364746094e+00,2.144705057144165039e+00,2.106709480285644531e+00,2.070036649703979492e+00,2.034618616104125977e+00,2.000392436981201172e+00,1.967298865318298340e+00,1.935282230377197266e+00,1.904291033744812012e+00,1.874276638031005859e+00,1.845193862915039062e+00
5.000000000000000000e+00,5.000000000000000000e+00,5.000000000000000000e+00,5.000000000000000000e+00,5.000000000000000000e+00,5.000000000000000000e+00,5.000000000000000000e+00,5.000000000000000000e+00,5.000000000000000000e+00,5.000000000000000000e+00,5.000000000000000000e+00,5.000000000000000000e+00,5.000000000000000000e+00,5.000000000000000000e+00,5.000000000000000000e+00,5.000000000000000000e+00,5.000000000000000000e+00,5.000000000000000000e+00,5.000000000000000000e+00,5.000000000000000000e+00,5.000000000000000000e+00,5.000000000000000000e+00,5.000000000000000000e+00,5.000000000000000000e+00,5.000000000000000000e+00,5.000000000000000000e+00,5.000000000000000000e+00,5.000000000000000000e+00,5.000000000000000000e+00,5.000000000000000000e+00,5.000000000000000000e+00,5.000000000000000000e+00,5.000000000000000000e+00,5.000000000000000000e+00,5.000000000000000000e+00,5.000000000000000000e+00,5.000000000000000000e+00,5.000000000000000000e+00,5.000000000000000000e+00,4.864530086517333984e+00,4.673355579376220703e+00,4.496638774871826172e+00,4.332799434661865234e+00,4.180480003356933594e+00,4.038506031036376953e+00,3.905859231948852539e+00,3.781648635864257812e+00,3.665094614028930664e+00,3.555510282516479492e+00,3.452288866043090820e+00,3.354891538619995117e+00,3.262838840484619141e+00,3.175703287124633789e+00,3.093100309371948242e+00,3.014685630798339844e+00,2.940148830413818359e+00,2.869208574295043945e+00,2.801610946655273438e+00,2.737125158309936523e+00,2.675541400909423828e+00,2.616667747497558594e+00,2.560329198837280273e+00,2.506365537643432617e+00,2.454629659652709961e+00,2.404986619949340820e+00,2.357311725616455078e+00,2.311490058898925781e+00,2.267415761947631836e+00,2.224990844726562500e+00,2.184124469757080078e+00,2.144732236862182617e+00,2.106735706329345703e+00,2.070061683654785156e+00,2.034643173217773438e+00,2.000416040420532227e+00,1.967321753501892090e+00,1.935304284095764160e+00,1.904312372207641602e+00,1.874297380447387695e+00,1.845213890075683594e+00
5.000000000000000000e+00,5.000000000000000000e+00,5.000000000000000000e+00,5.000000000000000000e+00,5.000000000000000000e+00,5.000000000000000000e+00,5.000000000000000000e+00,5.000000000000000000e+00,5.000000000000000000e+00,5.000000000000000000e+00,5.000000000000000000e+00,5.000000000000000000e+00,5.000000000000000000e+00,5.000000000000000000e+00,5.000000000000000000e+00,5.000000000000000000e+00,5.000000000000000000e+00,5.000000000000000000e+00,5.000000000000000000e+00,5.000000000000000000e+00,5.000000000000000000e+00,5.000000000000000000e+00,5.000000000000000000e+00,5.000000000000000000e+00,5.000000000000000000e+00,5.000000000000000000e+00,5.000000000000000000e+00,5.000000000000000000e+00,3.068096637725830078e+00,3.101279020309448242e+00,5.000000000000000000e+00,5.000000000000000000e+00,5.000000000000000000e+00,5.000000000000000000e+00,5.000000000000000000e+00,5.000000000000000000e+00,5.000000000000000000e+00,5.000000000000000000e+00,5.000000000000000000e+00,4.864669799804687500e+00,4.673484325408935547e+00,4.496757984161376953e+00,4.332910537719726562e+00,4.180583000183105469e+00,4.038602352142333984e+00,3.905949354171752930e+00,3.781733036041259766e+00,3.665173768997192383e+00,3.555584907531738281e+00,3.452359199523925781e+00,3.354958057403564453e+00,3.262902021408081055e+00,3.175762653350830078e+00,3.093156814575195312e+00,3.014739274978637695e+00,2.940199851989746094e+00,2.869256973266601562e+00,2.801657199859619141e+00,2.737169504165649414e+00,2.675583600997924805e+00,2.616708040237426758e+00,2.560367822647094727e+00,2.506402730941772461e+00,2.454665184020996094e+00,2.405020713806152344e+00,2.357344388961791992e+00,2.311521530151367188e+00,2.267446041107177734e+00,2.225020170211791992e+00,2.184152841567993164e+00,2.144759416580200195e+00,2.106761693954467773e+00,2.070086956024169922e+00,2.034667491912841797e+00,2.000439643859863281e+00,1.967344522476196289e+00,1.935326457023620605e+00,1.904333829879760742e+00,1.874318122863769531e+00,1.845234036445617676e+00
5.000000000000000000e+00,5.000000000000000000e+00,5.000000000000000000e+00,5.000000000000000000e+00,5.000000000000000000e+00,5.000000000000000000e+00,5.000000000000000000e+00,5.000000000000000000e+00,5.000000000000000000e+00,5.000000000000000000e+00,5.000000000000000000e+00,5.000000000000000000e+00,5.000000000000000000e+00,5.000000000000000000e+00,5.000000000000000000e+00,5.000000000000000000e+00,5.000000000000000000e+00,5.000000000000000000e+00,5.000000000000000000e+00,5.000000000000000000e+00,5.000000000000000000e+00,5.000000000000000000e+00,5.000000000000000000e+00,5.000000000000000000e+00,5.000000000000000000e+00,5.000000000000000000e+00,5.000000000000000000e+00,3.115952253341674805e+00,3.064664363861083984e+00,3.081916093826293945e+00,5.000000000000000000e+00,5.000000000000000000e+00,5.000000000000000000e+00,5.000000000000000000e+00,5.000000000000000000e+00,5.000000000000000000e+00,5.000000000000000000e+00,5.000000000000000000e+00,5.000000000000000000e+00,4.864809513092041016e+00,4.673613071441650391e+00,4.496877193450927734e+00,4.333021163940429688e+00,4.180686473846435547e+00,4.038698673248291016e+00,3.906039237976074219e+00,3.781817436218261719e+00,3.665253162384033203e+00,3.555659532546997070e+00,3.452429533004760742e+00,3.355024576187133789e+00,3.262964963912963867e+00,3.175822496414184570e+00,3.093213558197021484e+00,3.014792919158935547e+00,2.940250635147094727e+00,2.869305610656738281e+00,2.801703691482543945e+00,2.737213611602783203e+00,2.675625801086425781e+00,2.616748571395874023e+00,2.560406446456909180e+00,2.506439685821533203e+00,2.454700708389282227e+00,2.405054807662963867e+00,2.357377290725708008e+00,2.311553001403808594e+00,2.267476558685302734e+00,2.225049257278442383e+00,2.184180974960327148e+00,2.144786357879638672e+00,2.106787919998168945e+00,2.070112228393554688e+00,2.034692049026489258e+00,2.000463247299194336e+00,1.967367410659790039e+00,1.935348510742187500e+00,1.904355168342590332e+00,1.874338865280151367e+00,1.845254063606262207e+00
5.000000000000000000e+00,5.000000000000000000e+00,5.000000000000000000e+00,5.000000000000000000e+00,5.000000000000000000e+00,5.000000000000000000e+00,5.000000000000000000e+00,5.000000000000000000e+00,5.000000000000000000e+00,5.000000000000000000e+00,5.000000000000000000e+00,5.000000000000000000e+00,5.000000000000000000e+00,5.000000000000000000e+00,5.000000000000000000e+00,5.000000000000000000e+00,5.000000000000000000e+00,5.000000000000000000e+00,5.000000000000000000e+00,5.000000000000000000e+00,5.000000000000000000e+00,5.000000000000000000e+00,5.000000000000000000e+00,5.000000000000000000e+00,5.000000000000000000e+00,5.000000000000000000e+00,5.000000000000000000e+00,3.158918380737304688e+00,3.068199634552001953e+00,3.094351530075073242e+00,5.000000000000000000e+00,5.000000000000000000e+00,5.000000000000000000e+00,5.000000000000000000e+00,5.000000000000000000e+00,5.000000000000000000e+00,5.000000000000000000e+00,5.000000000000000000e+00,5.000000000000000000e+00,4.864949226379394531e+00,4.673741817474365234e+00,4.496996879577636719e+00,4.333131790161132812e+00,4.180789470672607422e+00,4.038794994354248047e+00,3.906129360198974609e+00,3.781901836395263672e+00,3.665332317352294922e+00,3.555734157562255859e+00,3.452499866485595703e+00,3.355090856552124023e+00,3.263027667999267578e+00,3.175882101058959961e+00,3.093270063400268555e+00,3.014846801757812500e+00,2.940301656723022461e+00,2.869354248046875000e+00,2.801749944686889648e+00,2.737257719039916992e+00,2.675668001174926758e+00,2.616788864135742188e+00,2.560445308685302734e+00,2.506476640701293945e+00,2.454736471176147461e+00,2.405088901519775391e+00,2.357409954071044922e+00,2.311584472656250000e+00,2.267506837844848633e+00,2.225078582763671875e+00,2.184208869934082031e+00,2.144813537597656250e+00,2.106814146041870117e+00,2.070137500762939453e+00,2.034716367721557617e+00,2.000486850738525391e+00,1.967390179634094238e+00,1.935370564460754395e+00,1.904376626014709473e+00,1.874359607696533203e+00,1.845274209976196289e+00
5.000000000000000000e+00,5.000000000000000000e+00,5.000000000000000000e+00,5.000000000000000000e+00,5.000000000000000000e+00,5.000000000000000000e+00,5.000000000000000000e+00,5.000000000000000000e+00,5.000000000000000000e+00,5.000000000000000000e+00,5.000000000000000000e+00,5.000000000000000000e+00,5.000000000000000000e+00,5.000000000000000000e+00,5.000000000000000000e+00,5.000000000000000000e+00,5.000000000000000000e+00,5.000000000000000000e+00,5.000000000000000000e+00,5.000000000000000000e+00,5.000000000000000000e+00,5.000000000000000000e+00,5.000000000000000000e+00,5.000000000000000000e+00,5.000000000000000000e+00,5.000000000000000000e+00,5.000000000000000000e+00,5.000000000000000000e+00,3.092770099639892578e+00,3.112621068954467773e+00,5.000000000000000000e+00,5.000000000000000000e+00,5.000000000000000000e+00,5.000000000000000000e+00,5.000000000000000000e+00,5.000000000000000000e+00,5.000000000000000000e+00,5.000000000000000000e+00,5.000000000000000000e+00,4.865088939666748047e+00,4.673871517181396484e+00,4.497116088867187500e+00,4.333242893218994141e+00,4.180892467498779297e+00,4.038891315460205078e+00,3.906219244003295898e+00,3.781986236572265625e+00,3.665411710739135742e+00,3.555808782577514648e+00,3.452570199966430664e+00,3.355157375335693359e+00,3.263090610504150391e+00,3.175941467285156250e+00,3.093326568603515625e+00,3.014900445938110352e+00,2.940352916717529297e+00,2.869403123855590820e+00,2.801796197891235352e+00,2.737302064895629883e+00,2.675710439682006836e+00,2.616829395294189453e+00,2.560483932495117188e+00,2.506513833999633789e+00,2.454771995544433594e+00,2.405122995376586914e+00,2.357442855834960938e+00,2.311616182327270508e+00,2.267537117004394531e+00,2.225107669830322266e+00,2.184237003326416016e+00,2.144840478897094727e+00,2.106840372085571289e+00,2.070162773132324219e+00,2.034740924835205078e+00,2.000510454177856445e+00,1.967413067817687988e+00,1.935392737388610840e+00,1.904397964477539062e+00,1.874380350112915039e+00,1.845294237136840820e+00
5.000000000000000000e+00,5.000000000000000000e+00,5.000000000000000000e+00,5.000000000000000000e+00,5.000000000000000000e+00,5.000000000000000000e+00,5.000000000000000000e+00,5.000000000000000000e+00,5.000000000000000000e+00,5.000000000000000000e+00,5.000000000000000000e+00,5.000000000000000000e+00,5.000000000000000000e+00,5.000000000000000000e+00,5.000000000000000000e+00,5.000000000000000000e+00,5.000000000000000000e+00,5.000000000000000000e+00,5.000000000000000000e+00,5.000000000000000000e+00,5.000000000000000000e+00,5.000000000000000000e+00,5.000000000000000000e+00,5.000000000000000000e+00,5.000000000000000000e+00,5.000000000000000000e+00,5.000000000000000000e+00,5.000000000000000000e+00,3.165575504302978516e+00,3.174871206283569336e+00,5.000000000000000000e+00,5.000000000000000000e+00,5.000000000000000000e+00,5.000000000000000000e+00,5.000000000000000000e+00,5.000000000000000000e+00,5.000000000000000000e+00,5.000000000000000000e+00,5.000000000000000000e+00,4.865228652954101562e+00,4.674000263214111328e+00,4.497235774993896484e+00,4.333353519439697266e+00,4.180995464324951172e+00,4.038987636566162109e+00,3.906309366226196289e+00,3.782070636749267578e+00,3.665490865707397461e+00,3.555883407592773438e+00,3.452640533447265625e+00,3.355223655700683594e+00,3.263153314590454102e+00,3.176001071929931641e+00,3.093382835388183594e+00,3.014954090118408203e+00,2.940403938293457031e+00,2.869451761245727539e+00,2.801842689514160156e+00,2.737346172332763672e+00,2.675752639770507812e+00,2.616869688034057617e+00,2.560522556304931641e+00,2.506550788879394531e+00,2.454807519912719727e+00,2.405157089233398438e+00,2.357475519180297852e+00,2.311647653579711914e+00,2.267567157745361328e+00,2.225136756896972656e+00,2.184265136718750000e+00,2.144867658615112305e+00,2.106866359710693359e+00,2.070188045501708984e+00,2.034765243530273438e+00,2.000534057617187500e+00,1.967435956001281738e+00,1.935414791107177734e+00,1.904419422149658203e+00,1.874401092529296875e+00,1.845314383506774902e+00
5.000000000000000000e+00,5.000000000000000000e+00,5.000000000000000000e+00,5.000000000000000000e+00,5.000000000000000000e+00,5.000000000000000000e+00,5.000000000000000000e+00,5.000000000000000000e+00,5.000000000000000000e+00,5.000000000000000000e+00,5.000000000000000000e+00,5.000000000000000000e+00,5.000000000000000000e+00,5.000000000000000000e+00,5.000000000000000000e+00,5.000000000000000000e+00,5.000000000000000000e+00,5.000000000000000000e+00,5.000000000000000000e+00,5.000000000000000000e+00,5.000000000000000000e+00,5.000000000000000000e+00,5.000000000000000000e+00,5.000000000000000000e+00,5.000000000000000000e+00,3.120585680007934570e+00,3.127489566802978516e+00,3.105461597442626953e+00,3.119359493255615234e+00,3.114768743515014648e+00,3.125951528549194336e+00,3.159670114517211914e+00,3.166019916534423828e+00,5.000000000000000000e+00,5.000000000000000000e+00,5.000000000000000000e+00,5.000000000000000000e+00,5.000000000000000000e+00,5.000000000000000000e+00,4.865368366241455078e+00,4.674129009246826172e+00,4.497354984283447266e+00,4.333464622497558594e+00,4.181098937988281250e+00,4.039083957672119141e+00,3.906399488449096680e+00,3.782155036926269531e+00,3.665570259094238281e+00,3.555958032608032227e+00,3.452710866928100586e+00,3.355290174484252930e+00,3.263216257095336914e+00,3.176060676574707031e+00,3.093439340591430664e+00,3.015007734298706055e+00,2.940454959869384766e+00,2.869500160217285156e+00,2.801889181137084961e+00,2.737390756607055664e+00,2.675795078277587891e+00,2.616910219192504883e+00,2.560561180114746094e+00,2.506587982177734375e+00,2.454843044281005859e+00,2.405191421508789062e+00,2.357508420944213867e+00,2.311678886413574219e+00,2.267597675323486328e+00,2.225166082382202148e+00,2.184293270111083984e+00,2.144894838333129883e+00,2.106892585754394531e+00,2.070213317871093750e+00,2.034789800643920898e+00,2.000557661056518555e+00,1.967458724975585938e+00,1.935436964035034180e+00,1.904440760612487793e+00,1.874421834945678711e+00,1.845334529876708984e+00
5.000000000000000000e+00,5.000000000000000000e+00,5.000000000000000000e+00,5.000000000000000000e+00,5.000000000000000000e+00,5.000000000000000000e+00,5.000000000000000000e+00,5.000000000000000000e+00,5.000000000000000000e+00,5.000000000000000000e+00,5.000000000000000000e+00,5.000000000000000000e+00,5.000000000000000000e+00,5.000000000000000000e+00,5.000000000000000000e+00,5.000000000000000000e+00,5.000000000000000000e+00,5.000000000000000000e+00,5.000000000000000000e+00,5.000000000000000000e+00,5.000000000000000000e+00,5.000000000000000000e+00,5.000000000000000000e+00,5.000000000000000000e+00,3.109607219696044922e+00,3.105606079101562500e+00,3.074539661407470703e+00,3.063323020935058594e+00,3.070907354354858398e+00,3.071381568908691406e+00,3.092149496078491211e+00,3.138938665390014648e+00,3.183123111724853516e+00,3.203403711318969727e+00,5.000000000000000000e+00,5.000000000000000000e+00,5.000000000000000000e+00,5.000000000000000000e+00,5.000000000000000000e+00,4.865508079528808594e+00,4.674258232116699219e+00,4.497474193572998047e+00,4.333575248718261719e+00,4.181202411651611328e+00,4.039180278778076172e+00,3.906489372253417969e+00,3.782239437103271484e+00,3.665649414062500000e+00,3.556032657623291016e+00,3.452781200408935547e+00,3.355356693267822266e+00,3.263278961181640625e+00,3.176120042800903320e+00,3.093495845794677734e+00,3.015061378479003906e+00,2.940505981445312500e+00,2.869548797607421875e+00,2.801935434341430664e+00,2.737434864044189453e+00,2.675837278366088867e+00,2.616950750350952148e+00,2.560600042343139648e+00,2.506625175476074219e+00,2.454878568649291992e+00,2.405225515365600586e+00,2.357540845870971680e+00,2.311710357666015625e+00,2.267627954483032227e+00,2.225195169448852539e+00,2.184321403503417969e+00,2.144922018051147461e+00,2.106918811798095703e+00,2.070238590240478516e+00,2.034814119338989258e+00,2.000581264495849609e+00,1.967481613159179688e+00,1.935459017753601074e+00,1.904462218284606934e+00,1.874442577362060547e+00,1.845354557037353516e+00
5.000000000000000000e+00,5.000000000000000000e+00,5.000000000000000000e+00,5.000000000000000000e+00,5.000000000000000000e+00,5.000000000000000000e+00,5.000000000000000000e+00,5.000000000000000000e+00,5.000000000000000000e+00,5.000000000000000000e+00,5.000000000000000000e+00,5.000000000000000000e+00,5.000000000000000000e+00,5.000000000000000000e+00,5.000000000000000000e+00,5.000000000000000000e+00,5.000000000000000000e+00,5.000000000000000000e+00,5.000000000000000000e+00,5.000000000000000000e+00,5.000000000000000000e+00,5.000000000000000000e+00,5.000000000000000000e+00,5.000000000000000000e+00,3.135360479354858398e+00,3.131387710571289062e+00,3.067602634429931641e+00,3.054142951965332031e+00,3.062984943389892578e+00,3.069877624511718750e+00,3.089725255966186523e+00,3.140593290328979492e+00,3.179461479187011719e+00,3.205743551254272461e+00,5.000000000000000000e+00,5.000000000000000000e+00,5.000000000000000000e+00,5.000000000000000000e+00,5.000000000000000000e+00,4.865647792816162109e+00,4.674386978149414062e+00,4.497593879699707031e+00,4.333686351776123047e+00,4.181305408477783203e+00,4.039276599884033203e+00,3.906579494476318359e+00,3.782323837280273438e+00,3.665728807449340820e+00,3.556107282638549805e+00,3.452851533889770508e+00,3.355422973632812500e+00,3.263341903686523438e+00,3.176179647445678711e+00,3.093552350997924805e+00,3.015115022659301758e+00,2.940557003021240234e+00,2.869597434997558594e+00,2.801981687545776367e+00,2.737479209899902344e+00,2.675879478454589844e+00,2.616991281509399414e+00,2.560638904571533203e+00,2.506662368774414062e+00,2.454914093017578125e+00,2.405259370803833008e+00,2.357573747634887695e+00,2.311742067337036133e+00,2.267658233642578125e+00,2.225224494934082031e+00,2.184349536895751953e+00,2.144949197769165039e+00,2.106945037841796875e+00,2.070264101028442383e+00,2.034838438034057617e+00,2.000604867935180664e+00,1.967504382133483887e+00,1.935481190681457520e+00,1.904483675956726074e+00,1.874463319778442383e+00,1.845374703407287598e+00
5.000000000000000000e+00,5.000000000000000000e+00,5.000000000000000000e+00,5.000000000000000000e+00,5.000000000000000000e+00,5.000000000000000000e+00,5.000000000000000000e+00,5.000000000000000000e+00,5.000000000000000000e+00,5.000000000000000000e+00,5.000000000000000000e+00,5.000000000000000000e+00,5.000000000000000000e+00,5.000000000000000000e+00,5.000000000000000000e+00,5.000000000000000000e+00,5.000000000000000000e+00,5.000000000000000000e+00,5.000000000000000000e+00,5.000000000000000000e+00,5.000000000000000000e+00,5.000000000000000000e+00,5.000000000000000000e+00,5.000000000000000000e+00,5.000000000000000000e+00,3.144321441650390625e+00,3.083350896835327148e+00,3.057774782180786133e+00,3.051814556121826172e+00,3.060706377029418945e+00,3.102080106735229492e+00,3.159696102142333984e+00,3.172764539718627930e+00,3.199177026748657227e+00,5.000000000000000000e+00,5.000000000000000000e+00,5.000000000000000000e+00,5.000000000000000000e+00,5.000000000000000000e+00,4.865787506103515625e+00,4.674515724182128906e+00,4.497713088989257812e+00,4.333796977996826172e+00,4.181408405303955078e+00,4.039372920989990234e+00,3.906669616699218750e+00,3.782408237457275391e+00,3.665808200836181641e+00,3.556181907653808594e+00,3.452921867370605469e+00,3.355489492416381836e+00,3.263404846191406250e+00,3.176239252090454102e+00,3.093608856201171875e+00,3.015168666839599609e+00,2.940608024597167969e+00,2.869646072387695312e+00,2.802028179168701172e+00,2.737523317337036133e+00,2.675921916961669922e+00,2.617031574249267578e+00,2.560677528381347656e+00,2.506699323654174805e+00,2.454949617385864258e+00,2.405293464660644531e+00,2.357606410980224609e+00,2.311773538589477539e+00,2.267688512802124023e+00,2.225253582000732422e+00,2.184377670288085938e+00,2.144976377487182617e+00,2.106971263885498047e+00,2.070289373397827148e+00,2.034862995147705078e+00,2.000628471374511719e+00,1.967527270317077637e+00,1.935503244400024414e+00,1.904505014419555664e+00,1.874483942985534668e+00,1.845394730567932129e+00
5.000000000000000000e+00,5.000000000000000000e+00,5.000000000000000000e+00,5.000000000000000000e+00,5.000000000000000000e+00,5.000000000000000000e+00,5.000000000000000000e+00,5.000000000000000000e+00,5.000000000000000000e+00,5.000000000000000000e+00,5.000000000000000000e+00,5.000000000000000000e+00,5.000000000000000000e+00,5.000000000000000000e+00,5.000000000000000000e+00,5.000000000000000000e+00,5.000000000000000000e+00,5.000000000000000000e+00,5.000000000000000000e+00,5.000000000000000000e+00,5.000000000000000000e+00,5.000000000000000000e+00,5.000000000000000000e+00,5.000000000000000000e+00,5.000000000000000000e+00,3.153021574020385742e+00,3.091663837432861328e+00,3.054024219512939453e+00,3.052104234695434570e+00,3.062882661819458008e+00,3.094453811645507812e+00,3.189548492431640625e+00,3.166835784912109375e+00,3.192902803421020508e+00,5.000000000000000000e+00,5.000000000000000000e+00,5.000000000000000000e+00,5.000000000000000000e+00,5.000000000000000000e+00,4.865927219390869141e+00,4.674644947052001953e+00,4.497832298278808594e+00,4.333908081054687500e+00,4.181511878967285156e+00,4.039469242095947266e+00,3.906759738922119141e+00,3.782492637634277344e+00,3.665887355804443359e+00,3.556256532669067383e+00,3.452992200851440430e+00,3.355556011199951172e+00,3.263467550277709961e+00,3.176298618316650391e+00,3.093665361404418945e+00,3.015222311019897461e+00,2.940659046173095703e+00,2.869694709777832031e+00,2.802074432373046875e+00,2.737567663192749023e+00,2.675964117050170898e+00,2.617072105407714844e+00,2.560716152191162109e+00,2.506736278533935547e+00,2.454985141754150391e+00,2.405327796936035156e+00,2.357639551162719727e+00,2.311805009841918945e+00,2.267719030380249023e+00,2.225282907485961914e+00,2.184405803680419922e+00,2.145003557205200195e+00,2.106997251510620117e+00,2.070314645767211914e+00,2.034887313842773438e+00,2.000652313232421875e+00,1.967550158500671387e+00,1.935525298118591309e+00,1.904526472091674805e+00,1.874504685401916504e+00,1.845414876937866211e+00
5.000000000000000000e+00,5.000000000000000000e+00,5.000000000000000000e+00,5.000000000000000000e+00,5.000000000000000000e+00,5.000000000000000000e+00,5.000000000000000000e+00,5.000000000000000000e+00,5.000000000000000000e+00,5.000000000000000000e+00,5.000000000000000000e+00,5.000000000000000000e+00,5.000000000000000000e+00,5.000000000000000000e+00,5.000000000000000000e+00,5.000000000000000000e+00,5.000000000000000000e+00,5.000000000000000000e+00,5.000000000000000000e+00,5.000000000000000000e+00,5.000000000000000000e+00,5.000000000000000000e+00,5.000000000000000000e+00,5.000000000000000000e+00,5.000000000000000000e+00,3.158428192138671875e+00,3.096394062042236328e+00,3.048846483230590820e+00,3.056815385818481445e+00,3.064952611923217773e+00,3.095051288604736328e+00,5.000000000000000000e+00,3.186956644058227539e+00,3.189724206924438477e+00,5.000000000000000000e+00,5.000000000000000000e+00,5.000000000000000000e+00,5.000000000000000000e+00,5.000000000000000000e+00,4.866066932678222656e+00,4.674773693084716797e+00,4.497951984405517578e+00,4.334018707275390625e+00,4.181614875793457031e+00,4.039565563201904297e+00,3.906849622726440430e+00,3.782577037811279297e+00,3.665966749191284180e+00,3.556331157684326172e+00,3.453062772750854492e+00,3.355622291564941406e+00,3.263530492782592773e+00,3.176358222961425781e+00,3.093721866607666016e+00,3.015275955200195312e+00,2.940710067749023438e+00,2.869743108749389648e+00,2.802120685577392578e+00,2.737611770629882812e+00,2.676006317138671875e+00,2.617112398147583008e+00,2.560755014419555664e+00,2.506773233413696289e+00,2.455020904541015625e+00,2.405361890792846680e+00,2.357672214508056641e+00,2.311836719512939453e+00,2.267749309539794922e+00,2.225311994552612305e+00,2.184433937072753906e+00,2.145030498504638672e+00,2.107023477554321289e+00,2.070339918136596680e+00,2.034911870956420898e+00,2.000675916671752930e+00,1.967572927474975586e+00,1.935547471046447754e+00,1.904547810554504395e+00,1.874525427818298340e+00,1.845434904098510742e+00
5.000000000000000000e+00,5.000000000000000000e+00,5.000000000000000000e+00,5.000000000000000000e+00,5.000000000000000000e+00,5.000000000000000000e+00,5.000000000000000000e+00,5.000000000000000000e+00,5.000000000000000000e+00,5.000000000000000000e+00,5.000000000000000000e+00,5.000000000000000000e+00,5.000000000000000000e+00,5.000000000000000000e+00,5.000000000000000000e+00,5.000000000000000000e+00,5.000000000000000000e+00,5.000000000000000000e+00,5.000000000000000000e+00,5.000000000000000000e+00,5.000000000000000000e+00,5.000000000000000000e+00,5.000000000000000000e+00,5.000000000000000000e+00,5.000000000000000000e+00,3.172369241714477539e+00,3.076717853546142578e+00,3.039754390716552734e+00,3.043269395828247070e+00,3.054598569869995117e+00,3.078561067581176758e+00,3.176698207855224609e+00,3.202373743057250977e+00,3.179704666137695312e+00,5.000000000000000000e+00,5.000000000000000000e+00,5.000000000000000000e+00,5.000000000000000000e+00,5.000000000000000000e+00,4.866206645965576172e+00,4.674902915954589844e+00,4.498071193695068359e+00,4.334129810333251953e+00,4.181718349456787109e+00,4.039661884307861328e+00,3.906939744949340820e+00,3.782661437988281250e+00,3.666045904159545898e+00,3.556405782699584961e+00,3.453133106231689453e+00,3.355688810348510742e+00,3.263593196868896484e+00,3.176417827606201172e+00,3.093778133392333984e+00,3.015329599380493164e+00,2.940761327743530273e+00,2.869791746139526367e+00,2.802167177200317383e+00,2.737656116485595703e+00,2.676048517227172852e+00,2.617152690887451172e+00,2.560793399810791016e+00,2.506810426712036133e+00,2.455056428909301758e+00,2.405395984649658203e+00,2.357705116271972656e+00,2.311868190765380859e+00,2.267779827117919922e+00,2.225341558456420898e+00,2.184462070465087891e+00,2.145057678222656250e+00,2.107049703598022461e+00,2.070365190505981445e+00,2.034936189651489258e+00,2.000699520111083984e+00,1.967595815658569336e+00,1.935569524765014648e+00,1.904569268226623535e+00,1.874546170234680176e+00,1.845455050468444824e+00
5.000000000000000000e+00,5.000000000000000000e+00,5.000000000000000000e+00,5.000000000000000000e+00,5.000000000000000000e+00,5.000000000000000000e+00,5.000000000000000000e+00,5.000000000000000000e+00,5.000000000000000000e+00,5.000000000000000000e+00,5.000000000000000000e+00,5.000000000000000000e+00,5.000000000000000000e+00,5.000000000000000000e+00,5.000000000000000000e+00,5.000000000000000000e+00,5.000000000000000000e+00,5.000000000000000000e+00,5.000000000000000000e+00,5.000000000000000000e+00,5.000000000000000000e+00,5.000000000000000000e+00,5.000000000000000000e+00,5.000000000000000000e+00,5.000000000000000000e+00,3.173524618148803711e+00,3.082523107528686523e+00,3.053509473800659180e+00,3.052978754043579102e+00,3.063564538955688477e+00,3.088912725448608398e+00,3.160438776016235352e+00,3.181598186492919922e+00,3.152396440505981445e+00,5.000000000000000000e+00,5.000000000000000000e+00,5.000000000000000000e+00,5.000000000000000000e+00,5.000000000000000000e+00,4.866346359252929688e+00,4.675031661987304688e+00,4.498190402984619141e+00,4.334240436553955078e+00,4.181821346282958984e+00,4.039758205413818359e+00,3.907029867172241211e+00,3.782746076583862305e+00,3.666125297546386719e+00,3.556480407714843750e+00,3.453203439712524414e+00,3.355755329132080078e+00,3.263656139373779297e+00,3.176477432250976562e+00,3.093834638595581055e+00,3.015383243560791016e+00,2.940812349319458008e+00,2.869840383529663086e+00,2.802213430404663086e+00,2.737700223922729492e+00,2.676090955734252930e+00,2.617192983627319336e+00,2.560832023620605469e+00,2.506847381591796875e+00,2.455091953277587891e+00,2.405430316925048828e+00,2.357738018035888672e+00,2.311899900436401367e+00,2.267810106277465820e+00,2.225370645523071289e+00,2.184490442276000977e+00,2.145084857940673828e+00,2.107075929641723633e+00,2.070390462875366211e+00,2.034960746765136719e+00,2.000723123550415039e+00,1.967618703842163086e+00,1.935591697692871094e+00,1.904590606689453125e+00,1.874566912651062012e+00,1.845475196838378906e+00
5.000000000000000000e+00,5.000000000000000000e+00,5.000000000000000000e+00,5.000000000000000000e+00,5.000000000000000000e+00,5.000000000000000000e+00,5.000000000000000000e+00,5.000000000000000000e+00,5.000000000000000000e+00,5.000000000000000000e+00,5.000000000000000000e+00,5.000000000000000000e+00,5.000000000000000000e+00,5.000000000000000000e+00,5.000000000000000000e+00,5.000000000000000000e+00,5.000000000000000000e+00,5.000000000000000000e+00,5.000000000000000000e+00,5.000000000000000000e+00,5.000000000000000000e+00,5.000000000000000000e+00,5.000000000000000000e+00,5.000000000000000000e+00,5.000000000000000000e+00,3.152240514755249023e+00,3.069653034210205078e+00,3.055139780044555664e+00,3.069855928421020508e+00,3.079138278961181641e+00,3.091661214828491211e+00,3.128394842147827148e+00,5.000000000000000000e+00,3.122744083404541016e+00,5.000000000000000000e+00,5.000000000000000000e+00,5.000000000000000000e+00,5.000000000000000000e+00,5.000000000000000000e+00,4.866486549377441406e+00,4.675160884857177734e+00,4.498310089111328125e+00,4.334351539611816406e+00,4.181924343109130859e+00,4.039854049682617188e+00,3.907119989395141602e+00,3.782830476760864258e+00,3.666204690933227539e+00,3.556555032730102539e+00,3.453273773193359375e+00,3.355821847915649414e+00,3.263719081878662109e+00,3.176536798477172852e+00,3.093891143798828125e+00,3.015436887741088867e+00,2.940863370895385742e+00,2.869889020919799805e+00,2.802259683609008789e+00,2.737744331359863281e+00,2.676132917404174805e+00,2.617233514785766602e+00,2.560870647430419922e+00,2.506884574890136719e+00,2.455127477645874023e+00,2.405464410781860352e+00,2.357770681381225586e+00,2.311931371688842773e+00,2.267840623855590820e+00,2.225399971008300781e+00,2.184518575668334961e+00,2.145112276077270508e+00,2.107102394104003906e+00,2.070415735244750977e+00,2.034985065460205078e+00,2.000746726989746094e+00,1.967641472816467285e+00,1.935613751411437988e+00,1.904612064361572266e+00,1.874587655067443848e+00,1.845495223999023438e+00
5.000000000000000000e+00,5.000000000000000000e+00,5.000000000000000000e+00,5.000000000000000000e+00,5.000000000000000000e+00,5.000000000000000000e+00,5.000000000000000000e+00,5.000000000000000000e+00,5.000000000000000000e+00,5.000000000000000000e+00,5.000000000000000000e+00,5.000000000000000000e+00,5.000000000000000000e+00,5.000000000000000000e+00,5.000000000000000000e+00,5.000000000000000000e+00,5.000000000000000000e+00,5.000000000000000000e+00,5.000000000000000000e+00,5.000000000000000000e+00,5.000000000000000000e+00,5.000000000000000000e+00,5.000000000000000000e+00,5.000000000000000000e+00,5.000000000000000000e+00,3.135510206222534180e+00,2.988899230957031250e+00,2.989344596862792969e+00,3.045365571975708008e+00,3.097389698028564453e+00,3.081491470336914062e+00,3.115965127944946289e+00,5.000000000000000000e+00,3.114918947219848633e+00,3.135660409927368164e+00,5.000000000000000000e+00,5.000000000000000000e+00,5.000000000000000000e+00,5.000000000000000000e+00,4.866626262664794922e+00,4.675290107727050781e+00,4.498429298400878906e+00,4.334462165832519531e+00,4.182027816772460938e+00,4.039950370788574219e+00,3.907210111618041992e+00,3.782914876937866211e+00,3.666283845901489258e+00,3.556629657745361328e+00,3.453344106674194336e+00,3.355888128280639648e+00,3.263781785964965820e+00,3.176596403121948242e+00,3.093947649002075195e+00,3.015490531921386719e+00,2.940914392471313477e+00,2.869937658309936523e+00,2.802306175231933594e+00,2.737788438796997070e+00,2.676175117492675781e+00,2.617273807525634766e+00,2.560909509658813477e+00,2.506921768188476562e+00,2.455163002014160156e+00,2.405498504638671875e+00,2.357803583145141602e+00,2.311962842941284180e+00,2.267870903015136719e+00,2.225429058074951172e+00,2.184546709060668945e+00,2.145139455795288086e+00,2.107128381729125977e+00,2.070441246032714844e+00,2.035009622573852539e+00,2.000770330429077148e+00,1.967664361000061035e+00,1.935635924339294434e+00,1.904633402824401855e+00,1.874608397483825684e+00,1.845515370368957520e+00
5.000000000000000000e+00,5.000000000000000000e+00,5.000000000000000000e+00,5.000000000000000000e+00,5.000000000000000000e+00,5.000000000000000000e+00,5.000000000000000000e+00,5.000000000000000000e+00,5.000000000000000000e+00,5.000000000000000000e+00,5.000000000000000000e+00,5.000000000000000000e+00,5.000000000000000000e+00,5.000000000000000000e+00,5.000000000000000000e+00,5.000000000000000000e+00,5.000000000000000000e+00,5.000000000000000000e+00,5.000000000000000000e+00,5.000000000000000000e+00,5.000000000000000000e+00,5.000000000000000000e+00,5.000000000000000000e+00,5.000000000000000000e+00,5.000000000000000000e+00,3.110561609268188477e+00,2.956406354904174805e+00,2.963403224945068359e+00,3.026324033737182617e+00,3.081025600433349609e+00,3.066233396530151367e+00,3.106548070907592773e+00,5.000000000000000000e+00,3.069491863250732422e+00,3.098275423049926758e+00,5.000000000000000000e+00,5.000000000000000000e+00,5.000000000000000000e+00,5.000000000000000000e+00,4.866765975952148438e+00,4.675418853759765625e+00,4.498548984527587891e+00,4.334573268890380859e+00,4.182130813598632812e+00,4.040046691894531250e+00,3.907299995422363281e+00,3.782999277114868164e+00,3.666363239288330078e+00,3.556704282760620117e+00,3.453414440155029297e+00,3.355954647064208984e+00,3.263844728469848633e+00,3.176656007766723633e+00,3.094004154205322266e+00,3.015544176101684570e+00,2.940965414047241211e+00,2.869986295700073242e+00,2.802352190017700195e+00,2.737832784652709961e+00,2.676217317581176758e+00,2.617314338684082031e+00,2.560948133468627930e+00,2.506958723068237305e+00,2.455198526382446289e+00,2.405532598495483398e+00,2.357836246490478516e+00,2.311994552612304688e+00,2.267901182174682617e+00,2.225458383560180664e+00,2.184575080871582031e+00,2.145166397094726562e+00,2.107154607772827148e+00,2.070466518402099609e+00,2.035034179687500000e+00,2.000793933868408203e+00,1.967687249183654785e+00,1.935657978057861328e+00,1.904654860496520996e+00,1.874629139900207520e+00,1.845535397529602051e+00
5.000000000000000000e+00,5.000000000000000000e+00,5.000000000000000000e+00,5.000000000000000000e+00,5.000000000000000000e+00,5.000000000000000000e+00,5.000000000000000000e+00,5.000000000000000000e+00,5.000000000000000000e+00,5.000000000000000000e+00,5.000000000000000000e+00,5.000000000000000000e+00,5.000000000000000000e+00,5.000000000000000000e+00,5.000000000000000000e+00,5.000000000000000000e+00,5.000000000000000000e+00,5.000000000000000000e+00,5.000000000000000000e+00,5.000000000000000000e+00,5.000000000000000000e+00,5.000000000000000000e+00,5.000000000000000000e+00,5.000000000000000000e+00,5.000000000000000000e+00,3.099315166473388672e+00,2.926663637161254883e+00,2.937106132507324219e+00,3.010621786117553711e+00,3.079532861709594727e+00,3.066761255264282227e+00,3.108283519744873047e+00,5.000000000000000000e+00,3.042422056198120117e+00,3.066636562347412109e+00,5.000000000000000000e+00,5.000000000000000000e+00,5.000000000000000000e+00,5.000000000000000000e+00,4.866905689239501953e+00,4.675548076629638672e+00,4.498668670654296875e+00,4.334684371948242188e+00,4.182234287261962891e+00,4.040143013000488281e+00,3.907390117645263672e+00,3.783083677291870117e+00,3.666442632675170898e+00,3.556778907775878906e+00,3.453484773635864258e+00,3.356021165847778320e+00,3.263907670974731445e+00,3.176715612411499023e+00,3.094060659408569336e+00,3.015598058700561523e+00,2.941016435623168945e+00,2.870034456253051758e+00,2.802398443222045898e+00,2.737876892089843750e+00,2.676259756088256836e+00,2.617354631423950195e+00,2.560986757278442383e+00,2.506995916366577148e+00,2.455234289169311523e+00,2.405566692352294922e+00,2.357869148254394531e+00,2.312026023864746094e+00,2.267931461334228516e+00,2.225487470626831055e+00,2.184603214263916016e+00,2.145193576812744141e+00,2.107180833816528320e+00,2.070491790771484375e+00,2.035058498382568359e+00,2.000817775726318359e+00,1.967710018157958984e+00,1.935680150985717773e+00,1.904676318168640137e+00,1.874649882316589355e+00,1.845555543899536133e+00
5.000000000000000000e+00,5.000000000000000000e+00,5.000000000000000000e+00,5.000000000000000000e+00,5.000000000000000000e+00,5.000000000000000000e+00,5.000000000000000000e+00,5.000000000000000000e+00,5.000000000000000000e+00,5.000000000000000000e+00,5.000000000000000000e+00,5.000000000000000000e+00,5.000000000000000000e+00,5.000000000000000000e+00,5.000000000000000000e+00,5.000000000000000000e+00,5.000000000000000000e+00,5.000000000000000000e+00,5.000000000000000000e+00,5.000000000000000000e+00,5.000000000000000000e+00,5.000000000000000000e+00,5.000000000000000000e+00,5.000000000000000000e+00,5.000000000000000000e+00,3.092564105987548828e+00,2.890948772430419922e+00,2.910796165466308594e+00,2.994446516036987305e+00,3.081507205963134766e+00,3.070927858352661133e+00,3.114672899246215820e+00,5.000000000000000000e+00,5.000000000000000000e+00,5.000000000000000000e+00,5.000000000000000000e+00,5.000000000000000000e+00,5.000000000000000000e+00,5.000000000000000000e+00,4.867045402526855469e+00,4.675676822662353516e+00,4.498787879943847656e+00,4.334794998168945312e+00,4.182337760925292969e+00,4.040239810943603516e+00,3.907480716705322266e+00,3.783168315887451172e+00,3.666522026062011719e+00,3.556853532791137695e+00,3.453555345535278320e+00,3.356087684631347656e+00,3.263970375061035156e+00,3.176774978637695312e+00,3.094117164611816406e+00,3.015651702880859375e+00,2.941067218780517578e+00,2.870083093643188477e+00,2.802444934844970703e+00,2.737921237945556641e+00,2.676301956176757812e+00,2.617395162582397461e+00,2.561025619506835938e+00,2.507032871246337891e+00,2.455269813537597656e+00,2.405601024627685547e+00,2.357901811599731445e+00,2.312057495117187500e+00,2.267961978912353516e+00,2.225516796112060547e+00,2.184631347656250000e+00,2.145220756530761719e+00,2.107207059860229492e+00,2.070517063140869141e+00,2.035083055496215820e+00,2.000841379165649414e+00,1.967732906341552734e+00,1.935702204704284668e+00,1.904697656631469727e+00,1.874670624732971191e+00,1.845575690269470215e+00
5.000000000000000000e+00,5.000000000000000000e+00,5.000000000000000000e+00,5.000000000000000000e+00,5.000000000000000000e+00,5.000000000000000000e+00,5.000000000000000000e+00,5.000000000000000000e+00,5.000000000000000000e+00,5.000000000000000000e+00,5.000000000000000000e+00,5.000000000000000000e+00,5.000000000000000000e+00,5.000000000000000000e+00,5.000000000000000000e+00,5.000000000000000000e+00,5.000000000000000000e+00,5.000000000000000000e+00,5.000000000000000000e+00,5.000000000000000000e+00,5.000000000000000000e+00,5.000000000000000000e+00,5.000000000000000000e+00,5.000000000000000000e+00,5.000000000000000000e+00,5.000000000000000000e+00,2.860162973403930664e+00,2.879349946975708008e+00,5.000000000000000000e+00,3.082312345504760742e+00,3.075270175933837891e+00,3.121726036071777344e+00,5.000000000000000000e+00,5.000000000000000000e+00,5.000000000000000000e+00,5.000000000000000000e+00,5.000000000000000000e+00,5.000000000000000000e+00,5.000000000000000000e+00,4.867185592651367188e+00,4.675806045532226562e+00,4.498907566070556641e+00,4.334906101226806641e+00,4.182440757751464844e+00,4.040336132049560547e+00,3.907570838928222656e+00,3.783253192901611328e+00,3.666601181030273438e+00,3.556928157806396484e+00,3.453625679016113281e+00,3.356153964996337891e+00,3.264033317565917969e+00,3.176834583282470703e+00,3.094173669815063477e+00,3.015705108642578125e+00,2.941118240356445312e+00,2.870131731033325195e+00,2.802491188049316406e+00,2.737965345382690430e+00,2.676344156265258789e+00,2.617435455322265625e+00,2.561064243316650391e+00,2.507070064544677734e+00,2.455305337905883789e+00,2.405635118484497070e+00,2.357934713363647461e+00,2.312089204788208008e+00,2.267992258071899414e+00,2.225546121597290039e+00,2.184659481048583984e+00,2.145247936248779297e+00,2.107233285903930664e+00,2.070542335510253906e+00,2.035107374191284180e+00,2.000864982604980469e+00,1.967755794525146484e+00,1.935724377632141113e+00,1.904719114303588867e+00,1.874691367149353027e+00,1.845595717430114746e+00
5.000000000000000000e+00,5.000000000000000000e+00,5.000000000000000000e+00,5.000000000000000000e+00,5.000000000000000000e+00,5.000000000000000000e+00,5.000000000000000000e+00,5.000000000000000000e+00,5.000000000000000000e+00,5.000000000000000000e+00,5.000000000000000000e+00,5.000000000000000000e+00,5.000000000000000000e+00,5.000000000000000000e+00,5.000000000000000000e+00,5.000000000000000000e+00,5.000000000000000000e+00,5.000000000000000000e+00,5.000000000000000000e+00,5.000000000000000000e+00,5.000000000000000000e+00,5.000000000000000000e+00,5.000000000000000000e+00,5.000000000000000000e+00,5.000000000000000000e+00,5.000000000000000000e+00,2.842273235321044922e+00,2.856394767761230469e+00,5.000000000000000000e+00,3.082473754882812500e+00,3.075072765350341797e+00,5.000000000000000000e+00,5.000000000000000000e+00,5.000000000000000000e+00,5.000000000000000000e+00,5.000000000000000000e+00,5.000000000000000000e+00,5.000000000000000000e+00,5.000000000000000000e+00,4.867325305938720703e+00,4.675934791564941406e+00,4.499026775360107422e+00,4.335016727447509766e+00,4.182544231414794922e+00,4.040432453155517578e+00,3.907660961151123047e+00,3.783337593078613281e+00,3.666681051254272461e+00,3.557003259658813477e+00,3.453696012496948242e+00,3.356220483779907227e+00,3.264096260070800781e+00,3.176894187927246094e+00,3.094229936599731445e+00,3.015758752822875977e+00,2.941169261932373047e+00,2.870180368423461914e+00,2.802537679672241211e+00,2.738009691238403320e+00,2.676386356353759766e+00,2.617475986480712891e+00,2.561102867126464844e+00,2.507107019424438477e+00,2.455340862274169922e+00,2.405669212341308594e+00,2.357967615127563477e+00,2.312120676040649414e+00,2.268022537231445312e+00,2.225575208663940430e+00,2.184687614440917969e+00,2.145275115966796875e+00,2.107259511947631836e+00,2.070567607879638672e+00,2.035131931304931641e+00,2.000888586044311523e+00,1.967778563499450684e+00,1.935746431350708008e+00,1.904740452766418457e+00,1.874712109565734863e+00,1.845615863800048828e+00
5.000000000000000000e+00,5.000000000000000000e+00,5.000000000000000000e+00,5.000000000000000000e+00,5.000000000000000000e+00,5.000000000000000000e+00,5.000000000000000000e+00,5.000000000000000000e+00,5.000000000000000000e+00,5.000000000000000000e+00,5.000000000000000000e+00,5.000000000000000000e+00,5.000000000000000000e+00,5.000000000000000000e+00,5.000000000000000000e+00,5.000000000000000000e+00,5.000000000000000000e+00,5.000000000000000000e+00,5.000000000000000000e+00,5.000000000000000000e+00,5.000000000000000000e+00,5.000000000000000000e+00,5.000000000000000000e+00,5.000000000000000000e+00,5.000000000000000000e+00,5.000000000000000000e+00,2.846386671066284180e+00,2.862122535705566406e+00,5.000000000000000000e+00,3.080653429031372070e+00,3.077369213104248047e+00,5.000000000000000000e+00,5.000000000000000000e+00,5.000000000000000000e+00,5.000000000000000000e+00,5.000000000000000000e+00,5.000000000000000000e+00,5.000000000000000000e+00,5.000000000000000000e+00,4.867465019226074219e+00,4.676064014434814453e+00,4.499146461486816406e+00,4.335127830505371094e+00,4.182647228240966797e+00,4.040528774261474609e+00,3.907751083374023438e+00,3.783421993255615234e+00,3.666760206222534180e+00,3.557077884674072266e+00,3.453766822814941406e+00,3.356287002563476562e+00,3.264158964157104492e+00,3.176953554153442383e+00,3.094286441802978516e+00,3.015812397003173828e+00,2.941220283508300781e+00,2.870229005813598633e+00,2.802583932876586914e+00,2.738054037094116211e+00,2.676428794860839844e+00,2.617516517639160156e+00,2.561141729354858398e+00,2.507144212722778320e+00,2.455376386642456055e+00,2.405703306198120117e+00,2.358000278472900391e+00,2.312152147293090820e+00,2.268053054809570312e+00,2.225604534149169922e+00,2.184715747833251953e+00,2.145302295684814453e+00,2.107285737991333008e+00,2.070592880249023438e+00,2.035156250000000000e+00,2.000912189483642578e+00,1.967801451683044434e+00,1.935768604278564453e+00,1.904761910438537598e+00,1.874732851982116699e+00,1.845635890960693359e+00
5.000000000000000000e+00,5.000000000000000000e+00,5.000000000000000000e+00,5.000000000000000000e+00,5.000000000000000000e+00,5.000000000000000000e+00,5.000000000000000000e+00,5.000000000000000000e+00,5.000000000000000000e+00,5.000000000000000000e+00,5.000000000000000000e+00,5.000000000000000000e+00,5.000000000000000000e+00,5.000000000000000000e+00,5.000000000000000000e+00,5.000000000000000000e+00,5.000000000000000000e+00,5.000000000000000000e+00,5.000000000000000000e+00,5.000000000000000000e+00,5.000000000000000000e+00,5.000000000000000000e+00,5.000000000000000000e+00,5.000000000000000000e+00,5.000000000000000000e+00,5.000000000000000000e+00,2.882005453109741211e+00,2.891834259033203125e+00,5.000000000000000000e+00,3.083848953247070312e+00,3.082654953002929688e+00,5.000000000000000000e+00,5.000000000000000000e+00,5.000000000000000000e+00,5.000000000000000000e+00,5.000000000000000000e+00,5.000000000000000000e+00,5.000000000000000000e+00,5.000000000000000000e+00,4.867604732513427734e+00,4.676192760467529297e+00,4.499265670776367188e+00,4.335238456726074219e+00,4.182750701904296875e+00,4.040625095367431641e+00,3.907841205596923828e+00,3.783506393432617188e+00,3.666839599609375000e+00,3.557152509689331055e+00,3.453837156295776367e+00,3.356353759765625000e+00,3.264221906661987305e+00,3.177012920379638672e+00,3.094342947006225586e+00,3.015866041183471680e+00,2.941271305084228516e+00,2.870277643203735352e+00,2.802630186080932617e+00,2.738098144531250000e+00,2.676470994949340820e+00,2.617556810379028320e+00,2.561180353164672852e+00,2.507181167602539062e+00,2.455412149429321289e+00,2.405737638473510742e+00,2.358033180236816406e+00,2.312183618545532227e+00,2.268083333969116211e+00,2.225633621215820312e+00,2.184743881225585938e+00,2.145329475402832031e+00,2.107311964035034180e+00,2.070618152618408203e+00,2.035180807113647461e+00,2.000935792922973633e+00,1.967824339866638184e+00,1.935790657997131348e+00,1.904783368110656738e+00,1.874753594398498535e+00,1.845656037330627441e+00
5.000000000000000000e+00,5.000000000000000000e+00,5.000000000000000000e+00,5.000000000000000000e+00,5.000000000000000000e+00,5.000000000000000000e+00,5.000000000000000000e+00,5.000000000000000000e+00,5.000000000000000000e+00,5.000000000000000000e+00,5.000000000000000000e+00,5.000000000000000000e+00,5.000000000000000000e+00,5.000000000000000000e+00,5.000000000000000000e+00,5.000000000000000000e+00,5.000000000000000000e+00,5.000000000000000000e+00,5.000000000000000000e+00,5.000000000000000000e+00,5.000000000000000000e+00,5.000000000000000000e+00,5.000000000000000000e+00,5.000000000000000000e+00,5.000000000000000000e+00,5.000000000000000000e+00,2.914122343063354492e+00,2.920801877975463867e+00,5.000000000000000000e+00,3.123756647109985352e+00,3.130799531936645508e+00,5.000000000000000000e+00,5.000000000000000000e+00,5.000000000000000000e+00,5.000000000000000000e+00,5.000000000000000000e+00,5.000000000000000000e+00,5.000000000000000000e+00,5.000000000000000000e+00,4.867743015289306641e+00,4.676321983337402344e+00,4.499385356903076172e+00,4.335349559783935547e+00,4.182853698730468750e+00,4.040721416473388672e+00,3.907931327819824219e+00,3.783591032028198242e+00,3.666918992996215820e+00,3.557227373123168945e+00,3.453907489776611328e+00,3.356420040130615234e+00,3.264284849166870117e+00,3.177073001861572266e+00,3.094399452209472656e+00,3.015919685363769531e+00,2.941322326660156250e+00,2.870326280593872070e+00,2.802676677703857422e+00,2.738142490386962891e+00,2.676513195037841797e+00,2.617597341537475586e+00,2.561218976974487305e+00,2.507218360900878906e+00,2.455447673797607422e+00,2.405771732330322266e+00,2.358066082000732422e+00,2.312215328216552734e+00,2.268113613128662109e+00,2.225662946701049805e+00,2.184772014617919922e+00,2.145356655120849609e+00,2.107338190078735352e+00,2.070643663406372070e+00,2.035205125808715820e+00,2.000959396362304688e+00,1.967847108840942383e+00,1.935812830924987793e+00,1.904804706573486328e+00,1.874774336814880371e+00,1.845676183700561523e+00
5.000000000000000000e+00,5.000000000000000000e+00,5.000000000000000000e+00,5.000000000000000000e+00,5.000000000000000000e+00,5.000000000000000000e+00,5.000000000000000000e+00,5.000000000000000000e+00,5.000000000000000000e+00,5.000000000000000000e+00,5.000000000000000000e+00,5.000000000000000000e+00,5.000000000000000000e+00,5.000000000000000000e+00,5.000000000000000000e+00,5.000000000000000000e+00,5.000000000000000000e+00,5.000000000000000000e+00,5.000000000000000000e+00,5.000000000000000000e+00,5.000000000000000000e+00,5.000000000000000000e+00,5.000000000000000000e+00,5.000000000000000000e+00,5.000000000000000000e+00,5.000000000000000000e+00,2.927574157714843750e+00,2.930274486541748047e+00,5.000000000000000000e+00,3.176356077194213867e+00,3.182688236236572266e+00,5.000000000000000000e+00,5.000000000000000000e+00,5.000000000000000000e+00,5.000000000000000000e+00,5.000000000000000000e+00,5.000000000000000000e+00,5.000000000000000000e+00,5.000000000000000000e+00,4.867881774902343750e+00,4.676449775695800781e+00,4.499504566192626953e+00,4.335460662841796875e+00,4.182957172393798828e+00,4.040817737579345703e+00,3.908021450042724609e+00,3.783675432205200195e+00,3.666998386383056641e+00,3.557301998138427734e+00,3.453977584838867188e+00,3.356486558914184570e+00,3.264347791671752930e+00,3.177132368087768555e+00,3.094456195831298828e+00,3.015973567962646484e+00,2.941373348236083984e+00,2.870374917984008789e+00,2.802722930908203125e+00,2.738186597824096680e+00,2.676555633544921875e+00,2.617637634277343750e+00,2.561257839202880859e+00,2.507255554199218750e+00,2.455483198165893555e+00,2.405805826187133789e+00,2.358098745346069336e+00,2.312246799468994141e+00,2.268144130706787109e+00,2.225692272186279297e+00,2.184800386428833008e+00,2.145383834838867188e+00,2.107364416122436523e+00,2.070668935775756836e+00,2.035229682922363281e+00,2.000982999801635742e+00,1.967869997024536133e+00,1.935834884643554688e+00,1.904826164245605469e+00,1.874795079231262207e+00,1.845696210861206055e+00
5.000000000000000000e+00,5.000000000000000000e+00,5.000000000000000000e+00,5.000000000000000000e+00,5.000000000000000000e+00,5.000000000000000000e+00,5.000000000000000000e+00,5.000000000000000000e+00,5.000000000000000000e+00,5.000000000000000000e+00,5.000000000000000000e+00,5.000000000000000000e+00,5.000000000000000000e+00,5.000000000000000000e+00,5.000000000000000000e+00,5.000000000000000000e+00,5.000000000000000000e+00,5.000000000000000000e+00,5.000000000000000000e+00,5.000000000000000000e+00,5.000000000000000000e+00,5.000000000000000000e+00,5.000000000000000000e+00,5.000000000000000000e+00,5.000000000000000000e+00,5.000000000000000000e+00,2.953097105026245117e+00,2.938960313796997070e+00,5.000000000000000000e+00,3.194954395294189453e+00,3.210564136505126953e+00,5.000000000000000000e+00,5.000000000000000000e+00,5.000000000000000000e+00,5.000000000000000000e+00,5.000000000000000000e+00,5.000000000000000000e+00,5.000000000000000000e+00,5.000000000000000000e+00,4.868021011352539062e+00,4.676578044891357422e+00,4.499624252319335938e+00,4.335571289062500000e+00,4.183060169219970703e+00,4.040914058685302734e+00,3.908111572265625000e+00,3.783759832382202148e+00,3.667077779769897461e+00,3.557376384735107422e+00,3.454048156738281250e+00,3.356553077697753906e+00,3.264410495758056641e+00,3.177191972732543945e+00,3.094512701034545898e+00,3.016027450561523438e+00,2.941424846649169922e+00,2.870423555374145508e+00,2.802769422531127930e+00,2.738230943679809570e+00,2.676597833633422852e+00,2.617678165435791016e+00,2.561296463012695312e+00,2.507292509078979492e+00,2.455518722534179688e+00,2.405839920043945312e+00,2.358131647109985352e+00,2.312278270721435547e+00,2.268174409866333008e+00,2.225721359252929688e+00,2.184828519821166992e+00,2.145411014556884766e+00,2.107390642166137695e+00,2.070694208145141602e+00,2.035254240036010742e+00,2.001006603240966797e+00,1.967892885208129883e+00,1.935856938362121582e+00,1.904847502708435059e+00,1.874815821647644043e+00,1.845716357231140137e+00
5.000000000000000000e+00,5.000000000000000000e+00,5.000000000000000000e+00,5.000000000000000000e+00,5.000000000000000000e+00,5.000000000000000000e+00,5.000000000000000000e+00,5.000000000000000000e+00,5.000000000000000000e+00,5.000000000000000000e+00,5.000000000000000000e+00,5.000000000000000000e+00,5.000000000000000000e+00,5.000000000000000000e+00,5.000000000000000000e+00,5.000000000000000000e+00,5.000000000000000000e+00,5.000000000000000000e+00,5.000000000000000000e+00,5.000000000000000000e+00,5.000000000000000000e+00,5.000000000000000000e+00,5.000000000000000000e+00,5.000000000000000000e+00,5.000000000000000000e+00,5.000000000000000000e+00,2.996522903442382812e+00,2.948601484298706055e+00,5.000000000000000000e+00,3.212234735488891602e+00,3.256456375122070312e+00,5.000000000000000000e+00,5.000000000000000000e+00,5.000000000000000000e+00,5.000000000000000000e+00,5.000000000000000000e+00,5.000000000000000000e+00,5.000000000000000000e+00,5.000000000000000000e+00,4.868160247802734375e+00,4.676706314086914062e+00,4.499742031097412109e+00,4.335682392120361328e+00,4.183163642883300781e+00,4.041010379791259766e+00,3.908201694488525391e+00,3.783844470977783203e+00,3.667156696319580078e+00,3.557451009750366211e+00,3.454118490219116211e+00,3.356619358062744141e+00,3.264473438262939453e+00,3.177251577377319336e+00,3.094569206237792969e+00,3.016081094741821289e+00,2.941475868225097656e+00,2.870472431182861328e+00,2.802815914154052734e+00,2.738275289535522461e+00,2.676640033721923828e+00,2.617718458175659180e+00,2.561335325241088867e+00,2.507329702377319336e+00,2.455554485321044922e+00,2.405874252319335938e+00,2.358164310455322266e+00,2.312309980392456055e+00,2.268204689025878906e+00,2.225750684738159180e+00,2.184856653213500977e+00,2.145438194274902344e+00,2.107416629791259766e+00,2.070719480514526367e+00,2.035278558731079102e+00,2.001030206680297852e+00,1.967915654182434082e+00,1.935879111289978027e+00,1.904868960380554199e+00,1.874836564064025879e+00,1.845736503601074219e+00
5.000000000000000000e+00,5.000000000000000000e+00,5.000000000000000000e+00,5.000000000000000000e+00,5.000000000000000000e+00,5.000000000000000000e+00,5.000000000000000000e+00,5.000000000000000000e+00,5.000000000000000000e+00,5.000000000000000000e+00,5.000000000000000000e+00,5.000000000000000000e+00,5.000000000000000000e+00,5.000000000000000000e+00,5.000000000000000000e+00,5.000000000000000000e+00,5.000000000000000000e+00,5.000000000000000000e+00,5.000000000000000000e+00,5.000000000000000000e+00,5.000000000000000000e+00,5.000000000000000000e+00,5.000000000000000000e+00,5.000000000000000000e+00,5.000000000000000000e+00,5.000000000000000000e+00,5.000000000000000000e+00,2.959177970886230469e+00,5.000000000000000000e+00,3.231203794479370117e+00,5.000000000000000000e+00,5.000000000000000000e+00,5.000000000000000000e+00,5.000000000000000000e+00,5.000000000000000000e+00,5.000000000000000000e+00,5.000000000000000000e+00,5.000000000000000000e+00,5.000000000000000000e+00,4.868299484252929688e+00,4.676834583282470703e+00,4.499860763549804688e+00,4.335792064666748047e+00,4.183266639709472656e+00,4.041106700897216797e+00,3.908291816711425781e+00,3.783928632736206055e+00,3.667236089706420898e+00,3.557525634765625000e+00,3.454188823699951172e+00,3.356685876846313477e+00,3.264536380767822266e+00,3.177311182022094727e+00,3.094625711441040039e+00,3.016134738922119141e+00,2.941526889801025391e+00,2.870521068572998047e+00,2.802862167358398438e+00,2.738319635391235352e+00,2.676682472229003906e+00,2.617758989334106445e+00,2.561373949050903320e+00,2.507366657257080078e+00,2.455590009689331055e+00,2.405908346176147461e+00,2.358197212219238281e+00,2.312341451644897461e+00,2.268235206604003906e+00,2.225779771804809570e+00,2.184884786605834961e+00,2.145465135574340820e+00,2.107442855834960938e+00,2.070744752883911133e+00,2.035303115844726562e+00,2.001053810119628906e+00,1.967938542366027832e+00,1.935901284217834473e+00,1.904890418052673340e+00,1.874857306480407715e+00,1.845756530761718750e+00
5.000000000000000000e+00,5.000000000000000000e+00,5.000000000000000000e+00,5.000000000000000000e+00,5.000000000000000000e+00,5.000000000000000000e+00,5.000000000000000000e+00,5.000000000000000000e+00,5.000000000000000000e+00,5.000000000000000000e+00,5.000000000000000000e+00,5.000000000000000000e+00,5.000000000000000000e+00,5.000000000000000000e+00,5.000000000000000000e+00,5.000000000000000000e+00,5.000000000000000000e+00,5.000000000000000000e+00,5.000000000000000000e+00,5.000000000000000000e+00,5.000000000000000000e+00,5.000000000000000000e+00,5.000000000000000000e+00,5.000000000000000000e+00,5.000000000000000000e+00,5.000000000000000000e+00,5.000000000000000000e+00,2.975968360900878906e+00,5.000000000000000000e+00,3.253143310546875000e+00,5.000000000000000000e+00,5.000000000000000000e+00,5.000000000000000000e+00,5.000000000000000000e+00,5.000000000000000000e+00,5.000000000000000000e+00,5.000000000000000000e+00,5.000000000000000000e+00,5.000000000000000000e+00,4.868438243865966797e+00,4.676962852478027344e+00,4.499979496002197266e+00,4.335902214050292969e+00,4.183369159698486328e+00,4.041203498840332031e+00,3.908381700515747070e+00,3.784013271331787109e+00,3.667315483093261719e+00,3.557600498199462891e+00,3.454259395599365234e+00,3.356752395629882812e+00,3.264599323272705078e+00,3.177370786666870117e+00,3.094682216644287109e+00,3.016188383102416992e+00,2.941577911376953125e+00,2.870569467544555664e+00,2.802908658981323242e+00,2.738363981246948242e+00,2.676724910736083984e+00,2.617799520492553711e+00,2.561412572860717773e+00,2.507403850555419922e+00,2.455625534057617188e+00,2.405942440032958984e+00,2.358230113983154297e+00,2.312372922897338867e+00,2.268265485763549805e+00,2.225809097290039062e+00,2.184912919998168945e+00,2.145492315292358398e+00,2.107469081878662109e+00,2.070770025253295898e+00,2.035327434539794922e+00,2.001077413558959961e+00,1.967961430549621582e+00,1.935923337936401367e+00,1.904911756515502930e+00,1.874878048896789551e+00,1.845776677131652832e+00
4.875484943389892578e+00,4.874273300170898438e+00,4.873062610626220703e+00,4.871852397918701172e+00,4.870642662048339844e+00,4.869433879852294922e+00,4.868225097656250000e+00,4.867017745971679688e+00,4.865810394287109375e+00,4.864603996276855469e+00,4.863397598266601562e+00,4.862192153930664062e+00,4.860987663269042969e+00,4.859783172607421875e+00,4.858579635620117188e+00,4.857376575469970703e+00,4.856173992156982422e+00,4.854972362518310547e+00,4.853771209716796875e+00,4.852570533752441406e+00,4.851370334625244141e+00,4.850171089172363281e+00,4.848972320556640625e+00,4.847774028778076172e+00,4.846576213836669922e+00,4.845379352569580078e+00,4.844182968139648438e+00,2.979464769363403320e+00,4.841791629791259766e+00,3.295725345611572266e+00,4.839402675628662109e+00,4.838209152221679688e+00,4.837016105651855469e+00,4.835823535919189453e+00,4.834631443023681641e+00,4.833440303802490234e+00,4.832249641418457031e+00,4.831059932708740234e+00,4.829870700836181641e+00,4.828681945800781250e+00,4.677091121673583984e+00,4.500098228454589844e+00,4.336012840270996094e+00,4.183471679687500000e+00,4.041299819946289062e+00,3.908471822738647461e+00,3.784097671508789062e+00,3.667394876480102539e+00,3.557675123214721680e+00,3.454329729080200195e+00,3.356818914413452148e+00,3.264662265777587891e+00,3.177430391311645508e+00,3.094738721847534180e+00,3.016242027282714844e+00,2.941628932952880859e+00,2.870618104934692383e+00,2.802954912185668945e+00,2.738408088684082031e+00,2.676767110824584961e+00,2.617840051651000977e+00,2.561451435089111328e+00,2.507441043853759766e+00,2.455661058425903320e+00,2.405976533889770508e+00,2.358262777328491211e+00,2.312404632568359375e+00,2.268295764923095703e+00,2.225838422775268555e+00,2.184941053390502930e+00,2.145519495010375977e+00,2.107495307922363281e+00,2.070795297622680664e+00,2.035351991653442383e+00,2.001101255416870117e+00,1.967984199523925781e+00,1.935945510864257812e+00,1.904933214187622070e+00,1.874898791313171387e+00,1.845796704292297363e+00
3.778279066085815430e+00,3.777551174163818359e+00,3.776824235916137695e+00,3.776097059249877930e+00,3.775370359420776367e+00,3.774643659591674805e+00,3.773917913436889648e+00,3.773192167282104492e+00,3.772466182708740234e+00,3.771741151809692383e+00,3.771015882492065430e+00,3.770291328430175781e+00,3.769566535949707031e+00,3.768842697143554688e+00,3.768118381500244141e+00,3.767395019531250000e+00,3.766671419143676758e+00,3.765948534011840820e+00,3.765225410461425781e+00,3.764503002166748047e+00,3.763780593872070312e+00,3.763058900833129883e+00,3.762337207794189453e+00,3.761615753173828125e+00,3.760894775390625000e+00,3.760173559188842773e+00,3.759453296661376953e+00,2.920416831970214844e+00,3.209499597549438477e+00,3.235560655593872070e+00,3.756573438644409180e+00,3.755854129791259766e+00,3.755135297775268555e+00,3.754416465759277344e+00,3.753698110580444336e+00,3.752979755401611328e+00,3.752262115478515625e+00,3.751544713973999023e+00,3.750827312469482422e+00,3.750110387802124023e+00,3.749393463134765625e+00,3.748677253723144531e+00,3.747960805892944336e+00,3.747245073318481445e+00,3.746529102325439453e+00,3.745813846588134766e+00,3.745098590850830078e+00,3.667474269866943359e+00,3.557749748229980469e+00,3.454400062561035156e+00,3.356885433197021484e+00,3.264724969863891602e+00,3.177489995956420898e+00,3.094795227050781250e+00,3.016295671463012695e+00,2.941679954528808594e+00,2.870666742324829102e+00,2.803001403808593750e+00,2.738452434539794922e+00,2.676809310913085938e+00,2.617880582809448242e+00,2.561490297317504883e+00,2.507478237152099609e+00,2.455696821212768555e+00,2.406010866165161133e+00,2.358295679092407227e+00,2.312436103820800781e+00,2.268326282501220703e+00,2.225867509841918945e+00,2.184969186782836914e+00,2.145546674728393555e+00,2.107521533966064453e+00,2.070820569992065430e+00,2.035376310348510742e+00,2.001124858856201172e+00,1.968007087707519531e+00,1.935967564582824707e+00,1.904954552650451660e+00,1.874919533729553223e+00,1.845816850662231445e+00
3.084194660186767578e+00,3.083710193634033203e+00,3.083225250244140625e+00,3.082741022109985352e+00,3.082256317138671875e+00,3.081772327423095703e+00,3.081288099288940430e+00,3.080804347991943359e+00,3.080320596694946289e+00,3.079836845397949219e+00,3.079353570938110352e+00,3.078870296478271484e+00,3.078387260437011719e+00,3.077903985977172852e+00,3.077421426773071289e+00,3.076938390731811523e+00,3.076456069946289062e+00,3.075973510742187500e+00,3.075491428375244141e+00,3.075009107589721680e+00,3.074527263641357422e+00,3.074045419692993164e+00,3.073563814163208008e+00,3.073082447052001953e+00,3.072601079940795898e+00,3.072119951248168945e+00,3.071638822555541992e+00,3.071158170700073242e+00,3.070677280426025391e+00,3.070196628570556641e+00,3.069716215133666992e+00,3.069236040115356445e+00,3.068755626678466797e+00,3.068275928497314453e+00,3.067795991897583008e+00,3.067316293716430664e+00,3.066836595535278320e+00,3.066357374191284180e+00,3.065878391265869141e+00,3.065399169921875000e+00,3.064920425415039062e+00,3.064441442489624023e+00,3.063962936401367188e+00,3.063484430313110352e+00,3.063006162643432617e+00,3.062527894973754883e+00,3.062049865722656250e+00,3.061571836471557617e+00,3.061094284057617188e+00,3.060616493225097656e+00,3.060139179229736328e+00,3.059662103652954102e+00,3.059184789657592773e+00,3.058707952499389648e+00,3.016349315643310547e+00,2.941731214523315430e+00,2.870715379714965820e+00,2.803047657012939453e+00,2.738496541976928711e+00,2.676851749420166016e+00,2.617920875549316406e+00,2.561528921127319336e+00,2.507515430450439453e+00,2.455732583999633789e+00,2.406045198440551758e+00,2.358328580856323242e+00,2.312467575073242188e+00,2.268356561660766602e+00,2.225896835327148438e+00,2.184997558593750000e+00,2.145573854446411133e+00,2.107547760009765625e+00,2.070846080780029297e+00,2.035400867462158203e+00,2.001148462295532227e+00,1.968029975891113281e+00,1.935989737510681152e+00,1.904976010322570801e+00,1.874940276145935059e+00,1.845836997032165527e+00
2.605546236038208008e+00,2.605200052261352539e+00,2.604854106903076172e+00,2.604508161544799805e+00,2.604162693023681641e+00,2.603816747665405273e+00,2.603471279144287109e+00,2.603126049041748047e+00,2.602780580520629883e+00,2.602435350418090820e+00,2.602090120315551758e+00,2.601744890213012695e+00,2.601399898529052734e+00,2.601055145263671875e+00,2.600710153579711914e+00,2.600365400314331055e+00,2.600020647048950195e+00,2.599676370620727539e+00,2.599331617355346680e+00,2.598987340927124023e+00,2.598643064498901367e+00,2.598298788070678711e+00,2.597954750061035156e+00,2.597610712051391602e+00,2.597266912460327148e+00,2.596923112869262695e+00,2.596579313278198242e+00,2.596235513687133789e+00,2.595892190933227539e+00,2.595548629760742188e+00,2.595205307006835938e+00,2.594861984252929688e+00,2.594518899917602539e+00,2.594175577163696289e+00,2.593832731246948242e+00,2.593489646911621094e+00,2.593146800994873047e+00,2.592804193496704102e+00,2.592461585998535156e+00,2.592118978500366211e+00,2.591776371002197266e+00,2.591434240341186523e+00,2.591091871261596680e+00,2.590749740600585938e+00,2.590407371520996094e+00,2.590065479278564453e+00,2.589723587036132812e+00,2.589381694793701172e+00,2.589040040969848633e+00,2.588698387145996094e+00,2.588356733322143555e+00,2.588015317916870117e+00,2.587674140930175781e+00,2.587332725524902344e+00,2.586991548538208008e+00,2.586650371551513672e+00,2.586309432983398438e+00,2.585968494415283203e+00,2.585627555847167969e+00,2.585286855697631836e+00,2.584946155548095703e+00,2.561567783355712891e+00,2.507552385330200195e+00,2.455768108367919922e+00,2.406079292297363281e+00,2.358361482620239258e+00,2.312499284744262695e+00,2.268386840820312500e+00,2.225925922393798828e+00,2.185025691986083984e+00,2.145601034164428711e+00,2.107573986053466797e+00,2.070871353149414062e+00,2.035425186157226562e+00,2.001172065734863281e+00,1.968052744865417480e+00,1.936011791229248047e+00,1.904997467994689941e+00,1.874961018562316895e+00,1.845857024192810059e+00
2.255518913269042969e+00,2.255259037017822266e+00,2.254999160766601562e+00,2.254739284515380859e+00,2.254479646682739258e+00,2.254220008850097656e+00,2.253960371017456055e+00,2.253700733184814453e+00,2.253441333770751953e+00,2.253181934356689453e+00,2.252922534942626953e+00,2.252663135528564453e+00,2.252403974533081055e+00,2.252144813537597656e+00,2.251885652542114258e+00,2.251626491546630859e+00,2.251367568969726562e+00,2.251108646392822266e+00,2.250849723815917969e+00,2.250590801239013672e+00,2.250332117080688477e+00,2.250073432922363281e+00,2.249814748764038086e+00,2.249556303024291992e+00,2.249298334121704102e+00,2.249040603637695312e+00,2.248782634735107422e+00,2.248524904251098633e+00,2.248267173767089844e+00,2.248009681701660156e+00,2.247751951217651367e+00,2.247494459152221680e+00,2.247236967086791992e+00,2.246979713439941406e+00,2.246722221374511719e+00,2.246464967727661133e+00,2.246207714080810547e+00,2.245950698852539062e+00,2.245693683624267578e+00,2.245436429977416992e+00,2.245179414749145508e+00,2.244922399520874023e+00,2.244665622711181641e+00,2.244408845901489258e+00,2.244152069091796875e+00,2.243895292282104492e+00,2.243638753890991211e+00,2.243382215499877930e+00,2.243125677108764648e+00,2.242869138717651367e+00,2.242612838745117188e+00,2.242356538772583008e+00,2.242100238800048828e+00,2.241843938827514648e+00,2.241587877273559570e+00,2.241331815719604492e+00,2.241075515747070312e+00,2.240819692611694336e+00,2.240563631057739258e+00,2.240307807922363281e+00,2.240051984786987305e+00,2.239796161651611328e+00,2.239540576934814453e+00,2.239284992218017578e+00,2.239029169082641602e+00,2.238773822784423828e+00,2.238518476486206055e+00,2.238262891769409180e+00,2.225955247879028320e+00,2.185053825378417969e+00,2.145628213882446289e+00,2.107600212097167969e+00,2.070896625518798828e+00,2.035449743270874023e+00,2.001195669174194336e+00,1.968075633049011230e+00,1.936033964157104492e+00,1.905018806457519531e+00,1.874981760978698730e+00,1.845877170562744141e+00
1.988425850868225098e+00,1.988223910331726074e+00,1.988021731376647949e+00,1.987819910049438477e+00,1.987618088722229004e+00,1.987416267395019531e+00,1.987214326858520508e+00,1.987012624740600586e+00,1.986810922622680664e+00,1.986609339714050293e+00,1.986407518386840820e+00,1.986206054687500000e+00,1.986004471778869629e+00,1.985803008079528809e+00,1.985601663589477539e+00,1.985400080680847168e+00,1.985198736190795898e+00,1.984997391700744629e+00,1.984796166419982910e+00,1.984594702720642090e+00,1.984393596649169922e+00,1.984192371368408203e+00,1.983991384506225586e+00,1.983790040016174316e+00,1.983589053153991699e+00,1.983388066291809082e+00,1.983187198638916016e+00,1.982986092567443848e+00,1.982785224914550781e+00,1.982584476470947266e+00,1.982383608818054199e+00,1.982182741165161133e+00,1.981981992721557617e+00,1.981781363487243652e+00,1.981580853462219238e+00,1.981379985809326172e+00,1.981179475784301758e+00,1.980978965759277344e+00,1.980778574943542480e+00,1.980577945709228516e+00,1.980377554893493652e+00,1.980177283287048340e+00,1.979977011680603027e+00,1.979776501655578613e+00,1.979576349258422852e+00,1.979376196861267090e+00,1.979176044464111328e+00,1.978975772857666016e+00,1.978775739669799805e+00,1.978575706481933594e+00,1.978375792503356934e+00,1.978175640106201172e+00,1.977975726127624512e+00,1.977775931358337402e+00,1.977576136589050293e+00,1.977376103401184082e+00,1.977176427841186523e+00,1.976976752281188965e+00,1.976777195930480957e+00,1.976577281951904297e+00,1.976377725601196289e+00,1.976178288459777832e+00,1.975978732109069824e+00,1.975779175758361816e+00,1.975579738616943359e+00,1.975380420684814453e+00,1.975181102752685547e+00,1.974981546401977539e+00,1.974782347679138184e+00,1.974583148956298828e+00,1.974384069442749023e+00,1.974184632301330566e+00,1.973985552787780762e+00,1.973786592483520508e+00,1.973587632179260254e+00,1.968098521232604980e+00,1.936056017875671387e+00,1.905040264129638672e+00,1.875002503395080566e+00,1.845897316932678223e+00
1.777892112731933594e+00,1.777730703353881836e+00,1.777569055557250977e+00,1.777407646179199219e+00,1.777246356010437012e+00,1.777084946632385254e+00,1.776923537254333496e+00,1.776762247085571289e+00,1.776600956916809082e+00,1.776439785957336426e+00,1.776278376579284668e+00,1.776117324829101562e+00,1.775956153869628906e+00,1.775795102119445801e+00,1.775633811950683594e+00,1.775472760200500488e+00,1.775311708450317383e+00,1.775150775909423828e+00,1.774989604949951172e+00,1.774828672409057617e+00,1.774667859077453613e+00,1.774506926536560059e+00,1.774345993995666504e+00,1.774185180664062500e+00,1.774024367332458496e+00,1.773863554000854492e+00,1.773702740669250488e+00,1.773542046546936035e+00,1.773381352424621582e+00,1.773220777511596680e+00,1.773060083389282227e+00,1.772899389266967773e+00,1.772738814353942871e+00,1.772578358650207520e+00,1.772417783737182617e+00,1.772257208824157715e+00,1.772096753120422363e+00,1.771936297416687012e+00,1.771775960922241211e+00,1.771615505218505859e+00,1.771455168724060059e+00,1.771294832229614258e+00,1.771134614944458008e+00,1.770974159240722656e+00,1.770813941955566406e+00,1.770653843879699707e+00,1.770493626594543457e+00,1.770333409309387207e+00,1.770173311233520508e+00,1.770013213157653809e+00,1.769853234291076660e+00,1.769693017005920410e+00,1.769533038139343262e+00,1.769373178482055664e+00,1.769213199615478516e+00,1.769053220748901367e+00,1.768893361091613770e+00,1.768733501434326172e+00,1.768573760986328125e+00,1.768413782119750977e+00,1.768254041671752930e+00,1.768094301223754883e+00,1.767934679985046387e+00,1.767774820327758789e+00,1.767615199089050293e+00,1.767455577850341797e+00,1.767296075820922852e+00,1.767136335372924805e+00,1.766976833343505859e+00,1.766817331314086914e+00,1.766657948493957520e+00,1.766498327255249023e+00,1.766338944435119629e+00,1.766179561614990234e+00,1.766020298004150391e+00,1.765860795974731445e+00,1.765701532363891602e+00,1.765542268753051758e+00,1.765383124351501465e+00,1.765223741531372070e+00
1.607672452926635742e+00,1.607540369033813477e+00,1.607408285140991211e+00,1.607276320457458496e+00,1.607144355773925781e+00,1.607012391090393066e+00,1.606880426406860352e+00,1.606748461723327637e+00,1.606616616249084473e+00,1.606484770774841309e+00,1.606352806091308594e+00,1.606221079826354980e+00,1.606089234352111816e+00,1.605957508087158203e+00,1.605825543403625488e+00,1.605693936347961426e+00,1.605562210083007812e+00,1.605430483818054199e+00,1.605298757553100586e+00,1.605167150497436523e+00,1.605035543441772461e+00,1.604903936386108398e+00,1.604772210121154785e+00,1.604640722274780273e+00,1.604509115219116211e+00,1.604377627372741699e+00,1.604246020317077637e+00,1.604114532470703125e+00,1.603983163833618164e+00,1.603851795196533203e+00,1.603720188140869141e+00,1.603588819503784180e+00,1.603457450866699219e+00,1.603326201438903809e+00,1.603194713592529297e+00,1.603063464164733887e+00,1.602932214736938477e+00,1.602800965309143066e+00,1.602669596672058105e+00,1.602538347244262695e+00,1.602407217025756836e+00,1.602276086807250977e+00,1.602144718170166016e+00,1.602013707160949707e+00,1.601882576942443848e+00,1.601751565933227539e+00,1.601620316505432129e+00,1.601489305496215820e+00,1.601358294486999512e+00,1.601227283477783203e+00,1.601096391677856445e+00,1.600965261459350586e+00,1.600834369659423828e+00,1.600703477859497070e+00,1.600572586059570312e+00,1.600441575050354004e+00,1.600310802459716797e+00,1.600180029869079590e+00,1.600049138069152832e+00,1.599918246269226074e+00,1.599787473678588867e+00,1.599656701087951660e+00,1.599526047706604004e+00,1.599395275115966797e+00,1.599264621734619141e+00,1.599133968353271484e+00,1.599003314971923828e+00,1.598872542381286621e+00,1.598742008209228516e+00,1.598611474037170410e+00,1.598480939865112305e+00,1.598350286483764648e+00,1.598219752311706543e+00,1.598089337348937988e+00,1.597958922386169434e+00,1.597828269004821777e+00,1.597697854042053223e+00,1.597567558288574219e+00,1.597437143325805664e+00,1.597306609153747559e+00
1.467199206352233887e+00,1.467089295387268066e+00,1.466979265213012695e+00,1.466869235038757324e+00,1.466759443283081055e+00,1.466649532318115234e+00,1.466539502143859863e+00,1.466429591178894043e+00,1.466319799423217773e+00,1.466210007667541504e+00,1.466100096702575684e+00,1.465990304946899414e+00,1.465880513191223145e+00,1.465770721435546875e+00,1.465660810470581055e+00,1.465551137924194336e+00,1.465441465377807617e+00,1.465331792831420898e+00,1.465221881866455078e+00,1.465112328529357910e+00,1.465002655982971191e+00,1.464892983436584473e+00,1.464783310890197754e+00,1.464673638343811035e+00,1.464564085006713867e+00,1.464454531669616699e+00,1.464344859123229980e+00,1.464235305786132812e+00,1.464125871658325195e+00,1.464016318321228027e+00,1.463906764984130859e+00,1.463797330856323242e+00,1.463687777519226074e+00,1.463578462600708008e+00,1.463468909263610840e+00,1.463359475135803223e+00,1.463250041007995605e+00,1.463140726089477539e+00,1.463031291961669922e+00,1.462921977043151855e+00,1.462812662124633789e+00,1.462703347206115723e+00,1.462593913078308105e+00,1.462484717369079590e+00,1.462375402450561523e+00,1.462266206741333008e+00,1.462156891822814941e+00,1.462047696113586426e+00,1.461938500404357910e+00,1.461829304695129395e+00,1.461719989776611328e+00,1.461610913276672363e+00,1.461501836776733398e+00,1.461392641067504883e+00,1.461283445358276367e+00,1.461174368858337402e+00,1.461065411567687988e+00,1.460956335067749023e+00,1.460847139358520508e+00,1.460738182067871094e+00,1.460629224777221680e+00,1.460520267486572266e+00,1.460411190986633301e+00,1.460302233695983887e+00,1.460193276405334473e+00,1.460084319114685059e+00,1.459975481033325195e+00,1.459866523742675781e+00,1.459757685661315918e+00,1.459648847579956055e+00,1.459540009498596191e+00,1.459431052207946777e+00,1.459322214126586914e+00,1.459213495254516602e+00,1.459104657173156738e+00,1.458995819091796875e+00,1.458887100219726562e+00,1.458778381347656250e+00,1.458669662475585938e+00,1.458560943603515625e+00
1.349301576614379883e+00,1.349208474159240723e+00,1.349115490913391113e+00,1.349022507667541504e+00,1.348929524421691895e+00,1.348836541175842285e+00,1.348743557929992676e+00,1.348650693893432617e+00,1.348557829856872559e+00,1.348464846611022949e+00,1.348371863365173340e+00,1.348278999328613281e+00,1.348186135292053223e+00,1.348093390464782715e+00,1.348000407218933105e+00,1.347907662391662598e+00,1.347814798355102539e+00,1.347722053527832031e+00,1.347629189491271973e+00,1.347536325454711914e+00,1.347443580627441406e+00,1.347350955009460449e+00,1.347258090972900391e+00,1.347165346145629883e+00,1.347072720527648926e+00,1.346979975700378418e+00,1.346887230873107910e+00,1.346794605255126953e+00,1.346701860427856445e+00,1.346609234809875488e+00,1.346516609191894531e+00,1.346423983573913574e+00,1.346331357955932617e+00,1.346238732337951660e+00,1.346146106719970703e+00,1.346053481101989746e+00,1.345960974693298340e+00,1.345868468284606934e+00,1.345775842666625977e+00,1.345683336257934570e+00,1.345590829849243164e+00,1.345498323440551758e+00,1.345405817031860352e+00,1.345313310623168945e+00,1.345220804214477539e+00,1.345128417015075684e+00,1.345035910606384277e+00,1.344943523406982422e+00,1.344851136207580566e+00,1.344758749008178711e+00,1.344666242599487305e+00,1.344573855400085449e+00,1.344481587409973145e+00,1.344389200210571289e+00,1.344296813011169434e+00,1.344204425811767578e+00,1.344112157821655273e+00,1.344019889831542969e+00,1.343927502632141113e+00,1.343835234642028809e+00,1.343743085861206055e+00,1.343650817871093750e+00,1.343558430671691895e+00,1.343466281890869141e+00,1.343374133110046387e+00,1.343281865119934082e+00,1.343189597129821777e+00,1.343097448348999023e+00,1.343005299568176270e+00,1.342913269996643066e+00,1.342821002006530762e+00,1.342728853225708008e+00,1.342636823654174805e+00,1.342544674873352051e+00,1.342452526092529297e+00,1.342360496520996094e+00,1.342268466949462891e+00,1.342176437377929688e+00,1.342084288597106934e+00,1.341992259025573730e+00
1.248942136764526367e+00,1.248862385749816895e+00,1.248782634735107422e+00,1.248703122138977051e+00,1.248623371124267578e+00,1.248543739318847656e+00,1.248464107513427734e+00,1.248384475708007812e+00,1.248304843902587891e+00,1.248225212097167969e+00,1.248145580291748047e+00,1.248066067695617676e+00,1.247986435890197754e+00,1.247906804084777832e+00,1.247827291488647461e+00,1.247747778892517090e+00,1.247668266296386719e+00,1.247588634490966797e+00,1.247509121894836426e+00,1.247429609298706055e+00,1.247350096702575684e+00,1.247270584106445312e+00,1.247191071510314941e+00,1.247111678123474121e+00,1.247032165527343750e+00,1.246952772140502930e+00,1.246873259544372559e+00,1.246793866157531738e+00,1.246714472770690918e+00,1.246635079383850098e+00,1.246555566787719727e+00,1.246476173400878906e+00,1.246396899223327637e+00,1.246317505836486816e+00,1.246238112449645996e+00,1.246158719062805176e+00,1.246079444885253906e+00,1.246000170707702637e+00,1.245920777320861816e+00,1.245841383934020996e+00,1.245762109756469727e+00,1.245682835578918457e+00,1.245603561401367188e+00,1.245524287223815918e+00,1.245445013046264648e+00,1.245365858078002930e+00,1.245286464691162109e+00,1.245207309722900391e+00,1.245128154754638672e+00,1.245048880577087402e+00,1.244969606399536133e+00,1.244890451431274414e+00,1.244811296463012695e+00,1.244732141494750977e+00,1.244652986526489258e+00,1.244573831558227539e+00,1.244494676589965820e+00,1.244415640830993652e+00,1.244336366653442383e+00,1.244257330894470215e+00,1.244178175926208496e+00,1.244099140167236328e+00,1.244019985198974609e+00,1.243940949440002441e+00,1.243861913681030273e+00,1.243782877922058105e+00,1.243703842163085938e+00,1.243624806404113770e+00,1.243545770645141602e+00,1.243466854095458984e+00,1.243387699127197266e+00,1.243308782577514648e+00,1.243229866027832031e+00,1.243150830268859863e+00,1.243071794509887695e+00,1.242992877960205078e+00,1.242913961410522461e+00,1.242835044860839844e+00,1.242756128311157227e+00,1.242677211761474609e+00
1.162478446960449219e+00,1.162409305572509766e+00,1.162340283393859863e+00,1.162271261215209961e+00,1.162202239036560059e+00,1.162133216857910156e+00,1.162064194679260254e+00,1.161995291709899902e+00,1.161926269531250000e+00,1.161857247352600098e+00,1.161788344383239746e+00,1.161719322204589844e+00,1.161650419235229492e+00,1.161581397056579590e+00,1.161512494087219238e+00,1.161443591117858887e+00,1.161374688148498535e+00,1.161305665969848633e+00,1.161236882209777832e+00,1.161167979240417480e+00,1.161099076271057129e+00,1.161030173301696777e+00,1.160961270332336426e+00,1.160892486572265625e+00,1.160823583602905273e+00,1.160754680633544922e+00,1.160685896873474121e+00,1.160617113113403320e+00,1.160548210144042969e+00,1.160479426383972168e+00,1.160410523414611816e+00,1.160341858863830566e+00,1.160273075103759766e+00,1.160204172134399414e+00,1.160135388374328613e+00,1.160066723823547363e+00,1.159997940063476562e+00,1.159929156303405762e+00,1.159860372543334961e+00,1.159791707992553711e+00,1.159722924232482910e+00,1.159654259681701660e+00,1.159585475921630859e+00,1.159516811370849609e+00,1.159448146820068359e+00,1.159379482269287109e+00,1.159310698509216309e+00,1.159242033958435059e+00,1.159173488616943359e+00,1.159104824066162109e+00,1.159036159515380859e+00,1.158967494964599609e+00,1.158898830413818359e+00,1.158830285072326660e+00,1.158761620521545410e+00,1.158693075180053711e+00,1.158624410629272461e+00,1.158555865287780762e+00,1.158487200736999512e+00,1.158418655395507812e+00,1.158350110054016113e+00,1.158281683921813965e+00,1.158213019371032715e+00,1.158144474029541016e+00,1.158076047897338867e+00,1.158007502555847168e+00,1.157938957214355469e+00,1.157870411872863770e+00,1.157801985740661621e+00,1.157733440399169922e+00,1.157664895057678223e+00,1.157596468925476074e+00,1.157528042793273926e+00,1.157459616661071777e+00,1.157391071319580078e+00,1.157322645187377930e+00,1.157254219055175781e+00,1.157185912132263184e+00,1.157117366790771484e+00,1.157048940658569336e+00
1.087211251258850098e+00,1.087150812149047852e+00,1.087090373039245605e+00,1.087030053138732910e+00,1.086969733238220215e+00,1.086909294128417969e+00,1.086848855018615723e+00,1.086788535118103027e+00,1.086728215217590332e+00,1.086667895317077637e+00,1.086607575416564941e+00,1.086547255516052246e+00,1.086486935615539551e+00,1.086426615715026855e+00,1.086366295814514160e+00,1.086305975914001465e+00,1.086245775222778320e+00,1.086185336112976074e+00,1.086125135421752930e+00,1.086064815521240234e+00,1.086004614830017090e+00,1.085944294929504395e+00,1.085884094238281250e+00,1.085823893547058105e+00,1.085763573646545410e+00,1.085703372955322266e+00,1.085643172264099121e+00,1.085582971572875977e+00,1.085522770881652832e+00,1.085462450981140137e+00,1.085402250289916992e+00,1.085342168807983398e+00,1.085281968116760254e+00,1.085221767425537109e+00,1.085161566734313965e+00,1.085101366043090820e+00,1.085041284561157227e+00,1.084981083869934082e+00,1.084921002388000488e+00,1.084860801696777344e+00,1.084800720214843750e+00,1.084740519523620605e+00,1.084680438041687012e+00,1.084620356559753418e+00,1.084560275077819824e+00,1.084500074386596680e+00,1.084439992904663086e+00,1.084379911422729492e+00,1.084319829940795898e+00,1.084259748458862305e+00,1.084199666976928711e+00,1.084139704704284668e+00,1.084079623222351074e+00,1.084019541740417480e+00,1.083959460258483887e+00,1.083899497985839844e+00,1.083839535713195801e+00,1.083779454231262207e+00,1.083719372749328613e+00,1.083659410476684570e+00,1.083599448204040527e+00,1.083539485931396484e+00,1.083479404449462891e+00,1.083419442176818848e+00,1.083359479904174805e+00,1.083299517631530762e+00,1.083239555358886719e+00,1.083179593086242676e+00,1.083119750022888184e+00,1.083059787750244141e+00,1.082999825477600098e+00,1.082939863204956055e+00,1.082880020141601562e+00,1.082820057868957520e+00,1.082760095596313477e+00,1.082700252532958984e+00,1.082640409469604492e+00,1.082580447196960449e+00,1.082520604133605957e+00,1.082460641860961914e+00
1.021097898483276367e+00,1.021044731140136719e+00,1.020991444587707520e+00,1.020938158035278320e+00,1.020884871482849121e+00,1.020831704139709473e+00,1.020778417587280273e+00,1.020725250244140625e+00,1.020671963691711426e+00,1.020618677139282227e+00,1.020565509796142578e+00,1.020512342453002930e+00,1.020459055900573730e+00,1.020405888557434082e+00,1.020352721214294434e+00,1.020299434661865234e+00,1.020246267318725586e+00,1.020193099975585938e+00,1.020139932632446289e+00,1.020086765289306641e+00,1.020033597946166992e+00,1.019980430603027344e+00,1.019927263259887695e+00,1.019874095916748047e+00,1.019821047782897949e+00,1.019767880439758301e+00,1.019714713096618652e+00,1.019661545753479004e+00,1.019608497619628906e+00,1.019555330276489258e+00,1.019502282142639160e+00,1.019449114799499512e+00,1.019396066665649414e+00,1.019342899322509766e+00,1.019289851188659668e+00,1.019236803054809570e+00,1.019183754920959473e+00,1.019130587577819824e+00,1.019077539443969727e+00,1.019024491310119629e+00,1.018971443176269531e+00,1.018918395042419434e+00,1.018865346908569336e+00,1.018812298774719238e+00,1.018759250640869141e+00,1.018706202507019043e+00,1.018653154373168945e+00,1.018600225448608398e+00,1.018547177314758301e+00,1.018494129180908203e+00,1.018441200256347656e+00,1.018388152122497559e+00,1.018335223197937012e+00,1.018282175064086914e+00,1.018229246139526367e+00,1.018176317214965820e+00,1.018123269081115723e+00,1.018070340156555176e+00,1.018017411231994629e+00,1.017964482307434082e+00,1.017911553382873535e+00,1.017858505249023438e+00,1.017805576324462891e+00,1.017752647399902344e+00,1.017699718475341797e+00,1.017646789550781250e+00,1.017593860626220703e+00,1.017541050910949707e+00,1.017488121986389160e+00,1.017435193061828613e+00,1.017382264137268066e+00,1.017329454421997070e+00,1.017276525497436523e+00,1.017223715782165527e+00,1.017170786857604980e+00,1.017117977142333984e+00,1.017065167427062988e+00,1.017012238502502441e+00,1.016959428787231445e+00,1.016906619071960449e+00
9.625645279884338379e-01,9.625172615051269531e-01,9.624698758125305176e-01,9.624226093292236328e-01,9.623752236366271973e-01,9.623278379440307617e-01,9.622805714607238770e-01,9.622332453727722168e-01,9.621859192848205566e-01,9.621386528015136719e-01,9.620913267135620117e-01,9.620441198348999023e-01,9.619967937469482422e-01,9.619494676589965820e-01,9.619022607803344727e-01,9.618549346923828125e-01,9.618076086044311523e-01,9.617604017257690430e-01,9.617131352424621582e-01,9.616659283638000488e-01,9.616186618804931641e-01,9.615713357925415039e-01,9.615241885185241699e-01,9.614769220352172852e-01,9.614296555519104004e-01,9.613825082778930664e-01,9.613351821899414062e-01,9.612880349159240723e-01,9.612408280372619629e-01,9.611935615539550781e-01,9.611464142799377441e-01,9.610992074012756348e-01,9.610520601272583008e-01,9.610047936439514160e-01,9.609575867652893066e-01,9.609104990959167480e-01,9.608632326126098633e-01,9.608160257339477539e-01,9.607689380645751953e-01,9.607217311859130859e-01,9.606746435165405273e-01,9.606274366378784180e-01,9.605802893638610840e-01,9.605332016944885254e-01,9.604859948158264160e-01,9.604388475418090820e-01,9.603917598724365234e-01,9.603446125984191895e-01,9.602975249290466309e-01,9.602503776550292969e-01,9.602032303810119629e-01,9.601562023162841797e-01,9.601090550422668457e-01,9.600619077682495117e-01,9.600148797035217285e-01,9.599677324295043945e-01,9.599207639694213867e-01,9.598736166954040527e-01,9.598265290260314941e-01,9.597795009613037109e-01,9.597324132919311523e-01,9.596852660179138184e-01,9.596382975578308105e-01,9.595912098884582520e-01,9.595442414283752441e-01,9.594971537590026855e-01,9.594500660896301270e-01,9.594030976295471191e-01,9.593560099601745605e-01,9.593089818954467773e-01,9.592620134353637695e-01,9.592149257659912109e-01,9.591680169105529785e-01,9.591209888458251953e-01,9.590739011764526367e-01,9.590269923210144043e-01,9.589799642562866211e-01,9.589329361915588379e-01,9.588860273361206055e-01,9.588389992713928223e-01
9.103779792785644531e-01,9.103356003761291504e-01,9.102933406829833984e-01,9.102509617805480957e-01,9.102085828781127930e-01,9.101663231849670410e-01,9.101239442825317383e-01,9.100816845893859863e-01,9.100393652915954590e-01,9.099969863891601562e-01,9.099547266960144043e-01,9.099124073982238770e-01,9.098700881004333496e-01,9.098278284072875977e-01,9.097855091094970703e-01,9.097432494163513184e-01,9.097009301185607910e-01,9.096586108207702637e-01,9.096164107322692871e-01,9.095740914344787598e-01,9.095317721366882324e-01,9.094895720481872559e-01,9.094472527503967285e-01,9.094050526618957520e-01,9.093627929687500000e-01,9.093204736709594727e-01,9.092783331871032715e-01,9.092360138893127441e-01,9.091937541961669922e-01,9.091515541076660156e-01,9.091092944145202637e-01,9.090671539306640625e-01,9.090248942375183105e-01,9.089826345443725586e-01,9.089404940605163574e-01,9.088982343673706055e-01,9.088559746742248535e-01,9.088138341903686523e-01,9.087715744972229004e-01,9.087294936180114746e-01,9.086872339248657227e-01,9.086450338363647461e-01,9.086028933525085449e-01,9.085606932640075684e-01,9.085184335708618164e-01,9.084763526916503906e-01,9.084341526031494141e-01,9.083920121192932129e-01,9.083498120307922363e-01,9.083076715469360352e-01,9.082655310630798340e-01,9.082233905792236328e-01,9.081813097000122070e-01,9.081391096115112305e-01,9.080969095230102539e-01,9.080548882484436035e-01,9.080126881599426270e-01,9.079705476760864258e-01,9.079284667968750000e-01,9.078863263130187988e-01,9.078442454338073730e-01,9.078021049499511719e-01,9.077599644660949707e-01,9.077179431915283203e-01,9.076758027076721191e-01,9.076336622238159180e-01,9.075916409492492676e-01,9.075495004653930664e-01,9.075074791908264160e-01,9.074653983116149902e-01,9.074232578277587891e-01,9.073812365531921387e-01,9.073391556739807129e-01,9.072970747947692871e-01,9.072550535202026367e-01,9.072129726409912109e-01,9.071709513664245605e-01,9.071288704872131348e-01,9.070867896080017090e-01,9.070448279380798340e-01
8.635591268539428711e-01,8.635210394859313965e-01,8.634829521179199219e-01,8.634448647499084473e-01,8.634067773818969727e-01,8.633686304092407227e-01,8.633306026458740234e-01,8.632925152778625488e-01,8.632543683052062988e-01,8.632163405418395996e-01,8.631782531738281250e-01,8.631402254104614258e-01,8.631021380424499512e-01,8.630640506744384766e-01,8.630260229110717773e-01,8.629879355430603027e-01,8.629498481750488281e-01,8.629118800163269043e-01,8.628737926483154297e-01,8.628358244895935059e-01,8.627977371215820312e-01,8.627596497535705566e-01,8.627216815948486328e-01,8.626836538314819336e-01,8.626455664634704590e-01,8.626075983047485352e-01,8.625695705413818359e-01,8.625316023826599121e-01,8.624935746192932129e-01,8.624554872512817383e-01,8.624175786972045898e-01,8.623795509338378906e-01,8.623414635658264160e-01,8.623035550117492676e-01,8.622655272483825684e-01,8.622276186943054199e-01,8.621895909309387207e-01,8.621515631675720215e-01,8.621136546134948730e-01,8.620756268501281738e-01,8.620375990867614746e-01,8.619996905326843262e-01,8.619617223739624023e-01,8.619238138198852539e-01,8.618858456611633301e-01,8.618478178977966309e-01,8.618099093437194824e-01,8.617719411849975586e-01,8.617339730262756348e-01,8.616960644721984863e-01,8.616580963134765625e-01,8.616202473640441895e-01,8.615822792053222656e-01,8.615443110466003418e-01,8.615064620971679688e-01,8.614684939384460449e-01,8.614305257797241211e-01,8.613926768302917480e-01,8.613547086715698242e-01,8.613168597221374512e-01,8.612789511680603027e-01,8.612409830093383789e-01,8.612031340599060059e-01,8.611652255058288574e-01,8.611273169517517090e-01,8.610894680023193359e-01,8.610515594482421875e-01,8.610137104988098145e-01,8.609758019447326660e-01,8.609378933906555176e-01,8.609001040458679199e-01,8.608621954917907715e-01,8.608244061470031738e-01,8.607864975929260254e-01,8.607485890388488770e-01,8.607107996940612793e-01,8.606728911399841309e-01,8.606350421905517578e-01,8.605972528457641602e-01,8.605593442916870117e-01
