5.000000000000000000e+00,5.000000000000000000e+00,5.000000000000000000e+00,5.000000000000000000e+00,5.000000000000000000e+00,5.000000000000000000e+00,5.000000000000000000e+00,5.000000000000000000e+00,5.000000000000000000e+00,5.000000000000000000e+00,5.000000000000000000e+00,5.000000000000000000e+00,5.000000000000000000e+00,5.000000000000000000e+00,5.000000000000000000e+00,5.000000000000000000e+00,5.000000000000000000e+00,5.000000000000000000e+00,5.000000000000000000e+00,5.000000000000000000e+00,5.000000000000000000e+00,5.000000000000000000e+00,5.000000000000000000e+00,5.000000000000000000e+00,5.000000000000000000e+00,5.000000000000000000e+00,5.000000000000000000e+00,5.000000000000000000e+00,5.000000000000000000e+00,5.000000000000000000e+00,5.000000000000000000e+00,5.000000000000000000e+00,5.000000000000000000e+00,5.000000000000000000e+00,5.000000000000000000e+00,5.000000000000000000e+00,5.000000000000000000e+00,5.000000000000000000e+00,5.000000000000000000e+00,4.854088306427001953e+00,4.663792133331298828e+00,4.487853527069091797e+00,4.324707031250000000e+00,4.173005580902099609e+00,4.031586647033691406e+00,3.899438619613647461e+00,3.775678396224975586e+00,3.659532785415649414e+00,3.550319194793701172e+00,1.140562176704406738e+00,1.116936206817626953e+00,1.101375102996826172e+00,1.106878399848937988e+00,1.103122591972351074e+00,1.085365891456604004e+00,1.051429629325866699e+00,1.022878170013427734e+00,9.994696378707885742e-01,9.773064255714416504e-01,9.549292922019958496e-01,9.445552825927734375e-01,9.355367422103881836e-01,9.284524917602539062e-01,9.214748144149780273e-01,9.407101869583129883e-01,9.656127095222473145e-01,1.176133632659912109e+00,2.265639305114746094e+00,2.223297357559204102e+00,2.182508945465087891e+00,2.143190145492553711e+00,1.251592516899108887e+00,1.227834343910217285e+00,1.142686009407043457e+00,1.166369318962097168e+00,1.142972707748413086e+00,1.934126019477844238e+00,1.903184056282043457e+00,1.873216271400451660e+00,1.844177842140197754e+00
5.000000000000000000e+00,5.000000000000000000e+00,5.000000000000000000e+00,5.000000000000000000e+00,5.000000000000000000e+00,5.000000000000000000e+00,5.000000000000000000e+00,5.000000000000000000e+00,5.000000000000000000e+00,5.000000000000000000e+00,5.000000000000000000e+00,5.000000000000000000e+00,5.000000000000000000e+00,5.000000000000000000e+00,5.000000000000000000e+00,5.000000000000000000e+00,5.000000000000000000e+00,5.000000000000000000e+00,5.000000000000000000e+00,5.000000000000000000e+00,5.000000000000000000e+00,5.000000000000000000e+00,5.000000000000000000e+00,5.000000000000000000e+00,5.000000000000000000e+00,5.000000000000000000e+00,5.000000000000000000e+00,5.000000000000000000e+00,5.000000000000000000e+00,5.000000000000000000e+00,5.000000000000000000e+00,5.000000000000000000e+00,5.000000000000000000e+00,5.000000000000000000e+00,5.000000000000000000e+00,5.000000000000000000e+00,5.000000000000000000e+00,5.000000000000000000e+00,5.000000000000000000e+00,4.854226589202880859e+00,4.663919448852539062e+00,4.487971782684326172e+00,4.324816226959228516e+00,4.173107624053955078e+00,4.031681537628173828e+00,3.899527549743652344e+00,3.775762081146240234e+00,3.659610986709594727e+00,3.550393104553222656e+00,1.135725140571594238e+00,1.110492348670959473e+00,1.093645572662353516e+00,1.116541028022766113e+00,1.095883846282958984e+00,1.092469096183776855e+00,1.058396935462951660e+00,1.026796579360961914e+00,1.002300024032592773e+00,9.800127148628234863e-01,9.576696753501892090e-01,9.400494098663330078e-01,9.299945831298828125e-01,9.201524853706359863e-01,9.132031202316284180e-01,9.180679321289062500e-01,9.414406418800354004e-01,1.181198477745056152e+00,2.265669345855712891e+00,2.223326444625854492e+00,2.182536840438842773e+00,2.143217086791992188e+00,2.105288982391357422e+00,1.239173889160156250e+00,1.216205477714538574e+00,1.188561201095581055e+00,1.144648075103759766e+00,1.128776311874389648e+00,1.903205156326293945e+00,1.873236894607543945e+00,1.844197630882263184e+00
5.000000000000000000e+00,5.000000000000000000e+00,5.000000000000000000e+00,5.000000000000000000e+00,5.000000000000000000e+00,5.000000000000000000e+00,5.000000000000000000e+00,5.000000000000000000e+00,5.000000000000000000e+00,5.000000000000000000e+00,5.000000000000000000e+00,5.000000000000000000e+00,5.000000000000000000e+00,5.000000000000000000e+00,5.000000000000000000e+00,5.000000000000000000e+00,5.000000000000000000e+00,5.000000000000000000e+00,5.000000000000000000e+00,5.000000000000000000e+00,5.000000000000000000e+00,5.000000000000000000e+00,5.000000000000000000e+00,5.000000000000000000e+00,5.000000000000000000e+00,5.000000000000000000e+00,5.000000000000000000e+00,5.000000000000000000e+00,5.000000000000000000e+00,5.000000000000000000e+00,5.000000000000000000e+00,5.000000000000000000e+00,5.000000000000000000e+00,5.000000000000000000e+00,5.000000000000000000e+00,5.000000000000000000e+00,5.000000000000000000e+00,5.000000000000000000e+00,5.000000000000000000e+00,4.854364395141601562e+00,4.664046764373779297e+00,4.488089561462402344e+00,4.324925899505615234e+00,4.173209667205810547e+00,4.031776905059814453e+00,3.899616718292236328e+00,3.775845527648925781e+00,3.659689664840698242e+00,3.550466775894165039e+00,1.130621433258056641e+00,1.107235670089721680e+00,1.089334368705749512e+00,3.171817779541015625e+00,1.090769886970520020e+00,3.011246681213378906e+00,1.065150499343872070e+00,1.033869385719299316e+00,1.005241632461547852e+00,9.827339649200439453e-01,9.610028266906738281e-01,9.381783008575439453e-01,9.256262183189392090e-01,9.158759117126464844e-01,9.063289165496826172e-01,8.984465599060058594e-01,9.184491038322448730e-01,9.385030865669250488e-01,2.265699386596679688e+00,2.223355293273925781e+00,2.182564735412597656e+00,2.143244028091430664e+00,2.105314970016479492e+00,2.068704843521118164e+00,1.230780124664306641e+00,1.202629446983337402e+00,1.169460773468017578e+00,1.157081723213195801e+00,1.903226375579833984e+00,1.873257398605346680e+00,1.844217777252197266e+00
5.000000000000000000e+00,5.000000000000000000e+00,5.000000000000000000e+00,5.000000000000000000e+00,5.000000000000000000e+00,5.000000000000000000e+00,5.000000000000000000e+00,5.000000000000000000e+00,5.000000000000000000e+00,5.000000000000000000e+00,5.000000000000000000e+00,5.000000000000000000e+00,5.000000000000000000e+00,5.000000000000000000e+00,5.000000000000000000e+00,5.000000000000000000e+00,5.000000000000000000e+00,5.000000000000000000e+00,5.000000000000000000e+00,5.000000000000000000e+00,5.000000000000000000e+00,5.000000000000000000e+00,5.000000000000000000e+00,5.000000000000000000e+00,5.000000000000000000e+00,5.000000000000000000e+00,5.000000000000000000e+00,5.000000000000000000e+00,5.000000000000000000e+00,5.000000000000000000e+00,5.000000000000000000e+00,5.000000000000000000e+00,5.000000000000000000e+00,5.000000000000000000e+00,5.000000000000000000e+00,5.000000000000000000e+00,5.000000000000000000e+00,5.000000000000000000e+00,5.000000000000000000e+00,4.854502201080322266e+00,4.664174556732177734e+00,4.488207817077636719e+00,4.325035572052001953e+00,4.173311710357666016e+00,4.031872272491455078e+00,3.899705648422241211e+00,3.775929212570190430e+00,3.659767866134643555e+00,3.550540924072265625e+00,1.129886150360107422e+00,1.101332783699035645e+00,3.258763313293457031e+00,1.072865247726440430e+00,3.089503049850463867e+00,3.011299848556518555e+00,1.071990728378295898e+00,1.041040539741516113e+00,1.012019634246826172e+00,9.854702949523925781e-01,9.639169573783874512e-01,9.413769245147705078e-01,9.212986826896667480e-01,9.116388559341430664e-01,9.021795392036437988e-01,8.931758403778076172e-01,8.987768292427062988e-01,9.156530499458312988e-01,2.265729427337646484e+00,2.223384141921997070e+00,2.182592630386352539e+00,2.143270969390869141e+00,2.105340957641601562e+00,2.068730115890502930e+00,2.033370733261108398e+00,1.218112707138061523e+00,1.187953352928161621e+00,1.155988097190856934e+00,1.903247475624084473e+00,1.873277902603149414e+00,1.844237565994262695e+00
5.000000000000000000e+00,5.000000000000000000e+00,5.000000000000000000e+00,5.000000000000000000e+00,5.000000000000000000e+00,5.000000000000000000e+00,5.000000000000000000e+00,5.000000000000000000e+00,5.000000000000000000e+00,5.000000000000000000e+00,5.000000000000000000e+00,5.000000000000000000e+00,5.000000000000000000e+00,5.000000000000000000e+00,5.000000000000000000e+00,5.000000000000000000e+00,5.000000000000000000e+00,5.000000000000000000e+00,5.000000000000000000e+00,5.000000000000000000e+00,5.000000000000000000e+00,5.000000000000000000e+00,5.000000000000000000e+00,5.000000000000000000e+00,5.000000000000000000e+00,5.000000000000000000e+00,5.000000000000000000e+00,5.000000000000000000e+00,5.000000000000000000e+00,5.000000000000000000e+00,5.000000000000000000e+00,5.000000000000000000e+00,5.000000000000000000e+00,5.000000000000000000e+00,5.000000000000000000e+00,5.000000000000000000e+00,5.000000000000000000e+00,5.000000000000000000e+00,5.000000000000000000e+00,4.854640483856201172e+00,4.664301872253417969e+00,4.488325595855712891e+00,4.325145244598388672e+00,4.173413753509521484e+00,4.031967163085937500e+00,3.899794816970825195e+00,3.776012420654296875e+00,3.659846544265747070e+00,3.550614595413208008e+00,1.127176880836486816e+00,1.097917914390563965e+00,3.258825540542602539e+00,1.064781904220581055e+00,3.089559078216552734e+00,3.011352777481079102e+00,2.937008380889892578e+00,1.047273635864257812e+00,1.018889784812927246e+00,9.910743832588195801e-01,9.665493965148925781e-01,9.445974230766296387e-01,9.225366115570068359e-01,9.078863263130187988e-01,8.988435864448547363e-01,8.899792432785034180e-01,8.913306593894958496e-01,9.050329327583312988e-01,2.265759706497192383e+00,2.223413228988647461e+00,2.182620525360107422e+00,2.143297672271728516e+00,2.105366945266723633e+00,2.068754911422729492e+00,2.033395051956176758e+00,1.999223232269287109e+00,1.966181278228759766e+00,1.934213638305664062e+00,1.903268814086914062e+00,1.873298406600952148e+00,1.844257473945617676e+00
5.000000000000000000e+00,5.000000000000000000e+00,5.000000000000000000e+00,5.000000000000000000e+00,5.000000000000000000e+00,5.000000000000000000e+00,5.000000000000000000e+00,5.000000000000000000e+00,5.000000000000000000e+00,5.000000000000000000e+00,5.000000000000000000e+00,5.000000000000000000e+00,5.000000000000000000e+00,5.000000000000000000e+00,5.000000000000000000e+00,5.000000000000000000e+00,5.000000000000000000e+00,5.000000000000000000e+00,5.000000000000000000e+00,5.000000000000000000e+00,5.000000000000000000e+00,5.000000000000000000e+00,5.000000000000000000e+00,5.000000000000000000e+00,5.000000000000000000e+00,5.000000000000000000e+00,5.000000000000000000e+00,5.000000000000000000e+00,5.000000000000000000e+00,5.000000000000000000e+00,5.000000000000000000e+00,5.000000000000000000e+00,5.000000000000000000e+00,5.000000000000000000e+00,5.000000000000000000e+00,5.000000000000000000e+00,5.000000000000000000e+00,5.000000000000000000e+00,5.000000000000000000e+00,4.854778289794921875e+00,4.664429187774658203e+00,4.488443374633789062e+00,4.325254440307617188e+00,4.173515796661376953e+00,4.032062530517578125e+00,3.899883747100830078e+00,3.776096105575561523e+00,3.659924745559692383e+00,3.550688505172729492e+00,1.146431446075439453e+00,1.096311211585998535e+00,3.258887529373168945e+00,1.067238926887512207e+00,3.089614868164062500e+00,3.011405944824218750e+00,2.937058687210083008e+00,2.866294145584106445e+00,1.023415327072143555e+00,9.968972206115722656e-01,9.709784388542175293e-01,9.478400349617004395e-01,9.259067773818969727e-01,9.075754880905151367e-01,8.973679542541503906e-01,8.873875141143798828e-01,8.838165402412414551e-01,8.958061933517456055e-01,9.081256389617919922e-01,2.223442077636718750e+00,2.182648420333862305e+00,2.143324851989746094e+00,2.105392932891845703e+00,2.068780183792114258e+00,2.033419132232666016e+00,1.999246835708618164e+00,1.966203808784484863e+00,1.934235453605651855e+00,1.903290033340454102e+00,1.873319149017333984e+00,1.844277381896972656e+00
5.000000000000000000e+00,5.000000000000000000e+00,5.000000000000000000e+00,5.000000000000000000e+00,5.000000000000000000e+00,5.000000000000000000e+00,5.000000000000000000e+00,5.000000000000000000e+00,5.000000000000000000e+00,5.000000000000000000e+00,5.000000000000000000e+00,5.000000000000000000e+00,5.000000000000000000e+00,5.000000000000000000e+00,5.000000000000000000e+00,5.000000000000000000e+00,5.000000000000000000e+00,5.000000000000000000e+00,5.000000000000000000e+00,5.000000000000000000e+00,5.000000000000000000e+00,5.000000000000000000e+00,5.000000000000000000e+00,5.000000000000000000e+00,5.000000000000000000e+00,5.000000000000000000e+00,5.000000000000000000e+00,5.000000000000000000e+00,5.000000000000000000e+00,5.000000000000000000e+00,5.000000000000000000e+00,5.000000000000000000e+00,5.000000000000000000e+00,5.000000000000000000e+00,5.000000000000000000e+00,5.000000000000000000e+00,5.000000000000000000e+00,5.000000000000000000e+00,5.000000000000000000e+00,4.854916572570800781e+00,4.664556503295898438e+00,4.488561630249023438e+00,4.325364112854003906e+00,4.173617839813232422e+00,4.032157897949218750e+00,3.899973154067993164e+00,3.776179313659667969e+00,3.660003423690795898e+00,3.550762176513671875e+00,1.144295454025268555e+00,1.113759160041809082e+00,1.083244204521179199e+00,3.172053575515747070e+00,3.089670896530151367e+00,3.011459112167358398e+00,2.937109231948852539e+00,2.866342067718505859e+00,2.798905134201049805e+00,1.000619888305664062e+00,9.752553105354309082e-01,9.512333273887634277e-01,9.293598532676696777e-01,9.082842469215393066e-01,8.974395990371704102e-01,8.879358768463134766e-01,8.845701813697814941e-01,8.943721055984497070e-01,9.045484662055969238e-01,2.223470926284790039e+00,2.182676315307617188e+00,2.143351554870605469e+00,2.105418920516967773e+00,2.068805217742919922e+00,2.033443450927734375e+00,1.999270200729370117e+00,1.966226696968078613e+00,1.934257268905639648e+00,1.903311133384704590e+00,1.873339653015136719e+00,1.844297409057617188e+00
5.000000000000000000e+00,5.000000000000000000e+00,5.000000000000000000e+00,5.000000000000000000e+00,5.000000000000000000e+00,5.000000000000000000e+00,5.000000000000000000e+00,5.000000000000000000e+00,5.000000000000000000e+00,5.000000000000000000e+00,5.000000000000000000e+00,5.000000000000000000e+00,5.000000000000000000e+00,5.000000000000000000e+00,5.000000000000000000e+00,5.000000000000000000e+00,5.000000000000000000e+00,5.000000000000000000e+00,5.000000000000000000e+00,5.000000000000000000e+00,5.000000000000000000e+00,5.000000000000000000e+00,5.000000000000000000e+00,5.000000000000000000e+00,5.000000000000000000e+00,5.000000000000000000e+00,5.000000000000000000e+00,5.000000000000000000e+00,5.000000000000000000e+00,5.000000000000000000e+00,5.000000000000000000e+00,5.000000000000000000e+00,5.000000000000000000e+00,5.000000000000000000e+00,5.000000000000000000e+00,5.000000000000000000e+00,5.000000000000000000e+00,5.000000000000000000e+00,5.000000000000000000e+00,4.855054855346679688e+00,4.664684295654296875e+00,4.488679885864257812e+00,4.325473785400390625e+00,4.173719882965087891e+00,4.032253265380859375e+00,3.900062322616577148e+00,3.776263236999511719e+00,3.660082101821899414e+00,3.550836086273193359e+00,3.447922945022583008e+00,3.350806951522827148e+00,3.259012222290039062e+00,3.172112464904785156e+00,3.089726924896240234e+00,3.011512279510498047e+00,2.937160015106201172e+00,2.866390228271484375e+00,2.798951148986816406e+00,1.004370450973510742e+00,9.789753556251525879e-01,9.552083611488342285e-01,9.324648976325988770e-01,9.101565480232238770e-01,8.989566564559936523e-01,8.889627456665039062e-01,8.869431614875793457e-01,8.971565961837768555e-01,9.079230427742004395e-01,2.223500013351440430e+00,2.182704448699951172e+00,2.143378496170043945e+00,2.105444908142089844e+00,2.068830251693725586e+00,2.033467769622802734e+00,1.999293565750122070e+00,1.966249227523803711e+00,1.934279441833496094e+00,1.903332591056823730e+00,1.873360157012939453e+00,1.844317317008972168e+00
5.000000000000000000e+00,5.000000000000000000e+00,5.000000000000000000e+00,5.000000000000000000e+00,5.000000000000000000e+00,5.000000000000000000e+00,5.000000000000000000e+00,5.000000000000000000e+00,5.000000000000000000e+00,5.000000000000000000e+00,5.000000000000000000e+00,5.000000000000000000e+00,5.000000000000000000e+00,5.000000000000000000e+00,5.000000000000000000e+00,5.000000000000000000e+00,5.000000000000000000e+00,5.000000000000000000e+00,5.000000000000000000e+00,5.000000000000000000e+00,5.000000000000000000e+00,5.000000000000000000e+00,5.000000000000000000e+00,5.000000000000000000e+00,5.000000000000000000e+00,5.000000000000000000e+00,5.000000000000000000e+00,5.000000000000000000e+00,5.000000000000000000e+00,5.000000000000000000e+00,5.000000000000000000e+00,5.000000000000000000e+00,5.000000000000000000e+00,5.000000000000000000e+00,5.000000000000000000e+00,5.000000000000000000e+00,5.000000000000000000e+00,5.000000000000000000e+00,5.000000000000000000e+00,4.855192661285400391e+00,4.664811611175537109e+00,4.488797664642333984e+00,4.325583457946777344e+00,4.173821926116943359e+00,4.032348632812500000e+00,3.900151252746582031e+00,3.776346921920776367e+00,3.660160303115844727e+00,3.550910234451293945e+00,3.447992563247680664e+00,3.350872993469238281e+00,3.259074449539184570e+00,3.172171592712402344e+00,3.089782714843750000e+00,3.011565446853637695e+00,2.937210321426391602e+00,2.866438627243041992e+00,2.798996686935424805e+00,1.217426180839538574e+00,9.844791889190673828e-01,9.560505747795104980e-01,9.299699664115905762e-01,9.123734235763549805e-01,9.017369151115417480e-01,8.917568922042846680e-01,8.919135332107543945e-01,9.021757841110229492e-01,9.126770496368408203e-01,2.223529100418090820e+00,2.182732105255126953e+00,2.143405437469482422e+00,2.105470657348632812e+00,2.068855524063110352e+00,2.033491849899291992e+00,1.999317169189453125e+00,1.966271877288818359e+00,1.934301257133483887e+00,1.903353691101074219e+00,1.873380780220031738e+00,1.844337105751037598e+00
5.000000000000000000e+00,5.000000000000000000e+00,5.000000000000000000e+00,5.000000000000000000e+00,5.000000000000000000e+00,5.000000000000000000e+00,5.000000000000000000e+00,5.000000000000000000e+00,5.000000000000000000e+00,5.000000000000000000e+00,5.000000000000000000e+00,5.000000000000000000e+00,5.000000000000000000e+00,5.000000000000000000e+00,5.000000000000000000e+00,5.000000000000000000e+00,5.000000000000000000e+00,5.000000000000000000e+00,5.000000000000000000e+00,5.000000000000000000e+00,5.000000000000000000e+00,5.000000000000000000e+00,5.000000000000000000e+00,5.000000000000000000e+00,5.000000000000000000e+00,5.000000000000000000e+00,5.000000000000000000e+00,5.000000000000000000e+00,5.000000000000000000e+00,5.000000000000000000e+00,5.000000000000000000e+00,5.000000000000000000e+00,5.000000000000000000e+00,5.000000000000000000e+00,5.000000000000000000e+00,5.000000000000000000e+00,5.000000000000000000e+00,5.000000000000000000e+00,5.000000000000000000e+00,4.855330944061279297e+00,4.664939403533935547e+00,4.488915920257568359e+00,4.325693130493164062e+00,4.173923969268798828e+00,4.032443523406982422e+00,3.900240421295166016e+00,3.776430130004882812e+00,3.660238981246948242e+00,3.550983905792236328e+00,3.448062181472778320e+00,3.350938558578491211e+00,3.259136676788330078e+00,3.172230482101440430e+00,3.089838743209838867e+00,3.011618375778198242e+00,2.937261104583740234e+00,2.866486549377441406e+00,2.799042701721191406e+00,1.218227267265319824e+00,9.824265837669372559e-01,9.513131976127624512e-01,9.309843778610229492e-01,9.173166155815124512e-01,9.078452587127685547e-01,8.977302908897399902e-01,9.022330045700073242e-01,9.127355217933654785e-01,2.265909910202026367e+00,2.223557949066162109e+00,2.182760238647460938e+00,2.143432378768920898e+00,2.105496883392333984e+00,2.068880319595336914e+00,2.033516168594360352e+00,1.999340415000915527e+00,1.966294646263122559e+00,1.934323072433471680e+00,1.903374910354614258e+00,1.873401284217834473e+00,1.844357252120971680e+00
5.000000000000000000e+00,5.000000000000000000e+00,5.000000000000000000e+00,5.000000000000000000e+00,5.000000000000000000e+00,5.000000000000000000e+00,5.000000000000000000e+00,5.000000000000000000e+00,5.000000000000000000e+00,5.000000000000000000e+00,5.000000000000000000e+00,5.000000000000000000e+00,5.000000000000000000e+00,5.000000000000000000e+00,5.000000000000000000e+00,5.000000000000000000e+00,5.000000000000000000e+00,5.000000000000000000e+00,5.000000000000000000e+00,5.000000000000000000e+00,5.000000000000000000e+00,5.000000000000000000e+00,5.000000000000000000e+00,5.000000000000000000e+00,5.000000000000000000e+00,5.000000000000000000e+00,5.000000000000000000e+00,5.000000000000000000e+00,5.000000000000000000e+00,5.000000000000000000e+00,5.000000000000000000e+00,5.000000000000000000e+00,5.000000000000000000e+00,5.000000000000000000e+00,5.000000000000000000e+00,5.000000000000000000e+00,5.000000000000000000e+00,5.000000000000000000e+00,5.000000000000000000e+00,4.855468750000000000e+00,4.665066719055175781e+00,4.489033699035644531e+00,4.325802803039550781e+00,4.174026012420654297e+00,4.032538890838623047e+00,3.900329351425170898e+00,3.776513814926147461e+00,3.660317182540893555e+00,3.551057815551757812e+00,3.448131799697875977e+00,3.351004362106323242e+00,3.259198665618896484e+00,3.172289371490478516e+00,3.089894533157348633e+00,3.011671781539916992e+00,2.937311410903930664e+00,2.866534709930419922e+00,2.799088478088378906e+00,1.225253939628601074e+00,9.774878621101379395e-01,9.502222537994384766e-01,9.323804974555969238e-01,9.228990674018859863e-01,9.140368700027465820e-01,9.037842154502868652e-01,9.127941131591796875e-01,9.253036975860595703e-01,2.265939950942993164e+00,2.223587036132812500e+00,2.182788133621215820e+00,2.143459320068359375e+00,2.105522632598876953e+00,2.068905591964721680e+00,2.033540487289428711e+00,1.999363780021667480e+00,1.966317296028137207e+00,1.934345245361328125e+00,1.903396010398864746e+00,1.873421788215637207e+00,1.844377040863037109e+00
5.000000000000000000e+00,5.000000000000000000e+00,5.000000000000000000e+00,5.000000000000000000e+00,5.000000000000000000e+00,5.000000000000000000e+00,5.000000000000000000e+00,5.000000000000000000e+00,5.000000000000000000e+00,5.000000000000000000e+00,5.000000000000000000e+00,5.000000000000000000e+00,5.000000000000000000e+00,5.000000000000000000e+00,5.000000000000000000e+00,5.000000000000000000e+00,5.000000000000000000e+00,5.000000000000000000e+00,5.000000000000000000e+00,5.000000000000000000e+00,5.000000000000000000e+00,5.000000000000000000e+00,5.000000000000000000e+00,5.000000000000000000e+00,5.000000000000000000e+00,5.000000000000000000e+00,5.000000000000000000e+00,5.000000000000000000e+00,5.000000000000000000e+00,5.000000000000000000e+00,5.000000000000000000e+00,5.000000000000000000e+00,5.000000000000000000e+00,5.000000000000000000e+00,5.000000000000000000e+00,5.000000000000000000e+00,5.000000000000000000e+00,5.000000000000000000e+00,5.000000000000000000e+00,4.855607032775878906e+00,4.665194034576416016e+00,4.489151954650878906e+00,4.325912475585937500e+00,4.174128055572509766e+00,4.032634258270263672e+00,3.900418758392333984e+00,3.776597261428833008e+00,3.660395860671997070e+00,3.551131486892700195e+00,3.448201417922973633e+00,3.351069927215576172e+00,3.259261131286621094e+00,3.172348260879516602e+00,3.089950561523437500e+00,3.011724710464477539e+00,2.937362194061279297e+00,2.866582870483398438e+00,2.799134492874145508e+00,1.011596560478210449e+00,9.723646640777587891e-01,9.501822590827941895e-01,9.357811808586120605e-01,9.285497665405273438e-01,9.203135371208190918e-01,9.128526449203491211e-01,9.236053824424743652e-01,2.309969186782836914e+00,2.265970230102539062e+00,2.223615884780883789e+00,2.182816028594970703e+00,2.143486261367797852e+00,2.105548620223999023e+00,2.068930625915527344e+00,2.033564567565917969e+00,1.999387145042419434e+00,1.966339826583862305e+00,1.934367060661315918e+00,1.903417468070983887e+00,1.873442292213439941e+00,1.844396948814392090e+00
5.000000000000000000e+00,5.000000000000000000e+00,5.000000000000000000e+00,5.000000000000000000e+00,5.000000000000000000e+00,5.000000000000000000e+00,5.000000000000000000e+00,5.000000000000000000e+00,5.000000000000000000e+00,5.000000000000000000e+00,5.000000000000000000e+00,5.000000000000000000e+00,5.000000000000000000e+00,5.000000000000000000e+00,5.000000000000000000e+00,5.000000000000000000e+00,5.000000000000000000e+00,5.000000000000000000e+00,5.000000000000000000e+00,5.000000000000000000e+00,5.000000000000000000e+00,5.000000000000000000e+00,5.000000000000000000e+00,5.000000000000000000e+00,5.000000000000000000e+00,5.000000000000000000e+00,5.000000000000000000e+00,5.000000000000000000e+00,5.000000000000000000e+00,5.000000000000000000e+00,5.000000000000000000e+00,5.000000000000000000e+00,5.000000000000000000e+00,5.000000000000000000e+00,5.000000000000000000e+00,5.000000000000000000e+00,5.000000000000000000e+00,5.000000000000000000e+00,5.000000000000000000e+00,4.855745315551757812e+00,4.665321350097656250e+00,4.489269733428955078e+00,4.326021671295166016e+00,4.174230098724365234e+00,4.032729148864746094e+00,3.900507450103759766e+00,3.776680946350097656e+00,3.660474061965942383e+00,3.551205635070800781e+00,3.448271036148071289e+00,3.351135969161987305e+00,3.259323120117187500e+00,3.172407388687133789e+00,3.090006351470947266e+00,3.011777877807617188e+00,2.937412500381469727e+00,2.866631031036376953e+00,2.799180269241333008e+00,9.997273683547973633e-01,9.702302813529968262e-01,9.534900784492492676e-01,9.399018287658691406e-01,9.342702627182006836e-01,9.266769886016845703e-01,9.236652851104736328e-01,9.407180547714233398e-01,2.310000419616699219e+00,2.266000032424926758e+00,2.223644971847534180e+00,2.182843923568725586e+00,2.143513202667236328e+00,2.105574607849121094e+00,2.068955659866333008e+00,2.033588886260986328e+00,1.999410748481750488e+00,1.966362357139587402e+00,1.934388875961303711e+00,1.903438568115234375e+00,1.873463034629821777e+00,1.844416856765747070e+00
5.000000000000000000e+00,5.000000000000000000e+00,5.000000000000000000e+00,5.000000000000000000e+00,5.000000000000000000e+00,5.000000000000000000e+00,5.000000000000000000e+00,5.000000000000000000e+00,5.000000000000000000e+00,5.000000000000000000e+00,5.000000000000000000e+00,5.000000000000000000e+00,5.000000000000000000e+00,5.000000000000000000e+00,5.000000000000000000e+00,5.000000000000000000e+00,5.000000000000000000e+00,5.000000000000000000e+00,5.000000000000000000e+00,5.000000000000000000e+00,5.000000000000000000e+00,5.000000000000000000e+00,5.000000000000000000e+00,5.000000000000000000e+00,5.000000000000000000e+00,5.000000000000000000e+00,5.000000000000000000e+00,5.000000000000000000e+00,5.000000000000000000e+00,5.000000000000000000e+00,5.000000000000000000e+00,5.000000000000000000e+00,5.000000000000000000e+00,5.000000000000000000e+00,5.000000000000000000e+00,5.000000000000000000e+00,5.000000000000000000e+00,5.000000000000000000e+00,5.000000000000000000e+00,4.855883121490478516e+00,4.665449142456054688e+00,4.489387989044189453e+00,4.326131343841552734e+00,4.174332141876220703e+00,4.032824516296386719e+00,3.900596857070922852e+00,3.776764154434204102e+00,3.660552740097045898e+00,3.551279306411743164e+00,3.448340892791748047e+00,3.351201534271240234e+00,3.259385585784912109e+00,3.172466039657592773e+00,3.090062379837036133e+00,3.011831045150756836e+00,2.937463045120239258e+00,2.866678953170776367e+00,2.799226284027099609e+00,9.943690299987792969e-01,9.718821048736572266e-01,9.570467472076416016e-01,9.457633495330810547e-01,9.400615096092224121e-01,9.331290721893310547e-01,9.347371459007263184e-01,9.667063951492309570e-01,2.310031652450561523e+00,2.266030311584472656e+00,2.223673820495605469e+00,2.182871818542480469e+00,2.143539905548095703e+00,2.105600595474243164e+00,2.068980693817138672e+00,2.033612966537475586e+00,1.999434113502502441e+00,1.966385245323181152e+00,1.934410810470581055e+00,1.903459787368774414e+00,1.873483538627624512e+00,1.844436883926391602e+00
5.000000000000000000e+00,5.000000000000000000e+00,5.000000000000000000e+00,5.000000000000000000e+00,5.000000000000000000e+00,5.000000000000000000e+00,5.000000000000000000e+00,5.000000000000000000e+00,5.000000000000000000e+00,5.000000000000000000e+00,5.000000000000000000e+00,5.000000000000000000e+00,5.000000000000000000e+00,5.000000000000000000e+00,5.000000000000000000e+00,5.000000000000000000e+00,5.000000000000000000e+00,5.000000000000000000e+00,5.000000000000000000e+00,5.000000000000000000e+00,5.000000000000000000e+00,5.000000000000000000e+00,5.000000000000000000e+00,5.000000000000000000e+00,5.000000000000000000e+00,5.000000000000000000e+00,5.000000000000000000e+00,5.000000000000000000e+00,5.000000000000000000e+00,5.000000000000000000e+00,5.000000000000000000e+00,5.000000000000000000e+00,5.000000000000000000e+00,5.000000000000000000e+00,5.000000000000000000e+00,5.000000000000000000e+00,5.000000000000000000e+00,5.000000000000000000e+00,5.000000000000000000e+00,4.856021404266357422e+00,4.665576457977294922e+00,4.489505767822265625e+00,4.326241016387939453e+00,4.174434185028076172e+00,4.032919883728027344e+00,3.900685787200927734e+00,3.776848077774047852e+00,3.660631179809570312e+00,3.551353216171264648e+00,3.448410272598266602e+00,3.351267576217651367e+00,3.259447574615478516e+00,3.172525167465209961e+00,3.090118169784545898e+00,3.011884212493896484e+00,2.937513589859008789e+00,2.866727352142333984e+00,2.799272060394287109e+00,9.910989403724670410e-01,9.755775332450866699e-01,9.606301784515380859e-01,9.516985416412353516e-01,9.459251761436462402e-01,9.396715760231018066e-01,9.566547274589538574e-01,2.355808258056640625e+00,2.310062885284423828e+00,2.266060352325439453e+00,2.223702907562255859e+00,2.182899713516235352e+00,2.143566846847534180e+00,2.105626583099365234e+00,2.069005727767944336e+00,2.033637285232543945e+00,1.999457478523254395e+00,1.966407775878906250e+00,1.934432864189147949e+00,1.903480887413024902e+00,1.873504042625427246e+00,1.844456791877746582e+00
5.000000000000000000e+00,5.000000000000000000e+00,5.000000000000000000e+00,5.000000000000000000e+00,5.000000000000000000e+00,5.000000000000000000e+00,5.000000000000000000e+00,5.000000000000000000e+00,5.000000000000000000e+00,5.000000000000000000e+00,5.000000000000000000e+00,5.000000000000000000e+00,5.000000000000000000e+00,5.000000000000000000e+00,5.000000000000000000e+00,5.000000000000000000e+00,5.000000000000000000e+00,5.000000000000000000e+00,5.000000000000000000e+00,5.000000000000000000e+00,5.000000000000000000e+00,5.000000000000000000e+00,5.000000000000000000e+00,5.000000000000000000e+00,5.000000000000000000e+00,5.000000000000000000e+00,5.000000000000000000e+00,5.000000000000000000e+00,5.000000000000000000e+00,5.000000000000000000e+00,5.000000000000000000e+00,5.000000000000000000e+00,5.000000000000000000e+00,5.000000000000000000e+00,5.000000000000000000e+00,5.000000000000000000e+00,5.000000000000000000e+00,5.000000000000000000e+00,5.000000000000000000e+00,4.856159210205078125e+00,4.665703773498535156e+00,4.489624023437500000e+00,4.326350688934326172e+00,4.174536228179931641e+00,4.033015251159667969e+00,3.900775194168090820e+00,3.776931285858154297e+00,3.660709857940673828e+00,3.551426887512207031e+00,3.448480129241943359e+00,3.351333141326904297e+00,3.259510040283203125e+00,3.172584056854248047e+00,3.090174198150634766e+00,3.011937141418457031e+00,2.937564134597778320e+00,2.866775274276733398e+00,1.047662496566772461e+00,9.948107004165649414e-01,9.792672991752624512e-01,9.642022252082824707e-01,9.571965932846069336e-01,9.514564275741577148e-01,9.457846879959106445e-01,9.737635850906372070e-01,2.355840921401977539e+00,2.310094118118286133e+00,2.266090393066406250e+00,2.223731756210327148e+00,2.182927608489990234e+00,2.143593788146972656e+00,2.105652570724487305e+00,2.069030761718750000e+00,2.033661603927612305e+00,1.999480843544006348e+00,1.966430425643920898e+00,1.934454679489135742e+00,1.903502345085144043e+00,1.873524546623229980e+00,1.844476699829101562e+00
5.000000000000000000e+00,5.000000000000000000e+00,5.000000000000000000e+00,5.000000000000000000e+00,5.000000000000000000e+00,5.000000000000000000e+00,5.000000000000000000e+00,5.000000000000000000e+00,5.000000000000000000e+00,5.000000000000000000e+00,5.000000000000000000e+00,5.000000000000000000e+00,5.000000000000000000e+00,5.000000000000000000e+00,5.000000000000000000e+00,5.000000000000000000e+00,5.000000000000000000e+00,5.000000000000000000e+00,5.000000000000000000e+00,5.000000000000000000e+00,5.000000000000000000e+00,5.000000000000000000e+00,5.000000000000000000e+00,5.000000000000000000e+00,5.000000000000000000e+00,5.000000000000000000e+00,5.000000000000000000e+00,5.000000000000000000e+00,5.000000000000000000e+00,5.000000000000000000e+00,5.000000000000000000e+00,5.000000000000000000e+00,5.000000000000000000e+00,5.000000000000000000e+00,5.000000000000000000e+00,5.000000000000000000e+00,5.000000000000000000e+00,5.000000000000000000e+00,5.000000000000000000e+00,4.856297492980957031e+00,4.665831565856933594e+00,4.489741802215576172e+00,4.326460361480712891e+00,4.174638271331787109e+00,4.033110141754150391e+00,3.900863885879516602e+00,3.777015209197998047e+00,3.660788059234619141e+00,3.551501035690307617e+00,3.448549509048461914e+00,3.351398944854736328e+00,3.259572029113769531e+00,3.172643184661865234e+00,3.090229988098144531e+00,3.011990547180175781e+00,2.937614679336547852e+00,2.866823434829711914e+00,1.048360943794250488e+00,9.984568357467651367e-01,9.828001856803894043e-01,9.677459001541137695e-01,9.599738121032714844e-01,9.542003870010375977e-01,9.520995020866394043e-01,9.810262322425842285e-01,2.355873346328735352e+00,2.310125589370727539e+00,2.266120433807373047e+00,2.223760604858398438e+00,2.182955503463745117e+00,2.143620729446411133e+00,2.105678558349609375e+00,2.069056034088134766e+00,2.033685684204101562e+00,1.999504446983337402e+00,1.966452956199645996e+00,1.934476613998413086e+00,1.903523445129394531e+00,1.873545289039611816e+00,1.844496488571166992e+00
5.000000000000000000e+00,5.000000000000000000e+00,5.000000000000000000e+00,5.000000000000000000e+00,5.000000000000000000e+00,5.000000000000000000e+00,5.000000000000000000e+00,5.000000000000000000e+00,5.000000000000000000e+00,5.000000000000000000e+00,5.000000000000000000e+00,5.000000000000000000e+00,5.000000000000000000e+00,5.000000000000000000e+00,5.000000000000000000e+00,5.000000000000000000e+00,5.000000000000000000e+00,5.000000000000000000e+00,5.000000000000000000e+00,5.000000000000000000e+00,5.000000000000000000e+00,5.000000000000000000e+00,5.000000000000000000e+00,5.000000000000000000e+00,5.000000000000000000e+00,5.000000000000000000e+00,5.000000000000000000e+00,5.000000000000000000e+00,5.000000000000000000e+00,5.000000000000000000e+00,5.000000000000000000e+00,5.000000000000000000e+00,5.000000000000000000e+00,5.000000000000000000e+00,5.000000000000000000e+00,5.000000000000000000e+00,5.000000000000000000e+00,5.000000000000000000e+00,5.000000000000000000e+00,4.856435775756835938e+00,4.665958881378173828e+00,4.489860057830810547e+00,4.326570034027099609e+00,4.174740314483642578e+00,4.033205509185791016e+00,3.900953292846679688e+00,3.777098417282104492e+00,3.660866737365722656e+00,3.551574707031250000e+00,3.448619365692138672e+00,3.351464748382568359e+00,3.259634494781494141e+00,3.172701835632324219e+00,3.090286016464233398e+00,3.012043476104736328e+00,2.937665224075317383e+00,1.286279201507568359e+00,1.049060463905334473e+00,1.002129793167114258e+00,9.863587617874145508e-01,9.713363051414489746e-01,9.627671241760253906e-01,9.569600820541381836e-01,9.590414762496948242e-01,9.872077107429504395e-01,2.355906009674072266e+00,2.310156583786010742e+00,2.266150474548339844e+00,2.223789691925048828e+00,2.182983398437500000e+00,2.143647670745849609e+00,2.105704545974731445e+00,2.069081068038940430e+00,2.033710002899169922e+00,1.999527812004089355e+00,1.966475844383239746e+00,1.934498429298400879e+00,1.903544664382934570e+00,1.873565793037414551e+00,1.844516634941101074e+00
5.000000000000000000e+00,5.000000000000000000e+00,5.000000000000000000e+00,5.000000000000000000e+00,5.000000000000000000e+00,5.000000000000000000e+00,5.000000000000000000e+00,5.000000000000000000e+00,5.000000000000000000e+00,5.000000000000000000e+00,5.000000000000000000e+00,5.000000000000000000e+00,5.000000000000000000e+00,5.000000000000000000e+00,5.000000000000000000e+00,5.000000000000000000e+00,5.000000000000000000e+00,5.000000000000000000e+00,5.000000000000000000e+00,5.000000000000000000e+00,5.000000000000000000e+00,5.000000000000000000e+00,5.000000000000000000e+00,5.000000000000000000e+00,5.000000000000000000e+00,5.000000000000000000e+00,5.000000000000000000e+00,5.000000000000000000e+00,5.000000000000000000e+00,5.000000000000000000e+00,5.000000000000000000e+00,5.000000000000000000e+00,5.000000000000000000e+00,5.000000000000000000e+00,5.000000000000000000e+00,5.000000000000000000e+00,5.000000000000000000e+00,5.000000000000000000e+00,5.000000000000000000e+00,4.856573581695556641e+00,4.666086673736572266e+00,4.489978313446044922e+00,4.326679706573486328e+00,4.174842357635498047e+00,4.033300876617431641e+00,3.901042222976684570e+00,3.777182102203369141e+00,3.660944938659667969e+00,3.551648855209350586e+00,3.448688745498657227e+00,3.351530551910400391e+00,3.259696483612060547e+00,3.172760963439941406e+00,3.090341806411743164e+00,3.012096643447875977e+00,2.937715768814086914e+00,1.272033929824829102e+00,1.049760818481445312e+00,1.005829811096191406e+00,9.899604320526123047e-01,9.749535918235778809e-01,9.655767083168029785e-01,9.597359299659729004e-01,9.660853743553161621e-01,9.932906627655029297e-01,2.355938434600830078e+00,2.310188055038452148e+00,2.266180515289306641e+00,2.223818540573120117e+00,2.183011293411254883e+00,2.143674612045288086e+00,2.105730295181274414e+00,2.069106101989746094e+00,2.033734083175659180e+00,1.999551057815551758e+00,1.966498374938964844e+00,1.934520483016967773e+00,1.903565764427185059e+00,1.873586297035217285e+00,1.844536423683166504e+00
5.000000000000000000e+00,5.000000000000000000e+00,5.000000000000000000e+00,5.000000000000000000e+00,5.000000000000000000e+00,5.000000000000000000e+00,5.000000000000000000e+00,5.000000000000000000e+00,5.000000000000000000e+00,5.000000000000000000e+00,5.000000000000000000e+00,5.000000000000000000e+00,5.000000000000000000e+00,5.000000000000000000e+00,5.000000000000000000e+00,5.000000000000000000e+00,5.000000000000000000e+00,5.000000000000000000e+00,5.000000000000000000e+00,5.000000000000000000e+00,5.000000000000000000e+00,5.000000000000000000e+00,5.000000000000000000e+00,5.000000000000000000e+00,5.000000000000000000e+00,5.000000000000000000e+00,5.000000000000000000e+00,5.000000000000000000e+00,5.000000000000000000e+00,5.000000000000000000e+00,5.000000000000000000e+00,5.000000000000000000e+00,5.000000000000000000e+00,5.000000000000000000e+00,5.000000000000000000e+00,5.000000000000000000e+00,5.000000000000000000e+00,5.000000000000000000e+00,5.000000000000000000e+00,4.856711864471435547e+00,4.666213989257812500e+00,4.490096092224121094e+00,4.326789379119873047e+00,4.174944400787353516e+00,4.033396244049072266e+00,3.901131629943847656e+00,3.777265548706054688e+00,3.661023616790771484e+00,3.551722526550292969e+00,3.448758602142333984e+00,3.351596117019653320e+00,3.259758949279785156e+00,3.172819852828979492e+00,3.090398073196411133e+00,3.012149810791015625e+00,2.937766313552856445e+00,1.272622466087341309e+00,1.050462126731872559e+00,1.009557366371154785e+00,9.937179088592529297e-01,9.785978198051452637e-01,9.687876105308532715e-01,9.625278115272521973e-01,9.732334613800048828e-01,2.403571128845214844e+00,2.355970859527587891e+00,2.310219287872314453e+00,2.266210794448852539e+00,2.223847627639770508e+00,2.183039188385009766e+00,2.143701553344726562e+00,2.105756521224975586e+00,2.069131135940551758e+00,2.033758401870727539e+00,1.999574422836303711e+00,1.966521024703979492e+00,1.934542417526245117e+00,1.903587222099304199e+00,1.873606801033020020e+00,1.844556331634521484e+00
5.000000000000000000e+00,5.000000000000000000e+00,5.000000000000000000e+00,5.000000000000000000e+00,5.000000000000000000e+00,5.000000000000000000e+00,5.000000000000000000e+00,5.000000000000000000e+00,5.000000000000000000e+00,5.000000000000000000e+00,5.000000000000000000e+00,5.000000000000000000e+00,5.000000000000000000e+00,5.000000000000000000e+00,5.000000000000000000e+00,5.000000000000000000e+00,5.000000000000000000e+00,5.000000000000000000e+00,5.000000000000000000e+00,5.000000000000000000e+00,5.000000000000000000e+00,5.000000000000000000e+00,5.000000000000000000e+00,5.000000000000000000e+00,5.000000000000000000e+00,5.000000000000000000e+00,5.000000000000000000e+00,5.000000000000000000e+00,5.000000000000000000e+00,5.000000000000000000e+00,5.000000000000000000e+00,5.000000000000000000e+00,5.000000000000000000e+00,5.000000000000000000e+00,5.000000000000000000e+00,5.000000000000000000e+00,5.000000000000000000e+00,5.000000000000000000e+00,5.000000000000000000e+00,4.856850147247314453e+00,4.666341781616210938e+00,4.490214347839355469e+00,4.326899051666259766e+00,4.175046920776367188e+00,4.033491611480712891e+00,3.901220798492431641e+00,3.777349233627319336e+00,3.661102294921875000e+00,3.551796436309814453e+00,3.448828458786010742e+00,3.351662158966064453e+00,3.259821176528930664e+00,3.172878980636596680e+00,3.090454101562500000e+00,3.012202978134155273e+00,1.320568323135375977e+00,1.273211717605590820e+00,1.051164388656616211e+00,1.013312578201293945e+00,9.975040555000305176e-01,9.822694063186645508e-01,9.722912311553955078e-01,9.653361439704895020e-01,9.798831343650817871e-01,2.403604984283447266e+00,2.356003522872924805e+00,2.310250520706176758e+00,2.266240835189819336e+00,2.223876476287841797e+00,2.183067321777343750e+00,2.143728494644165039e+00,2.105782508850097656e+00,2.069156169891357422e+00,2.033782720565795898e+00,1.999598026275634766e+00,1.966543793678283691e+00,1.934564232826232910e+00,1.903608322143554688e+00,1.873627543449401855e+00,1.844576478004455566e+00
5.000000000000000000e+00,5.000000000000000000e+00,5.000000000000000000e+00,5.000000000000000000e+00,5.000000000000000000e+00,5.000000000000000000e+00,5.000000000000000000e+00,5.000000000000000000e+00,5.000000000000000000e+00,5.000000000000000000e+00,5.000000000000000000e+00,5.000000000000000000e+00,5.000000000000000000e+00,5.000000000000000000e+00,5.000000000000000000e+00,5.000000000000000000e+00,5.000000000000000000e+00,5.000000000000000000e+00,5.000000000000000000e+00,5.000000000000000000e+00,5.000000000000000000e+00,5.000000000000000000e+00,5.000000000000000000e+00,5.000000000000000000e+00,5.000000000000000000e+00,5.000000000000000000e+00,5.000000000000000000e+00,5.000000000000000000e+00,5.000000000000000000e+00,5.000000000000000000e+00,5.000000000000000000e+00,5.000000000000000000e+00,5.000000000000000000e+00,5.000000000000000000e+00,5.000000000000000000e+00,5.000000000000000000e+00,5.000000000000000000e+00,5.000000000000000000e+00,5.000000000000000000e+00,4.856988430023193359e+00,4.666469097137451172e+00,4.490332603454589844e+00,4.327008724212646484e+00,4.175148963928222656e+00,4.033586978912353516e+00,3.901309728622436523e+00,3.777433156967163086e+00,3.661180734634399414e+00,3.551870584487915039e+00,3.448898077011108398e+00,3.351728200912475586e+00,3.259883403778076172e+00,3.172938108444213867e+00,3.090509891510009766e+00,3.012256145477294922e+00,1.309814572334289551e+00,1.273801445960998535e+00,1.051867604255676270e+00,1.017155289649963379e+00,1.001319050788879395e+00,9.859685897827148438e-01,9.758203029632568359e-01,9.681608080863952637e-01,9.858759641647338867e-01,2.403638839721679688e+00,2.356035947799682617e+00,2.310281753540039062e+00,2.266270875930786133e+00,2.223905563354492188e+00,2.183094978332519531e+00,2.143755435943603516e+00,2.105808496475219727e+00,2.069181442260742188e+00,2.033806800842285156e+00,1.999621391296386719e+00,1.966566443443298340e+00,1.934586286544799805e+00,1.903629541397094727e+00,1.873648047447204590e+00,1.844596266746520996e+00
5.000000000000000000e+00,5.000000000000000000e+00,5.000000000000000000e+00,5.000000000000000000e+00,5.000000000000000000e+00,5.000000000000000000e+00,5.000000000000000000e+00,5.000000000000000000e+00,5.000000000000000000e+00,5.000000000000000000e+00,5.000000000000000000e+00,5.000000000000000000e+00,5.000000000000000000e+00,5.000000000000000000e+00,5.000000000000000000e+00,5.000000000000000000e+00,5.000000000000000000e+00,5.000000000000000000e+00,5.000000000000000000e+00,5.000000000000000000e+00,5.000000000000000000e+00,5.000000000000000000e+00,5.000000000000000000e+00,5.000000000000000000e+00,5.000000000000000000e+00,5.000000000000000000e+00,5.000000000000000000e+00,5.000000000000000000e+00,5.000000000000000000e+00,5.000000000000000000e+00,5.000000000000000000e+00,5.000000000000000000e+00,5.000000000000000000e+00,5.000000000000000000e+00,5.000000000000000000e+00,5.000000000000000000e+00,5.000000000000000000e+00,5.000000000000000000e+00,5.000000000000000000e+00,4.857127189636230469e+00,4.666596889495849609e+00,4.490450859069824219e+00,4.327118396759033203e+00,4.175251007080078125e+00,4.033682346343994141e+00,3.901399135589599609e+00,3.777516365051269531e+00,3.661259412765502930e+00,3.551944255828857422e+00,3.448967695236206055e+00,3.351793766021728516e+00,3.259945631027221680e+00,3.172996759414672852e+00,3.090565919876098633e+00,3.012309312820434570e+00,1.299263358116149902e+00,1.275081753730773926e+00,1.052571773529052734e+00,1.021122455596923828e+00,1.005163431167602539e+00,9.896957874298095703e-01,9.793750643730163574e-01,9.710020422935485840e-01,9.919425249099731445e-01,2.403672695159912109e+00,2.356068611145019531e+00,2.310312986373901367e+00,2.266300916671752930e+00,2.223934412002563477e+00,2.183123111724853516e+00,2.143782138824462891e+00,2.105834484100341797e+00,2.069206476211547852e+00,2.033831119537353516e+00,1.999644756317138672e+00,1.966588973999023438e+00,1.934608221054077148e+00,1.903650879859924316e+00,1.873668551445007324e+00,1.844616174697875977e+00
5.000000000000000000e+00,5.000000000000000000e+00,5.000000000000000000e+00,5.000000000000000000e+00,5.000000000000000000e+00,5.000000000000000000e+00,5.000000000000000000e+00,5.000000000000000000e+00,5.000000000000000000e+00,5.000000000000000000e+00,5.000000000000000000e+00,5.000000000000000000e+00,5.000000000000000000e+00,5.000000000000000000e+00,5.000000000000000000e+00,5.000000000000000000e+00,5.000000000000000000e+00,5.000000000000000000e+00,5.000000000000000000e+00,5.000000000000000000e+00,5.000000000000000000e+00,5.000000000000000000e+00,5.000000000000000000e+00,5.000000000000000000e+00,5.000000000000000000e+00,5.000000000000000000e+00,5.000000000000000000e+00,5.000000000000000000e+00,5.000000000000000000e+00,5.000000000000000000e+00,5.000000000000000000e+00,5.000000000000000000e+00,5.000000000000000000e+00,5.000000000000000000e+00,5.000000000000000000e+00,5.000000000000000000e+00,5.000000000000000000e+00,5.000000000000000000e+00,5.000000000000000000e+00,4.857265472412109375e+00,4.666724681854248047e+00,4.490568637847900391e+00,4.327228069305419922e+00,4.175353050231933594e+00,4.033777236938476562e+00,3.901488065719604492e+00,3.777600288391113281e+00,3.661337614059448242e+00,3.552018404006958008e+00,3.449037313461303711e+00,3.351859807968139648e+00,3.260007858276367188e+00,3.173055887222290039e+00,3.090621709823608398e+00,3.012362480163574219e+00,1.296109437942504883e+00,1.276577591896057129e+00,1.056805729866027832e+00,1.025366544723510742e+00,1.009294629096984863e+00,9.937190413475036621e-01,9.839365482330322266e-01,9.748543500900268555e-01,9.992527365684509277e-01,2.403706550598144531e+00,2.356101036071777344e+00,2.310344457626342773e+00,2.266330957412719727e+00,2.223963499069213867e+00,2.183150768280029297e+00,2.143809318542480469e+00,2.105860233306884766e+00,2.069231510162353516e+00,2.033855199813842773e+00,1.999668359756469727e+00,1.966611623764038086e+00,1.934630036354064941e+00,1.903672099113464355e+00,1.873689293861389160e+00,1.844636082649230957e+00
5.000000000000000000e+00,5.000000000000000000e+00,5.000000000000000000e+00,5.000000000000000000e+00,5.000000000000000000e+00,5.000000000000000000e+00,5.000000000000000000e+00,5.000000000000000000e+00,5.000000000000000000e+00,5.000000000000000000e+00,5.000000000000000000e+00,5.000000000000000000e+00,5.000000000000000000e+00,5.000000000000000000e+00,5.000000000000000000e+00,5.000000000000000000e+00,5.000000000000000000e+00,5.000000000000000000e+00,5.000000000000000000e+00,5.000000000000000000e+00,5.000000000000000000e+00,5.000000000000000000e+00,5.000000000000000000e+00,5.000000000000000000e+00,5.000000000000000000e+00,5.000000000000000000e+00,5.000000000000000000e+00,5.000000000000000000e+00,5.000000000000000000e+00,5.000000000000000000e+00,5.000000000000000000e+00,5.000000000000000000e+00,5.000000000000000000e+00,5.000000000000000000e+00,5.000000000000000000e+00,5.000000000000000000e+00,5.000000000000000000e+00,5.000000000000000000e+00,5.000000000000000000e+00,4.857404232025146484e+00,4.666851997375488281e+00,4.490686893463134766e+00,4.327337265014648438e+00,4.175455093383789062e+00,4.033872604370117188e+00,3.901577472686767578e+00,3.777683496475219727e+00,3.661416292190551758e+00,3.552092075347900391e+00,3.449107170104980469e+00,3.351925373077392578e+00,3.260070085525512695e+00,3.173114776611328125e+00,3.090677738189697266e+00,1.353770375251770020e+00,1.299199461936950684e+00,1.278723239898681641e+00,1.062125444412231445e+00,1.030054926872253418e+00,1.013836979866027832e+00,9.982534646987915039e-01,9.902998208999633789e-01,9.811004400253295898e-01,1.007023334503173828e+00,2.403740406036376953e+00,2.356133460998535156e+00,2.310375452041625977e+00,2.266361236572265625e+00,2.223992347717285156e+00,2.183178901672363281e+00,2.143836021423339844e+00,2.105886459350585938e+00,2.069256544113159180e+00,2.033879518508911133e+00,1.999691724777221680e+00,1.966634392738342285e+00,1.934651851654052734e+00,1.903693199157714844e+00,1.873709797859191895e+00,1.844656109809875488e+00
5.000000000000000000e+00,5.000000000000000000e+00,5.000000000000000000e+00,5.000000000000000000e+00,5.000000000000000000e+00,5.000000000000000000e+00,5.000000000000000000e+00,5.000000000000000000e+00,5.000000000000000000e+00,5.000000000000000000e+00,5.000000000000000000e+00,5.000000000000000000e+00,5.000000000000000000e+00,5.000000000000000000e+00,5.000000000000000000e+00,5.000000000000000000e+00,5.000000000000000000e+00,5.000000000000000000e+00,5.000000000000000000e+00,5.000000000000000000e+00,5.000000000000000000e+00,5.000000000000000000e+00,5.000000000000000000e+00,5.000000000000000000e+00,5.000000000000000000e+00,5.000000000000000000e+00,5.000000000000000000e+00,5.000000000000000000e+00,5.000000000000000000e+00,5.000000000000000000e+00,5.000000000000000000e+00,5.000000000000000000e+00,5.000000000000000000e+00,5.000000000000000000e+00,5.000000000000000000e+00,5.000000000000000000e+00,5.000000000000000000e+00,5.000000000000000000e+00,5.000000000000000000e+00,4.857542037963867188e+00,4.666980266571044922e+00,4.490805149078369141e+00,4.327447414398193359e+00,4.175557136535644531e+00,4.033967971801757812e+00,3.901666402816772461e+00,3.777767419815063477e+00,3.661494731903076172e+00,3.552165985107421875e+00,3.449176549911499023e+00,3.351991176605224609e+00,3.260132312774658203e+00,3.173173904418945312e+00,3.090733528137207031e+00,1.343213558197021484e+00,1.302482843399047852e+00,1.281800508499145508e+00,1.067499160766601562e+00,1.034786343574523926e+00,1.018420338630676270e+00,1.002846956253051758e+00,9.967459440231323242e-01,9.878076910972595215e-01,1.015791296958923340e+00,2.403774261474609375e+00,2.356165885925292969e+00,2.310406923294067383e+00,2.266391277313232422e+00,2.224021434783935547e+00,2.183206796646118164e+00,2.143862962722778320e+00,2.105912208557128906e+00,2.069281578063964844e+00,2.033903837203979492e+00,1.999715089797973633e+00,1.966657042503356934e+00,1.934674024581909180e+00,1.903714418411254883e+00,1.873730301856994629e+00,1.844676017761230469e+00
4.874155521392822266e+00,4.872958183288574219e+00,4.871761322021484375e+00,4.870565414428710938e+00,4.869369506835937500e+00,4.868174552917480469e+00,4.866980075836181641e+00,4.865786075592041016e+00,4.864593029022216797e+00,4.863400459289550781e+00,4.862208366394042969e+00,4.861016750335693359e+00,4.859826087951660156e+00,4.858635425567626953e+00,4.857445716857910156e+00,4.856256961822509766e+00,4.855068206787109375e+00,4.853880405426025391e+00,4.852693080902099609e+00,4.851505756378173828e+00,4.850319385528564453e+00,4.849133968353271484e+00,4.847949028015136719e+00,4.846764564514160156e+00,4.845580577850341797e+00,4.844397068023681641e+00,4.843214511871337891e+00,4.842031955718994141e+00,4.840850353240966797e+00,4.839669704437255859e+00,4.838489055633544922e+00,4.837308883666992188e+00,4.836129665374755859e+00,4.834950923919677734e+00,4.833772659301757812e+00,4.832594871520996094e+00,4.831418037414550781e+00,4.830241680145263672e+00,4.829065799713134766e+00,4.827890396118164062e+00,4.667108058929443359e+00,4.490923881530761719e+00,4.327557563781738281e+00,4.175659179687500000e+00,4.034063339233398438e+00,3.901755809783935547e+00,3.777850627899169922e+00,3.661573410034179688e+00,3.552239894866943359e+00,3.449246406555175781e+00,3.352056980133056641e+00,3.260194778442382812e+00,3.173232793807983398e+00,3.090789556503295898e+00,1.333128452301025391e+00,1.305782794952392578e+00,1.286432147026062012e+00,1.072927474975585938e+00,1.039561510086059570e+00,1.023133158683776855e+00,1.007483005523681641e+00,1.003276467323303223e+00,9.954006671905517578e-01,2.453381538391113281e+00,2.403808116912841797e+00,2.356198549270629883e+00,2.310438156127929688e+00,2.266421318054199219e+00,2.224050283432006836e+00,2.183234691619873047e+00,2.143889904022216797e+00,2.105938196182250977e+00,2.069306612014770508e+00,2.033927917480468750e+00,1.999738454818725586e+00,1.966679573059082031e+00,1.934695839881896973e+00,1.903735756874084473e+00,1.873750805854797363e+00,1.844695925712585449e+00
3.777186870574951172e+00,3.776467561721801758e+00,3.775748968124389648e+00,3.775030136108398438e+00,3.774312257766723633e+00,3.773593902587890625e+00,3.772876501083374023e+00,3.772158861160278320e+00,3.771441936492919922e+00,3.770724773406982422e+00,3.770007848739624023e+00,3.769291877746582031e+00,3.768575429916381836e+00,3.767859935760498047e+00,3.767144203186035156e+00,3.766429185867309570e+00,3.765713930130004883e+00,3.764999389648437500e+00,3.764284610748291016e+00,3.763570785522460938e+00,3.762856721878051758e+00,3.762143135070800781e+00,3.761429786682128906e+00,3.760716438293457031e+00,3.760003805160522461e+00,3.759290933609008789e+00,3.758579015731811523e+00,3.757866621017456055e+00,3.757155179977416992e+00,3.756443500518798828e+00,3.755732536315917969e+00,3.755021333694458008e+00,3.754310846328735352e+00,3.753600358963012695e+00,3.752889871597290039e+00,3.752180337905883789e+00,3.751470565795898438e+00,3.750761508941650391e+00,3.750052213668823242e+00,3.749343633651733398e+00,3.748634815216064453e+00,3.747926712036132812e+00,3.747218608856201172e+00,3.746510982513427734e+00,3.745803356170654297e+00,3.745096445083618164e+00,3.744389295578002930e+00,3.661651849746704102e+00,3.552313804626464844e+00,3.449316024780273438e+00,3.352122783660888672e+00,3.260256767272949219e+00,3.173291921615600586e+00,3.090845584869384766e+00,1.330568313598632812e+00,1.308914422988891602e+00,1.292924880981445312e+00,1.076781153678894043e+00,1.044380903244018555e+00,1.027959108352661133e+00,1.012162089347839355e+00,1.008523941040039062e+00,1.003111243247985840e+00,2.453416585922241211e+00,2.403841972351074219e+00,2.356230974197387695e+00,2.310469388961791992e+00,2.266451358795166016e+00,2.224079370498657227e+00,2.183262586593627930e+00,2.143916845321655273e+00,2.105964183807373047e+00,2.069331884384155273e+00,2.033952236175537109e+00,1.999762058258056641e+00,1.966702222824096680e+00,1.934717655181884766e+00,1.903756976127624512e+00,1.873771429061889648e+00,1.844715714454650879e+00
3.083271503448486328e+00,3.082792043685913086e+00,3.082313060760498047e+00,3.081834316253662109e+00,3.081355571746826172e+00,3.080877065658569336e+00,3.080398559570312500e+00,3.079920291900634766e+00,3.079442024230957031e+00,3.078964233398437500e+00,3.078486204147338867e+00,3.078008890151977539e+00,3.077531099319458008e+00,3.077053546905517578e+00,3.076576471328735352e+00,3.076099157333374023e+00,3.075622558593750000e+00,3.075145483016967773e+00,3.074669122695922852e+00,3.074192523956298828e+00,3.073716163635253906e+00,3.073239803314208984e+00,3.072763919830322266e+00,3.072288036346435547e+00,3.071812391281127930e+00,3.071336507797241211e+00,3.070860862731933594e+00,3.070385694503784180e+00,3.069910526275634766e+00,3.069435596466064453e+00,3.068960666656494141e+00,3.068485975265502930e+00,3.068011283874511719e+00,3.067537069320678711e+00,3.067062616348266602e+00,3.066588640213012695e+00,3.066114425659179688e+00,3.065640687942504883e+00,3.065166950225830078e+00,3.064693450927734375e+00,3.064220190048217773e+00,3.063746690750122070e+00,3.063273668289184570e+00,3.062800645828247070e+00,3.062327861785888672e+00,3.061855077743530273e+00,3.061382770538330078e+00,3.060910224914550781e+00,3.060437917709350586e+00,3.059965848922729492e+00,3.059493780136108398e+00,3.059022188186645508e+00,3.058550357818603516e+00,3.058079004287719727e+00,1.334004282951354980e+00,1.311991095542907715e+00,1.299483537673950195e+00,1.080649375915527344e+00,1.049284815788269043e+00,1.032830715179443359e+00,1.016884922981262207e+00,1.013284921646118164e+00,1.010942339897155762e+00,2.453451871871948242e+00,2.403875827789306641e+00,2.356263637542724609e+00,2.310500621795654297e+00,2.266481399536132812e+00,2.224108219146728516e+00,2.183290481567382812e+00,2.143943786621093750e+00,2.105990171432495117e+00,2.069356918334960938e+00,2.033976554870605469e+00,1.999785423278808594e+00,1.966724991798400879e+00,1.934739589691162109e+00,1.903778076171875000e+00,1.873791933059692383e+00,1.844735860824584961e+00
2.604747295379638672e+00,2.604405403137207031e+00,2.604063272476196289e+00,2.603721618652343750e+00,2.603379964828491211e+00,2.603038072586059570e+00,2.602696657180786133e+00,2.602355241775512695e+00,2.602013826370239258e+00,2.601672649383544922e+00,2.601331472396850586e+00,2.600990295410156250e+00,2.600649356842041016e+00,2.600308418273925781e+00,2.599967718124389648e+00,2.599627017974853516e+00,2.599286079406738281e+00,2.598945617675781250e+00,2.598605155944824219e+00,2.598264932632446289e+00,2.597924470901489258e+00,2.597584486007690430e+00,2.597244262695312500e+00,2.596904277801513672e+00,2.596564292907714844e+00,2.596224546432495117e+00,2.595884799957275391e+00,2.595545053482055664e+00,2.595205545425415039e+00,2.594865798950195312e+00,2.594526529312133789e+00,2.594187259674072266e+00,2.593848228454589844e+00,2.593508958816528320e+00,2.593169927597045898e+00,2.592830896377563477e+00,2.592492103576660156e+00,2.592153310775756836e+00,2.591814756393432617e+00,2.591475963592529297e+00,2.591137409210205078e+00,2.590799093246459961e+00,2.590460777282714844e+00,2.590122461318969727e+00,2.589784383773803711e+00,2.589446306228637695e+00,2.589108228683471680e+00,2.588770389556884766e+00,2.588432550430297852e+00,2.588094949722290039e+00,2.587757349014282227e+00,2.587419748306274414e+00,2.587082386016845703e+00,2.586744785308837891e+00,1.337200164794921875e+00,1.315082311630249023e+00,1.306182622909545898e+00,1.084545731544494629e+00,1.054361224174499512e+00,1.037748813629150391e+00,1.021651744842529297e+00,1.018091082572937012e+00,1.018896698951721191e+00,2.453487157821655273e+00,2.403909683227539062e+00,2.356296062469482422e+00,2.310531854629516602e+00,2.266511440277099609e+00,2.224137306213378906e+00,2.183318376541137695e+00,2.143970727920532227e+00,2.106016159057617188e+00,2.069381952285766602e+00,2.034000635147094727e+00,1.999808788299560547e+00,1.966747641563415527e+00,1.934761643409729004e+00,1.903799295425415039e+00,1.873812437057495117e+00,1.844755768775939941e+00
2.254846811294555664e+00,2.254588603973388672e+00,2.254330396652221680e+00,2.254072427749633789e+00,2.253814220428466797e+00,2.253556251525878906e+00,2.253298521041870117e+00,2.253040552139282227e+00,2.252782821655273438e+00,2.252525091171264648e+00,2.252267122268676758e+00,2.252009630203247070e+00,2.251751899719238281e+00,2.251494646072387695e+00,2.251237154006958008e+00,2.250979661941528320e+00,2.250722408294677734e+00,2.250464916229248047e+00,2.250207901000976562e+00,2.249950647354125977e+00,2.249693393707275391e+00,2.249436616897583008e+00,2.249179601669311523e+00,2.248922586441040039e+00,2.248667478561401367e+00,2.248412370681762695e+00,2.248157739639282227e+00,2.247902870178222656e+00,2.247648239135742188e+00,2.247393608093261719e+00,2.247138977050781250e+00,2.246884346008300781e+00,2.246629953384399414e+00,2.246375560760498047e+00,2.246121168136596680e+00,2.245867013931274414e+00,2.245612621307373047e+00,2.245358467102050781e+00,2.245104312896728516e+00,2.244850158691406250e+00,2.244596242904663086e+00,2.244342327117919922e+00,2.244088411331176758e+00,2.243834495544433594e+00,2.243580818176269531e+00,2.243326902389526367e+00,2.243073463439941406e+00,2.242819786071777344e+00,2.242566108703613281e+00,2.242312669754028320e+00,2.242059230804443359e+00,2.241805791854858398e+00,2.241552591323852539e+00,1.383628249168395996e+00,1.348737597465515137e+00,1.334913492202758789e+00,1.314971804618835449e+00,2.240286827087402344e+00,1.074027657508850098e+00,1.053090929985046387e+00,1.041959047317504883e+00,1.022943139076232910e+00,2.239022254943847656e+00,2.238769769668579102e+00,2.238517045974731445e+00,2.238264560699462891e+00,2.238011837005615234e+00,2.237759351730346680e+00,2.224166154861450195e+00,2.183346271514892578e+00,2.143997669219970703e+00,2.106042146682739258e+00,2.069406986236572266e+00,2.034024953842163086e+00,1.999832153320312500e+00,1.966770172119140625e+00,1.934783577919006348e+00,1.903820633888244629e+00,1.873832941055297852e+00,1.844775557518005371e+00
1.987904429435729980e+00,1.987703800201416016e+00,1.987503170967102051e+00,1.987302541732788086e+00,1.987102031707763672e+00,1.986901283264160156e+00,1.986700892448425293e+00,1.986500382423400879e+00,1.986300110816955566e+00,1.986099720001220703e+00,1.985899209976196289e+00,1.985698938369750977e+00,1.985498785972595215e+00,1.985298514366149902e+00,1.985098481178283691e+00,1.984898090362548828e+00,1.984698057174682617e+00,1.984498023986816406e+00,1.984297990798950195e+00,1.984098076820373535e+00,1.983897924423217773e+00,1.983698129653930664e+00,1.983498334884643555e+00,1.983298540115356445e+00,1.983098864555358887e+00,1.982898831367492676e+00,1.982699275016784668e+00,1.982499599456787109e+00,1.982300043106079102e+00,1.982100486755371094e+00,1.981901049613952637e+00,1.981701374053955078e+00,1.981501936912536621e+00,1.981302499771118164e+00,1.981103181838989258e+00,1.980903983116149902e+00,1.980704426765441895e+00,1.980505228042602539e+00,1.980306029319763184e+00,1.980106949806213379e+00,1.979907870292663574e+00,1.979708552360534668e+00,1.979509472846984863e+00,1.979310512542724609e+00,1.979111671447753906e+00,1.978912711143493652e+00,1.978713631629943848e+00,1.978514790534973145e+00,1.978316068649291992e+00,1.978117346763610840e+00,1.977918624877929688e+00,1.977719783782958984e+00,1.977521061897277832e+00,1.376638531684875488e+00,1.344061732292175293e+00,1.332532644271850586e+00,1.976727008819580078e+00,1.976528406143188477e+00,1.078166842460632324e+00,1.055371165275573730e+00,1.043802261352539062e+00,1.037855625152587891e+00,1.975536704063415527e+00,1.975338578224182129e+00,1.975140333175659180e+00,1.974942326545715332e+00,1.974744200706481934e+00,1.974545955657958984e+00,1.974347949028015137e+00,1.974150061607360840e+00,1.973952174186706543e+00,1.973754286766052246e+00,1.973556280136108398e+00,1.973358511924743652e+00,1.973160743713378906e+00,1.966792821884155273e+00,1.934805393218994141e+00,1.903841853141784668e+00,1.873853683471679688e+00,1.844795465469360352e+00
1.777476191520690918e+00,1.777315855026245117e+00,1.777155160903930664e+00,1.776994824409484863e+00,1.776834487915039062e+00,1.776674151420593262e+00,1.776513934135437012e+00,1.776353597640991211e+00,1.776193261146545410e+00,1.776033043861389160e+00,1.775872826576232910e+00,1.775712728500366211e+00,1.775552630424499512e+00,1.775392293930053711e+00,1.775232315063476562e+00,1.775072216987609863e+00,1.774912238121032715e+00,1.774752259254455566e+00,1.774592161178588867e+00,1.774432301521301270e+00,1.774272441864013672e+00,1.774112582206726074e+00,1.773952722549438477e+00,1.773792743682861328e+00,1.773633003234863281e+00,1.773473262786865234e+00,1.773313522338867188e+00,1.773153781890869141e+00,1.772993922233581543e+00,1.772834300994873047e+00,1.772674798965454102e+00,1.772515177726745605e+00,1.772355675697326660e+00,1.772196173667907715e+00,1.772036433219909668e+00,1.771877050399780273e+00,1.771717548370361328e+00,1.771558165550231934e+00,1.771398782730102539e+00,1.771239280700683594e+00,1.771080017089843750e+00,1.770920753479003906e+00,1.770761489868164062e+00,1.770602226257324219e+00,1.770442843437194824e+00,1.770283699035644531e+00,1.770124554634094238e+00,1.769965410232543945e+00,1.769806385040283203e+00,1.769647121429443359e+00,1.769488096237182617e+00,1.769329071044921875e+00,1.769170165061950684e+00,1.371248126029968262e+00,1.329614639282226562e+00,1.307600736618041992e+00,1.314371824264526367e+00,1.768375515937805176e+00,1.079169869422912598e+00,1.055444240570068359e+00,1.041438937187194824e+00,1.035086512565612793e+00,1.767581701278686523e+00,1.767423033714294434e+00,1.767264366149902344e+00,1.767105698585510254e+00,1.766947031021118164e+00,1.766788601875305176e+00,1.766630053520202637e+00,1.766471505165100098e+00,1.766312956809997559e+00,1.766154527664184570e+00,1.765996098518371582e+00,1.765837788581848145e+00,1.765679359436035156e+00,1.765520930290222168e+00,1.765362620353698730e+00,1.765204429626464844e+00,1.765046238899230957e+00,1.764888048171997070e+00
1.607332944869995117e+00,1.607201814651489258e+00,1.607070565223693848e+00,1.606939435005187988e+00,1.606808304786682129e+00,1.606677055358886719e+00,1.606546044349670410e+00,1.606414914131164551e+00,1.606283903121948242e+00,1.606152892112731934e+00,1.606021881103515625e+00,1.605890750885009766e+00,1.605759859085083008e+00,1.605628848075866699e+00,1.605497956275939941e+00,1.605367064476013184e+00,1.605236053466796875e+00,1.605105161666870117e+00,1.604974389076232910e+00,1.604843616485595703e+00,1.604712843894958496e+00,1.604581952095031738e+00,1.604451179504394531e+00,1.604320406913757324e+00,1.604189753532409668e+00,1.604059100151062012e+00,1.603928208351135254e+00,1.603797674179077148e+00,1.603667020797729492e+00,1.603536367416381836e+00,1.603405833244323730e+00,1.603275179862976074e+00,1.603144645690917969e+00,1.603014111518859863e+00,1.602883577346801758e+00,1.602753162384033203e+00,1.602622509002685547e+00,1.602492094039916992e+00,1.602361798286437988e+00,1.602231383323669434e+00,1.602100968360900879e+00,1.601970672607421875e+00,1.601840257644653320e+00,1.601709961891174316e+00,1.601579666137695312e+00,1.601449370384216309e+00,1.601319193840026855e+00,1.601188778877258301e+00,1.601058602333068848e+00,1.600928425788879395e+00,1.600798368453979492e+00,1.600668191909790039e+00,1.600537896156311035e+00,1.372274518013000488e+00,1.325832009315490723e+00,1.285281538963317871e+00,1.280154466629028320e+00,1.599887609481811523e+00,1.075251102447509766e+00,1.045595288276672363e+00,1.027857661247253418e+00,1.018902778625488281e+00,1.019844055175781250e+00,1.599107861518859863e+00,1.598978042602539062e+00,1.598848223686218262e+00,1.598718404769897461e+00,1.598588585853576660e+00,1.598458647727966309e+00,1.598328948020935059e+00,1.598199248313903809e+00,1.598069548606872559e+00,1.597939848899841309e+00,1.597810029983520508e+00,1.597680449485778809e+00,1.597550749778747559e+00,1.597421169281005859e+00,1.597291588783264160e+00,1.597161889076232910e+00,1.597032308578491211e+00
1.466917157173156738e+00,1.466807842254638672e+00,1.466698646545410156e+00,1.466589212417602539e+00,1.466480016708374023e+00,1.466370820999145508e+00,1.466261625289916992e+00,1.466152429580688477e+00,1.466043114662170410e+00,1.465934038162231445e+00,1.465824842453002930e+00,1.465715765953063965e+00,1.465606689453125000e+00,1.465497493743896484e+00,1.465388417243957520e+00,1.465279340744018555e+00,1.465170383453369141e+00,1.465061306953430176e+00,1.464952349662780762e+00,1.464843273162841797e+00,1.464734315872192383e+00,1.464625358581542969e+00,1.464516401290893555e+00,1.464407563209533691e+00,1.464298486709594727e+00,1.464189648628234863e+00,1.464080691337585449e+00,1.463971853256225586e+00,1.463863015174865723e+00,1.463754057884216309e+00,1.463645339012145996e+00,1.463536500930786133e+00,1.463427782058715820e+00,1.463319063186645508e+00,1.463210105895996094e+00,1.463101387023925781e+00,1.462992668151855469e+00,1.462884068489074707e+00,1.462775349617004395e+00,1.462666630744934082e+00,1.462557911872863770e+00,1.462449312210083008e+00,1.462340712547302246e+00,1.462232112884521484e+00,1.462123632431030273e+00,1.462014913558959961e+00,1.461906313896179199e+00,1.461797833442687988e+00,1.461689352989196777e+00,1.461580872535705566e+00,1.461472272872924805e+00,1.461363792419433594e+00,1.461255311965942383e+00,1.461146950721740723e+00,1.461038470268249512e+00,1.263997435569763184e+00,1.245952844619750977e+00,1.263655781745910645e+00,1.065940618515014648e+00,1.034762263298034668e+00,1.017463326454162598e+00,1.006345748901367188e+00,1.001933336257934570e+00,1.460063219070434570e+00,1.459954977035522461e+00,1.459846615791320801e+00,1.459738492965698242e+00,1.459630250930786133e+00,1.459522008895874023e+00,1.459413886070251465e+00,1.459305644035339355e+00,1.459197521209716797e+00,1.459089398384094238e+00,1.458981275558471680e+00,1.458873152732849121e+00,1.458765029907226562e+00,1.458656907081604004e+00,1.458548903465270996e+00,1.458440780639648438e+00,1.458332777023315430e+00
1.349063515663146973e+00,1.348971009254455566e+00,1.348878622055053711e+00,1.348786234855651855e+00,1.348693847656250000e+00,1.348601460456848145e+00,1.348508954048156738e+00,1.348416686058044434e+00,1.348324298858642578e+00,1.348232030868530273e+00,1.348139762878417969e+00,1.348047375679016113e+00,1.347954988479614258e+00,1.347862720489501953e+00,1.347770571708679199e+00,1.347678303718566895e+00,1.347585916519165039e+00,1.347493767738342285e+00,1.347401499748229980e+00,1.347309350967407227e+00,1.347217202186584473e+00,1.347125053405761719e+00,1.347032785415649414e+00,1.346940636634826660e+00,1.346848487854003906e+00,1.346756458282470703e+00,1.346664309501647949e+00,1.346572160720825195e+00,1.346480011940002441e+00,1.346387982368469238e+00,1.346295952796936035e+00,1.346203923225402832e+00,1.346111774444580078e+00,1.346019744873046875e+00,1.345927715301513672e+00,1.345835685729980469e+00,1.345743775367736816e+00,1.345651745796203613e+00,1.345559716224670410e+00,1.345467805862426758e+00,1.345375895500183105e+00,1.345283985137939453e+00,1.345191955566406250e+00,1.345100045204162598e+00,1.345008134841918945e+00,1.344916343688964844e+00,1.344824433326721191e+00,1.344732522964477539e+00,1.344640731811523438e+00,1.344548940658569336e+00,1.344457030296325684e+00,1.344365358352661133e+00,1.344273567199707031e+00,1.344181656837463379e+00,1.344089865684509277e+00,1.258836030960083008e+00,1.224383711814880371e+00,1.212010383605957031e+00,1.237028121948242188e+00,1.020532608032226562e+00,1.005046844482421875e+00,9.945894479751586914e-01,9.870054125785827637e-01,9.845542311668395996e-01,1.343172907829284668e+00,1.343081235885620117e+00,1.342989683151245117e+00,1.342898011207580566e+00,1.342806339263916016e+00,1.342714786529541016e+00,1.342623233795166016e+00,1.342531681060791016e+00,1.342440247535705566e+00,1.342348575592041016e+00,1.342257022857666016e+00,1.342165589332580566e+00,1.342074155807495117e+00,1.341982603073120117e+00,1.341891169548034668e+00,1.341799616813659668e+00
1.248738527297973633e+00,1.248659372329711914e+00,1.248580217361450195e+00,1.248501062393188477e+00,1.248421788215637207e+00,1.248342633247375488e+00,1.248263478279113770e+00,1.248184442520141602e+00,1.248105287551879883e+00,1.248026132583618164e+00,1.247946977615356445e+00,1.247867941856384277e+00,1.247788906097412109e+00,1.247709751129150391e+00,1.247630596160888672e+00,1.247551560401916504e+00,1.247472524642944336e+00,1.247393488883972168e+00,1.247314572334289551e+00,1.247235417366027832e+00,1.247156381607055664e+00,1.247077465057373047e+00,1.246998429298400879e+00,1.246919512748718262e+00,1.246840476989746094e+00,1.246761560440063477e+00,1.246682643890380859e+00,1.246603608131408691e+00,1.246524810791015625e+00,1.246445894241333008e+00,1.246366858482360840e+00,1.246287941932678223e+00,1.246209144592285156e+00,1.246130228042602539e+00,1.246051430702209473e+00,1.245972394943237305e+00,1.245893597602844238e+00,1.245814800262451172e+00,1.245736002922058105e+00,1.245657205581665039e+00,1.245578289031982422e+00,1.245499491691589355e+00,1.245420694351196289e+00,1.245342016220092773e+00,1.245263218879699707e+00,1.245184421539306641e+00,1.245105624198913574e+00,1.245026946067810059e+00,1.244948267936706543e+00,1.244869470596313477e+00,1.244790673255920410e+00,1.244711995124816895e+00,1.244633316993713379e+00,1.244554758071899414e+00,1.244476079940795898e+00,1.244397401809692383e+00,1.244318723678588867e+00,1.201371788978576660e+00,1.213994145393371582e+00,1.001778483390808105e+00,9.872129559516906738e-01,9.799170494079589844e-01,9.732868075370788574e-01,9.700012803077697754e-01,9.682669043540954590e-01,1.243611335754394531e+00,1.243532657623291016e+00,1.243454217910766602e+00,1.243375658988952637e+00,1.243297219276428223e+00,1.243218660354614258e+00,1.243140101432800293e+00,1.243061661720275879e+00,1.242983102798461914e+00,1.242904663085937500e+00,1.242826223373413086e+00,1.242747783660888672e+00,1.242669343948364258e+00,1.242590904235839844e+00,1.242512464523315430e+00
1.162302494049072266e+00,1.162233710289001465e+00,1.162165164947509766e+00,1.162096619606018066e+00,1.162027955055236816e+00,1.161959409713745117e+00,1.161890864372253418e+00,1.161822199821472168e+00,1.161753654479980469e+00,1.161685228347778320e+00,1.161616683006286621e+00,1.161548137664794922e+00,1.161479473114013672e+00,1.161411046981811523e+00,1.161342501640319824e+00,1.161274075508117676e+00,1.161205530166625977e+00,1.161136984825134277e+00,1.161068558692932129e+00,1.161000132560729980e+00,1.160931587219238281e+00,1.160863161087036133e+00,1.160794734954833984e+00,1.160726308822631836e+00,1.160657882690429688e+00,1.160589456558227539e+00,1.160521030426025391e+00,1.160452604293823242e+00,1.160384178161621094e+00,1.160315752029418945e+00,1.160247445106506348e+00,1.160179018974304199e+00,1.160110712051391602e+00,1.160042285919189453e+00,1.159973978996276855e+00,1.159905672073364258e+00,1.159837365150451660e+00,1.159768939018249512e+00,1.159700632095336914e+00,1.159632325172424316e+00,1.159564018249511719e+00,1.159495711326599121e+00,1.159427523612976074e+00,1.159359097480773926e+00,1.159290909767150879e+00,1.159222602844238281e+00,1.159154415130615234e+00,1.159086108207702637e+00,1.159017801284790039e+00,1.158949613571166992e+00,1.158881425857543945e+00,1.158813238143920898e+00,1.158745050430297852e+00,1.158676743507385254e+00,1.158608555793762207e+00,1.158540487289428711e+00,1.158472299575805664e+00,1.158404111862182617e+00,1.158335924148559570e+00,9.924326539039611816e-01,9.708461165428161621e-01,9.643999338150024414e-01,9.593799710273742676e-01,9.573042988777160645e-01,9.561874866485595703e-01,9.425123333930969238e-01,1.157791018486022949e+00,1.157722949981689453e+00,1.157654881477355957e+00,1.157586693763732910e+00,1.157518744468688965e+00,1.157450675964355469e+00,1.157382607460021973e+00,1.157314658164978027e+00,1.157246470451354980e+00,1.157178521156311035e+00,1.157110571861267090e+00,1.157042503356933594e+00,1.156974554061889648e+00,1.156906485557556152e+00
1.087057590484619141e+00,1.086997509002685547e+00,1.086937546730041504e+00,1.086877584457397461e+00,1.086817502975463867e+00,1.086757540702819824e+00,1.086697578430175781e+00,1.086637616157531738e+00,1.086577653884887695e+00,1.086517691612243652e+00,1.086457610130310059e+00,1.086397767066955566e+00,1.086337804794311523e+00,1.086277842521667480e+00,1.086217880249023438e+00,1.086157917976379395e+00,1.086098074913024902e+00,1.086038112640380859e+00,1.085978269577026367e+00,1.085918426513671875e+00,1.085858464241027832e+00,1.085798501968383789e+00,1.085738658905029297e+00,1.085678815841674805e+00,1.085618972778320312e+00,1.085559010505676270e+00,1.085499167442321777e+00,1.085439324378967285e+00,1.085379600524902344e+00,1.085319757461547852e+00,1.085259795188903809e+00,1.085200071334838867e+00,1.085140228271484375e+00,1.085080385208129883e+00,1.085020661354064941e+00,1.084960818290710449e+00,1.084900975227355957e+00,1.084841251373291016e+00,1.084781527519226074e+00,1.084721684455871582e+00,1.084661960601806641e+00,1.084602117538452148e+00,1.084542393684387207e+00,1.084482669830322266e+00,1.084422945976257324e+00,1.084363222122192383e+00,1.084303498268127441e+00,1.084243774414062500e+00,1.084184050559997559e+00,1.084124445915222168e+00,1.084064722061157227e+00,1.084004998207092285e+00,1.083945274353027344e+00,1.083885669708251953e+00,1.083825945854187012e+00,1.083766341209411621e+00,1.083706617355346680e+00,1.083647012710571289e+00,1.083587288856506348e+00,1.083527684211730957e+00,1.083468079566955566e+00,9.481791257858276367e-01,9.391671419143676758e-01,9.298357367515563965e-01,9.258418083190917969e-01,9.260111451148986816e-01,9.148001074790954590e-01,1.083050847053527832e+00,1.082991242408752441e+00,1.082931637763977051e+00,1.082872152328491211e+00,1.082812547683715820e+00,1.082752943038940430e+00,1.082693457603454590e+00,1.082633972167968750e+00,1.082574367523193359e+00,1.082514882087707520e+00,1.082455277442932129e+00,1.082395792007446289e+00,1.082336306571960449e+00
1.020962834358215332e+00,1.020909905433654785e+00,1.020856857299804688e+00,1.020803928375244141e+00,1.020750999450683594e+00,1.020698070526123047e+00,1.020645260810852051e+00,1.020592212677001953e+00,1.020539402961730957e+00,1.020486474037170410e+00,1.020433545112609863e+00,1.020380735397338867e+00,1.020327806472778320e+00,1.020274877548217773e+00,1.020222067832946777e+00,1.020169258117675781e+00,1.020116329193115234e+00,1.020063519477844238e+00,1.020010590553283691e+00,1.019957780838012695e+00,1.019904971122741699e+00,1.019852161407470703e+00,1.019799351692199707e+00,1.019746422767639160e+00,1.019693613052368164e+00,1.019640803337097168e+00,1.019587993621826172e+00,1.019535303115844727e+00,1.019482374191284180e+00,1.019429683685302734e+00,1.019376873970031738e+00,1.019324064254760742e+00,1.019271373748779297e+00,1.019218564033508301e+00,1.019165754318237305e+00,1.019113063812255859e+00,1.019060254096984863e+00,1.019007563591003418e+00,1.018954753875732422e+00,1.018902063369750977e+00,1.018849253654479980e+00,1.018796563148498535e+00,1.018743872642517090e+00,1.018691182136535645e+00,1.018638372421264648e+00,1.018585681915283203e+00,1.018532991409301758e+00,1.018480420112609863e+00,1.018427729606628418e+00,1.018374919891357422e+00,1.018322348594665527e+00,1.018269658088684082e+00,1.018216967582702637e+00,1.018164396286010742e+00,1.018111586570739746e+00,1.018059015274047852e+00,1.018006324768066406e+00,1.017953753471374512e+00,1.017901182174682617e+00,1.017848491668701172e+00,1.017795801162719727e+00,1.017743229866027832e+00,1.017690658569335938e+00,9.240928292274475098e-01,9.185884594917297363e-01,9.232410192489624023e-01,9.093180894851684570e-01,1.017427682876586914e+00,1.017375111579895020e+00,1.017322540283203125e+00,1.017269968986511230e+00,1.017217397689819336e+00,1.017164826393127441e+00,1.017112255096435547e+00,1.017059803009033203e+00,1.017007112503051758e+00,1.016954660415649414e+00,1.016902089118957520e+00,1.016849637031555176e+00,1.016797065734863281e+00
9.624446630477905273e-01,9.623976349830627441e-01,9.623506069183349609e-01,9.623035788536071777e-01,9.622565507888793945e-01,9.622094035148620605e-01,9.621623754501342773e-01,9.621154069900512695e-01,9.620683789253234863e-01,9.620213508605957031e-01,9.619743824005126953e-01,9.619274139404296875e-01,9.618803858757019043e-01,9.618334174156188965e-01,9.617864489555358887e-01,9.617393612861633301e-01,9.616923928260803223e-01,9.616454243659973145e-01,9.615984559059143066e-01,9.615515470504760742e-01,9.615045785903930664e-01,9.614576101303100586e-01,9.614107012748718262e-01,9.613637328147888184e-01,9.613168239593505859e-01,9.612699151039123535e-01,9.612228274345397949e-01,9.611759185791015625e-01,9.611290097236633301e-01,9.610821008682250977e-01,9.610351920127868652e-01,9.609882831573486328e-01,9.609414339065551758e-01,9.608945250511169434e-01,9.608476161956787109e-01,9.608007669448852539e-01,9.607537388801574707e-01,9.607068896293640137e-01,9.606600403785705566e-01,9.606131315231323242e-01,9.605662822723388672e-01,9.605194330215454102e-01,9.604725837707519531e-01,9.604257345199584961e-01,9.603788852691650391e-01,9.603320956230163574e-01,9.602851271629333496e-01,9.602382779121398926e-01,9.601914882659912109e-01,9.601446390151977539e-01,9.600978493690490723e-01,9.600510597229003906e-01,9.600042104721069336e-01,9.599574208259582520e-01,9.599106311798095703e-01,9.598638415336608887e-01,9.598170518875122070e-01,9.597701430320739746e-01,9.597234129905700684e-01,9.596766233444213867e-01,9.596298336982727051e-01,9.595831036567687988e-01,9.595363140106201172e-01,9.594895839691162109e-01,9.594427943229675293e-01,9.593960642814636230e-01,9.593493342399597168e-01,9.593024849891662598e-01,9.592557549476623535e-01,9.592090249061584473e-01,9.591622948646545410e-01,9.591155648231506348e-01,9.590688943862915039e-01,9.590221643447875977e-01,9.589754343032836914e-01,9.589287638664245605e-01,9.588820934295654297e-01,9.588353633880615234e-01,9.587885737419128418e-01,9.587419033050537109e-01
9.102709889411926270e-01,9.102289080619812012e-01,9.101868867874145508e-01,9.101446866989135742e-01,9.101026058197021484e-01,9.100605845451354980e-01,9.100185036659240723e-01,9.099764823913574219e-01,9.099344015121459961e-01,9.098923802375793457e-01,9.098502993583679199e-01,9.098082780838012695e-01,9.097662568092346191e-01,9.097241163253784180e-01,9.096820950508117676e-01,9.096400737762451172e-01,9.095980525016784668e-01,9.095560312271118164e-01,9.095140099525451660e-01,9.094720482826232910e-01,9.094300270080566406e-01,9.093880057334899902e-01,9.093460440635681152e-01,9.093040227890014648e-01,9.092619419097900391e-01,9.092199802398681641e-01,9.091779589653015137e-01,9.091359972953796387e-01,9.090940356254577637e-01,9.090520739555358887e-01,9.090101122856140137e-01,9.089681506156921387e-01,9.089261889457702637e-01,9.088842272758483887e-01,9.088422060012817383e-01,9.088002443313598633e-01,9.087582826614379883e-01,9.087163805961608887e-01,9.086744189262390137e-01,9.086325168609619141e-01,9.085906147956848145e-01,9.085486531257629395e-01,9.085067510604858398e-01,9.084648489952087402e-01,9.084228277206420898e-01,9.083809256553649902e-01,9.083390235900878906e-01,9.082971215248107910e-01,9.082552194595336914e-01,9.082133173942565918e-01,9.081714749336242676e-01,9.081295728683471680e-01,9.080876708030700684e-01,9.080458283424377441e-01,9.080039262771606445e-01,9.079619646072387695e-01,9.079201221466064453e-01,9.078782796859741211e-01,9.078364372253417969e-01,9.077945351600646973e-01,9.077526926994323730e-01,9.077108502388000488e-01,9.076690077781677246e-01,9.076271653175354004e-01,9.075853228569030762e-01,9.075434207916259766e-01,9.075015783309936523e-01,9.074597954750061035e-01,9.074179530143737793e-01,9.073761701583862305e-01,9.073343276977539062e-01,9.072925448417663574e-01,9.072507023811340332e-01,9.072089195251464844e-01,9.071671366691589355e-01,9.071252346038818359e-01,9.070834517478942871e-01,9.070416688919067383e-01,9.069998860359191895e-01,9.069581627845764160e-01
8.634630441665649414e-01,8.634251356124877930e-01,8.633872866630554199e-01,8.633494377136230469e-01,8.633115887641906738e-01,8.632737398147583008e-01,8.632358908653259277e-01,8.631980419158935547e-01,8.631602525711059570e-01,8.631224036216735840e-01,8.630845546722412109e-01,8.630466461181640625e-01,8.630087971687316895e-01,8.629710078239440918e-01,8.629331588745117188e-01,8.628953695297241211e-01,8.628575801849365234e-01,8.628197312355041504e-01,8.627819418907165527e-01,8.627441525459289551e-01,8.627063632011413574e-01,8.626684546470642090e-01,8.626306653022766113e-01,8.625928759574890137e-01,8.625550866127014160e-01,8.625172972679138184e-01,8.624795675277709961e-01,8.624417781829833984e-01,8.624039888381958008e-01,8.623661994934082031e-01,8.623284697532653809e-01,8.622906804084777832e-01,8.622528314590454102e-01,8.622151017189025879e-01,8.621773719787597656e-01,8.621395826339721680e-01,8.621018528938293457e-01,8.620641231536865234e-01,8.620263934135437012e-01,8.619886636734008789e-01,8.619509339332580566e-01,8.619132041931152344e-01,8.618753552436828613e-01,8.618376255035400391e-01,8.617999553680419922e-01,8.617622256278991699e-01,8.617244958877563477e-01,8.616867661476135254e-01,8.616490960121154785e-01,8.616113662719726562e-01,8.615736961364746094e-01,8.615359663963317871e-01,8.614982366561889648e-01,8.614605069160461426e-01,8.614228367805480957e-01,8.613851666450500488e-01,8.613474965095520020e-01,8.613098263740539551e-01,8.612721562385559082e-01,8.612344861030578613e-01,8.611968159675598145e-01,8.611591458320617676e-01,8.611214756965637207e-01,8.610837459564208984e-01,8.610460758209228516e-01,8.610084056854248047e-01,8.609707951545715332e-01,8.609331250190734863e-01,8.608955144882202148e-01,8.608578443527221680e-01,8.608202338218688965e-01,8.607826232910156250e-01,8.607449531555175781e-01,8.607072830200195312e-01,8.606696724891662598e-01,8.606320023536682129e-01,8.605943918228149414e-01,8.605567812919616699e-01,8.605191707611083984e-01,8.604816198348999023e-01
8.212335705757141113e-01,8.211993575096130371e-01,8.211650848388671875e-01,8.211308717727661133e-01,8.210965991020202637e-01,8.210623860359191895e-01,8.210281729698181152e-01,8.209939002990722656e-01,8.209596872329711914e-01,8.209253549575805664e-01,8.208911418914794922e-01,8.208569288253784180e-01,8.208227157592773438e-01,8.207885026931762695e-01,8.207542896270751953e-01,8.207200765609741211e-01,8.206859230995178223e-01,8.206517100334167480e-01,8.206174969673156738e-01,8.205832242965698242e-01,8.205490112304687500e-01,8.205148577690124512e-01,8.204806447029113770e-01,8.204464912414550781e-01,8.204122781753540039e-01,8.203781247138977051e-01,8.203439116477966309e-01,8.203097581863403320e-01,8.202756047248840332e-01,8.202413320541381836e-01,8.202071785926818848e-01,8.201730251312255859e-01,8.201388716697692871e-01,8.201047182083129883e-01,8.200705647468566895e-01,8.200364112854003906e-01,8.200022578239440918e-01,8.199681043624877930e-01,8.199339509010314941e-01,8.198997974395751953e-01,8.198655843734741211e-01,8.198314905166625977e-01,8.197973370552062988e-01,8.197631835937500000e-01,8.197290897369384766e-01,8.196949362754821777e-01,8.196608424186706543e-01,8.196266889572143555e-01,8.195925951004028320e-01,8.195585012435913086e-01,8.195242881774902344e-01,8.194901943206787109e-01,8.194561004638671875e-01,8.194220066070556641e-01,8.193879127502441406e-01,8.193538188934326172e-01,8.193197250366210938e-01,8.192856311798095703e-01,8.192515373229980469e-01,8.192174434661865234e-01,8.191832900047302246e-01,8.191491961479187012e-01,8.191151618957519531e-01,8.190810680389404297e-01,8.190469741821289062e-01,8.190129399299621582e-01,8.189788460731506348e-01,8.189448118209838867e-01,8.189107775688171387e-01,8.188766837120056152e-01,8.188426494598388672e-01,8.188084959983825684e-01,8.187744617462158203e-01,8.187404274940490723e-01,8.187063932418823242e-01,8.186723589897155762e-01,8.186383247375488281e-01,8.186042904853820801e-01,8.185702562332153320e-01,8.185362219810485840e-01
7.829422354698181152e-01,7.829110622406005859e-01,7.828799486160278320e-01,7.828488349914550781e-01,7.828177213668823242e-01,7.827866077423095703e-01,7.827554345130920410e-01,7.827243208885192871e-01,7.826932072639465332e-01,7.826620936393737793e-01,7.826309800148010254e-01,7.825998663902282715e-01,7.825687527656555176e-01,7.825376391410827637e-01,7.825065851211547852e-01,7.824754714965820312e-01,7.824443578720092773e-01,7.824132442474365234e-01,7.823821306228637695e-01,7.823510169982910156e-01,7.823199629783630371e-01,7.822889089584350586e-01,7.822577953338623047e-01,7.822267413139343262e-01,7.821956276893615723e-01,7.821645736694335938e-01,7.821335196495056152e-01,7.821024060249328613e-01,7.820712924003601074e-01,7.820402383804321289e-01,7.820091843605041504e-01,7.819781303405761719e-01,7.819470763206481934e-01,7.819160223007202148e-01,7.818849682807922363e-01,7.818539738655090332e-01,7.818229198455810547e-01,7.817918062210083008e-01,7.817607522010803223e-01,7.817296981811523438e-01,7.816987037658691406e-01,7.816676497459411621e-01,7.816366553306579590e-01,7.816056013107299805e-01,7.815746068954467773e-01,7.815435528755187988e-01,7.815125584602355957e-01,7.814815044403076172e-01,7.814504504203796387e-01,7.814194560050964355e-01,7.813884019851684570e-01,7.813574075698852539e-01,7.813264131546020508e-01,7.812954187393188477e-01,7.812644243240356445e-01,7.812334299087524414e-01,7.812024354934692383e-01,7.811714410781860352e-01,7.811403870582580566e-01,7.811093926429748535e-01,7.810783982276916504e-01,7.810474038124084473e-01,7.810164690017700195e-01,7.809854745864868164e-01,7.809544801712036133e-01,7.809235453605651855e-01,7.808925509452819824e-01,7.808616161346435547e-01,7.808306217193603516e-01,7.807995676994323730e-01,7.807686328887939453e-01,7.807376980781555176e-01,7.807067036628723145e-01,7.806757688522338867e-01,7.806448340415954590e-01,7.806138992309570312e-01,7.805829048156738281e-01,7.805519700050354004e-01,7.805210351943969727e-01,7.804900407791137695e-01
7.480625510215759277e-01,7.480341196060180664e-01,7.480057477951049805e-01,7.479773163795471191e-01,7.479488253593444824e-01,7.479203939437866211e-01,7.478920221328735352e-01,7.478635907173156738e-01,7.478352189064025879e-01,7.478067874908447266e-01,7.477784156799316406e-01,7.477500438690185547e-01,7.477216124534606934e-01,7.476932406425476074e-01,7.476647496223449707e-01,7.476363778114318848e-01,7.476080060005187988e-01,7.475796341896057129e-01,7.475512623786926270e-01,7.475228309631347656e-01,7.474944591522216797e-01,7.474660873413085938e-01,7.474377155303955078e-01,7.474093437194824219e-01,7.473810315132141113e-01,7.473525404930114746e-01,7.473242282867431641e-01,7.472958564758300781e-01,7.472674846649169922e-01,7.472391128540039062e-01,7.472108006477355957e-01,7.471824288368225098e-01,7.471540570259094238e-01,7.471257448196411133e-01,7.470973730087280273e-01,7.470689415931701660e-01,7.470406293869018555e-01,7.470122575759887695e-01,7.469839453697204590e-01,7.469556331634521484e-01,7.469272613525390625e-01,7.468989491462707520e-01,7.468706369400024414e-01,7.468422651290893555e-01,7.468139529228210449e-01,7.467856407165527344e-01,7.467572689056396484e-01,7.467289566993713379e-01,7.467006444931030273e-01,7.466723322868347168e-01,7.466440200805664062e-01,7.466157078742980957e-01,7.465873956680297852e-01,7.465590834617614746e-01,7.465307712554931641e-01,7.465024590492248535e-01,7.464740872383117676e-01,7.464458346366882324e-01,7.464175224304199219e-01,7.463892102241516113e-01,7.463609576225280762e-01,7.463326454162597656e-01,7.463043332099914551e-01,7.462760806083679199e-01,7.462477684020996094e-01,7.462195158004760742e-01,7.461911439895629883e-01,7.461628913879394531e-01,7.461346387863159180e-01,7.461063265800476074e-01,7.460780739784240723e-01,7.460498213768005371e-01,7.460215687751770020e-01,7.459932565689086914e-01,7.459650039672851562e-01,7.459367513656616211e-01,7.459084987640380859e-01,7.458801865577697754e-01,7.458519339561462402e-01,7.458236813545227051e-01
7.161580920219421387e-01,7.161320447921752930e-01,7.161059379577636719e-01,7.160798907279968262e-01,7.160538434982299805e-01,7.160277962684631348e-01,7.160017490386962891e-01,7.159757614135742188e-01,7.159497141838073730e-01,7.159236669540405273e-01,7.158976793289184570e-01,7.158716320991516113e-01,7.158455252647399902e-01,7.158195376396179199e-01,7.157934904098510742e-01,7.157675027847290039e-01,7.157414555549621582e-01,7.157154679298400879e-01,7.156894207000732422e-01,7.156634330749511719e-01,7.156374454498291016e-01,7.156113982200622559e-01,7.155854105949401855e-01,7.155593633651733398e-01,7.155333161354064941e-01,7.155073285102844238e-01,7.154813408851623535e-01,7.154553532600402832e-01,7.154293656349182129e-01,7.154033780097961426e-01,7.153773903846740723e-01,7.153514027595520020e-01,7.153254151344299316e-01,7.152993679046630859e-01,7.152733802795410156e-01,7.152473926544189453e-01,7.152214050292968750e-01,7.151954174041748047e-01,7.151694893836975098e-01,7.151435017585754395e-01,7.151175141334533691e-01,7.150915265083312988e-01,7.150655984878540039e-01,7.150395512580871582e-01,7.150136232376098633e-01,7.149876356124877930e-01,7.149616479873657227e-01,7.149357199668884277e-01,7.149097323417663574e-01,7.148838043212890625e-01,7.148578763008117676e-01,7.148318886756896973e-01,7.148059606552124023e-01,7.147800326347351074e-01,7.147539854049682617e-01,7.147280573844909668e-01,7.147021293640136719e-01,7.146762013435363770e-01,7.146502733230590820e-01,7.146242856979370117e-01,7.145983576774597168e-01,7.145724296569824219e-01,7.145465016365051270e-01,7.145205736160278320e-01,7.144945859909057617e-01,7.144686579704284668e-01,7.144427299499511719e-01,7.144168615341186523e-01,7.143909335136413574e-01,7.143650054931640625e-01,7.143390774726867676e-01,7.143131494522094727e-01,7.142872810363769531e-01,7.142613530158996582e-01,7.142353653907775879e-01,7.142094969749450684e-01,7.141835689544677734e-01,7.141577005386352539e-01,7.141317725181579590e-01,7.141059041023254395e-01
