5.000000000000000000e+00,5.000000000000000000e+00,5.000000000000000000e+00,5.000000000000000000e+00,5.000000000000000000e+00,5.000000000000000000e+00,5.000000000000000000e+00,5.000000000000000000e+00,5.000000000000000000e+00,5.000000000000000000e+00,5.000000000000000000e+00,5.000000000000000000e+00,5.000000000000000000e+00,5.000000000000000000e+00,5.000000000000000000e+00,5.000000000000000000e+00,5.000000000000000000e+00,5.000000000000000000e+00,5.000000000000000000e+00,5.000000000000000000e+00,5.000000000000000000e+00,5.000000000000000000e+00,5.000000000000000000e+00,5.000000000000000000e+00,5.000000000000000000e+00,5.000000000000000000e+00,5.000000000000000000e+00,5.000000000000000000e+00,5.000000000000000000e+00,5.000000000000000000e+00,5.000000000000000000e+00,5.000000000000000000e+00,5.000000000000000000e+00,5.000000000000000000e+00,5.000000000000000000e+00,5.000000000000000000e+00,5.000000000000000000e+00,5.000000000000000000e+00,5.000000000000000000e+00,4.860399723052978516e+00,4.669577121734619141e+00,4.493172168731689453e+00,4.329609870910644531e+00,4.177537441253662109e+00,4.035785198211669922e+00,3.903337478637695312e+00,3.779306888580322266e+00,3.662915706634521484e+00,3.553479433059692383e+00,3.450392484664916992e+00,3.353118181228637695e+00,3.261178255081176758e+00,3.174145460128784180e+00,3.091637372970581055e+00,3.013310194015502930e+00,2.938853740692138672e+00,2.867987871170043945e+00,2.800459384918212891e+00,2.736037731170654297e+00,2.674513339996337891e+00,2.615694999694824219e+00,2.559407949447631836e+00,2.505492448806762695e+00,2.453801631927490234e+00,2.404200553894042969e+00,2.356564998626708984e+00,2.310780286788940430e+00,2.266740798950195312e+00,2.224348783493041992e+00,2.183513164520263672e+00,2.144149780273437500e+00,2.106180667877197266e+00,2.069532632827758789e+00,2.034138441085815430e+00,1.999934434890747070e+00,1.966861724853515625e+00,1.934864997863769531e+00,1.903892636299133301e+00,1.873896241188049316e+00,1.844830393791198730e+00
5.000000000000000000e+00,5.000000000000000000e+00,5.000000000000000000e+00,5.000000000000000000e+00,5.000000000000000000e+00,5.000000000000000000e+00,5.000000000000000000e+00,5.000000000000000000e+00,5.000000000000000000e+00,5.000000000000000000e+00,5.000000000000000000e+00,5.000000000000000000e+00,5.000000000000000000e+00,5.000000000000000000e+00,5.000000000000000000e+00,5.000000000000000000e+00,5.000000000000000000e+00,5.000000000000000000e+00,5.000000000000000000e+00,5.000000000000000000e+00,5.000000000000000000e+00,5.000000000000000000e+00,5.000000000000000000e+00,5.000000000000000000e+00,5.000000000000000000e+00,5.000000000000000000e+00,5.000000000000000000e+00,5.000000000000000000e+00,5.000000000000000000e+00,5.000000000000000000e+00,5.000000000000000000e+00,5.000000000000000000e+00,5.000000000000000000e+00,5.000000000000000000e+00,5.000000000000000000e+00,5.000000000000000000e+00,5.000000000000000000e+00,5.000000000000000000e+00,5.000000000000000000e+00,4.860539913177490234e+00,4.669706344604492188e+00,4.493291854858398438e+00,4.329720973968505859e+00,4.177640914916992188e+00,4.035881996154785156e+00,3.903427839279174805e+00,3.779391527175903320e+00,3.662995338439941406e+00,3.553554296493530273e+00,3.450463056564331055e+00,3.353184700012207031e+00,3.261241197586059570e+00,3.174205303192138672e+00,3.091694116592407227e+00,3.013364076614379883e+00,2.938905000686645508e+00,2.868036746978759766e+00,2.800505876541137695e+00,2.736082077026367188e+00,2.674555778503417969e+00,2.615735530853271484e+00,2.559446811676025391e+00,2.505529642105102539e+00,2.453837156295776367e+00,2.404234647750854492e+00,2.356597900390625000e+00,2.310811996459960938e+00,2.266771316528320312e+00,2.224378108978271484e+00,2.183541536331176758e+00,2.144176959991455078e+00,2.106206893920898438e+00,2.069557905197143555e+00,2.034162998199462891e+00,1.999958038330078125e+00,1.966884493827819824e+00,1.934887051582336426e+00,1.903913974761962891e+00,1.873916983604431152e+00,1.844850420951843262e+00
5.000000000000000000e+00,5.000000000000000000e+00,5.000000000000000000e+00,5.000000000000000000e+00,5.000000000000000000e+00,5.000000000000000000e+00,5.000000000000000000e+00,5.000000000000000000e+00,5.000000000000000000e+00,5.000000000000000000e+00,5.000000000000000000e+00,5.000000000000000000e+00,5.000000000000000000e+00,5.000000000000000000e+00,5.000000000000000000e+00,5.000000000000000000e+00,5.000000000000000000e+00,5.000000000000000000e+00,5.000000000000000000e+00,5.000000000000000000e+00,5.000000000000000000e+00,5.000000000000000000e+00,5.000000000000000000e+00,5.000000000000000000e+00,5.000000000000000000e+00,5.000000000000000000e+00,4.583353996276855469e+00,5.000000000000000000e+00,5.000000000000000000e+00,5.000000000000000000e+00,5.000000000000000000e+00,5.000000000000000000e+00,5.000000000000000000e+00,5.000000000000000000e+00,5.000000000000000000e+00,5.000000000000000000e+00,5.000000000000000000e+00,5.000000000000000000e+00,5.000000000000000000e+00,4.860680103302001953e+00,4.669835567474365234e+00,4.493411540985107422e+00,4.329832077026367188e+00,4.177744388580322266e+00,4.035978317260742188e+00,3.903518199920654297e+00,3.779476165771484375e+00,3.663074731826782227e+00,3.553629159927368164e+00,3.450533628463745117e+00,3.353251457214355469e+00,3.261304378509521484e+00,3.174265146255493164e+00,3.091750860214233398e+00,3.013417959213256836e+00,2.938956260681152344e+00,2.868085622787475586e+00,2.800552368164062500e+00,2.736126422882080078e+00,2.674598217010498047e+00,2.615776062011718750e+00,2.559485435485839844e+00,2.505566835403442383e+00,2.453872919082641602e+00,2.404268980026245117e+00,2.356630802154541016e+00,2.310843706130981445e+00,2.266801834106445312e+00,2.224407434463500977e+00,2.183569669723510742e+00,2.144204378128051758e+00,2.106233119964599609e+00,2.069583415985107422e+00,2.034187555313110352e+00,1.999981880187988281e+00,1.966907620429992676e+00,1.934909343719482422e+00,1.903935670852661133e+00,1.873937845230102539e+00,1.844870686531066895e+00
5.000000000000000000e+00,5.000000000000000000e+00,5.000000000000000000e+00,5.000000000000000000e+00,5.000000000000000000e+00,5.000000000000000000e+00,5.000000000000000000e+00,5.000000000000000000e+00,5.000000000000000000e+00,5.000000000000000000e+00,5.000000000000000000e+00,5.000000000000000000e+00,5.000000000000000000e+00,5.000000000000000000e+00,5.000000000000000000e+00,5.000000000000000000e+00,5.000000000000000000e+00,5.000000000000000000e+00,5.000000000000000000e+00,5.000000000000000000e+00,5.000000000000000000e+00,5.000000000000000000e+00,5.000000000000000000e+00,5.000000000000000000e+00,5.000000000000000000e+00,4.680219173431396484e+00,4.580195426940917969e+00,4.707087516784667969e+00,5.000000000000000000e+00,5.000000000000000000e+00,5.000000000000000000e+00,5.000000000000000000e+00,5.000000000000000000e+00,5.000000000000000000e+00,5.000000000000000000e+00,5.000000000000000000e+00,5.000000000000000000e+00,5.000000000000000000e+00,5.000000000000000000e+00,4.860820293426513672e+00,4.669965267181396484e+00,4.493531227111816406e+00,4.329943180084228516e+00,4.177847862243652344e+00,4.036075115203857422e+00,3.903608560562133789e+00,3.779561042785644531e+00,3.663154363632202148e+00,3.553704023361206055e+00,3.450604200363159180e+00,3.353318214416503906e+00,3.261367559432983398e+00,3.174324750900268555e+00,3.091807603836059570e+00,3.013471603393554688e+00,2.939007282257080078e+00,2.868134260177612305e+00,2.800598859786987305e+00,2.736170768737792969e+00,2.674640417098999023e+00,2.615816354751586914e+00,2.559524297714233398e+00,2.505604028701782227e+00,2.453908681869506836e+00,2.404303312301635742e+00,2.356663703918457031e+00,2.310875415802001953e+00,2.266832351684570312e+00,2.224436759948730469e+00,2.183598041534423828e+00,2.144231557846069336e+00,2.106259584426879883e+00,2.069608688354492188e+00,2.034212112426757812e+00,2.000005483627319336e+00,1.966930389404296875e+00,1.934931516647338867e+00,1.903957009315490723e+00,1.873958587646484375e+00,1.844890832901000977e+00
5.000000000000000000e+00,5.000000000000000000e+00,5.000000000000000000e+00,5.000000000000000000e+00,5.000000000000000000e+00,5.000000000000000000e+00,5.000000000000000000e+00,5.000000000000000000e+00,5.000000000000000000e+00,5.000000000000000000e+00,5.000000000000000000e+00,5.000000000000000000e+00,5.000000000000000000e+00,5.000000000000000000e+00,5.000000000000000000e+00,5.000000000000000000e+00,5.000000000000000000e+00,5.000000000000000000e+00,5.000000000000000000e+00,5.000000000000000000e+00,5.000000000000000000e+00,5.000000000000000000e+00,5.000000000000000000e+00,5.000000000000000000e+00,5.000000000000000000e+00,5.000000000000000000e+00,4.605593681335449219e+00,5.000000000000000000e+00,5.000000000000000000e+00,5.000000000000000000e+00,5.000000000000000000e+00,5.000000000000000000e+00,5.000000000000000000e+00,5.000000000000000000e+00,5.000000000000000000e+00,5.000000000000000000e+00,5.000000000000000000e+00,5.000000000000000000e+00,5.000000000000000000e+00,4.860960483551025391e+00,4.670094013214111328e+00,4.493650436401367188e+00,4.330054283142089844e+00,4.177951335906982422e+00,4.036171436309814453e+00,3.903698921203613281e+00,3.779645681381225586e+00,3.663233995437622070e+00,3.553778886795043945e+00,3.450675010681152344e+00,3.353384971618652344e+00,3.261430501937866211e+00,3.174384593963623047e+00,3.091864347457885742e+00,3.013525485992431641e+00,2.939058542251586914e+00,2.868182897567749023e+00,2.800645112991333008e+00,2.736214876174926758e+00,2.674682855606079102e+00,2.615857124328613281e+00,2.559563159942626953e+00,2.505641222000122070e+00,2.453944206237792969e+00,2.404337406158447266e+00,2.356696605682373047e+00,2.310906887054443359e+00,2.266862869262695312e+00,2.224466085433959961e+00,2.183626174926757812e+00,2.144258737564086914e+00,2.106285810470581055e+00,2.069634199142456055e+00,2.034236431121826172e+00,2.000029325485229492e+00,1.966953516006469727e+00,1.934953808784484863e+00,1.903978586196899414e+00,1.873979568481445312e+00,1.844911098480224609e+00
5.000000000000000000e+00,5.000000000000000000e+00,5.000000000000000000e+00,5.000000000000000000e+00,5.000000000000000000e+00,5.000000000000000000e+00,5.000000000000000000e+00,5.000000000000000000e+00,5.000000000000000000e+00,5.000000000000000000e+00,5.000000000000000000e+00,5.000000000000000000e+00,5.000000000000000000e+00,5.000000000000000000e+00,5.000000000000000000e+00,5.000000000000000000e+00,5.000000000000000000e+00,5.000000000000000000e+00,5.000000000000000000e+00,5.000000000000000000e+00,5.000000000000000000e+00,5.000000000000000000e+00,5.000000000000000000e+00,5.000000000000000000e+00,4.631132602691650391e+00,4.599686622619628906e+00,4.645738601684570312e+00,4.646665573120117188e+00,4.681855678558349609e+00,5.000000000000000000e+00,5.000000000000000000e+00,5.000000000000000000e+00,5.000000000000000000e+00,5.000000000000000000e+00,5.000000000000000000e+00,5.000000000000000000e+00,5.000000000000000000e+00,5.000000000000000000e+00,5.000000000000000000e+00,4.861100196838378906e+00,4.670223236083984375e+00,4.493770599365234375e+00,4.330165386199951172e+00,4.178054809570312500e+00,4.036268234252929688e+00,3.903789281845092773e+00,3.779730319976806641e+00,3.663313627243041992e+00,3.553853750228881836e+00,3.450745582580566406e+00,3.353451490402221680e+00,3.261493682861328125e+00,3.174444437026977539e+00,3.091920852661132812e+00,3.013579130172729492e+00,2.939109563827514648e+00,2.868231534957885742e+00,2.800691843032836914e+00,2.736259460449218750e+00,2.674725055694580078e+00,2.615897655487060547e+00,2.559602022171020508e+00,2.505678415298461914e+00,2.453979969024658203e+00,2.404371738433837891e+00,2.356729745864868164e+00,2.310938596725463867e+00,2.266893148422241211e+00,2.224495410919189453e+00,2.183654546737670898e+00,2.144286155700683594e+00,2.106312036514282227e+00,2.069659709930419922e+00,2.034260988235473633e+00,2.000052928924560547e+00,1.966976284980773926e+00,1.934975862503051758e+00,1.904000043869018555e+00,1.874000191688537598e+00,1.844931244850158691e+00
5.000000000000000000e+00,5.000000000000000000e+00,5.000000000000000000e+00,5.000000000000000000e+00,5.000000000000000000e+00,5.000000000000000000e+00,5.000000000000000000e+00,5.000000000000000000e+00,5.000000000000000000e+00,5.000000000000000000e+00,5.000000000000000000e+00,5.000000000000000000e+00,5.000000000000000000e+00,5.000000000000000000e+00,5.000000000000000000e+00,5.000000000000000000e+00,5.000000000000000000e+00,5.000000000000000000e+00,5.000000000000000000e+00,5.000000000000000000e+00,5.000000000000000000e+00,5.000000000000000000e+00,5.000000000000000000e+00,4.614992618560791016e+00,4.600939750671386719e+00,4.561272144317626953e+00,4.574991703033447266e+00,4.588993072509765625e+00,4.661208152770996094e+00,4.705849170684814453e+00,5.000000000000000000e+00,5.000000000000000000e+00,5.000000000000000000e+00,5.000000000000000000e+00,5.000000000000000000e+00,5.000000000000000000e+00,5.000000000000000000e+00,5.000000000000000000e+00,5.000000000000000000e+00,4.861240386962890625e+00,4.670352935791015625e+00,4.493890285491943359e+00,4.330276489257812500e+00,4.178158283233642578e+00,4.036364555358886719e+00,3.903879880905151367e+00,3.779815196990966797e+00,3.663393259048461914e+00,3.553928613662719727e+00,3.450816154479980469e+00,3.353518247604370117e+00,3.261556386947631836e+00,3.174503803253173828e+00,3.091977357864379883e+00,3.013633012771606445e+00,2.939160823822021484e+00,2.868280410766601562e+00,2.800738334655761719e+00,2.736303806304931641e+00,2.674767494201660156e+00,2.615938186645507812e+00,2.559640884399414062e+00,2.505715608596801758e+00,2.454015731811523438e+00,2.404406070709228516e+00,2.356762647628784180e+00,2.310970306396484375e+00,2.266923666000366211e+00,2.224524736404418945e+00,2.183682918548583984e+00,2.144313335418701172e+00,2.106338500976562500e+00,2.069684982299804688e+00,2.034285545349121094e+00,2.000076770782470703e+00,1.966999411582946777e+00,1.934998154640197754e+00,1.904021620750427246e+00,1.874021172523498535e+00,1.844951510429382324e+00
5.000000000000000000e+00,5.000000000000000000e+00,5.000000000000000000e+00,5.000000000000000000e+00,5.000000000000000000e+00,5.000000000000000000e+00,5.000000000000000000e+00,5.000000000000000000e+00,5.000000000000000000e+00,5.000000000000000000e+00,5.000000000000000000e+00,5.000000000000000000e+00,5.000000000000000000e+00,5.000000000000000000e+00,5.000000000000000000e+00,5.000000000000000000e+00,5.000000000000000000e+00,5.000000000000000000e+00,5.000000000000000000e+00,5.000000000000000000e+00,5.000000000000000000e+00,5.000000000000000000e+00,5.000000000000000000e+00,5.000000000000000000e+00,4.640260696411132812e+00,4.570630073547363281e+00,4.565043926239013672e+00,4.596533775329589844e+00,4.681485176086425781e+00,4.713098049163818359e+00,5.000000000000000000e+00,5.000000000000000000e+00,5.000000000000000000e+00,5.000000000000000000e+00,5.000000000000000000e+00,5.000000000000000000e+00,5.000000000000000000e+00,5.000000000000000000e+00,5.000000000000000000e+00,4.861380577087402344e+00,4.670482158660888672e+00,4.494009971618652344e+00,4.330388069152832031e+00,4.178261756896972656e+00,4.036461353302001953e+00,3.903970241546630859e+00,3.779899835586547852e+00,3.663472652435302734e+00,3.554003715515136719e+00,3.450886487960815430e+00,3.353584527969360352e+00,3.261619567871093750e+00,3.174563646316528320e+00,3.092034101486206055e+00,3.013686895370483398e+00,2.939212083816528320e+00,2.868329286575317383e+00,2.800784826278686523e+00,2.736348152160644531e+00,2.674809932708740234e+00,2.615978717803955078e+00,2.559679746627807617e+00,2.505753040313720703e+00,2.454051494598388672e+00,2.404440402984619141e+00,2.356795549392700195e+00,2.311002016067504883e+00,2.266954183578491211e+00,2.224554061889648438e+00,2.183711051940917969e+00,2.144340753555297852e+00,2.106364727020263672e+00,2.069710493087768555e+00,2.034310102462768555e+00,2.000100374221801758e+00,1.967022180557250977e+00,1.935020327568054199e+00,1.904043078422546387e+00,1.874041914939880371e+00,1.844971537590026855e+00
5.000000000000000000e+00,5.000000000000000000e+00,5.000000000000000000e+00,5.000000000000000000e+00,5.000000000000000000e+00,5.000000000000000000e+00,5.000000000000000000e+00,5.000000000000000000e+00,5.000000000000000000e+00,5.000000000000000000e+00,5.000000000000000000e+00,5.000000000000000000e+00,5.000000000000000000e+00,5.000000000000000000e+00,5.000000000000000000e+00,5.000000000000000000e+00,5.000000000000000000e+00,5.000000000000000000e+00,5.000000000000000000e+00,5.000000000000000000e+00,5.000000000000000000e+00,5.000000000000000000e+00,5.000000000000000000e+00,5.000000000000000000e+00,4.638534069061279297e+00,4.563834667205810547e+00,4.560228347778320312e+00,4.590619564056396484e+00,5.000000000000000000e+00,4.713730335235595703e+00,5.000000000000000000e+00,5.000000000000000000e+00,5.000000000000000000e+00,5.000000000000000000e+00,5.000000000000000000e+00,5.000000000000000000e+00,5.000000000000000000e+00,5.000000000000000000e+00,5.000000000000000000e+00,4.861520767211914062e+00,4.670611381530761719e+00,4.494129657745361328e+00,4.330499172210693359e+00,4.178365230560302734e+00,4.036558151245117188e+00,3.904060602188110352e+00,3.779984712600708008e+00,3.663552045822143555e+00,3.554078102111816406e+00,3.450957059860229492e+00,3.353651285171508789e+00,3.261682510375976562e+00,3.174623250961303711e+00,3.092090845108032227e+00,3.013740777969360352e+00,2.939263343811035156e+00,2.868377923965454102e+00,2.800831317901611328e+00,2.736392498016357422e+00,2.674852371215820312e+00,2.616019487380981445e+00,2.559718608856201172e+00,2.505790233612060547e+00,2.454087257385253906e+00,2.404474735260009766e+00,2.356828451156616211e+00,2.311033725738525391e+00,2.266984701156616211e+00,2.224583625793457031e+00,2.183739423751831055e+00,2.144367933273315430e+00,2.106391191482543945e+00,2.069735765457153320e+00,2.034334659576416016e+00,2.000124216079711914e+00,1.967045307159423828e+00,1.935042619705200195e+00,1.904064655303955078e+00,1.874062776565551758e+00,1.844991683959960938e+00
5.000000000000000000e+00,5.000000000000000000e+00,5.000000000000000000e+00,5.000000000000000000e+00,5.000000000000000000e+00,5.000000000000000000e+00,5.000000000000000000e+00,5.000000000000000000e+00,5.000000000000000000e+00,5.000000000000000000e+00,5.000000000000000000e+00,5.000000000000000000e+00,5.000000000000000000e+00,5.000000000000000000e+00,5.000000000000000000e+00,5.000000000000000000e+00,5.000000000000000000e+00,5.000000000000000000e+00,5.000000000000000000e+00,5.000000000000000000e+00,5.000000000000000000e+00,5.000000000000000000e+00,5.000000000000000000e+00,5.000000000000000000e+00,4.659272670745849609e+00,4.547801971435546875e+00,4.558545589447021484e+00,4.585423469543457031e+00,5.000000000000000000e+00,4.727217197418212891e+00,5.000000000000000000e+00,5.000000000000000000e+00,5.000000000000000000e+00,5.000000000000000000e+00,5.000000000000000000e+00,5.000000000000000000e+00,5.000000000000000000e+00,5.000000000000000000e+00,5.000000000000000000e+00,4.861660957336425781e+00,4.670741081237792969e+00,4.494249343872070312e+00,4.330610275268554688e+00,4.178468704223632812e+00,4.036654472351074219e+00,3.904150485992431641e+00,3.780068874359130859e+00,3.663631439208984375e+00,3.554152965545654297e+00,3.451027631759643555e+00,3.353718042373657227e+00,3.261745691299438477e+00,3.174683094024658203e+00,3.092147350311279297e+00,3.013794660568237305e+00,2.939314603805541992e+00,2.868426799774169922e+00,2.800877809524536133e+00,2.736437082290649414e+00,2.674894809722900391e+00,2.616060018539428711e+00,2.559757471084594727e+00,2.505827426910400391e+00,2.454122781753540039e+00,2.404509067535400391e+00,2.356861352920532227e+00,2.311065435409545898e+00,2.267015218734741211e+00,2.224612951278686523e+00,2.183767557144165039e+00,2.144395112991333008e+00,2.106417417526245117e+00,2.069761276245117188e+00,2.034359216690063477e+00,2.000147819519042969e+00,1.967068076133728027e+00,1.935064673423767090e+00,1.904085993766784668e+00,1.874083518981933594e+00,1.845011949539184570e+00
5.000000000000000000e+00,5.000000000000000000e+00,5.000000000000000000e+00,5.000000000000000000e+00,5.000000000000000000e+00,5.000000000000000000e+00,5.000000000000000000e+00,5.000000000000000000e+00,5.000000000000000000e+00,5.000000000000000000e+00,5.000000000000000000e+00,5.000000000000000000e+00,5.000000000000000000e+00,5.000000000000000000e+00,5.000000000000000000e+00,5.000000000000000000e+00,5.000000000000000000e+00,5.000000000000000000e+00,5.000000000000000000e+00,5.000000000000000000e+00,5.000000000000000000e+00,5.000000000000000000e+00,5.000000000000000000e+00,5.000000000000000000e+00,4.667914867401123047e+00,4.557380199432373047e+00,4.557524204254150391e+00,4.593581199645996094e+00,5.000000000000000000e+00,4.687716484069824219e+00,5.000000000000000000e+00,5.000000000000000000e+00,5.000000000000000000e+00,5.000000000000000000e+00,5.000000000000000000e+00,5.000000000000000000e+00,5.000000000000000000e+00,5.000000000000000000e+00,5.000000000000000000e+00,4.861801147460937500e+00,4.670870304107666016e+00,4.494369506835937500e+00,4.330721378326416016e+00,4.178572177886962891e+00,4.036751270294189453e+00,3.904240846633911133e+00,3.780153751373291016e+00,3.663711071014404297e+00,3.554228067398071289e+00,3.451098203659057617e+00,3.353784799575805664e+00,3.261808872222900391e+00,3.174742937088012695e+00,3.092204093933105469e+00,3.013848543167114258e+00,2.939365863800048828e+00,2.868475675582885742e+00,2.800924301147460938e+00,2.736481428146362305e+00,2.674937248229980469e+00,2.616100549697875977e+00,2.559796333312988281e+00,2.505864620208740234e+00,2.454158544540405273e+00,2.404543161392211914e+00,2.356894254684448242e+00,2.311097145080566406e+00,2.267045736312866211e+00,2.224642276763916016e+00,2.183795928955078125e+00,2.144422531127929688e+00,2.106443643569946289e+00,2.069786548614501953e+00,2.034383773803710938e+00,2.000171422958374023e+00,1.967090964317321777e+00,1.935086846351623535e+00,1.904107451438903809e+00,1.874104261398315430e+00,1.845031976699829102e+00
5.000000000000000000e+00,5.000000000000000000e+00,5.000000000000000000e+00,5.000000000000000000e+00,5.000000000000000000e+00,5.000000000000000000e+00,5.000000000000000000e+00,5.000000000000000000e+00,5.000000000000000000e+00,5.000000000000000000e+00,5.000000000000000000e+00,5.000000000000000000e+00,5.000000000000000000e+00,5.000000000000000000e+00,5.000000000000000000e+00,5.000000000000000000e+00,5.000000000000000000e+00,5.000000000000000000e+00,5.000000000000000000e+00,5.000000000000000000e+00,5.000000000000000000e+00,5.000000000000000000e+00,5.000000000000000000e+00,5.000000000000000000e+00,4.607351303100585938e+00,4.538742065429687500e+00,4.589915275573730469e+00,4.604266166687011719e+00,5.000000000000000000e+00,4.650643348693847656e+00,5.000000000000000000e+00,5.000000000000000000e+00,5.000000000000000000e+00,5.000000000000000000e+00,5.000000000000000000e+00,5.000000000000000000e+00,5.000000000000000000e+00,5.000000000000000000e+00,5.000000000000000000e+00,4.861941337585449219e+00,4.670999526977539062e+00,4.494488716125488281e+00,4.330832481384277344e+00,4.178675651550292969e+00,4.036847591400146484e+00,3.904331207275390625e+00,3.780238389968872070e+00,3.663790702819824219e+00,3.554302930831909180e+00,3.451169013977050781e+00,3.353851556777954102e+00,3.261871814727783203e+00,3.174802780151367188e+00,3.092260837554931641e+00,3.013902425765991211e+00,2.939416885375976562e+00,2.868524312973022461e+00,2.800970792770385742e+00,2.736525774002075195e+00,2.674979686737060547e+00,2.616141080856323242e+00,2.559835195541381836e+00,2.505901813507080078e+00,2.454194307327270508e+00,2.404577493667602539e+00,2.356927394866943359e+00,2.311128616333007812e+00,2.267076253890991211e+00,2.224671602249145508e+00,2.183824300765991211e+00,2.144449710845947266e+00,2.106470108032226562e+00,2.069811820983886719e+00,2.034408330917358398e+00,2.000195264816284180e+00,1.967113971710205078e+00,1.935109138488769531e+00,1.904129028320312500e+00,1.874125242233276367e+00,1.845052361488342285e+00
5.000000000000000000e+00,5.000000000000000000e+00,5.000000000000000000e+00,5.000000000000000000e+00,5.000000000000000000e+00,5.000000000000000000e+00,5.000000000000000000e+00,5.000000000000000000e+00,5.000000000000000000e+00,5.000000000000000000e+00,5.000000000000000000e+00,5.000000000000000000e+00,5.000000000000000000e+00,5.000000000000000000e+00,5.000000000000000000e+00,5.000000000000000000e+00,5.000000000000000000e+00,5.000000000000000000e+00,5.000000000000000000e+00,5.000000000000000000e+00,5.000000000000000000e+00,5.000000000000000000e+00,5.000000000000000000e+00,5.000000000000000000e+00,4.575432300567626953e+00,4.507980346679687500e+00,4.560091972351074219e+00,4.582711219787597656e+00,4.636032581329345703e+00,4.601562976837158203e+00,5.000000000000000000e+00,5.000000000000000000e+00,5.000000000000000000e+00,5.000000000000000000e+00,5.000000000000000000e+00,5.000000000000000000e+00,5.000000000000000000e+00,5.000000000000000000e+00,5.000000000000000000e+00,4.862081050872802734e+00,4.671128749847412109e+00,4.494608402252197266e+00,4.330943584442138672e+00,4.178779125213623047e+00,4.036944389343261719e+00,3.904421806335449219e+00,3.780323266983032227e+00,3.663870334625244141e+00,3.554377794265747070e+00,3.451239585876464844e+00,3.353918075561523438e+00,3.261934995651245117e+00,3.174862384796142578e+00,3.092317581176757812e+00,3.013956308364868164e+00,2.939468145370483398e+00,2.868573188781738281e+00,2.801017522811889648e+00,2.736570358276367188e+00,2.675022125244140625e+00,2.616181612014770508e+00,2.559874057769775391e+00,2.505939245223999023e+00,2.454230070114135742e+00,2.404611825942993164e+00,2.356960296630859375e+00,2.311160326004028320e+00,2.267106533050537109e+00,2.224700927734375000e+00,2.183852434158325195e+00,2.144476890563964844e+00,2.106496334075927734e+00,2.069837331771850586e+00,2.034432888031005859e+00,2.000218868255615234e+00,1.967136859893798828e+00,1.935131192207336426e+00,1.904150485992431641e+00,1.874145984649658203e+00,1.845072388648986816e+00
5.000000000000000000e+00,5.000000000000000000e+00,5.000000000000000000e+00,5.000000000000000000e+00,5.000000000000000000e+00,5.000000000000000000e+00,5.000000000000000000e+00,5.000000000000000000e+00,5.000000000000000000e+00,5.000000000000000000e+00,5.000000000000000000e+00,5.000000000000000000e+00,5.000000000000000000e+00,5.000000000000000000e+00,5.000000000000000000e+00,5.000000000000000000e+00,5.000000000000000000e+00,5.000000000000000000e+00,5.000000000000000000e+00,5.000000000000000000e+00,5.000000000000000000e+00,5.000000000000000000e+00,5.000000000000000000e+00,5.000000000000000000e+00,4.614991188049316406e+00,4.497770786285400391e+00,4.538311004638671875e+00,4.582506179809570312e+00,4.635133266448974609e+00,5.000000000000000000e+00,5.000000000000000000e+00,5.000000000000000000e+00,5.000000000000000000e+00,5.000000000000000000e+00,5.000000000000000000e+00,5.000000000000000000e+00,5.000000000000000000e+00,5.000000000000000000e+00,5.000000000000000000e+00,4.862221240997314453e+00,4.671257972717285156e+00,4.494728565216064453e+00,4.331055164337158203e+00,4.178883075714111328e+00,4.037041187286376953e+00,3.904512166976928711e+00,3.780407905578613281e+00,3.663949966430664062e+00,3.554452657699584961e+00,3.451310157775878906e+00,3.353984832763671875e+00,3.261998176574707031e+00,3.174922227859497070e+00,3.092374324798583984e+00,3.014010190963745117e+00,2.939519405364990234e+00,2.868622064590454102e+00,2.801064014434814453e+00,2.736614704132080078e+00,2.675064563751220703e+00,2.616222381591796875e+00,2.559912919998168945e+00,2.505976438522338867e+00,2.454265832901000977e+00,2.404646158218383789e+00,2.356993198394775391e+00,2.311192035675048828e+00,2.267137050628662109e+00,2.224730014801025391e+00,2.183880567550659180e+00,2.144504070281982422e+00,2.106522560119628906e+00,2.069862604141235352e+00,2.034457206726074219e+00,2.000242710113525391e+00,1.967159867286682129e+00,1.935153484344482422e+00,1.904172062873840332e+00,1.874166846275329590e+00,1.845092654228210449e+00
5.000000000000000000e+00,5.000000000000000000e+00,5.000000000000000000e+00,5.000000000000000000e+00,5.000000000000000000e+00,5.000000000000000000e+00,5.000000000000000000e+00,5.000000000000000000e+00,5.000000000000000000e+00,5.000000000000000000e+00,5.000000000000000000e+00,5.000000000000000000e+00,5.000000000000000000e+00,5.000000000000000000e+00,5.000000000000000000e+00,5.000000000000000000e+00,5.000000000000000000e+00,5.000000000000000000e+00,5.000000000000000000e+00,5.000000000000000000e+00,5.000000000000000000e+00,5.000000000000000000e+00,5.000000000000000000e+00,5.000000000000000000e+00,5.000000000000000000e+00,4.485621452331542969e+00,4.519497871398925781e+00,4.587108135223388672e+00,5.000000000000000000e+00,5.000000000000000000e+00,5.000000000000000000e+00,5.000000000000000000e+00,5.000000000000000000e+00,5.000000000000000000e+00,5.000000000000000000e+00,5.000000000000000000e+00,5.000000000000000000e+00,5.000000000000000000e+00,5.000000000000000000e+00,4.862361431121826172e+00,4.671387672424316406e+00,4.494848251342773438e+00,4.331166267395019531e+00,4.178986549377441406e+00,4.037137508392333984e+00,3.904602527618408203e+00,3.780492782592773438e+00,3.664029598236083984e+00,3.554527759552001953e+00,3.451380968093872070e+00,3.354051589965820312e+00,3.262061119079589844e+00,3.174982070922851562e+00,3.092431068420410156e+00,3.014064073562622070e+00,2.939570665359497070e+00,2.868670701980590820e+00,2.801110506057739258e+00,2.736659049987792969e+00,2.675107002258300781e+00,2.616262912750244141e+00,2.559951782226562500e+00,2.506013631820678711e+00,2.454301595687866211e+00,2.404680490493774414e+00,2.357025861740112305e+00,2.311223506927490234e+00,2.267167329788208008e+00,2.224759578704833984e+00,2.183908939361572266e+00,2.144531488418579102e+00,2.106548786163330078e+00,2.069888114929199219e+00,2.034481763839721680e+00,2.000266313552856445e+00,1.967182755470275879e+00,1.935175657272338867e+00,1.904193401336669922e+00,1.874187588691711426e+00,1.845112800598144531e+00
5.000000000000000000e+00,5.000000000000000000e+00,5.000000000000000000e+00,5.000000000000000000e+00,5.000000000000000000e+00,5.000000000000000000e+00,5.000000000000000000e+00,5.000000000000000000e+00,5.000000000000000000e+00,5.000000000000000000e+00,5.000000000000000000e+00,5.000000000000000000e+00,5.000000000000000000e+00,5.000000000000000000e+00,5.000000000000000000e+00,5.000000000000000000e+00,5.000000000000000000e+00,5.000000000000000000e+00,5.000000000000000000e+00,5.000000000000000000e+00,5.000000000000000000e+00,5.000000000000000000e+00,5.000000000000000000e+00,5.000000000000000000e+00,5.000000000000000000e+00,4.475858688354492188e+00,4.496844768524169922e+00,4.591993808746337891e+00,5.000000000000000000e+00,5.000000000000000000e+00,5.000000000000000000e+00,5.000000000000000000e+00,5.000000000000000000e+00,5.000000000000000000e+00,5.000000000000000000e+00,5.000000000000000000e+00,5.000000000000000000e+00,5.000000000000000000e+00,5.000000000000000000e+00,4.862501621246337891e+00,4.671516895294189453e+00,4.494967937469482422e+00,4.331277370452880859e+00,4.179090023040771484e+00,4.037234306335449219e+00,3.904692888259887695e+00,3.780577421188354492e+00,3.664109230041503906e+00,3.554602622985839844e+00,3.451451539993286133e+00,3.354118347167968750e+00,3.262124300003051758e+00,3.175041675567626953e+00,3.092487812042236328e+00,3.014117956161499023e+00,2.939621925354003906e+00,2.868719577789306641e+00,2.801156997680664062e+00,2.736703395843505859e+00,2.675149440765380859e+00,2.616303443908691406e+00,2.559990644454956055e+00,2.506050825119018555e+00,2.454337120056152344e+00,2.404714584350585938e+00,2.357059001922607422e+00,2.311255216598510742e+00,2.267197847366333008e+00,2.224788904190063477e+00,2.183937311172485352e+00,2.144558668136596680e+00,2.106575250625610352e+00,2.069913625717163086e+00,2.034506320953369141e+00,2.000290155410766602e+00,1.967205762863159180e+00,1.935197949409484863e+00,1.904215097427368164e+00,1.874208569526672363e+00,1.845133066177368164e+00
5.000000000000000000e+00,5.000000000000000000e+00,5.000000000000000000e+00,5.000000000000000000e+00,5.000000000000000000e+00,5.000000000000000000e+00,5.000000000000000000e+00,5.000000000000000000e+00,5.000000000000000000e+00,5.000000000000000000e+00,5.000000000000000000e+00,5.000000000000000000e+00,5.000000000000000000e+00,5.000000000000000000e+00,5.000000000000000000e+00,5.000000000000000000e+00,5.000000000000000000e+00,5.000000000000000000e+00,5.000000000000000000e+00,5.000000000000000000e+00,5.000000000000000000e+00,5.000000000000000000e+00,5.000000000000000000e+00,5.000000000000000000e+00,5.000000000000000000e+00,4.494933128356933594e+00,4.503658771514892578e+00,4.594834327697753906e+00,5.000000000000000000e+00,5.000000000000000000e+00,5.000000000000000000e+00,5.000000000000000000e+00,5.000000000000000000e+00,5.000000000000000000e+00,5.000000000000000000e+00,5.000000000000000000e+00,5.000000000000000000e+00,5.000000000000000000e+00,5.000000000000000000e+00,4.862640857696533203e+00,4.671646595001220703e+00,4.495088100433349609e+00,4.331388950347900391e+00,4.179193496704101562e+00,4.037330627441406250e+00,3.904783487319946289e+00,3.780662298202514648e+00,3.664188861846923828e+00,3.554677486419677734e+00,3.451522111892700195e+00,3.354185104370117188e+00,3.262187480926513672e+00,3.175101518630981445e+00,3.092544555664062500e+00,3.014171600341796875e+00,2.939673185348510742e+00,2.868768453598022461e+00,2.801203489303588867e+00,2.736747980117797852e+00,2.675191879272460938e+00,2.616343975067138672e+00,2.560029268264770508e+00,2.506088018417358398e+00,2.454372882843017578e+00,2.404748916625976562e+00,2.357091903686523438e+00,2.311286926269531250e+00,2.267228364944458008e+00,2.224818229675292969e+00,2.183965444564819336e+00,2.144586086273193359e+00,2.106601476669311523e+00,2.069938898086547852e+00,2.034530878067016602e+00,2.000313758850097656e+00,1.967228651046752930e+00,1.935220003128051758e+00,1.904236435890197754e+00,1.874229311943054199e+00,1.845153212547302246e+00
5.000000000000000000e+00,5.000000000000000000e+00,5.000000000000000000e+00,5.000000000000000000e+00,5.000000000000000000e+00,5.000000000000000000e+00,5.000000000000000000e+00,5.000000000000000000e+00,5.000000000000000000e+00,5.000000000000000000e+00,5.000000000000000000e+00,5.000000000000000000e+00,5.000000000000000000e+00,5.000000000000000000e+00,5.000000000000000000e+00,5.000000000000000000e+00,5.000000000000000000e+00,5.000000000000000000e+00,5.000000000000000000e+00,5.000000000000000000e+00,5.000000000000000000e+00,5.000000000000000000e+00,5.000000000000000000e+00,5.000000000000000000e+00,5.000000000000000000e+00,4.524550437927246094e+00,4.548563480377197266e+00,4.664296150207519531e+00,5.000000000000000000e+00,5.000000000000000000e+00,5.000000000000000000e+00,5.000000000000000000e+00,5.000000000000000000e+00,5.000000000000000000e+00,5.000000000000000000e+00,5.000000000000000000e+00,5.000000000000000000e+00,5.000000000000000000e+00,5.000000000000000000e+00,4.862779617309570312e+00,4.671775341033935547e+00,4.495207786560058594e+00,4.331499576568603516e+00,4.179296970367431641e+00,4.037427425384521484e+00,3.904873847961425781e+00,3.780746936798095703e+00,3.664268493652343750e+00,3.554752588272094727e+00,3.451592922210693359e+00,3.354251861572265625e+00,3.262250423431396484e+00,3.175161361694335938e+00,3.092601060867309570e+00,3.014225482940673828e+00,2.939724445343017578e+00,2.868817329406738281e+00,2.801249980926513672e+00,2.736792087554931641e+00,2.675234317779541016e+00,2.616384506225585938e+00,2.560068130493164062e+00,2.506125211715698242e+00,2.454408407211303711e+00,2.404783010482788086e+00,2.357124805450439453e+00,2.311318635940551758e+00,2.267258882522583008e+00,2.224847555160522461e+00,2.183993816375732422e+00,2.144613265991210938e+00,2.106627702713012695e+00,2.069964408874511719e+00,2.034555435180664062e+00,2.000337600708007812e+00,1.967251658439636230e+00,1.935242414474487305e+00,1.904258012771606445e+00,1.874250173568725586e+00,1.845173478126525879e+00
5.000000000000000000e+00,5.000000000000000000e+00,5.000000000000000000e+00,5.000000000000000000e+00,5.000000000000000000e+00,5.000000000000000000e+00,5.000000000000000000e+00,5.000000000000000000e+00,5.000000000000000000e+00,5.000000000000000000e+00,5.000000000000000000e+00,5.000000000000000000e+00,5.000000000000000000e+00,5.000000000000000000e+00,5.000000000000000000e+00,5.000000000000000000e+00,5.000000000000000000e+00,5.000000000000000000e+00,5.000000000000000000e+00,5.000000000000000000e+00,5.000000000000000000e+00,5.000000000000000000e+00,5.000000000000000000e+00,5.000000000000000000e+00,5.000000000000000000e+00,4.554344654083251953e+00,4.553134441375732422e+00,4.794736385345458984e+00,5.000000000000000000e+00,5.000000000000000000e+00,5.000000000000000000e+00,5.000000000000000000e+00,5.000000000000000000e+00,5.000000000000000000e+00,5.000000000000000000e+00,5.000000000000000000e+00,5.000000000000000000e+00,5.000000000000000000e+00,5.000000000000000000e+00,4.862918376922607422e+00,4.671903133392333984e+00,4.495327472686767578e+00,4.331611156463623047e+00,4.179400444030761719e+00,4.037524223327636719e+00,3.904964208602905273e+00,3.780831813812255859e+00,3.664348125457763672e+00,3.554827451705932617e+00,3.451663494110107422e+00,3.354318380355834961e+00,3.262313604354858398e+00,3.175221204757690430e+00,3.092657804489135742e+00,3.014279365539550781e+00,2.939775705337524414e+00,2.868865728378295898e+00,2.801296472549438477e+00,2.736836433410644531e+00,2.675276756286621094e+00,2.616425037384033203e+00,2.560106992721557617e+00,2.506162405014038086e+00,2.454444169998168945e+00,2.404817342758178711e+00,2.357157707214355469e+00,2.311350345611572266e+00,2.267289400100708008e+00,2.224876880645751953e+00,2.184022188186645508e+00,2.144640445709228516e+00,2.106654167175292969e+00,2.069989681243896484e+00,2.034579992294311523e+00,2.000361204147338867e+00,1.967274546623229980e+00,1.935264468193054199e+00,1.904279470443725586e+00,1.874270915985107422e+00,1.845193505287170410e+00
5.000000000000000000e+00,5.000000000000000000e+00,5.000000000000000000e+00,5.000000000000000000e+00,5.000000000000000000e+00,5.000000000000000000e+00,5.000000000000000000e+00,5.000000000000000000e+00,5.000000000000000000e+00,5.000000000000000000e+00,5.000000000000000000e+00,5.000000000000000000e+00,5.000000000000000000e+00,5.000000000000000000e+00,5.000000000000000000e+00,5.000000000000000000e+00,5.000000000000000000e+00,5.000000000000000000e+00,5.000000000000000000e+00,5.000000000000000000e+00,5.000000000000000000e+00,5.000000000000000000e+00,5.000000000000000000e+00,5.000000000000000000e+00,5.000000000000000000e+00,4.583727359771728516e+00,4.554359436035156250e+00,4.899930000305175781e+00,5.000000000000000000e+00,5.000000000000000000e+00,5.000000000000000000e+00,5.000000000000000000e+00,5.000000000000000000e+00,5.000000000000000000e+00,5.000000000000000000e+00,5.000000000000000000e+00,5.000000000000000000e+00,5.000000000000000000e+00,5.000000000000000000e+00,4.863057136535644531e+00,4.672031402587890625e+00,4.495446205139160156e+00,4.331722259521484375e+00,4.179503917694091797e+00,4.037620544433593750e+00,3.905054569244384766e+00,3.780916452407836914e+00,3.664427757263183594e+00,3.554902315139770508e+00,3.451734066009521484e+00,3.354385137557983398e+00,3.262376785278320312e+00,3.175281047821044922e+00,3.092714548110961914e+00,3.014333009719848633e+00,2.939826726913452148e+00,2.868914604187011719e+00,2.801342964172363281e+00,2.736881017684936523e+00,2.675319194793701172e+00,2.616465806961059570e+00,2.560145854949951172e+00,2.506199598312377930e+00,2.454479932785034180e+00,2.404851675033569336e+00,2.357190847396850586e+00,2.311382055282592773e+00,2.267319917678833008e+00,2.224906206130981445e+00,2.184050321578979492e+00,2.144667863845825195e+00,2.106680393218994141e+00,2.070015192031860352e+00,2.034604549407958984e+00,2.000385046005249023e+00,1.967297673225402832e+00,1.935286760330200195e+00,1.904301047325134277e+00,1.874291896820068359e+00,1.845213890075683594e+00
5.000000000000000000e+00,5.000000000000000000e+00,5.000000000000000000e+00,5.000000000000000000e+00,5.000000000000000000e+00,5.000000000000000000e+00,5.000000000000000000e+00,5.000000000000000000e+00,5.000000000000000000e+00,5.000000000000000000e+00,5.000000000000000000e+00,5.000000000000000000e+00,5.000000000000000000e+00,5.000000000000000000e+00,5.000000000000000000e+00,5.000000000000000000e+00,5.000000000000000000e+00,5.000000000000000000e+00,5.000000000000000000e+00,5.000000000000000000e+00,5.000000000000000000e+00,5.000000000000000000e+00,5.000000000000000000e+00,5.000000000000000000e+00,5.000000000000000000e+00,5.000000000000000000e+00,4.557961940765380859e+00,4.996709346771240234e+00,5.000000000000000000e+00,5.000000000000000000e+00,5.000000000000000000e+00,5.000000000000000000e+00,5.000000000000000000e+00,5.000000000000000000e+00,5.000000000000000000e+00,5.000000000000000000e+00,5.000000000000000000e+00,5.000000000000000000e+00,5.000000000000000000e+00,4.863196372985839844e+00,4.672159671783447266e+00,4.495564937591552734e+00,4.331832885742187500e+00,4.179607868194580078e+00,4.037717342376708984e+00,3.905145168304443359e+00,3.781001329421997070e+00,3.664507389068603516e+00,3.554977416992187500e+00,3.451804876327514648e+00,3.354451894760131836e+00,3.262439489364624023e+00,3.175340414047241211e+00,3.092771053314208984e+00,3.014386892318725586e+00,2.939877986907958984e+00,2.868963479995727539e+00,2.801389455795288086e+00,2.736925363540649414e+00,2.675361633300781250e+00,2.616506338119506836e+00,2.560184717178344727e+00,2.506237030029296875e+00,2.454515695571899414e+00,2.404886007308959961e+00,2.357223749160766602e+00,2.311413764953613281e+00,2.267350435256958008e+00,2.224935531616210938e+00,2.184078693389892578e+00,2.144695043563842773e+00,2.106706857681274414e+00,2.070040702819824219e+00,2.034629106521606445e+00,2.000408887863159180e+00,1.967320442199707031e+00,1.935308933258056641e+00,1.904322504997253418e+00,1.874312639236450195e+00,1.845233917236328125e+00
5.000000000000000000e+00,5.000000000000000000e+00,5.000000000000000000e+00,5.000000000000000000e+00,5.000000000000000000e+00,5.000000000000000000e+00,5.000000000000000000e+00,5.000000000000000000e+00,5.000000000000000000e+00,5.000000000000000000e+00,5.000000000000000000e+00,5.000000000000000000e+00,5.000000000000000000e+00,5.000000000000000000e+00,5.000000000000000000e+00,5.000000000000000000e+00,5.000000000000000000e+00,5.000000000000000000e+00,5.000000000000000000e+00,5.000000000000000000e+00,5.000000000000000000e+00,5.000000000000000000e+00,5.000000000000000000e+00,5.000000000000000000e+00,5.000000000000000000e+00,5.000000000000000000e+00,4.573106765747070312e+00,5.000000000000000000e+00,5.000000000000000000e+00,5.000000000000000000e+00,5.000000000000000000e+00,5.000000000000000000e+00,5.000000000000000000e+00,5.000000000000000000e+00,5.000000000000000000e+00,5.000000000000000000e+00,5.000000000000000000e+00,5.000000000000000000e+00,5.000000000000000000e+00,4.863335132598876953e+00,4.672287940979003906e+00,4.495683670043945312e+00,4.331943035125732422e+00,4.179711341857910156e+00,4.037814140319824219e+00,3.905235528945922852e+00,3.781086206436157227e+00,3.664587020874023438e+00,3.555052280426025391e+00,3.451875209808349609e+00,3.354518413543701172e+00,3.262502670288085938e+00,3.175400257110595703e+00,3.092827796936035156e+00,3.014440774917602539e+00,2.939929246902465820e+00,2.869012117385864258e+00,2.801435947418212891e+00,2.736969709396362305e+00,2.675404071807861328e+00,2.616546869277954102e+00,2.560223579406738281e+00,2.506274223327636719e+00,2.454551458358764648e+00,2.404920339584350586e+00,2.357256650924682617e+00,2.311445474624633789e+00,2.267380952835083008e+00,2.224964857101440430e+00,2.184107065200805664e+00,2.144722461700439453e+00,2.106733083724975586e+00,2.070065975189208984e+00,2.034653663635253906e+00,2.000432491302490234e+00,1.967343568801879883e+00,1.935331225395202637e+00,1.904344081878662109e+00,1.874333500862121582e+00,1.845254182815551758e+00
4.874937534332275391e+00,4.873726367950439453e+00,4.872516155242919922e+00,4.871306419372558594e+00,4.870097160339355469e+00,4.868888378143310547e+00,4.867680549621582031e+00,4.866473197937011719e+00,4.865266323089599609e+00,4.864059925079345703e+00,4.862854480743408203e+00,4.861649513244628906e+00,4.860445022583007812e+00,4.859241485595703125e+00,4.858037948608398438e+00,4.856835365295410156e+00,4.855633258819580078e+00,4.854432106018066406e+00,4.853231430053710938e+00,4.852031230926513672e+00,4.850831508636474609e+00,4.849632740020751953e+00,4.848433971405029297e+00,4.847236156463623047e+00,4.846038818359375000e+00,4.844842433929443359e+00,4.472166061401367188e+00,4.842450618743896484e+00,4.841255664825439453e+00,4.840061664581298828e+00,4.838867664337158203e+00,4.837674617767333984e+00,4.836482048034667969e+00,4.835289955139160156e+00,4.834098339080810547e+00,4.832907676696777344e+00,4.831717491149902344e+00,4.830527782440185547e+00,4.829339027404785156e+00,4.828150749206542969e+00,4.672416210174560547e+00,4.495802402496337891e+00,4.332053184509277344e+00,4.179813861846923828e+00,4.037910938262939453e+00,3.905325889587402344e+00,3.781170606613159180e+00,3.664666175842285156e+00,3.555126905441284180e+00,3.451945781707763672e+00,3.354585170745849609e+00,3.262565851211547852e+00,3.175460100173950195e+00,3.092884540557861328e+00,3.014494657516479492e+00,2.939980506896972656e+00,2.869060993194580078e+00,2.801482439041137695e+00,2.737014293670654297e+00,2.675446510314941406e+00,2.616587400436401367e+00,2.560262441635131836e+00,2.506311416625976562e+00,2.454587221145629883e+00,2.404954671859741211e+00,2.357289552688598633e+00,2.311477184295654297e+00,2.267411231994628906e+00,2.224994421005249023e+00,2.184135198593139648e+00,2.144749641418457031e+00,2.106759309768676758e+00,2.070091485977172852e+00,2.034678220748901367e+00,2.000456333160400391e+00,1.967366337776184082e+00,1.935353279113769531e+00,1.904365539550781250e+00,1.874354243278503418e+00,1.845274329185485840e+00
3.777727842330932617e+00,3.777000665664672852e+00,3.776273250579833984e+00,3.775546789169311523e+00,3.774820327758789062e+00,3.774094343185424805e+00,3.773368120193481445e+00,3.772642612457275391e+00,3.771917581558227539e+00,3.771192550659179688e+00,3.770467519760131836e+00,3.769743204116821289e+00,3.769019126892089844e+00,3.768295288085937500e+00,3.767571449279785156e+00,3.766848087310791016e+00,3.766125202178955078e+00,3.765402555465698242e+00,3.764679670333862305e+00,3.763957500457763672e+00,3.763235569000244141e+00,3.762514114379882812e+00,3.761792421340942383e+00,3.761071443557739258e+00,3.760350704193115234e+00,3.759630203247070312e+00,3.758909463882446289e+00,3.758189678192138672e+00,3.757469892501831055e+00,3.756750583648681641e+00,3.756031036376953125e+00,3.755312204360961914e+00,3.754593610763549805e+00,3.753875494003295898e+00,3.753156900405883789e+00,3.752439260482788086e+00,3.751721858978271484e+00,3.751004695892333984e+00,3.750287294387817383e+00,3.749570608139038086e+00,3.748854398727416992e+00,3.748138189315795898e+00,3.747421979904174805e+00,3.746706485748291016e+00,3.745991230010986328e+00,3.745276212692260742e+00,3.744561195373535156e+00,3.664745807647705078e+00,3.555201768875122070e+00,3.452016353607177734e+00,3.354651689529418945e+00,3.262629032135009766e+00,3.175519943237304688e+00,3.092941284179687500e+00,3.014548540115356445e+00,2.940031766891479492e+00,2.869109869003295898e+00,2.801529169082641602e+00,2.737058639526367188e+00,2.675488948822021484e+00,2.616628170013427734e+00,2.560301303863525391e+00,2.506348609924316406e+00,2.454622983932495117e+00,2.404989004135131836e+00,2.357322454452514648e+00,2.311508655548095703e+00,2.267441749572753906e+00,2.225023746490478516e+00,2.184163570404052734e+00,2.144776821136474609e+00,2.106785774230957031e+00,2.070116758346557617e+00,2.034702777862548828e+00,2.000479936599731445e+00,1.967389464378356934e+00,1.935375452041625977e+00,1.904386878013610840e+00,1.874374985694885254e+00,1.845294356346130371e+00
3.083679199218750000e+00,3.083194732666015625e+00,3.082710266113281250e+00,3.082226037979125977e+00,3.081741809844970703e+00,3.081257820129394531e+00,3.080774068832397461e+00,3.080290555953979492e+00,3.079806804656982422e+00,3.079323291778564453e+00,3.078840255737304688e+00,3.078357219696044922e+00,3.077874183654785156e+00,3.077391386032104492e+00,3.076908826828002930e+00,3.076426506042480469e+00,3.075943946838378906e+00,3.075461864471435547e+00,3.074979782104492188e+00,3.074497938156127930e+00,3.074016094207763672e+00,3.073534727096557617e+00,3.073053359985351562e+00,3.072571992874145508e+00,3.072090864181518555e+00,3.071609973907470703e+00,3.071129083633422852e+00,3.070648431777954102e+00,3.070167779922485352e+00,3.069687604904174805e+00,3.069207429885864258e+00,3.068727493286132812e+00,3.068247318267822266e+00,3.067767620086669922e+00,3.067287921905517578e+00,3.066808700561523438e+00,3.066329240798950195e+00,3.065850019454956055e+00,3.065371274948120117e+00,3.064892292022705078e+00,3.064413547515869141e+00,3.063935041427612305e+00,3.063456773757934570e+00,3.062978506088256836e+00,3.062500238418579102e+00,3.062022209167480469e+00,3.061544418334960938e+00,3.061066865921020508e+00,3.060589075088500977e+00,3.060111999511718750e+00,3.059634685516357422e+00,3.059157609939575195e+00,3.058680534362792969e+00,3.058203935623168945e+00,3.014602661132812500e+00,2.940083026885986328e+00,2.869158744812011719e+00,2.801575660705566406e+00,2.737102985382080078e+00,2.675531387329101562e+00,2.616668701171875000e+00,2.560340404510498047e+00,2.506386041641235352e+00,2.454658508300781250e+00,2.405023336410522461e+00,2.357355594635009766e+00,2.311540365219116211e+00,2.267472267150878906e+00,2.225053071975708008e+00,2.184191942214965820e+00,2.144804239273071289e+00,2.106812000274658203e+00,2.070142269134521484e+00,2.034727334976196289e+00,2.000503540039062500e+00,1.967412233352661133e+00,1.935397744178771973e+00,1.904408454895019531e+00,1.874395966529846191e+00,1.845314741134643555e+00
2.605072498321533203e+00,2.604726552963256836e+00,2.604380607604980469e+00,2.604035139083862305e+00,2.603689670562744141e+00,2.603344202041625977e+00,2.602998495101928711e+00,2.602653264999389648e+00,2.602308273315429688e+00,2.601963043212890625e+00,2.601617813110351562e+00,2.601273059844970703e+00,2.600928306579589844e+00,2.600583553314208984e+00,2.600238800048828125e+00,2.599894285202026367e+00,2.599549770355224609e+00,2.599205493927001953e+00,2.598860979080200195e+00,2.598516702651977539e+00,2.598172664642333984e+00,2.597828865051269531e+00,2.597484588623046875e+00,2.597140789031982422e+00,2.596797227859497070e+00,2.596453666687011719e+00,2.596109867095947266e+00,2.595766544342041016e+00,2.595422983169555664e+00,2.595079898834228516e+00,2.594736576080322266e+00,2.594393491744995117e+00,2.594050407409667969e+00,2.593707561492919922e+00,2.593364477157592773e+00,2.593021869659423828e+00,2.592679262161254883e+00,2.592336654663085938e+00,2.591994047164916992e+00,2.591651678085327148e+00,2.591309547424316406e+00,2.590967416763305664e+00,2.590625047683715820e+00,2.590283155441284180e+00,2.589941263198852539e+00,2.589599370956420898e+00,2.589257478713989258e+00,2.588915824890136719e+00,2.588574409484863281e+00,2.588232994079589844e+00,2.587891340255737305e+00,2.587550163269042969e+00,2.587208986282348633e+00,2.586867809295654297e+00,2.586526632308959961e+00,2.586185932159423828e+00,2.585844993591308594e+00,2.585504293441772461e+00,2.585163593292236328e+00,2.584822893142700195e+00,2.584482431411743164e+00,2.560379266738891602e+00,2.506423234939575195e+00,2.454694271087646484e+00,2.405057430267333984e+00,2.357388496398925781e+00,2.311572074890136719e+00,2.267502784729003906e+00,2.225082397460937500e+00,2.184220075607299805e+00,2.144831418991088867e+00,2.106838464736938477e+00,2.070167541503906250e+00,2.034751892089843750e+00,2.000527381896972656e+00,1.967435121536254883e+00,1.935419917106628418e+00,1.904429912567138672e+00,1.874416708946228027e+00,1.845334768295288086e+00
2.255108118057250977e+00,2.254847288131713867e+00,2.254586458206176758e+00,2.254325866699218750e+00,2.254065275192260742e+00,2.253804683685302734e+00,2.253544092178344727e+00,2.253283500671386719e+00,2.253023147583007812e+00,2.252762794494628906e+00,2.252502679824829102e+00,2.252242326736450195e+00,2.251982212066650391e+00,2.251722097396850586e+00,2.251461982727050781e+00,2.251202106475830078e+00,2.250942230224609375e+00,2.250682353973388672e+00,2.250422477722167969e+00,2.250162839889526367e+00,2.249902963638305664e+00,2.249643325805664062e+00,2.249383926391601562e+00,2.249125242233276367e+00,2.248867273330688477e+00,2.248609542846679688e+00,2.248351812362670898e+00,2.248094320297241211e+00,2.247836589813232422e+00,2.247579097747802734e+00,2.247321844100952148e+00,2.247064352035522461e+00,2.246806859970092773e+00,2.246549844741821289e+00,2.246292591094970703e+00,2.246035337448120117e+00,2.245778322219848633e+00,2.245521306991577148e+00,2.245264291763305664e+00,2.245007276535034180e+00,2.244750499725341797e+00,2.244493722915649414e+00,2.244236946105957031e+00,2.243980407714843750e+00,2.243723630905151367e+00,2.243467092514038086e+00,2.243210554122924805e+00,2.242954254150390625e+00,2.242697715759277344e+00,2.242441415786743164e+00,2.242185115814208984e+00,2.241929054260253906e+00,2.241672754287719727e+00,2.241416692733764648e+00,2.241160631179809570e+00,2.240904569625854492e+00,2.240648746490478516e+00,2.240392923355102539e+00,2.240137100219726562e+00,2.239881277084350586e+00,2.239625453948974609e+00,2.239369869232177734e+00,2.239114522933959961e+00,2.238858938217163086e+00,2.238603353500366211e+00,2.238348007202148438e+00,2.238092660903930664e+00,2.237837553024291992e+00,2.225111722946166992e+00,2.184248208999633789e+00,2.144858598709106445e+00,2.106864690780639648e+00,2.070193052291870117e+00,2.034776449203491211e+00,2.000550985336303711e+00,1.967458128929138184e+00,1.935442209243774414e+00,1.904451489448547363e+00,1.874437570571899414e+00,1.845355153083801270e+00
1.988109111785888672e+00,1.987906575202941895e+00,1.987703800201416016e+00,1.987501025199890137e+00,1.987298607826232910e+00,1.987095952033996582e+00,1.986893534660339355e+00,1.986690998077392578e+00,1.986488699913024902e+00,1.986286163330078125e+00,1.986083745956420898e+00,1.985881567001342773e+00,1.985679149627685547e+00,1.985477089881896973e+00,1.985274791717529297e+00,1.985072851181030273e+00,1.984870672225952148e+00,1.984668493270874023e+00,1.984466552734375000e+00,1.984264492988586426e+00,1.984062671661376953e+00,1.983860731124877930e+00,1.983658671379089355e+00,1.983457088470458984e+00,1.983255147933959961e+00,1.983053565025329590e+00,1.982851743698120117e+00,1.982650279998779297e+00,1.982448577880859375e+00,1.982246875762939453e+00,1.982045531272888184e+00,1.981843948364257812e+00,1.981642603874206543e+00,1.981441020965576172e+00,1.981239795684814453e+00,1.981038451194763184e+00,1.980836987495422363e+00,1.980635881423950195e+00,1.980434656143188477e+00,1.980233550071716309e+00,1.980032324790954590e+00,1.979831218719482422e+00,1.979630231857299805e+00,1.979429244995117188e+00,1.979228377342224121e+00,1.979027390480041504e+00,1.978826642036437988e+00,1.978625655174255371e+00,1.978424787521362305e+00,1.978224158287048340e+00,1.978023290634155273e+00,1.977822780609130859e+00,1.977622032165527344e+00,1.977421641349792480e+00,1.977220892906188965e+00,1.977020382881164551e+00,1.976819992065429688e+00,1.976619482040405273e+00,1.976419210433959961e+00,1.976218819618225098e+00,1.976018309593200684e+00,1.975818157196044922e+00,1.975617885589599609e+00,1.975417852401733398e+00,1.975217580795288086e+00,1.975017666816711426e+00,1.974817395210266113e+00,1.974617362022399902e+00,1.974417448043823242e+00,1.974217414855957031e+00,1.974017620086669922e+00,1.973817706108093262e+00,1.973618030548095703e+00,1.973418116569519043e+00,1.973218321800231934e+00,1.967481017112731934e+00,1.935464262962341309e+00,1.904472947120666504e+00,1.874458312988281250e+00,1.845375180244445801e+00
1.777641057968139648e+00,1.777479052543640137e+00,1.777316927909851074e+00,1.777155041694641113e+00,1.776992917060852051e+00,1.776830911636352539e+00,1.776669144630432129e+00,1.776507139205932617e+00,1.776345372200012207e+00,1.776183485984802246e+00,1.776021718978881836e+00,1.775859951972961426e+00,1.775698065757751465e+00,1.775536417961120605e+00,1.775374650955200195e+00,1.775213122367858887e+00,1.775051474571228027e+00,1.774889945983886719e+00,1.774728298187255859e+00,1.774566650390625000e+00,1.774405241012573242e+00,1.774243712425231934e+00,1.774082303047180176e+00,1.773920774459838867e+00,1.773759365081787109e+00,1.773598074913024902e+00,1.773436665534973145e+00,1.773275494575500488e+00,1.773114085197448730e+00,1.772952914237976074e+00,1.772791624069213867e+00,1.772630333900451660e+00,1.772469282150268555e+00,1.772308111190795898e+00,1.772147059440612793e+00,1.771985888481140137e+00,1.771824955940246582e+00,1.771663904190063477e+00,1.771502852439880371e+00,1.771341919898986816e+00,1.771180987358093262e+00,1.771020174026489258e+00,1.770859241485595703e+00,1.770698428153991699e+00,1.770537614822387695e+00,1.770376682281494141e+00,1.770216107368469238e+00,1.770055294036865234e+00,1.769894719123840332e+00,1.769733905792236328e+00,1.769573211669921875e+00,1.769412755966186523e+00,1.769252061843872070e+00,1.769091606140136719e+00,1.768931031227111816e+00,1.768770575523376465e+00,1.768610119819641113e+00,1.768449544906616211e+00,1.768289208412170410e+00,1.768128871917724609e+00,1.767968535423278809e+00,1.767808198928833008e+00,1.767647981643676758e+00,1.767487645149230957e+00,1.767327308654785156e+00,1.767167210578918457e+00,1.767006993293762207e+00,1.766847014427185059e+00,1.766686797142028809e+00,1.766526579856872559e+00,1.766366720199584961e+00,1.766206622123718262e+00,1.766046643257141113e+00,1.765886664390563965e+00,1.765726804733276367e+00,1.765566825866699219e+00,1.765406847000122070e+00,1.765247106552124023e+00,1.765087246894836426e+00,1.764927625656127930e+00
1.607468962669372559e+00,1.607336401939392090e+00,1.607203841209411621e+00,1.607071399688720703e+00,1.606938838958740234e+00,1.606806516647338867e+00,1.606674075126647949e+00,1.606541752815246582e+00,1.606409311294555664e+00,1.606276869773864746e+00,1.606144547462463379e+00,1.606012225151062012e+00,1.605880022048950195e+00,1.605747699737548828e+00,1.605615377426147461e+00,1.605483174324035645e+00,1.605350971221923828e+00,1.605218887329101562e+00,1.605086684226989746e+00,1.604954600334167480e+00,1.604822397232055664e+00,1.604690194129943848e+00,1.604558229446411133e+00,1.604426145553588867e+00,1.604294180870056152e+00,1.604162096977233887e+00,1.604030251502990723e+00,1.603898167610168457e+00,1.603766202926635742e+00,1.603634357452392578e+00,1.603502392768859863e+00,1.603370547294616699e+00,1.603238701820373535e+00,1.603106737136840820e+00,1.602975010871887207e+00,1.602843165397644043e+00,1.602711558341979980e+00,1.602579712867736816e+00,1.602448105812072754e+00,1.602316260337829590e+00,1.602184534072875977e+00,1.602052927017211914e+00,1.601921319961547852e+00,1.601789712905883789e+00,1.601658105850219727e+00,1.601526618003845215e+00,1.601395010948181152e+00,1.601263403892517090e+00,1.601131916046142578e+00,1.601000428199768066e+00,1.600869059562683105e+00,1.600737571716308594e+00,1.600606083869934082e+00,1.600474715232849121e+00,1.600343346595764160e+00,1.600211977958679199e+00,1.600080609321594238e+00,1.599949359893798828e+00,1.599817991256713867e+00,1.599686622619628906e+00,1.599555492401123047e+00,1.599424242973327637e+00,1.599293112754821777e+00,1.599161863327026367e+00,1.599030733108520508e+00,1.598899602890014648e+00,1.598768353462219238e+00,1.598637342453002930e+00,1.598506212234497070e+00,1.598375201225280762e+00,1.598244190216064453e+00,1.598113179206848145e+00,1.597982168197631836e+00,1.597851157188415527e+00,1.597720265388488770e+00,1.597589254379272461e+00,1.597458481788635254e+00,1.597327470779418945e+00,1.597196578979492188e+00,1.597065806388854980e+00
1.467031121253967285e+00,1.466920733451843262e+00,1.466810464859008789e+00,1.466699957847595215e+00,1.466589570045471191e+00,1.466479420661926270e+00,1.466369032859802246e+00,1.466258764266967773e+00,1.466148495674133301e+00,1.466038346290588379e+00,1.465927958488464355e+00,1.465817689895629883e+00,1.465707540512084961e+00,1.465597391128540039e+00,1.465487241744995117e+00,1.465377092361450195e+00,1.465266823768615723e+00,1.465156793594360352e+00,1.465046644210815430e+00,1.464936614036560059e+00,1.464826464653015137e+00,1.464716553688049316e+00,1.464606404304504395e+00,1.464496374130249023e+00,1.464386463165283203e+00,1.464276432991027832e+00,1.464166522026062012e+00,1.464056491851806641e+00,1.463946580886840820e+00,1.463836669921875000e+00,1.463726639747619629e+00,1.463616847991943359e+00,1.463506937026977539e+00,1.463397145271301270e+00,1.463287234306335449e+00,1.463177442550659180e+00,1.463067650794982910e+00,1.462957739830017090e+00,1.462848067283630371e+00,1.462738275527954102e+00,1.462628602981567383e+00,1.462518811225891113e+00,1.462409019470214844e+00,1.462299466133117676e+00,1.462189674377441406e+00,1.462080121040344238e+00,1.461970448493957520e+00,1.461860895156860352e+00,1.461751222610473633e+00,1.461641550064086914e+00,1.461532115936279297e+00,1.461422443389892578e+00,1.461313009262084961e+00,1.461203455924987793e+00,1.461094021797180176e+00,1.460984468460083008e+00,1.460874915122985840e+00,1.460765480995178223e+00,1.460656046867370605e+00,1.460546612739562988e+00,1.460437178611755371e+00,1.460327744483947754e+00,1.460218429565429688e+00,1.460108995437622070e+00,1.459999799728393555e+00,1.459890365600585938e+00,1.459781169891357422e+00,1.459671735763549805e+00,1.459562420845031738e+00,1.459453225135803223e+00,1.459343910217285156e+00,1.459234833717346191e+00,1.459125518798828125e+00,1.459016442298889160e+00,1.458907127380371094e+00,1.458797931671142578e+00,1.458688855171203613e+00,1.458579659461975098e+00,1.458470582962036133e+00,1.458361506462097168e+00
1.349160671234130859e+00,1.349067211151123047e+00,1.348973989486694336e+00,1.348880529403686523e+00,1.348787307739257812e+00,1.348693966865539551e+00,1.348600625991821289e+00,1.348507404327392578e+00,1.348414063453674316e+00,1.348320841789245605e+00,1.348227620124816895e+00,1.348134398460388184e+00,1.348041176795959473e+00,1.347947835922241211e+00,1.347854733467102051e+00,1.347761511802673340e+00,1.347668409347534180e+00,1.347575187683105469e+00,1.347482204437255859e+00,1.347388982772827148e+00,1.347295880317687988e+00,1.347202777862548828e+00,1.347109675407409668e+00,1.347016692161560059e+00,1.346923589706420898e+00,1.346830487251281738e+00,1.346737504005432129e+00,1.346644401550292969e+00,1.346551418304443359e+00,1.346458435058593750e+00,1.346365451812744141e+00,1.346272468566894531e+00,1.346179485321044922e+00,1.346086621284484863e+00,1.345993638038635254e+00,1.345900774002075195e+00,1.345807790756225586e+00,1.345714926719665527e+00,1.345622062683105469e+00,1.345529079437255859e+00,1.345436334609985352e+00,1.345343351364135742e+00,1.345250606536865234e+00,1.345157742500305176e+00,1.345064878463745117e+00,1.344972133636474609e+00,1.344879388809204102e+00,1.344786643981933594e+00,1.344693779945373535e+00,1.344601154327392578e+00,1.344508409500122070e+00,1.344415664672851562e+00,1.344322919845581055e+00,1.344230175018310547e+00,1.344137549400329590e+00,1.344044923782348633e+00,1.343952298164367676e+00,1.343859553337097168e+00,1.343766927719116211e+00,1.343674421310424805e+00,1.343581676483154297e+00,1.343489170074462891e+00,1.343396544456481934e+00,1.343304038047790527e+00,1.343211412429809570e+00,1.343118906021118164e+00,1.343026399612426758e+00,1.342933893203735352e+00,1.342841386795043945e+00,1.342748880386352539e+00,1.342656373977661133e+00,1.342563986778259277e+00,1.342471480369567871e+00,1.342379093170166016e+00,1.342286586761474609e+00,1.342194199562072754e+00,1.342101812362670898e+00,1.342009425163269043e+00,1.341917037963867188e+00,1.341824650764465332e+00
1.248822331428527832e+00,1.248742461204528809e+00,1.248662471771240234e+00,1.248582482337951660e+00,1.248502492904663086e+00,1.248422503471374512e+00,1.248342633247375488e+00,1.248262643814086914e+00,1.248182773590087891e+00,1.248102903366088867e+00,1.248022913932800293e+00,1.247943162918090820e+00,1.247863173484802246e+00,1.247783422470092773e+00,1.247703433036804199e+00,1.247623562812805176e+00,1.247543811798095703e+00,1.247463941574096680e+00,1.247384190559387207e+00,1.247304320335388184e+00,1.247224569320678711e+00,1.247144699096679688e+00,1.247064948081970215e+00,1.246985197067260742e+00,1.246905446052551270e+00,1.246825695037841797e+00,1.246745944023132324e+00,1.246666312217712402e+00,1.246586561203002930e+00,1.246506810188293457e+00,1.246427178382873535e+00,1.246347427368164062e+00,1.246267795562744141e+00,1.246188044548034668e+00,1.246108412742614746e+00,1.246028780937194824e+00,1.245949149131774902e+00,1.245869517326354980e+00,1.245789885520935059e+00,1.245710372924804688e+00,1.245630741119384766e+00,1.245551109313964844e+00,1.245471596717834473e+00,1.245391964912414551e+00,1.245312452316284180e+00,1.245232939720153809e+00,1.245153427124023438e+00,1.245073914527893066e+00,1.244994282722473145e+00,1.244914889335632324e+00,1.244835376739501953e+00,1.244755864143371582e+00,1.244676351547241211e+00,1.244596838951110840e+00,1.244517445564270020e+00,1.244438052177429199e+00,1.244358658790588379e+00,1.244279146194458008e+00,1.244199872016906738e+00,1.244120359420776367e+00,1.244040966033935547e+00,1.243961572647094727e+00,1.243882179260253906e+00,1.243802905082702637e+00,1.243723511695861816e+00,1.243644237518310547e+00,1.243564844131469727e+00,1.243485569953918457e+00,1.243406295776367188e+00,1.243326902389526367e+00,1.243247747421264648e+00,1.243168354034423828e+00,1.243089079856872559e+00,1.243009805679321289e+00,1.242930531501770020e+00,1.242851376533508301e+00,1.242772102355957031e+00,1.242692947387695312e+00,1.242613673210144043e+00,1.242534518241882324e+00
1.162375569343566895e+00,1.162306308746337891e+00,1.162237048149108887e+00,1.162167787551879883e+00,1.162098407745361328e+00,1.162029147148132324e+00,1.161959886550903320e+00,1.161890625953674316e+00,1.161821484565734863e+00,1.161752223968505859e+00,1.161682963371276855e+00,1.161613702774047852e+00,1.161544561386108398e+00,1.161475300788879395e+00,1.161406159400939941e+00,1.161337018013000488e+00,1.161267757415771484e+00,1.161198616027832031e+00,1.161129474639892578e+00,1.161060214042663574e+00,1.160991191864013672e+00,1.160922050476074219e+00,1.160852909088134766e+00,1.160783767700195312e+00,1.160714626312255859e+00,1.160645604133605957e+00,1.160576462745666504e+00,1.160507440567016602e+00,1.160438299179077148e+00,1.160369277000427246e+00,1.160300135612487793e+00,1.160231113433837891e+00,1.160162091255187988e+00,1.160092949867248535e+00,1.160024046897888184e+00,1.159954905509948730e+00,1.159885883331298828e+00,1.159816980361938477e+00,1.159747958183288574e+00,1.159678936004638672e+00,1.159609913825988770e+00,1.159541010856628418e+00,1.159471988677978516e+00,1.159403085708618164e+00,1.159334182739257812e+00,1.159265160560607910e+00,1.159196257591247559e+00,1.159127354621887207e+00,1.159058451652526855e+00,1.158989548683166504e+00,1.158920526504516602e+00,1.158851742744445801e+00,1.158782839775085449e+00,1.158713936805725098e+00,1.158645033836364746e+00,1.158576250076293945e+00,1.158507347106933594e+00,1.158438563346862793e+00,1.158369779586791992e+00,1.158300876617431641e+00,1.158232092857360840e+00,1.158163309097290039e+00,1.158094406127929688e+00,1.158025741577148438e+00,1.157956957817077637e+00,1.157888174057006836e+00,1.157819390296936035e+00,1.157750606536865234e+00,1.157681822776794434e+00,1.157613158226013184e+00,1.157544374465942383e+00,1.157475709915161133e+00,1.157407045364379883e+00,1.157338261604309082e+00,1.157269597053527832e+00,1.157200813293457031e+00,1.157132148742675781e+00,1.157063484191894531e+00,1.156994819641113281e+00,1.156926155090332031e+00
1.087121963500976562e+00,1.087061405181884766e+00,1.087000846862792969e+00,1.086940288543701172e+00,1.086879611015319824e+00,1.086819052696228027e+00,1.086758494377136230e+00,1.086697816848754883e+00,1.086637258529663086e+00,1.086576700210571289e+00,1.086516141891479492e+00,1.086455583572387695e+00,1.086395144462585449e+00,1.086334586143493652e+00,1.086274027824401855e+00,1.086213469505310059e+00,1.086152911186218262e+00,1.086092472076416016e+00,1.086031913757324219e+00,1.085971474647521973e+00,1.085911035537719727e+00,1.085850477218627930e+00,1.085790038108825684e+00,1.085729598999023438e+00,1.085669159889221191e+00,1.085608601570129395e+00,1.085548162460327148e+00,1.085487723350524902e+00,1.085427284240722656e+00,1.085366964340209961e+00,1.085306406021118164e+00,1.085246086120605469e+00,1.085185647010803223e+00,1.085125207901000977e+00,1.085064888000488281e+00,1.085004448890686035e+00,1.084944128990173340e+00,1.084883689880371094e+00,1.084823369979858398e+00,1.084762930870056152e+00,1.084702610969543457e+00,1.084642291069030762e+00,1.084581851959228516e+00,1.084521651268005371e+00,1.084461212158203125e+00,1.084400892257690430e+00,1.084340572357177734e+00,1.084280252456665039e+00,1.084220051765441895e+00,1.084159731864929199e+00,1.084099411964416504e+00,1.084039092063903809e+00,1.083978891372680664e+00,1.083918571472167969e+00,1.083858370780944824e+00,1.083798170089721680e+00,1.083737850189208984e+00,1.083677649497985840e+00,1.083617329597473145e+00,1.083557128906250000e+00,1.083496928215026855e+00,1.083436727523803711e+00,1.083376526832580566e+00,1.083316326141357422e+00,1.083256006240844727e+00,1.083195924758911133e+00,1.083135724067687988e+00,1.083075523376464844e+00,1.083015322685241699e+00,1.082955241203308105e+00,1.082895040512084961e+00,1.082834839820861816e+00,1.082774758338928223e+00,1.082714676856994629e+00,1.082654595375061035e+00,1.082594394683837891e+00,1.082534313201904297e+00,1.082474231719970703e+00,1.082414031028747559e+00,1.082353949546813965e+00
1.021020054817199707e+00,1.020966529846191406e+00,1.020913124084472656e+00,1.020859718322753906e+00,1.020806193351745605e+00,1.020752787590026855e+00,1.020699262619018555e+00,1.020645856857299805e+00,1.020592451095581055e+00,1.020539045333862305e+00,1.020485639572143555e+00,1.020432114601135254e+00,1.020378828048706055e+00,1.020325303077697754e+00,1.020272016525268555e+00,1.020218610763549805e+00,1.020165205001831055e+00,1.020111799240112305e+00,1.020058393478393555e+00,1.020005106925964355e+00,1.019951701164245605e+00,1.019898414611816406e+00,1.019845008850097656e+00,1.019791603088378906e+00,1.019738316535949707e+00,1.019684910774230957e+00,1.019631624221801758e+00,1.019578337669372559e+00,1.019524931907653809e+00,1.019471645355224609e+00,1.019418358802795410e+00,1.019365072250366211e+00,1.019311785697937012e+00,1.019258499145507812e+00,1.019205212593078613e+00,1.019151926040649414e+00,1.019098639488220215e+00,1.019045352935791016e+00,1.018992185592651367e+00,1.018938899040222168e+00,1.018885612487792969e+00,1.018832325935363770e+00,1.018779039382934570e+00,1.018725872039794922e+00,1.018672585487365723e+00,1.018619418144226074e+00,1.018566250801086426e+00,1.018512964248657227e+00,1.018459796905517578e+00,1.018406510353088379e+00,1.018353343009948730e+00,1.018300175666809082e+00,1.018247008323669434e+00,1.018193840980529785e+00,1.018140673637390137e+00,1.018087506294250488e+00,1.018034338951110840e+00,1.017981171607971191e+00,1.017928004264831543e+00,1.017874836921691895e+00,1.017821669578552246e+00,1.017768502235412598e+00,1.017715454101562500e+00,1.017662286758422852e+00,1.017609238624572754e+00,1.017556071281433105e+00,1.017503023147583008e+00,1.017449855804443359e+00,1.017396807670593262e+00,1.017343640327453613e+00,1.017290592193603516e+00,1.017237544059753418e+00,1.017184495925903320e+00,1.017131328582763672e+00,1.017078280448913574e+00,1.017025232315063477e+00,1.016972184181213379e+00,1.016919136047363281e+00,1.016866087913513184e+00,1.016813039779663086e+00
9.624959230422973633e-01,9.624484181404113770e-01,9.624009132385253906e-01,9.623533487319946289e-01,9.623059034347534180e-01,9.622583985328674316e-01,9.622108340263366699e-01,9.621633887290954590e-01,9.621159434318542480e-01,9.620684981346130371e-01,9.620209336280822754e-01,9.619734883308410645e-01,9.619260430335998535e-01,9.618785381317138672e-01,9.618310928344726562e-01,9.617837071418762207e-01,9.617362618446350098e-01,9.616887569427490234e-01,9.616413712501525879e-01,9.615939855575561523e-01,9.615464210510253906e-01,9.614990353584289551e-01,9.614516496658325195e-01,9.614042639732360840e-01,9.613568186759948730e-01,9.613094329833984375e-01,9.612620472908020020e-01,9.612146019935607910e-01,9.611672163009643555e-01,9.611198902130126953e-01,9.610725045204162598e-01,9.610250592231750488e-01,9.609777331352233887e-01,9.609304070472717285e-01,9.608829617500305176e-01,9.608356356620788574e-01,9.607883095741271973e-01,9.607408642768859863e-01,9.606935977935791016e-01,9.606462717056274414e-01,9.605989456176757812e-01,9.605515599250793457e-01,9.605042934417724609e-01,9.604569673538208008e-01,9.604095816612243652e-01,9.603623151779174805e-01,9.603150486946105957e-01,9.602677822113037109e-01,9.602203965187072754e-01,9.601731300354003906e-01,9.601258635520935059e-01,9.600785374641418457e-01,9.600312709808349609e-01,9.599840044975280762e-01,9.599367976188659668e-01,9.598894119262695312e-01,9.598422050476074219e-01,9.597949981689453125e-01,9.597476720809936523e-01,9.597004652023315430e-01,9.596532583236694336e-01,9.596060514450073242e-01,9.595587253570556641e-01,9.595115184783935547e-01,9.594643115997314453e-01,9.594170451164245605e-01,9.593698382377624512e-01,9.593226909637451172e-01,9.592754840850830078e-01,9.592282176017761230e-01,9.591810703277587891e-01,9.591339230537414551e-01,9.590866565704345703e-01,9.590395092964172363e-01,9.589923620223999023e-01,9.589452147483825684e-01,9.588979482650756836e-01,9.588508009910583496e-01,9.588037133216857910e-01,9.587564468383789062e-01
9.103171229362487793e-01,9.102746844291687012e-01,9.102321863174438477e-01,9.101896286010742188e-01,9.101471900939941406e-01,9.101046919822692871e-01,9.100622534751892090e-01,9.100196957588195801e-01,9.099772572517395020e-01,9.099348187446594238e-01,9.098922610282897949e-01,9.098498225212097168e-01,9.098073840141296387e-01,9.097649455070495605e-01,9.097224473953247070e-01,9.096800088882446289e-01,9.096376299858093262e-01,9.095950722694396973e-01,9.095526933670043945e-01,9.095102548599243164e-01,9.094677567481994629e-01,9.094253778457641602e-01,9.093829989433288574e-01,9.093406200408935547e-01,9.092981219291687012e-01,9.092557430267333984e-01,9.092133641242980957e-01,9.091708660125732422e-01,9.091285467147827148e-01,9.090861678123474121e-01,9.090437889099121094e-01,9.090013504028320312e-01,9.089589715003967285e-01,9.089166522026062012e-01,9.088742136955261230e-01,9.088318347930908203e-01,9.087895154953002930e-01,9.087471961975097656e-01,9.087047576904296875e-01,9.086624383926391602e-01,9.086201190948486328e-01,9.085776805877685547e-01,9.085353612899780273e-01,9.084931015968322754e-01,9.084507822990417480e-01,9.084083437919616699e-01,9.083660840988159180e-01,9.083237648010253906e-01,9.082813858985900879e-01,9.082391262054443359e-01,9.081968069076538086e-01,9.081545472145080566e-01,9.081121683120727539e-01,9.080699086189270020e-01,9.080276489257812500e-01,9.079852700233459473e-01,9.079430103302001953e-01,9.079007506370544434e-01,9.078584909439086914e-01,9.078161716461181641e-01,9.077739119529724121e-01,9.077316522598266602e-01,9.076893329620361328e-01,9.076471328735351562e-01,9.076048731803894043e-01,9.075625538825988770e-01,9.075203537940979004e-01,9.074781537055969238e-01,9.074359536170959473e-01,9.073936343193054199e-01,9.073514342308044434e-01,9.073092341423034668e-01,9.072669148445129395e-01,9.072247147560119629e-01,9.071825742721557617e-01,9.071403741836547852e-01,9.070980548858642578e-01,9.070559144020080566e-01,9.070137143135070801e-01,9.069714546203613281e-01
8.635048866271972656e-01,8.634666800498962402e-01,8.634284734725952148e-01,8.633902072906494141e-01,8.633519411087036133e-01,8.633137345314025879e-01,8.632755279541015625e-01,8.632372617721557617e-01,8.631990551948547363e-01,8.631608486175537109e-01,8.631225824356079102e-01,8.630843758583068848e-01,8.630461692810058594e-01,8.630080223083496094e-01,8.629697561264038086e-01,8.629316091537475586e-01,8.628934025764465332e-01,8.628551363945007324e-01,8.628169894218444824e-01,8.627788424491882324e-01,8.627406954765319824e-01,8.627024292945861816e-01,8.626642823219299316e-01,8.626261353492736816e-01,8.625879287719726562e-01,8.625497817993164062e-01,8.625116348266601562e-01,8.624734878540039062e-01,8.624352812767028809e-01,8.623971939086914062e-01,8.623590469360351562e-01,8.623208403587341309e-01,8.622827529907226562e-01,8.622446060180664062e-01,8.622065186500549316e-01,8.621683120727539062e-01,8.621302247047424316e-01,8.620920777320861816e-01,8.620539307594299316e-01,8.620158433914184570e-01,8.619777560234069824e-01,8.619396686553955078e-01,8.619015216827392578e-01,8.618634343147277832e-01,8.618253469467163086e-01,8.617871999740600586e-01,8.617491126060485840e-01,8.617110252380371094e-01,8.616728782653808594e-01,8.616348505020141602e-01,8.615967631340026855e-01,8.615587353706359863e-01,8.615205883979797363e-01,8.614825606346130371e-01,8.614445328712463379e-01,8.614063858985900879e-01,8.613683581352233887e-01,8.613303303718566895e-01,8.612923026084899902e-01,8.612541556358337402e-01,8.612161278724670410e-01,8.611781597137451172e-01,8.611400127410888672e-01,8.611020445823669434e-01,8.610640168190002441e-01,8.610259890556335449e-01,8.609879016876220703e-01,8.609499335289001465e-01,8.609119057655334473e-01,8.608738780021667480e-01,8.608358502388000488e-01,8.607978820800781250e-01,8.607599139213562012e-01,8.607218265533447266e-01,8.606838583946228027e-01,8.606458902359008789e-01,8.606078624725341797e-01,8.605698943138122559e-01,8.605319261550903320e-01,8.604939579963684082e-01
8.212717175483703613e-01,8.212371468544006348e-01,8.212025761604309082e-01,8.211680054664611816e-01,8.211333751678466797e-01,8.210988044738769531e-01,8.210642337799072266e-01,8.210296034812927246e-01,8.209950327873229980e-01,8.209605216979980469e-01,8.209259510040283203e-01,8.208913207054138184e-01,8.208568096160888672e-01,8.208222389221191406e-01,8.207876086235046387e-01,8.207530975341796875e-01,8.207185864448547363e-01,8.206840753555297852e-01,8.206494450569152832e-01,8.206149339675903320e-01,8.205804228782653809e-01,8.205457925796508789e-01,8.205112814903259277e-01,8.204767704010009766e-01,8.204423189163208008e-01,8.204076886177062988e-01,8.203732371330261230e-01,8.203387260437011719e-01,8.203041553497314453e-01,8.202696442604064941e-01,8.202351331710815430e-01,8.202006816864013672e-01,8.201661109924316406e-01,8.201316595077514648e-01,8.200971484184265137e-01,8.200625777244567871e-01,8.200281262397766113e-01,8.199936747550964355e-01,8.199591040611267090e-01,8.199246525764465332e-01,8.198902010917663574e-01,8.198557496070861816e-01,8.198211789131164551e-01,8.197867274284362793e-01,8.197523355484008789e-01,8.197177648544311523e-01,8.196833133697509766e-01,8.196489214897155762e-01,8.196144700050354004e-01,8.195799589157104492e-01,8.195455074310302734e-01,8.195111155509948730e-01,8.194766044616699219e-01,8.194421529769897461e-01,8.194077610969543457e-01,8.193733096122741699e-01,8.193388581275939941e-01,8.193044066429138184e-01,8.192700147628784180e-01,8.192355632781982422e-01,8.192011117935180664e-01,8.191667199134826660e-01,8.191323280334472656e-01,8.190978765487670898e-01,8.190634846687316895e-01,8.190290927886962891e-01,8.189946413040161133e-01,8.189602494239807129e-01,8.189258575439453125e-01,8.188914656639099121e-01,8.188570141792297363e-01,8.188226819038391113e-01,8.187882900238037109e-01,8.187538385391235352e-01,8.187195062637329102e-01,8.186851143836975098e-01,8.186507225036621094e-01,8.186163306236267090e-01,8.185819983482360840e-01,8.185476660728454590e-01
7.829771637916564941e-01,7.829456329345703125e-01,7.829142212867736816e-01,7.828828096389770508e-01,7.828513383865356445e-01,7.828199267387390137e-01,7.827885150909423828e-01,7.827571034431457520e-01,7.827256321907043457e-01,7.826942205429077148e-01,7.826628088951110840e-01,7.826313376426696777e-01,7.825999259948730469e-01,7.825685143470764160e-01,7.825371623039245605e-01,7.825056910514831543e-01,7.824742794036865234e-01,7.824429273605346680e-01,7.824114561080932617e-01,7.823801040649414062e-01,7.823486924171447754e-01,7.823172807693481445e-01,7.822858691215515137e-01,7.822545170783996582e-01,7.822231650352478027e-01,7.821916937828063965e-01,7.821603417396545410e-01,7.821289896965026855e-01,7.820975780487060547e-01,7.820662260055541992e-01,7.820348739624023438e-01,7.820035219192504883e-01,7.819721102714538574e-01,7.819407582283020020e-01,7.819094061851501465e-01,7.818779945373535156e-01,7.818466424942016602e-01,7.818153500556945801e-01,7.817839980125427246e-01,7.817525863647460938e-01,7.817212939262390137e-01,7.816899418830871582e-01,7.816585302352905273e-01,7.816272377967834473e-01,7.815959453582763672e-01,7.815645933151245117e-01,7.815332412719726562e-01,7.815018892288208008e-01,7.814705967903137207e-01,7.814392447471618652e-01,7.814079523086547852e-01,7.813766598701477051e-01,7.813453078269958496e-01,7.813139557838439941e-01,7.812826633453369141e-01,7.812513709068298340e-01,7.812200188636779785e-01,7.811887264251708984e-01,7.811574935913085938e-01,7.811262011528015137e-01,7.810948491096496582e-01,7.810635566711425781e-01,7.810323238372802734e-01,7.810009717941284180e-01,7.809696793556213379e-01,7.809384465217590332e-01,7.809070944786071777e-01,7.808758616447448730e-01,7.808445692062377930e-01,7.808133363723754883e-01,7.807819843292236328e-01,7.807507514953613281e-01,7.807195186614990234e-01,7.806881666183471680e-01,7.806569337844848633e-01,7.806257009506225586e-01,7.805944681167602539e-01,7.805631756782531738e-01,7.805319428443908691e-01,7.805007100105285645e-01
7.480946183204650879e-01,7.480658888816833496e-01,7.480372190475463867e-01,7.480084896087646484e-01,7.479797601699829102e-01,7.479510903358459473e-01,7.479224205017089844e-01,7.478937506675720215e-01,7.478650212287902832e-01,7.478363513946533203e-01,7.478076815605163574e-01,7.477789521217346191e-01,7.477502822875976562e-01,7.477216124534606934e-01,7.476929426193237305e-01,7.476642131805419922e-01,7.476356029510498047e-01,7.476069331169128418e-01,7.475782036781311035e-01,7.475495934486389160e-01,7.475209236145019531e-01,7.474923133850097656e-01,7.474635839462280273e-01,7.474349141120910645e-01,7.474063038825988770e-01,7.473776340484619141e-01,7.473489642143249512e-01,7.473203539848327637e-01,7.472917437553405762e-01,7.472630143165588379e-01,7.472344040870666504e-01,7.472057938575744629e-01,7.471771240234375000e-01,7.471484541893005371e-01,7.471198439598083496e-01,7.470912337303161621e-01,7.470625638961791992e-01,7.470339536666870117e-01,7.470053434371948242e-01,7.469766736030578613e-01,7.469481229782104492e-01,7.469195127487182617e-01,7.468909025192260742e-01,7.468622326850891113e-01,7.468336224555969238e-01,7.468050718307495117e-01,7.467764019966125488e-01,7.467477917671203613e-01,7.467192411422729492e-01,7.466905713081359863e-01,7.466620206832885742e-01,7.466334104537963867e-01,7.466048598289489746e-01,7.465761899948120117e-01,7.465476393699645996e-01,7.465190887451171875e-01,7.464904189109802246e-01,7.464618682861328125e-01,7.464333176612854004e-01,7.464047670364379883e-01,7.463761568069458008e-01,7.463476061820983887e-01,7.463190555572509766e-01,7.462903857231140137e-01,7.462618947029113770e-01,7.462333440780639648e-01,7.462047934532165527e-01,7.461761832237243652e-01,7.461476325988769531e-01,7.461190819740295410e-01,7.460904717445373535e-01,7.460619807243347168e-01,7.460334300994873047e-01,7.460048794746398926e-01,7.459763288497924805e-01,7.459477782249450684e-01,7.459192276000976562e-01,7.458906769752502441e-01,7.458621263504028320e-01,7.458336353302001953e-01
7.161876559257507324e-01,7.161613106727600098e-01,7.161350250244140625e-01,7.161087393760681152e-01,7.160824537277221680e-01,7.160561084747314453e-01,7.160298228263854980e-01,7.160035371780395508e-01,7.159771919250488281e-01,7.159509062767028809e-01,7.159246802330017090e-01,7.158983945846557617e-01,7.158720493316650391e-01,7.158457636833190918e-01,7.158195376396179199e-01,7.157931923866271973e-01,7.157669067382812500e-01,7.157406806945800781e-01,7.157143950462341309e-01,7.156881093978881836e-01,7.156618237495422363e-01,7.156355977058410645e-01,7.156092524528503418e-01,7.155830264091491699e-01,7.155568003654479980e-01,7.155305147171020508e-01,7.155042290687561035e-01,7.154780030250549316e-01,7.154517769813537598e-01,7.154254317283630371e-01,7.153992056846618652e-01,7.153729796409606934e-01,7.153466939926147461e-01,7.153204679489135742e-01,7.152942419052124023e-01,7.152680158615112305e-01,7.152417302131652832e-01,7.152155041694641113e-01,7.151892781257629395e-01,7.151629924774169922e-01,7.151367664337158203e-01,7.151105999946594238e-01,7.150843739509582520e-01,7.150580883026123047e-01,7.150318622589111328e-01,7.150056958198547363e-01,7.149794101715087891e-01,7.149531841278076172e-01,7.149270176887512207e-01,7.149007916450500488e-01,7.148745656013488770e-01,7.148483395576477051e-01,7.148221731185913086e-01,7.147958874702453613e-01,7.147697210311889648e-01,7.147435545921325684e-01,7.147173285484313965e-01,7.146911025047302246e-01,7.146649360656738281e-01,7.146387100219726562e-01,7.146124839782714844e-01,7.145863175392150879e-01,7.145601511001586914e-01,7.145339846611022949e-01,7.145077586174011230e-01,7.144815921783447266e-01,7.144554257392883301e-01,7.144291996955871582e-01,7.144030332565307617e-01,7.143768668174743652e-01,7.143507003784179688e-01,7.143244743347167969e-01,7.142983078956604004e-01,7.142722010612487793e-01,7.142459750175476074e-01,7.142198085784912109e-01,7.141936421394348145e-01,7.141674757003784180e-01,7.141413092613220215e-01,7.141152024269104004e-01
6.868910789489746094e-01,6.868669390678405762e-01,6.868426799774169922e-01,6.868184804916381836e-01,6.867943406105041504e-01,6.867700815200805664e-01,6.867458820343017578e-01,6.867217421531677246e-01,6.866975426673889160e-01,6.866733431816101074e-01,6.866491436958312988e-01,6.866250038146972656e-01,6.866007447242736816e-01,6.865766048431396484e-01,6.865524649620056152e-01,6.865282654762268066e-01,6.865040659904479980e-01,6.864799261093139648e-01,6.864557862281799316e-01,6.864315271377563477e-01,6.864073872566223145e-01,6.863832473754882812e-01,6.863590478897094727e-01,6.863349080085754395e-01,6.863107681274414062e-01,6.862866282463073730e-01,6.862624287605285645e-01,6.862382888793945312e-01,6.862141489982604980e-01,6.861899495124816895e-01,6.861658096313476562e-01,6.861416697502136230e-01,6.861175298690795898e-01,6.860933303833007812e-01,6.860691905021667480e-01,6.860451102256774902e-01,6.860209107398986816e-01,6.859967708587646484e-01,6.859726905822753906e-01,6.859485507011413574e-01,6.859243512153625488e-01,6.859002709388732910e-01,6.858761310577392578e-01,6.858519911766052246e-01,6.858278512954711914e-01,6.858037710189819336e-01,6.857796311378479004e-01,6.857554912567138672e-01,6.857313513755798340e-01,6.857072710990905762e-01,6.856831312179565430e-01,6.856589913368225098e-01,6.856349110603332520e-01,6.856108307838439941e-01,6.855866909027099609e-01,6.855625510215759277e-01,6.855384707450866699e-01,6.855143308639526367e-01,6.854902505874633789e-01,6.854661703109741211e-01,6.854420304298400879e-01,6.854179501533508301e-01,6.853938698768615723e-01,6.853697896003723145e-01,6.853456497192382812e-01,6.853215694427490234e-01,6.852974891662597656e-01,6.852733492851257324e-01,6.852492690086364746e-01,6.852252483367919922e-01,6.852011680603027344e-01,6.851770281791687012e-01,6.851529479026794434e-01,6.851289272308349609e-01,6.851047873497009277e-01,6.850807666778564453e-01,6.850566864013671875e-01,6.850326061248779297e-01,6.850085258483886719e-01,6.849844455718994141e-01
6.598971486091613770e-01,6.598748564720153809e-01,6.598524451255798340e-01,6.598301529884338379e-01,6.598078608512878418e-01,6.597854495048522949e-01,6.597631573677062988e-01,6.597408652305603027e-01,6.597185134887695312e-01,6.596961617469787598e-01,6.596738696098327637e-01,6.596515774726867676e-01,6.596292257308959961e-01,6.596069335937500000e-01,6.595845818519592285e-01,6.595622897148132324e-01,6.595399379730224609e-01,6.595176458358764648e-01,6.594953536987304688e-01,6.594730019569396973e-01,6.594507098197937012e-01,6.594284176826477051e-01,6.594061255455017090e-01,6.593838334083557129e-01,6.593615412712097168e-01,6.593392491340637207e-01,6.593168973922729492e-01,6.592946052551269531e-01,6.592723131179809570e-01,6.592500805854797363e-01,6.592277288436889648e-01,6.592054367065429688e-01,6.591832041740417480e-01,6.591608524322509766e-01,6.591385602951049805e-01,6.591163277626037598e-01,6.590940356254577637e-01,6.590717434883117676e-01,6.590494513511657715e-01,6.590272188186645508e-01,6.590048670768737793e-01,6.589826345443725586e-01,6.589603424072265625e-01,6.589381098747253418e-01,6.589158177375793457e-01,6.588935256004333496e-01,6.588712930679321289e-01,6.588490009307861328e-01,6.588267087936401367e-01,6.588044762611389160e-01,6.587821841239929199e-01,6.587599515914916992e-01,6.587377190589904785e-01,6.587154269218444824e-01,6.586931347846984863e-01,6.586709022521972656e-01,6.586486697196960449e-01,6.586263775825500488e-01,6.586041450500488281e-01,6.585819125175476074e-01,6.585596799850463867e-01,6.585373878479003906e-01,6.585151553153991699e-01,6.584929823875427246e-01,6.584706902503967285e-01,6.584484577178955078e-01,6.584262251853942871e-01,6.584039926528930664e-01,6.583817601203918457e-01,6.583595275878906250e-01,6.583372950553894043e-01,6.583150029182434082e-01,6.582928299903869629e-01,6.582705974578857422e-01,6.582483649253845215e-01,6.582261323928833008e-01,6.582038998603820801e-01,6.581817269325256348e-01,6.581594347953796387e-01,6.581372618675231934e-01
6.349446177482604980e-01,6.349239945411682129e-01,6.349032521247863770e-01,6.348826289176940918e-01,6.348619461059570312e-01,6.348412632942199707e-01,6.348205804824829102e-01,6.347998976707458496e-01,6.347792744636535645e-01,6.347585320472717285e-01,6.347379088401794434e-01,6.347172856330871582e-01,6.346966028213500977e-01,6.346759200096130371e-01,6.346552371978759766e-01,6.346346139907836914e-01,6.346139311790466309e-01,6.345933079719543457e-01,6.345726251602172852e-01,6.345520019531250000e-01,6.345313191413879395e-01,6.345106959342956543e-01,6.344900131225585938e-01,6.344693303108215332e-01,6.344487071037292480e-01,6.344280838966369629e-01,6.344074606895446777e-01,6.343867778778076172e-01,6.343661546707153320e-01,6.343455314636230469e-01,6.343248486518859863e-01,6.343042254447937012e-01,6.342836022377014160e-01,6.342629194259643555e-01,6.342422962188720703e-01,6.342216730117797852e-01,6.342010498046875000e-01,6.341804265975952148e-01,6.341598033905029297e-01,6.341391801834106445e-01,6.341184973716735840e-01,6.340979337692260742e-01,6.340773105621337891e-01,6.340566873550415039e-01,6.340360045433044434e-01,6.340154409408569336e-01,6.339948177337646484e-01,6.339741945266723633e-01,6.339535713195800781e-01,6.339329481124877930e-01,6.339123845100402832e-01,6.338917016983032227e-01,6.338711380958557129e-01,6.338505148887634277e-01,6.338298916816711426e-01,6.338093280792236328e-01,6.337887048721313477e-01,6.337681412696838379e-01,6.337474584579467773e-01,6.337268948554992676e-01,6.337063312530517578e-01,6.336857080459594727e-01,6.336650848388671875e-01,6.336445212364196777e-01,6.336238980293273926e-01,6.336032748222351074e-01,6.335827112197875977e-01,6.335621476173400879e-01,6.335415244102478027e-01,6.335209608078002930e-01,6.335003972053527832e-01,6.334797739982604980e-01,6.334592103958129883e-01,6.334385871887207031e-01,6.334180235862731934e-01,6.333974599838256836e-01,6.333768963813781738e-01,6.333563327789306641e-01,6.333357095718383789e-01,6.333151459693908691e-01
6.118104457855224609e-01,6.117912530899047852e-01,6.117720603942871094e-01,6.117528676986694336e-01,6.117336750030517578e-01,6.117144823074340820e-01,6.116952300071716309e-01,6.116760969161987305e-01,6.116569042205810547e-01,6.116377115249633789e-01,6.116185188293457031e-01,6.115993261337280273e-01,6.115801334381103516e-01,6.115609407424926758e-01,6.115417480468750000e-01,6.115226149559020996e-01,6.115033626556396484e-01,6.114842295646667480e-01,6.114650368690490723e-01,6.114459037780761719e-01,6.114266514778137207e-01,6.114075183868408203e-01,6.113883256912231445e-01,6.113691329956054688e-01,6.113499999046325684e-01,6.113308072090148926e-01,6.113116741180419922e-01,6.112924814224243164e-01,6.112732887268066406e-01,6.112541556358337402e-01,6.112349629402160645e-01,6.112158298492431641e-01,6.111966371536254883e-01,6.111775040626525879e-01,6.111583113670349121e-01,6.111391782760620117e-01,6.111200451850891113e-01,6.111008524894714355e-01,6.110817193984985352e-01,6.110625863075256348e-01,6.110433936119079590e-01,6.110242605209350586e-01,6.110051274299621582e-01,6.109859347343444824e-01,6.109668016433715820e-01,6.109476685523986816e-01,6.109285354614257812e-01,6.109094023704528809e-01,6.108902096748352051e-01,6.108710765838623047e-01,6.108519434928894043e-01,6.108328104019165039e-01,6.108136773109436035e-01,6.107945442199707031e-01,6.107754111289978027e-01,6.107562184333801270e-01,6.107371449470520020e-01,6.107180118560791016e-01,6.106988191604614258e-01,6.106797456741333008e-01,6.106606125831604004e-01,6.106414198875427246e-01,6.106223464012145996e-01,6.106032133102416992e-01,6.105840802192687988e-01,6.105649471282958984e-01,6.105458736419677734e-01,6.105267405509948730e-01,6.105076074600219727e-01,6.104884743690490723e-01,6.104694008827209473e-01,6.104502677917480469e-01,6.104311347007751465e-01,6.104120016098022461e-01,6.103929281234741211e-01,6.103737950325012207e-01,6.103546619415283203e-01,6.103355884552001953e-01,6.103165149688720703e-01,6.102973818778991699e-01
