5.000000000000000000e+00,5.000000000000000000e+00,5.000000000000000000e+00,5.000000000000000000e+00,5.000000000000000000e+00,5.000000000000000000e+00,5.000000000000000000e+00,5.000000000000000000e+00,5.000000000000000000e+00,5.000000000000000000e+00,5.000000000000000000e+00,5.000000000000000000e+00,5.000000000000000000e+00,5.000000000000000000e+00,5.000000000000000000e+00,5.000000000000000000e+00,5.000000000000000000e+00,5.000000000000000000e+00,5.000000000000000000e+00,5.000000000000000000e+00,5.000000000000000000e+00,5.000000000000000000e+00,5.000000000000000000e+00,5.000000000000000000e+00,5.000000000000000000e+00,5.000000000000000000e+00,5.000000000000000000e+00,5.000000000000000000e+00,5.000000000000000000e+00,5.000000000000000000e+00,5.000000000000000000e+00,5.000000000000000000e+00,5.000000000000000000e+00,5.000000000000000000e+00,5.000000000000000000e+00,5.000000000000000000e+00,5.000000000000000000e+00,5.000000000000000000e+00,5.000000000000000000e+00,4.851511001586914062e+00,4.661426544189453125e+00,4.485675334930419922e+00,4.322695732116699219e+00,4.171143531799316406e+00,4.029858589172363281e+00,3.897831439971923828e+00,3.774180650711059570e+00,3.658133983612060547e+00,3.549010515213012695e+00,3.446208715438842773e+00,3.349195003509521484e+00,3.257493972778320312e+00,3.170680284500122070e+00,3.088373899459838867e+00,3.010232686996459961e+00,2.935947895050048828e+00,2.865241050720214844e+00,2.797859907150268555e+00,2.733575344085693359e+00,2.672178268432617188e+00,2.613478660583496094e+00,2.557302474975585938e+00,2.503490447998046875e+00,2.451896429061889648e+00,2.402385950088500977e+00,2.354835748672485352e+00,2.309130907058715820e+00,2.265166759490966797e+00,2.222845077514648438e+00,2.182076215744018555e+00,2.142775774002075195e+00,2.104865789413452148e+00,2.068274021148681641e+00,2.032932758331298828e+00,1.998779058456420898e+00,1.965753912925720215e+00,1.933802127838134766e+00,1.902872681617736816e+00,1.872916817665100098e+00,1.843889832496643066e+00
5.000000000000000000e+00,5.000000000000000000e+00,5.000000000000000000e+00,5.000000000000000000e+00,5.000000000000000000e+00,5.000000000000000000e+00,5.000000000000000000e+00,5.000000000000000000e+00,5.000000000000000000e+00,5.000000000000000000e+00,5.000000000000000000e+00,5.000000000000000000e+00,5.000000000000000000e+00,5.000000000000000000e+00,5.000000000000000000e+00,5.000000000000000000e+00,5.000000000000000000e+00,5.000000000000000000e+00,5.000000000000000000e+00,5.000000000000000000e+00,5.000000000000000000e+00,5.000000000000000000e+00,5.000000000000000000e+00,5.000000000000000000e+00,5.000000000000000000e+00,5.000000000000000000e+00,5.000000000000000000e+00,5.000000000000000000e+00,5.000000000000000000e+00,5.000000000000000000e+00,5.000000000000000000e+00,5.000000000000000000e+00,5.000000000000000000e+00,5.000000000000000000e+00,5.000000000000000000e+00,5.000000000000000000e+00,5.000000000000000000e+00,5.000000000000000000e+00,5.000000000000000000e+00,4.851648330688476562e+00,4.661552906036376953e+00,4.485792636871337891e+00,4.322804450988769531e+00,4.171245574951171875e+00,4.029953479766845703e+00,3.897920370101928711e+00,3.774263858795166016e+00,3.658211946487426758e+00,3.549083709716796875e+00,3.446278095245361328e+00,3.349260330200195312e+00,3.257555723190307617e+00,3.170739173889160156e+00,3.088429689407348633e+00,3.010285377502441406e+00,2.935997962951660156e+00,2.865289211273193359e+00,2.797905683517456055e+00,2.733618736267089844e+00,2.672219991683959961e+00,2.613518476486206055e+00,2.557340621948242188e+00,2.503526926040649414e+00,2.451931476593017578e+00,2.402419567108154297e+00,2.354867935180664062e+00,2.309161901473999023e+00,2.265196561813354492e+00,2.222873926162719727e+00,2.182103872299194336e+00,2.142802476882934570e+00,2.104891777038574219e+00,2.068298816680908203e+00,2.032956838607788086e+00,1.998802423477172852e+00,1.965776562690734863e+00,1.933824062347412109e+00,1.902893781661987305e+00,1.872937321662902832e+00,1.843909502029418945e+00
5.000000000000000000e+00,5.000000000000000000e+00,5.000000000000000000e+00,5.000000000000000000e+00,5.000000000000000000e+00,5.000000000000000000e+00,5.000000000000000000e+00,5.000000000000000000e+00,5.000000000000000000e+00,5.000000000000000000e+00,5.000000000000000000e+00,5.000000000000000000e+00,5.000000000000000000e+00,5.000000000000000000e+00,5.000000000000000000e+00,5.000000000000000000e+00,5.000000000000000000e+00,5.000000000000000000e+00,5.000000000000000000e+00,5.000000000000000000e+00,5.000000000000000000e+00,5.000000000000000000e+00,5.000000000000000000e+00,5.000000000000000000e+00,5.000000000000000000e+00,5.000000000000000000e+00,5.000000000000000000e+00,5.000000000000000000e+00,5.000000000000000000e+00,5.000000000000000000e+00,5.000000000000000000e+00,5.000000000000000000e+00,5.000000000000000000e+00,5.000000000000000000e+00,5.000000000000000000e+00,5.000000000000000000e+00,5.000000000000000000e+00,5.000000000000000000e+00,5.000000000000000000e+00,4.851785182952880859e+00,4.661679744720458984e+00,4.485909938812255859e+00,4.322913169860839844e+00,4.171346664428710938e+00,4.030047893524169922e+00,3.898008584976196289e+00,3.774346590042114258e+00,3.658290147781372070e+00,3.549157381057739258e+00,3.446347236633300781e+00,3.349325895309448242e+00,3.257617712020874023e+00,3.170797586441040039e+00,3.088485002517700195e+00,3.010338306427001953e+00,2.936048507690429688e+00,2.865336894989013672e+00,2.797951459884643555e+00,2.733662366867065430e+00,2.672261476516723633e+00,2.613558053970336914e+00,2.557378768920898438e+00,2.503563404083251953e+00,2.451966524124145508e+00,2.402453422546386719e+00,2.354900360107421875e+00,2.309193134307861328e+00,2.265226602554321289e+00,2.222903013229370117e+00,2.182131767272949219e+00,2.142829179763793945e+00,2.104917526245117188e+00,2.068323850631713867e+00,2.032980918884277344e+00,1.998825550079345703e+00,1.965799093246459961e+00,1.933845877647399902e+00,1.902914881706237793e+00,1.872957825660705566e+00,1.843929409980773926e+00
5.000000000000000000e+00,5.000000000000000000e+00,5.000000000000000000e+00,5.000000000000000000e+00,5.000000000000000000e+00,5.000000000000000000e+00,5.000000000000000000e+00,5.000000000000000000e+00,5.000000000000000000e+00,5.000000000000000000e+00,5.000000000000000000e+00,5.000000000000000000e+00,5.000000000000000000e+00,5.000000000000000000e+00,5.000000000000000000e+00,5.000000000000000000e+00,5.000000000000000000e+00,5.000000000000000000e+00,5.000000000000000000e+00,5.000000000000000000e+00,5.000000000000000000e+00,5.000000000000000000e+00,5.000000000000000000e+00,5.000000000000000000e+00,5.000000000000000000e+00,5.000000000000000000e+00,5.000000000000000000e+00,5.000000000000000000e+00,5.000000000000000000e+00,5.000000000000000000e+00,5.000000000000000000e+00,5.000000000000000000e+00,5.000000000000000000e+00,5.000000000000000000e+00,5.000000000000000000e+00,5.000000000000000000e+00,5.000000000000000000e+00,5.000000000000000000e+00,5.000000000000000000e+00,4.851922988891601562e+00,4.661806106567382812e+00,4.486027240753173828e+00,4.323022365570068359e+00,4.171448230743408203e+00,4.030142784118652344e+00,3.898097276687622070e+00,3.774429798126220703e+00,3.658367872238159180e+00,3.549230813980102539e+00,3.446416616439819336e+00,3.349391222000122070e+00,3.257679224014282227e+00,3.170856237411499023e+00,3.088540792465209961e+00,3.010390996932983398e+00,2.936098814010620117e+00,2.865384817123413086e+00,2.797996997833251953e+00,2.733705759048461914e+00,2.672303199768066406e+00,2.613598108291625977e+00,2.557416677474975586e+00,2.503600120544433594e+00,2.452001571655273438e+00,2.402486801147460938e+00,2.354932546615600586e+00,2.309224128723144531e+00,2.265256404876708984e+00,2.222931623458862305e+00,2.182159423828125000e+00,2.142856121063232422e+00,2.104943275451660156e+00,2.068348646163940430e+00,2.033005237579345703e+00,1.998848795890808105e+00,1.965821385383605957e+00,1.933867454528808594e+00,1.902936100959777832e+00,1.872978329658508301e+00,1.843949198722839355e+00
5.000000000000000000e+00,5.000000000000000000e+00,5.000000000000000000e+00,5.000000000000000000e+00,5.000000000000000000e+00,5.000000000000000000e+00,5.000000000000000000e+00,5.000000000000000000e+00,5.000000000000000000e+00,5.000000000000000000e+00,5.000000000000000000e+00,5.000000000000000000e+00,5.000000000000000000e+00,5.000000000000000000e+00,5.000000000000000000e+00,5.000000000000000000e+00,5.000000000000000000e+00,5.000000000000000000e+00,5.000000000000000000e+00,5.000000000000000000e+00,5.000000000000000000e+00,5.000000000000000000e+00,5.000000000000000000e+00,5.000000000000000000e+00,5.000000000000000000e+00,5.000000000000000000e+00,5.000000000000000000e+00,5.000000000000000000e+00,5.000000000000000000e+00,5.000000000000000000e+00,5.000000000000000000e+00,5.000000000000000000e+00,5.000000000000000000e+00,5.000000000000000000e+00,5.000000000000000000e+00,5.000000000000000000e+00,5.000000000000000000e+00,5.000000000000000000e+00,5.000000000000000000e+00,4.852059841156005859e+00,4.661932945251464844e+00,4.486144542694091797e+00,4.323131084442138672e+00,4.171549320220947266e+00,4.030237674713134766e+00,3.898185729980468750e+00,3.774513006210327148e+00,3.658446073532104492e+00,3.549304008483886719e+00,3.446485519409179688e+00,3.349456787109375000e+00,3.257741212844848633e+00,3.170914649963378906e+00,3.088596582412719727e+00,3.010443925857543945e+00,2.936148881912231445e+00,2.865432500839233398e+00,2.798042774200439453e+00,2.733749389648437500e+00,2.672344684600830078e+00,2.613637924194335938e+00,2.557454824447631836e+00,2.503636360168457031e+00,2.452036380767822266e+00,2.402520656585693359e+00,2.354964971542358398e+00,2.309255123138427734e+00,2.265286445617675781e+00,2.222960472106933594e+00,2.182187318801879883e+00,2.142882823944091797e+00,2.104969263076782227e+00,2.068373680114746094e+00,2.033029079437255859e+00,1.998872160911560059e+00,1.965844035148620605e+00,1.933889269828796387e+00,1.902956962585449219e+00,1.872998833656311035e+00,1.843969106674194336e+00
5.000000000000000000e+00,5.000000000000000000e+00,5.000000000000000000e+00,5.000000000000000000e+00,5.000000000000000000e+00,5.000000000000000000e+00,5.000000000000000000e+00,5.000000000000000000e+00,5.000000000000000000e+00,5.000000000000000000e+00,5.000000000000000000e+00,5.000000000000000000e+00,5.000000000000000000e+00,5.000000000000000000e+00,5.000000000000000000e+00,5.000000000000000000e+00,5.000000000000000000e+00,5.000000000000000000e+00,5.000000000000000000e+00,5.000000000000000000e+00,5.000000000000000000e+00,5.000000000000000000e+00,5.000000000000000000e+00,5.000000000000000000e+00,5.000000000000000000e+00,5.000000000000000000e+00,5.000000000000000000e+00,5.000000000000000000e+00,5.000000000000000000e+00,5.000000000000000000e+00,5.000000000000000000e+00,5.000000000000000000e+00,5.000000000000000000e+00,5.000000000000000000e+00,5.000000000000000000e+00,5.000000000000000000e+00,5.000000000000000000e+00,5.000000000000000000e+00,5.000000000000000000e+00,4.852197170257568359e+00,4.662059307098388672e+00,4.486261844635009766e+00,4.323240280151367188e+00,4.171650886535644531e+00,4.030332088470458984e+00,3.898274421691894531e+00,3.774595737457275391e+00,3.658523797988891602e+00,3.549377679824829102e+00,3.446554899215698242e+00,3.349521875381469727e+00,3.257803201675415039e+00,3.170973300933837891e+00,3.088651895523071289e+00,3.010496616363525391e+00,2.936199188232421875e+00,2.865480422973632812e+00,2.798088073730468750e+00,2.733793020248413086e+00,2.672386407852172852e+00,2.613677740097045898e+00,2.557492971420288086e+00,2.503673076629638672e+00,2.452071666717529297e+00,2.402554273605346680e+00,2.354997396469116211e+00,2.309286355972290039e+00,2.265316247940063477e+00,2.222989082336425781e+00,2.182214975357055664e+00,2.142909526824951172e+00,2.104995012283325195e+00,2.068398714065551758e+00,2.033053398132324219e+00,1.998895525932312012e+00,1.965866565704345703e+00,1.933911204338073730e+00,1.902978181838989258e+00,1.873019099235534668e+00,1.843988776206970215e+00
5.000000000000000000e+00,5.000000000000000000e+00,5.000000000000000000e+00,5.000000000000000000e+00,5.000000000000000000e+00,5.000000000000000000e+00,5.000000000000000000e+00,5.000000000000000000e+00,5.000000000000000000e+00,5.000000000000000000e+00,5.000000000000000000e+00,5.000000000000000000e+00,5.000000000000000000e+00,5.000000000000000000e+00,5.000000000000000000e+00,5.000000000000000000e+00,5.000000000000000000e+00,5.000000000000000000e+00,5.000000000000000000e+00,5.000000000000000000e+00,5.000000000000000000e+00,5.000000000000000000e+00,5.000000000000000000e+00,5.000000000000000000e+00,5.000000000000000000e+00,5.000000000000000000e+00,5.000000000000000000e+00,5.000000000000000000e+00,5.000000000000000000e+00,5.000000000000000000e+00,5.000000000000000000e+00,5.000000000000000000e+00,5.000000000000000000e+00,5.000000000000000000e+00,5.000000000000000000e+00,5.000000000000000000e+00,5.000000000000000000e+00,5.000000000000000000e+00,5.000000000000000000e+00,4.852334499359130859e+00,4.662186622619628906e+00,4.486379146575927734e+00,4.323348999023437500e+00,4.171752452850341797e+00,4.030426502227783203e+00,3.898362636566162109e+00,3.774678945541381836e+00,3.658601999282836914e+00,3.549450874328613281e+00,3.446624279022216797e+00,3.349587440490722656e+00,3.257864952087402344e+00,3.171031713485717773e+00,3.088707685470581055e+00,3.010549545288085938e+00,2.936249256134033203e+00,2.865528345108032227e+00,2.798133850097656250e+00,2.733836650848388672e+00,2.672427892684936523e+00,2.613717555999755859e+00,2.557531118392944336e+00,2.503709554672241211e+00,2.452106714248657227e+00,2.402587890625000000e+00,2.355029582977294922e+00,2.309317350387573242e+00,2.265346288681030273e+00,2.223018169403076172e+00,2.182242631912231445e+00,2.142936468124389648e+00,2.105020999908447266e+00,2.068423509597778320e+00,2.033077239990234375e+00,1.998918890953063965e+00,1.965889096260070801e+00,1.933933019638061523e+00,1.902999281883239746e+00,1.873039603233337402e+00,1.844008564949035645e+00
5.000000000000000000e+00,5.000000000000000000e+00,5.000000000000000000e+00,5.000000000000000000e+00,5.000000000000000000e+00,5.000000000000000000e+00,5.000000000000000000e+00,5.000000000000000000e+00,5.000000000000000000e+00,5.000000000000000000e+00,5.000000000000000000e+00,5.000000000000000000e+00,5.000000000000000000e+00,5.000000000000000000e+00,5.000000000000000000e+00,5.000000000000000000e+00,5.000000000000000000e+00,5.000000000000000000e+00,5.000000000000000000e+00,5.000000000000000000e+00,5.000000000000000000e+00,5.000000000000000000e+00,5.000000000000000000e+00,5.000000000000000000e+00,5.000000000000000000e+00,3.987076282501220703e+00,4.016020298004150391e+00,5.000000000000000000e+00,5.000000000000000000e+00,5.000000000000000000e+00,5.000000000000000000e+00,5.000000000000000000e+00,5.000000000000000000e+00,5.000000000000000000e+00,5.000000000000000000e+00,5.000000000000000000e+00,5.000000000000000000e+00,5.000000000000000000e+00,5.000000000000000000e+00,4.852471351623535156e+00,4.662312984466552734e+00,4.486496448516845703e+00,4.323458194732666016e+00,4.171853542327880859e+00,4.030521392822265625e+00,3.898451566696166992e+00,3.774761915206909180e+00,3.658680200576782227e+00,3.549524545669555664e+00,3.446693420410156250e+00,3.349652528762817383e+00,3.257926940917968750e+00,3.171090602874755859e+00,3.088762998580932617e+00,3.010602474212646484e+00,2.936299800872802734e+00,2.865576028823852539e+00,2.798179388046264648e+00,2.733880281448364258e+00,2.672469615936279297e+00,2.613757133483886719e+00,2.557569265365600586e+00,2.503746032714843750e+00,2.452141761779785156e+00,2.402621507644653320e+00,2.355062007904052734e+00,2.309348583221435547e+00,2.265376091003417969e+00,2.223047018051147461e+00,2.182270526885986328e+00,2.142963171005249023e+00,2.105046749114990234e+00,2.068448543548583984e+00,2.033101558685302734e+00,1.998941898345947266e+00,1.965911507606506348e+00,1.933954834938049316e+00,1.903020501136779785e+00,1.873060107231140137e+00,1.844028472900390625e+00
5.000000000000000000e+00,5.000000000000000000e+00,5.000000000000000000e+00,5.000000000000000000e+00,5.000000000000000000e+00,5.000000000000000000e+00,5.000000000000000000e+00,5.000000000000000000e+00,5.000000000000000000e+00,5.000000000000000000e+00,5.000000000000000000e+00,5.000000000000000000e+00,5.000000000000000000e+00,5.000000000000000000e+00,5.000000000000000000e+00,5.000000000000000000e+00,5.000000000000000000e+00,5.000000000000000000e+00,5.000000000000000000e+00,5.000000000000000000e+00,5.000000000000000000e+00,5.000000000000000000e+00,5.000000000000000000e+00,5.000000000000000000e+00,5.000000000000000000e+00,4.001307964324951172e+00,4.015286445617675781e+00,5.000000000000000000e+00,5.000000000000000000e+00,5.000000000000000000e+00,5.000000000000000000e+00,5.000000000000000000e+00,5.000000000000000000e+00,5.000000000000000000e+00,5.000000000000000000e+00,5.000000000000000000e+00,5.000000000000000000e+00,5.000000000000000000e+00,5.000000000000000000e+00,4.852608680725097656e+00,4.662439823150634766e+00,4.486614227294921875e+00,4.323566913604736328e+00,4.171955585479736328e+00,4.030615806579589844e+00,3.898540258407592773e+00,3.774845123291015625e+00,3.658757925033569336e+00,3.549597740173339844e+00,3.446762800216674805e+00,3.349718093872070312e+00,3.257988691329956055e+00,3.171149253845214844e+00,3.088818788528442383e+00,3.010655164718627930e+00,2.936349868774414062e+00,2.865624189376831055e+00,2.798225164413452148e+00,2.733923673629760742e+00,2.672511339187622070e+00,2.613797187805175781e+00,2.557607412338256836e+00,2.503782510757446289e+00,2.452176809310913086e+00,2.402655124664306641e+00,2.355094194412231445e+00,2.309379577636718750e+00,2.265406131744384766e+00,2.223075628280639648e+00,2.182298183441162109e+00,2.142989873886108398e+00,2.105072498321533203e+00,2.068473339080810547e+00,2.033125638961791992e+00,1.998965263366699219e+00,1.965934038162231445e+00,1.933976531028747559e+00,1.903041601181030273e+00,1.873080611228942871e+00,1.844048380851745605e+00
5.000000000000000000e+00,5.000000000000000000e+00,5.000000000000000000e+00,5.000000000000000000e+00,5.000000000000000000e+00,5.000000000000000000e+00,5.000000000000000000e+00,5.000000000000000000e+00,5.000000000000000000e+00,5.000000000000000000e+00,5.000000000000000000e+00,5.000000000000000000e+00,5.000000000000000000e+00,5.000000000000000000e+00,5.000000000000000000e+00,5.000000000000000000e+00,5.000000000000000000e+00,5.000000000000000000e+00,5.000000000000000000e+00,5.000000000000000000e+00,5.000000000000000000e+00,5.000000000000000000e+00,5.000000000000000000e+00,5.000000000000000000e+00,5.000000000000000000e+00,4.014954090118408203e+00,4.033783435821533203e+00,5.000000000000000000e+00,5.000000000000000000e+00,5.000000000000000000e+00,5.000000000000000000e+00,5.000000000000000000e+00,5.000000000000000000e+00,5.000000000000000000e+00,5.000000000000000000e+00,5.000000000000000000e+00,5.000000000000000000e+00,5.000000000000000000e+00,5.000000000000000000e+00,4.852746009826660156e+00,4.662566184997558594e+00,4.486731052398681641e+00,4.323676109313964844e+00,4.172056674957275391e+00,4.030710697174072266e+00,3.898628711700439453e+00,3.774927854537963867e+00,3.658836126327514648e+00,3.549671411514282227e+00,3.446831703186035156e+00,3.349783658981323242e+00,3.258050680160522461e+00,3.171207666397094727e+00,3.088874340057373047e+00,3.010708093643188477e+00,2.936400175094604492e+00,2.865671873092651367e+00,2.798270940780639648e+00,2.733967304229736328e+00,2.672552824020385742e+00,2.613836765289306641e+00,2.557645559310913086e+00,2.503819227218627930e+00,2.452211618423461914e+00,2.402688980102539062e+00,2.355126619338989258e+00,2.309410572052001953e+00,2.265435934066772461e+00,2.223104476928710938e+00,2.182326078414916992e+00,2.143016576766967773e+00,2.105098485946655273e+00,2.068498373031616211e+00,2.033149719238281250e+00,1.998988628387451172e+00,1.965956687927246094e+00,1.933998346328735352e+00,1.903062582015991211e+00,1.873100876808166504e+00,1.844068169593811035e+00
5.000000000000000000e+00,5.000000000000000000e+00,5.000000000000000000e+00,5.000000000000000000e+00,5.000000000000000000e+00,5.000000000000000000e+00,5.000000000000000000e+00,5.000000000000000000e+00,5.000000000000000000e+00,5.000000000000000000e+00,5.000000000000000000e+00,5.000000000000000000e+00,5.000000000000000000e+00,5.000000000000000000e+00,5.000000000000000000e+00,5.000000000000000000e+00,5.000000000000000000e+00,5.000000000000000000e+00,5.000000000000000000e+00,5.000000000000000000e+00,5.000000000000000000e+00,5.000000000000000000e+00,5.000000000000000000e+00,5.000000000000000000e+00,4.070008754730224609e+00,4.094521045684814453e+00,4.095624923706054688e+00,4.102966785430908203e+00,4.127404212951660156e+00,5.000000000000000000e+00,5.000000000000000000e+00,5.000000000000000000e+00,5.000000000000000000e+00,5.000000000000000000e+00,5.000000000000000000e+00,5.000000000000000000e+00,5.000000000000000000e+00,5.000000000000000000e+00,5.000000000000000000e+00,4.852883338928222656e+00,4.662693023681640625e+00,4.486848354339599609e+00,4.323784828186035156e+00,4.172158241271972656e+00,4.030805587768554688e+00,3.898717403411865234e+00,3.775011062622070312e+00,3.658913850784301758e+00,3.549744844436645508e+00,3.446901082992553711e+00,3.349848985671997070e+00,3.258112430572509766e+00,3.171266555786132812e+00,3.088929891586303711e+00,3.010760784149169922e+00,2.936450481414794922e+00,2.865719795227050781e+00,2.798316478729248047e+00,2.734010696411132812e+00,2.672594547271728516e+00,2.613876819610595703e+00,2.557683467864990234e+00,2.503855705261230469e+00,2.452246904373168945e+00,2.402722358703613281e+00,2.355158805847167969e+00,2.309441804885864258e+00,2.265465736389160156e+00,2.223133325576782227e+00,2.182353973388671875e+00,2.143043518066406250e+00,2.105124235153198242e+00,2.068523406982421875e+00,2.033173799514770508e+00,1.999011993408203125e+00,1.965979218482971191e+00,1.934020161628723145e+00,1.903083682060241699e+00,1.873121380805969238e+00,1.844087839126586914e+00
5.000000000000000000e+00,5.000000000000000000e+00,5.000000000000000000e+00,5.000000000000000000e+00,5.000000000000000000e+00,5.000000000000000000e+00,5.000000000000000000e+00,5.000000000000000000e+00,5.000000000000000000e+00,5.000000000000000000e+00,5.000000000000000000e+00,5.000000000000000000e+00,5.000000000000000000e+00,5.000000000000000000e+00,5.000000000000000000e+00,5.000000000000000000e+00,5.000000000000000000e+00,5.000000000000000000e+00,5.000000000000000000e+00,5.000000000000000000e+00,5.000000000000000000e+00,5.000000000000000000e+00,4.051630020141601562e+00,4.031261444091796875e+00,4.009744167327880859e+00,4.007400989532470703e+00,4.018732547760009766e+00,4.036384105682373047e+00,4.080751419067382812e+00,4.104520797729492188e+00,5.000000000000000000e+00,5.000000000000000000e+00,5.000000000000000000e+00,5.000000000000000000e+00,5.000000000000000000e+00,5.000000000000000000e+00,5.000000000000000000e+00,5.000000000000000000e+00,5.000000000000000000e+00,4.853020668029785156e+00,4.662819862365722656e+00,4.486965656280517578e+00,4.323894023895263672e+00,4.172259807586669922e+00,4.030900478363037109e+00,3.898805856704711914e+00,3.775094270706176758e+00,3.658992052078247070e+00,3.549818038940429688e+00,3.446970224380493164e+00,3.349914550781250000e+00,3.258174419403076172e+00,3.171324968338012695e+00,3.088985681533813477e+00,3.010813713073730469e+00,2.936500549316406250e+00,2.865767478942871094e+00,2.798362016677856445e+00,2.734054327011108398e+00,2.672636032104492188e+00,2.613916635513305664e+00,2.557721853256225586e+00,2.503892183303833008e+00,2.452281713485717773e+00,2.402756214141845703e+00,2.355191230773925781e+00,2.309472799301147461e+00,2.265495777130126953e+00,2.223162174224853516e+00,2.182381629943847656e+00,2.143070220947265625e+00,2.105149984359741211e+00,2.068548202514648438e+00,2.033197879791259766e+00,1.999035358428955078e+00,1.966001749038696289e+00,1.934041976928710938e+00,1.903104901313781738e+00,1.873141884803771973e+00,1.844107747077941895e+00
5.000000000000000000e+00,5.000000000000000000e+00,5.000000000000000000e+00,5.000000000000000000e+00,5.000000000000000000e+00,5.000000000000000000e+00,5.000000000000000000e+00,5.000000000000000000e+00,5.000000000000000000e+00,5.000000000000000000e+00,5.000000000000000000e+00,5.000000000000000000e+00,5.000000000000000000e+00,5.000000000000000000e+00,5.000000000000000000e+00,5.000000000000000000e+00,5.000000000000000000e+00,5.000000000000000000e+00,5.000000000000000000e+00,5.000000000000000000e+00,5.000000000000000000e+00,5.000000000000000000e+00,4.067465305328369141e+00,4.036557674407958984e+00,3.981498003005981445e+00,3.979488611221313477e+00,3.989331960678100586e+00,4.018676280975341797e+00,4.093576908111572266e+00,4.107851505279541016e+00,5.000000000000000000e+00,5.000000000000000000e+00,5.000000000000000000e+00,5.000000000000000000e+00,5.000000000000000000e+00,5.000000000000000000e+00,5.000000000000000000e+00,5.000000000000000000e+00,5.000000000000000000e+00,4.853157997131347656e+00,4.662946701049804688e+00,4.487082958221435547e+00,4.324002742767333984e+00,4.172360897064208984e+00,4.030994892120361328e+00,3.898894548416137695e+00,3.775177240371704102e+00,3.659070014953613281e+00,3.549891710281372070e+00,3.447039604187011719e+00,3.349979639053344727e+00,3.258236408233642578e+00,3.171383619308471680e+00,3.089041233062744141e+00,3.010866403579711914e+00,2.936551094055175781e+00,2.865815401077270508e+00,2.798407554626464844e+00,2.734097957611083984e+00,2.672677755355834961e+00,2.613956451416015625e+00,2.557759761810302734e+00,2.503928899765014648e+00,2.452316999435424805e+00,2.402789592742919922e+00,2.355223655700683594e+00,2.309504032135009766e+00,2.265525579452514648e+00,2.223190784454345703e+00,2.182409286499023438e+00,2.143096923828125000e+00,2.105175733566284180e+00,2.068573236465454102e+00,2.033221960067749023e+00,1.999058365821838379e+00,1.966024160385131836e+00,1.934063911437988281e+00,1.903126001358032227e+00,1.873162388801574707e+00,1.844127655029296875e+00
5.000000000000000000e+00,5.000000000000000000e+00,5.000000000000000000e+00,5.000000000000000000e+00,5.000000000000000000e+00,5.000000000000000000e+00,5.000000000000000000e+00,5.000000000000000000e+00,5.000000000000000000e+00,5.000000000000000000e+00,5.000000000000000000e+00,5.000000000000000000e+00,5.000000000000000000e+00,5.000000000000000000e+00,5.000000000000000000e+00,5.000000000000000000e+00,5.000000000000000000e+00,5.000000000000000000e+00,5.000000000000000000e+00,5.000000000000000000e+00,5.000000000000000000e+00,5.000000000000000000e+00,5.000000000000000000e+00,4.065670967102050781e+00,3.994857072830200195e+00,3.969858407974243164e+00,3.983260393142700195e+00,4.035921096801757812e+00,4.105871677398681641e+00,4.098182678222656250e+00,5.000000000000000000e+00,5.000000000000000000e+00,5.000000000000000000e+00,5.000000000000000000e+00,5.000000000000000000e+00,5.000000000000000000e+00,5.000000000000000000e+00,5.000000000000000000e+00,5.000000000000000000e+00,4.853294849395751953e+00,4.663073539733886719e+00,4.487200260162353516e+00,4.324111938476562500e+00,4.172462463378906250e+00,4.031089782714843750e+00,3.898983240127563477e+00,3.775260448455810547e+00,3.659148216247558594e+00,3.549964904785156250e+00,3.447108983993530273e+00,3.350045204162597656e+00,3.258298158645629883e+00,3.171442031860351562e+00,3.089097023010253906e+00,3.010919332504272461e+00,2.936601161956787109e+00,2.865863561630249023e+00,2.798453330993652344e+00,2.734141588211059570e+00,2.672719240188598633e+00,2.613996267318725586e+00,2.557798147201538086e+00,2.503965377807617188e+00,2.452352046966552734e+00,2.402823448181152344e+00,2.355255842208862305e+00,2.309535026550292969e+00,2.265555620193481445e+00,2.223219633102416992e+00,2.182437181472778320e+00,2.143123865127563477e+00,2.105201721191406250e+00,2.068598270416259766e+00,2.033246040344238281e+00,1.999081730842590332e+00,1.966046690940856934e+00,1.934085488319396973e+00,1.903147220611572266e+00,1.873182892799377441e+00,1.844147443771362305e+00
5.000000000000000000e+00,5.000000000000000000e+00,5.000000000000000000e+00,5.000000000000000000e+00,5.000000000000000000e+00,5.000000000000000000e+00,5.000000000000000000e+00,5.000000000000000000e+00,5.000000000000000000e+00,5.000000000000000000e+00,5.000000000000000000e+00,5.000000000000000000e+00,5.000000000000000000e+00,5.000000000000000000e+00,5.000000000000000000e+00,5.000000000000000000e+00,5.000000000000000000e+00,5.000000000000000000e+00,5.000000000000000000e+00,5.000000000000000000e+00,5.000000000000000000e+00,5.000000000000000000e+00,5.000000000000000000e+00,4.072460174560546875e+00,3.989130020141601562e+00,3.972745895385742188e+00,3.986457347869873047e+00,4.029999732971191406e+00,5.000000000000000000e+00,4.094290733337402344e+00,5.000000000000000000e+00,5.000000000000000000e+00,5.000000000000000000e+00,5.000000000000000000e+00,5.000000000000000000e+00,5.000000000000000000e+00,5.000000000000000000e+00,5.000000000000000000e+00,5.000000000000000000e+00,4.853432178497314453e+00,4.663199901580810547e+00,4.487317562103271484e+00,4.324220657348632812e+00,4.172564029693603516e+00,4.031184196472167969e+00,3.899071693420410156e+00,3.775343179702758789e+00,3.659226417541503906e+00,3.550038576126098633e+00,3.447178125381469727e+00,3.350110530853271484e+00,3.258360147476196289e+00,3.171500921249389648e+00,3.089152336120605469e+00,3.010972261428833008e+00,2.936651468276977539e+00,2.865911245346069336e+00,2.798498868942260742e+00,2.734185218811035156e+00,2.672760963439941406e+00,2.614036083221435547e+00,2.557836294174194336e+00,2.504001855850219727e+00,2.452387094497680664e+00,2.402857065200805664e+00,2.355288267135620117e+00,2.309566020965576172e+00,2.265585422515869141e+00,2.223248481750488281e+00,2.182464838027954102e+00,2.143150568008422852e+00,2.105227470397949219e+00,2.068623065948486328e+00,2.033270120620727539e+00,1.999105095863342285e+00,1.966069340705871582e+00,1.934107303619384766e+00,1.903168082237243652e+00,1.873203158378601074e+00,1.844167351722717285e+00
5.000000000000000000e+00,5.000000000000000000e+00,5.000000000000000000e+00,5.000000000000000000e+00,5.000000000000000000e+00,5.000000000000000000e+00,5.000000000000000000e+00,5.000000000000000000e+00,5.000000000000000000e+00,5.000000000000000000e+00,5.000000000000000000e+00,5.000000000000000000e+00,5.000000000000000000e+00,5.000000000000000000e+00,5.000000000000000000e+00,5.000000000000000000e+00,5.000000000000000000e+00,5.000000000000000000e+00,5.000000000000000000e+00,5.000000000000000000e+00,5.000000000000000000e+00,5.000000000000000000e+00,5.000000000000000000e+00,4.090566635131835938e+00,3.975922346115112305e+00,3.967476367950439453e+00,3.981612205505371094e+00,4.025022506713867188e+00,5.000000000000000000e+00,4.095547199249267578e+00,5.000000000000000000e+00,5.000000000000000000e+00,5.000000000000000000e+00,5.000000000000000000e+00,5.000000000000000000e+00,5.000000000000000000e+00,5.000000000000000000e+00,5.000000000000000000e+00,5.000000000000000000e+00,4.853569507598876953e+00,4.663326740264892578e+00,4.487435340881347656e+00,4.324329853057861328e+00,4.172665596008300781e+00,4.031279087066650391e+00,3.899160385131835938e+00,3.775426626205444336e+00,3.659304141998291016e+00,3.550111770629882812e+00,3.447247505187988281e+00,3.350176095962524414e+00,3.258421897888183594e+00,3.171559572219848633e+00,3.089208126068115234e+00,3.011024951934814453e+00,2.936701536178588867e+00,2.865959167480468750e+00,2.798544645309448242e+00,2.734228610992431641e+00,2.672802686691284180e+00,2.614075899124145508e+00,2.557874202728271484e+00,2.504038333892822266e+00,2.452422142028808594e+00,2.402890682220458984e+00,2.355320453643798828e+00,2.309597253799438477e+00,2.265615224838256836e+00,2.223277330398559570e+00,2.182492494583129883e+00,2.143177270889282227e+00,2.105253219604492188e+00,2.068648099899291992e+00,2.033294200897216797e+00,1.999128460884094238e+00,1.966091871261596680e+00,1.934129238128662109e+00,1.903189301490783691e+00,1.873223662376403809e+00,1.844187021255493164e+00
5.000000000000000000e+00,5.000000000000000000e+00,5.000000000000000000e+00,5.000000000000000000e+00,5.000000000000000000e+00,5.000000000000000000e+00,5.000000000000000000e+00,5.000000000000000000e+00,5.000000000000000000e+00,5.000000000000000000e+00,5.000000000000000000e+00,5.000000000000000000e+00,5.000000000000000000e+00,5.000000000000000000e+00,5.000000000000000000e+00,5.000000000000000000e+00,5.000000000000000000e+00,5.000000000000000000e+00,5.000000000000000000e+00,5.000000000000000000e+00,5.000000000000000000e+00,5.000000000000000000e+00,5.000000000000000000e+00,4.106599807739257812e+00,3.992106676101684570e+00,3.974607944488525391e+00,3.989107847213745117e+00,4.031964302062988281e+00,5.000000000000000000e+00,4.042345046997070312e+00,5.000000000000000000e+00,5.000000000000000000e+00,5.000000000000000000e+00,5.000000000000000000e+00,5.000000000000000000e+00,5.000000000000000000e+00,5.000000000000000000e+00,5.000000000000000000e+00,5.000000000000000000e+00,4.853707313537597656e+00,4.663453578948974609e+00,4.487552642822265625e+00,4.324438571929931641e+00,4.172767162322998047e+00,4.031373500823974609e+00,3.899248838424682617e+00,3.775509834289550781e+00,3.659382343292236328e+00,3.550185441970825195e+00,3.447316646575927734e+00,3.350241661071777344e+00,3.258483886718750000e+00,3.171618223190307617e+00,3.089263677597045898e+00,3.011077880859375000e+00,2.936752080917358398e+00,2.866006851196289062e+00,2.798590421676635742e+00,2.734272241592407227e+00,2.672844171524047852e+00,2.614115715026855469e+00,2.557912588119506836e+00,2.504075050354003906e+00,2.452457189559936523e+00,2.402924299240112305e+00,2.355352878570556641e+00,2.309628248214721680e+00,2.265645265579223633e+00,2.223306179046630859e+00,2.182520389556884766e+00,2.143203973770141602e+00,2.105279207229614258e+00,2.068673133850097656e+00,2.033318281173706055e+00,1.999151587486267090e+00,1.966114521026611328e+00,1.934151053428649902e+00,1.903210401535034180e+00,1.873244166374206543e+00,1.844206929206848145e+00
5.000000000000000000e+00,5.000000000000000000e+00,5.000000000000000000e+00,5.000000000000000000e+00,5.000000000000000000e+00,5.000000000000000000e+00,5.000000000000000000e+00,5.000000000000000000e+00,5.000000000000000000e+00,5.000000000000000000e+00,5.000000000000000000e+00,5.000000000000000000e+00,5.000000000000000000e+00,5.000000000000000000e+00,5.000000000000000000e+00,5.000000000000000000e+00,5.000000000000000000e+00,5.000000000000000000e+00,5.000000000000000000e+00,5.000000000000000000e+00,5.000000000000000000e+00,5.000000000000000000e+00,5.000000000000000000e+00,4.087134361267089844e+00,3.982501983642578125e+00,4.002287387847900391e+00,4.009207725524902344e+00,4.029242038726806641e+00,5.000000000000000000e+00,4.017831802368164062e+00,4.029920578002929688e+00,5.000000000000000000e+00,5.000000000000000000e+00,5.000000000000000000e+00,5.000000000000000000e+00,5.000000000000000000e+00,5.000000000000000000e+00,5.000000000000000000e+00,5.000000000000000000e+00,4.853844642639160156e+00,4.663580417633056641e+00,4.487669944763183594e+00,4.324547767639160156e+00,4.172868728637695312e+00,4.031468391418457031e+00,3.899337530136108398e+00,3.775592565536499023e+00,3.659460306167602539e+00,3.550259113311767578e+00,3.447386026382446289e+00,3.350306749343872070e+00,3.258545637130737305e+00,3.171676874160766602e+00,3.089319229125976562e+00,3.011130571365356445e+00,2.936802387237548828e+00,2.866054773330688477e+00,2.798635959625244141e+00,2.734315633773803711e+00,2.672885894775390625e+00,2.614155530929565430e+00,2.557950496673583984e+00,2.504111528396606445e+00,2.452492237091064453e+00,2.402957916259765625e+00,2.355385065078735352e+00,2.309659481048583984e+00,2.265675067901611328e+00,2.223334789276123047e+00,2.182548284530639648e+00,2.143230915069580078e+00,2.105304956436157227e+00,2.068697929382324219e+00,2.033342361450195312e+00,1.999174952507019043e+00,1.966136813163757324e+00,1.934172868728637695e+00,1.903231620788574219e+00,1.873264670372009277e+00,1.844226717948913574e+00
5.000000000000000000e+00,5.000000000000000000e+00,5.000000000000000000e+00,5.000000000000000000e+00,5.000000000000000000e+00,5.000000000000000000e+00,5.000000000000000000e+00,5.000000000000000000e+00,5.000000000000000000e+00,5.000000000000000000e+00,5.000000000000000000e+00,5.000000000000000000e+00,5.000000000000000000e+00,5.000000000000000000e+00,5.000000000000000000e+00,5.000000000000000000e+00,5.000000000000000000e+00,5.000000000000000000e+00,5.000000000000000000e+00,5.000000000000000000e+00,5.000000000000000000e+00,5.000000000000000000e+00,5.000000000000000000e+00,4.067354679107666016e+00,3.913642883300781250e+00,3.941620826721191406e+00,4.035981655120849609e+00,4.033492565155029297e+00,5.000000000000000000e+00,3.927891016006469727e+00,3.956586599349975586e+00,5.000000000000000000e+00,5.000000000000000000e+00,5.000000000000000000e+00,5.000000000000000000e+00,5.000000000000000000e+00,5.000000000000000000e+00,5.000000000000000000e+00,5.000000000000000000e+00,4.853981494903564453e+00,4.663706779479980469e+00,4.487787246704101562e+00,4.324656963348388672e+00,4.172969818115234375e+00,4.031563282012939453e+00,3.899425983428955078e+00,3.775675773620605469e+00,3.659538507461547852e+00,3.550332307815551758e+00,3.447455406188964844e+00,3.350372314453125000e+00,3.258607625961303711e+00,3.171735286712646484e+00,3.089375019073486328e+00,3.011183738708496094e+00,2.936852455139160156e+00,2.866102695465087891e+00,2.798681735992431641e+00,2.734359502792358398e+00,2.672927618026733398e+00,2.614195585250854492e+00,2.557988643646240234e+00,2.504148006439208984e+00,2.452527284622192383e+00,2.402991771697998047e+00,2.355417490005493164e+00,2.309690475463867188e+00,2.265705108642578125e+00,2.223363876342773438e+00,2.182575941085815430e+00,2.143257617950439453e+00,2.105330944061279297e+00,2.068722963333129883e+00,2.033366441726684570e+00,1.999198198318481445e+00,1.966159343719482422e+00,1.934194564819335938e+00,1.903252601623535156e+00,1.873285174369812012e+00,1.844246625900268555e+00
5.000000000000000000e+00,5.000000000000000000e+00,5.000000000000000000e+00,5.000000000000000000e+00,5.000000000000000000e+00,5.000000000000000000e+00,5.000000000000000000e+00,5.000000000000000000e+00,5.000000000000000000e+00,5.000000000000000000e+00,5.000000000000000000e+00,5.000000000000000000e+00,5.000000000000000000e+00,5.000000000000000000e+00,5.000000000000000000e+00,5.000000000000000000e+00,5.000000000000000000e+00,5.000000000000000000e+00,5.000000000000000000e+00,5.000000000000000000e+00,5.000000000000000000e+00,5.000000000000000000e+00,5.000000000000000000e+00,4.071071147918701172e+00,3.883317947387695312e+00,3.913568735122680664e+00,4.038731575012207031e+00,4.039710521697998047e+00,5.000000000000000000e+00,5.000000000000000000e+00,3.902774572372436523e+00,5.000000000000000000e+00,5.000000000000000000e+00,5.000000000000000000e+00,5.000000000000000000e+00,5.000000000000000000e+00,5.000000000000000000e+00,5.000000000000000000e+00,5.000000000000000000e+00,4.854118824005126953e+00,4.663834095001220703e+00,4.487904548645019531e+00,4.324766159057617188e+00,4.173071384429931641e+00,4.031658172607421875e+00,3.899514913558959961e+00,3.775758743286132812e+00,3.659616708755493164e+00,3.550405979156494141e+00,3.447524547576904297e+00,3.350437641143798828e+00,3.258669614791870117e+00,3.171794176101684570e+00,3.089430570602416992e+00,3.011236429214477539e+00,2.936902999877929688e+00,2.866150617599487305e+00,2.798727273941040039e+00,2.734403133392333984e+00,2.672969341278076172e+00,2.614235162734985352e+00,2.558026790618896484e+00,2.504184722900390625e+00,2.452562332153320312e+00,2.403025150299072266e+00,2.355449914932250977e+00,2.309721469879150391e+00,2.265734910964965820e+00,2.223392486572265625e+00,2.182603836059570312e+00,2.143284320831298828e+00,2.105356693267822266e+00,2.068747997283935547e+00,2.033390522003173828e+00,1.999221563339233398e+00,1.966181993484497070e+00,1.934216380119323730e+00,1.903273701667785645e+00,1.873305439949035645e+00,1.844266414642333984e+00
5.000000000000000000e+00,5.000000000000000000e+00,5.000000000000000000e+00,5.000000000000000000e+00,5.000000000000000000e+00,5.000000000000000000e+00,5.000000000000000000e+00,5.000000000000000000e+00,5.000000000000000000e+00,5.000000000000000000e+00,5.000000000000000000e+00,5.000000000000000000e+00,5.000000000000000000e+00,5.000000000000000000e+00,5.000000000000000000e+00,5.000000000000000000e+00,5.000000000000000000e+00,5.000000000000000000e+00,5.000000000000000000e+00,5.000000000000000000e+00,5.000000000000000000e+00,5.000000000000000000e+00,5.000000000000000000e+00,4.052058219909667969e+00,3.851334810256958008e+00,3.884811878204345703e+00,4.056984901428222656e+00,4.058854579925537109e+00,5.000000000000000000e+00,5.000000000000000000e+00,5.000000000000000000e+00,5.000000000000000000e+00,5.000000000000000000e+00,5.000000000000000000e+00,5.000000000000000000e+00,5.000000000000000000e+00,5.000000000000000000e+00,5.000000000000000000e+00,5.000000000000000000e+00,4.854256153106689453e+00,4.663960933685302734e+00,4.488022327423095703e+00,4.324874877929687500e+00,4.173172950744628906e+00,4.031752586364746094e+00,3.899603605270385742e+00,3.775841951370239258e+00,3.659694433212280273e+00,3.550479173660278320e+00,3.447593927383422852e+00,3.350503206253051758e+00,3.258731365203857422e+00,3.171852827072143555e+00,3.089486360549926758e+00,3.011289358139038086e+00,2.936953067779541016e+00,2.866198539733886719e+00,2.798772811889648438e+00,2.734446525573730469e+00,2.673010826110839844e+00,2.614275217056274414e+00,2.558064937591552734e+00,2.504221200942993164e+00,2.452597379684448242e+00,2.403059005737304688e+00,2.355482339859008789e+00,2.309752702713012695e+00,2.265764951705932617e+00,2.223421335220336914e+00,2.182631492614746094e+00,2.143311262130737305e+00,2.105382442474365234e+00,2.068772792816162109e+00,2.033414602279663086e+00,1.999244928359985352e+00,1.966204524040222168e+00,1.934238195419311523e+00,1.903294920921325684e+00,1.873325943946838379e+00,1.844286084175109863e+00
5.000000000000000000e+00,5.000000000000000000e+00,5.000000000000000000e+00,5.000000000000000000e+00,5.000000000000000000e+00,5.000000000000000000e+00,5.000000000000000000e+00,5.000000000000000000e+00,5.000000000000000000e+00,5.000000000000000000e+00,5.000000000000000000e+00,5.000000000000000000e+00,5.000000000000000000e+00,5.000000000000000000e+00,5.000000000000000000e+00,5.000000000000000000e+00,5.000000000000000000e+00,5.000000000000000000e+00,5.000000000000000000e+00,5.000000000000000000e+00,5.000000000000000000e+00,5.000000000000000000e+00,5.000000000000000000e+00,5.000000000000000000e+00,3.815319299697875977e+00,3.859400033950805664e+00,4.074191570281982422e+00,4.081674098968505859e+00,5.000000000000000000e+00,5.000000000000000000e+00,5.000000000000000000e+00,5.000000000000000000e+00,5.000000000000000000e+00,5.000000000000000000e+00,5.000000000000000000e+00,5.000000000000000000e+00,5.000000000000000000e+00,5.000000000000000000e+00,5.000000000000000000e+00,4.854393482208251953e+00,4.664087295532226562e+00,4.488139629364013672e+00,4.324984073638916016e+00,4.173274517059326172e+00,4.031847476959228516e+00,3.899692058563232422e+00,3.775924921035766602e+00,3.659772634506225586e+00,3.550552845001220703e+00,3.447663068771362305e+00,3.350568771362304688e+00,3.258793354034423828e+00,3.171911239624023438e+00,3.089541673660278320e+00,3.011342287063598633e+00,2.937003374099731445e+00,2.866246223449707031e+00,2.798818349838256836e+00,2.734490156173706055e+00,2.673052549362182617e+00,2.614314794540405273e+00,2.558103084564208984e+00,2.504257678985595703e+00,2.452632427215576172e+00,2.403092622756958008e+00,2.355514526367187500e+00,2.309783697128295898e+00,2.265794754028320312e+00,2.223450183868408203e+00,2.182659149169921875e+00,2.143337965011596680e+00,2.105408191680908203e+00,2.068797826766967773e+00,2.033438920974731445e+00,1.999268054962158203e+00,1.966227173805236816e+00,1.934260129928588867e+00,1.903316020965576172e+00,1.873346447944641113e+00,1.844305992126464844e+00
5.000000000000000000e+00,5.000000000000000000e+00,5.000000000000000000e+00,5.000000000000000000e+00,5.000000000000000000e+00,5.000000000000000000e+00,5.000000000000000000e+00,5.000000000000000000e+00,5.000000000000000000e+00,5.000000000000000000e+00,5.000000000000000000e+00,5.000000000000000000e+00,5.000000000000000000e+00,5.000000000000000000e+00,5.000000000000000000e+00,5.000000000000000000e+00,5.000000000000000000e+00,5.000000000000000000e+00,5.000000000000000000e+00,5.000000000000000000e+00,5.000000000000000000e+00,5.000000000000000000e+00,5.000000000000000000e+00,5.000000000000000000e+00,3.799812793731689453e+00,3.845639944076538086e+00,4.090170383453369141e+00,4.097459793090820312e+00,5.000000000000000000e+00,5.000000000000000000e+00,5.000000000000000000e+00,5.000000000000000000e+00,5.000000000000000000e+00,5.000000000000000000e+00,5.000000000000000000e+00,5.000000000000000000e+00,5.000000000000000000e+00,5.000000000000000000e+00,5.000000000000000000e+00,4.854531288146972656e+00,4.664214134216308594e+00,4.488256931304931641e+00,4.325092792510986328e+00,4.173376083374023438e+00,4.031941890716552734e+00,3.899780988693237305e+00,3.776008129119873047e+00,3.659850597381591797e+00,3.550626516342163086e+00,3.447732448577880859e+00,3.350634098052978516e+00,3.258855104446411133e+00,3.171970129013061523e+00,3.089597463607788086e+00,3.011394977569580078e+00,2.937053918838500977e+00,2.866294384002685547e+00,2.798864126205444336e+00,2.734533548355102539e+00,2.673094272613525391e+00,2.614354848861694336e+00,2.558141231536865234e+00,2.504294157028198242e+00,2.452667474746704102e+00,2.403126239776611328e+00,2.355546951293945312e+00,2.309814929962158203e+00,2.265824794769287109e+00,2.223479032516479492e+00,2.182687044143676758e+00,2.143364667892456055e+00,2.105434179306030273e+00,2.068822622299194336e+00,2.033463001251220703e+00,1.999291419982910156e+00,1.966249465942382812e+00,1.934281706809997559e+00,1.903337240219116211e+00,1.873366951942443848e+00,1.844325900077819824e+00
5.000000000000000000e+00,5.000000000000000000e+00,5.000000000000000000e+00,5.000000000000000000e+00,5.000000000000000000e+00,5.000000000000000000e+00,5.000000000000000000e+00,5.000000000000000000e+00,5.000000000000000000e+00,5.000000000000000000e+00,5.000000000000000000e+00,5.000000000000000000e+00,5.000000000000000000e+00,5.000000000000000000e+00,5.000000000000000000e+00,5.000000000000000000e+00,5.000000000000000000e+00,5.000000000000000000e+00,5.000000000000000000e+00,5.000000000000000000e+00,5.000000000000000000e+00,5.000000000000000000e+00,5.000000000000000000e+00,5.000000000000000000e+00,3.807020187377929688e+00,3.855698585510253906e+00,4.105618953704833984e+00,4.123567104339599609e+00,5.000000000000000000e+00,5.000000000000000000e+00,5.000000000000000000e+00,5.000000000000000000e+00,5.000000000000000000e+00,5.000000000000000000e+00,5.000000000000000000e+00,5.000000000000000000e+00,5.000000000000000000e+00,5.000000000000000000e+00,5.000000000000000000e+00,4.854667186737060547e+00,4.664340972900390625e+00,4.488374710083007812e+00,4.325201988220214844e+00,4.173477649688720703e+00,4.032036781311035156e+00,3.899869203567504883e+00,3.776091337203979492e+00,3.659928798675537109e+00,3.550699710845947266e+00,3.447801589965820312e+00,3.350699663162231445e+00,3.258917093276977539e+00,3.172028541564941406e+00,3.089653253555297852e+00,3.011447906494140625e+00,2.937103986740112305e+00,2.866342067718505859e+00,2.798909902572631836e+00,2.734577417373657227e+00,2.673135757446289062e+00,2.614394426345825195e+00,2.558179378509521484e+00,2.504330873489379883e+00,2.452702522277832031e+00,2.403160095214843750e+00,2.355579376220703125e+00,2.309845924377441406e+00,2.265854597091674805e+00,2.223507881164550781e+00,2.182714700698852539e+00,2.143391370773315430e+00,2.105460166931152344e+00,2.068847656250000000e+00,2.033487081527709961e+00,1.999314785003662109e+00,1.966272115707397461e+00,1.934303641319274902e+00,1.903358101844787598e+00,1.873387455940246582e+00,1.844345688819885254e+00
5.000000000000000000e+00,5.000000000000000000e+00,5.000000000000000000e+00,5.000000000000000000e+00,5.000000000000000000e+00,5.000000000000000000e+00,5.000000000000000000e+00,5.000000000000000000e+00,5.000000000000000000e+00,5.000000000000000000e+00,5.000000000000000000e+00,5.000000000000000000e+00,5.000000000000000000e+00,5.000000000000000000e+00,5.000000000000000000e+00,5.000000000000000000e+00,5.000000000000000000e+00,5.000000000000000000e+00,5.000000000000000000e+00,5.000000000000000000e+00,5.000000000000000000e+00,5.000000000000000000e+00,5.000000000000000000e+00,5.000000000000000000e+00,3.809463977813720703e+00,3.854801416397094727e+00,4.174129486083984375e+00,4.197145938873291016e+00,5.000000000000000000e+00,5.000000000000000000e+00,5.000000000000000000e+00,5.000000000000000000e+00,5.000000000000000000e+00,5.000000000000000000e+00,5.000000000000000000e+00,5.000000000000000000e+00,5.000000000000000000e+00,5.000000000000000000e+00,5.000000000000000000e+00,4.854805469512939453e+00,4.664467811584472656e+00,4.488492012023925781e+00,4.325311183929443359e+00,4.173579216003417969e+00,4.032131671905517578e+00,3.899958133697509766e+00,3.776174306869506836e+00,3.660006523132324219e+00,3.550773382186889648e+00,3.447870969772338867e+00,3.350764751434326172e+00,3.258979082107543945e+00,3.172087430953979492e+00,3.089708805084228516e+00,3.011500597000122070e+00,2.937154293060302734e+00,2.866389989852905273e+00,2.798955440521240234e+00,2.734621047973632812e+00,2.673177480697631836e+00,2.614434480667114258e+00,2.558217525482177734e+00,2.504367589950561523e+00,2.452737569808959961e+00,2.403193473815917969e+00,2.355611562728881836e+00,2.309877157211303711e+00,2.265884637832641602e+00,2.223536491394042969e+00,2.182742595672607422e+00,2.143418312072753906e+00,2.105485916137695312e+00,2.068872451782226562e+00,2.033511161804199219e+00,1.999338030815124512e+00,1.966294646263122559e+00,1.934325456619262695e+00,1.903379321098327637e+00,1.873407721519470215e+00,1.844365358352661133e+00
5.000000000000000000e+00,5.000000000000000000e+00,5.000000000000000000e+00,5.000000000000000000e+00,5.000000000000000000e+00,5.000000000000000000e+00,5.000000000000000000e+00,5.000000000000000000e+00,5.000000000000000000e+00,5.000000000000000000e+00,5.000000000000000000e+00,5.000000000000000000e+00,5.000000000000000000e+00,5.000000000000000000e+00,5.000000000000000000e+00,5.000000000000000000e+00,5.000000000000000000e+00,5.000000000000000000e+00,5.000000000000000000e+00,5.000000000000000000e+00,5.000000000000000000e+00,5.000000000000000000e+00,5.000000000000000000e+00,5.000000000000000000e+00,3.789485931396484375e+00,3.834877490997314453e+00,4.229602336883544922e+00,4.260654449462890625e+00,5.000000000000000000e+00,5.000000000000000000e+00,5.000000000000000000e+00,5.000000000000000000e+00,5.000000000000000000e+00,5.000000000000000000e+00,5.000000000000000000e+00,5.000000000000000000e+00,5.000000000000000000e+00,5.000000000000000000e+00,5.000000000000000000e+00,4.854943275451660156e+00,4.664594173431396484e+00,4.488609313964843750e+00,4.325420379638671875e+00,4.173680305480957031e+00,4.032226562500000000e+00,3.900046586990356445e+00,3.776257514953613281e+00,3.660084962844848633e+00,3.550846815109252930e+00,3.447940349578857422e+00,3.350830316543579102e+00,3.259040832519531250e+00,3.172145843505859375e+00,3.089764595031738281e+00,3.011553525924682617e+00,2.937204360961914062e+00,2.866438150405883789e+00,2.799001216888427734e+00,2.734664440155029297e+00,2.673218965530395508e+00,2.614474296569824219e+00,2.558255672454833984e+00,2.504403829574584961e+00,2.452772617340087891e+00,2.403227329254150391e+00,2.355643987655639648e+00,2.309908151626586914e+00,2.265914678573608398e+00,2.223565578460693359e+00,2.182770252227783203e+00,2.143445014953613281e+00,2.105511665344238281e+00,2.068897485733032227e+00,2.033535242080688477e+00,1.999361395835876465e+00,1.966317296028137207e+00,1.934347271919250488e+00,1.903400421142578125e+00,1.873428225517272949e+00,1.844385266304016113e+00
5.000000000000000000e+00,5.000000000000000000e+00,5.000000000000000000e+00,5.000000000000000000e+00,5.000000000000000000e+00,5.000000000000000000e+00,5.000000000000000000e+00,5.000000000000000000e+00,5.000000000000000000e+00,5.000000000000000000e+00,5.000000000000000000e+00,5.000000000000000000e+00,5.000000000000000000e+00,5.000000000000000000e+00,5.000000000000000000e+00,5.000000000000000000e+00,5.000000000000000000e+00,5.000000000000000000e+00,5.000000000000000000e+00,5.000000000000000000e+00,5.000000000000000000e+00,5.000000000000000000e+00,5.000000000000000000e+00,5.000000000000000000e+00,3.778827905654907227e+00,3.820011615753173828e+00,4.259616851806640625e+00,4.328911304473876953e+00,5.000000000000000000e+00,5.000000000000000000e+00,5.000000000000000000e+00,5.000000000000000000e+00,5.000000000000000000e+00,5.000000000000000000e+00,5.000000000000000000e+00,5.000000000000000000e+00,5.000000000000000000e+00,5.000000000000000000e+00,5.000000000000000000e+00,4.855081558227539062e+00,4.664721488952636719e+00,4.488726139068603516e+00,4.325529098510742188e+00,4.173781871795654297e+00,4.032321453094482422e+00,3.900135278701782227e+00,3.776340484619140625e+00,3.660163164138793945e+00,3.550920248031616211e+00,3.448009490966796875e+00,3.350895643234252930e+00,3.259102821350097656e+00,3.172204494476318359e+00,3.089819908142089844e+00,3.011606693267822266e+00,2.937254905700683594e+00,2.866485834121704102e+00,2.799046754837036133e+00,2.734708070755004883e+00,2.673260688781738281e+00,2.614514112472534180e+00,2.558293819427490234e+00,2.504440546035766602e+00,2.452807664871215820e+00,2.403260946273803711e+00,2.355676412582397461e+00,2.309939146041870117e+00,2.265944480895996094e+00,2.223594188690185547e+00,2.182798147201538086e+00,2.143471717834472656e+00,2.105537414550781250e+00,2.068922519683837891e+00,2.033559322357177734e+00,1.999384522438049316e+00,1.966339588165283203e+00,1.934369206428527832e+00,1.903421640396118164e+00,1.873448729515075684e+00,1.844405174255371094e+00
5.000000000000000000e+00,5.000000000000000000e+00,5.000000000000000000e+00,5.000000000000000000e+00,5.000000000000000000e+00,5.000000000000000000e+00,5.000000000000000000e+00,5.000000000000000000e+00,5.000000000000000000e+00,5.000000000000000000e+00,5.000000000000000000e+00,5.000000000000000000e+00,5.000000000000000000e+00,5.000000000000000000e+00,5.000000000000000000e+00,5.000000000000000000e+00,5.000000000000000000e+00,5.000000000000000000e+00,5.000000000000000000e+00,5.000000000000000000e+00,5.000000000000000000e+00,5.000000000000000000e+00,5.000000000000000000e+00,5.000000000000000000e+00,3.768079519271850586e+00,3.812761306762695312e+00,4.292842864990234375e+00,5.000000000000000000e+00,5.000000000000000000e+00,5.000000000000000000e+00,5.000000000000000000e+00,5.000000000000000000e+00,5.000000000000000000e+00,5.000000000000000000e+00,5.000000000000000000e+00,5.000000000000000000e+00,5.000000000000000000e+00,5.000000000000000000e+00,5.000000000000000000e+00,4.855218887329101562e+00,4.664848804473876953e+00,4.488843917846679688e+00,4.325637340545654297e+00,4.173883914947509766e+00,4.032415866851806641e+00,3.900224208831787109e+00,3.776423692703247070e+00,3.660240888595581055e+00,3.550993680953979492e+00,3.448078870773315430e+00,3.350961208343505859e+00,3.259164571762084961e+00,3.172263383865356445e+00,3.089875698089599609e+00,3.011659383773803711e+00,2.937304973602294922e+00,2.866533756256103516e+00,2.799092531204223633e+00,2.734751701354980469e+00,2.673302650451660156e+00,2.614553928375244141e+00,2.558331966400146484e+00,2.504477024078369141e+00,2.452842950820922852e+00,2.403294563293457031e+00,2.355708599090576172e+00,2.309970378875732422e+00,2.265974521636962891e+00,2.223623037338256836e+00,2.182825803756713867e+00,2.143498659133911133e+00,2.105563402175903320e+00,2.068947315216064453e+00,2.033583402633666992e+00,1.999407887458801270e+00,1.966362237930297852e+00,1.934390783309936523e+00,1.903442740440368652e+00,1.873469233512878418e+00,1.844424962997436523e+00
5.000000000000000000e+00,5.000000000000000000e+00,5.000000000000000000e+00,5.000000000000000000e+00,5.000000000000000000e+00,5.000000000000000000e+00,5.000000000000000000e+00,5.000000000000000000e+00,5.000000000000000000e+00,5.000000000000000000e+00,5.000000000000000000e+00,5.000000000000000000e+00,5.000000000000000000e+00,5.000000000000000000e+00,5.000000000000000000e+00,5.000000000000000000e+00,5.000000000000000000e+00,5.000000000000000000e+00,5.000000000000000000e+00,5.000000000000000000e+00,5.000000000000000000e+00,5.000000000000000000e+00,5.000000000000000000e+00,5.000000000000000000e+00,3.785171747207641602e+00,3.818444967269897461e+00,4.340059280395507812e+00,5.000000000000000000e+00,5.000000000000000000e+00,5.000000000000000000e+00,5.000000000000000000e+00,5.000000000000000000e+00,5.000000000000000000e+00,5.000000000000000000e+00,5.000000000000000000e+00,5.000000000000000000e+00,5.000000000000000000e+00,5.000000000000000000e+00,5.000000000000000000e+00,4.855357170104980469e+00,4.664976119995117188e+00,4.488961696624755859e+00,4.325747013092041016e+00,4.173985481262207031e+00,4.032510757446289062e+00,3.900312662124633789e+00,3.776506662368774414e+00,3.660319328308105469e+00,3.551067352294921875e+00,3.448148012161254883e+00,3.351026773452758789e+00,3.259226560592651367e+00,3.172321796417236328e+00,3.089931249618530273e+00,3.011712312698364258e+00,2.937355279922485352e+00,2.866581678390502930e+00,2.799138307571411133e+00,2.734795331954956055e+00,2.673344135284423828e+00,2.614593744277954102e+00,2.558370113372802734e+00,2.504513740539550781e+00,2.452877759933471680e+00,2.403328180313110352e+00,2.355741024017333984e+00,2.310001373291015625e+00,2.266004323959350586e+00,2.223651885986328125e+00,2.182853698730468750e+00,2.143525362014770508e+00,2.105589151382446289e+00,2.068972349166870117e+00,2.033607482910156250e+00,1.999431252479553223e+00,1.966384768486022949e+00,1.934412598609924316e+00,1.903463721275329590e+00,1.873489499092102051e+00,1.844444870948791504e+00
4.874277591705322266e+00,4.873080730438232422e+00,4.871883869171142578e+00,4.870687484741210938e+00,4.869492530822753906e+00,4.868297100067138672e+00,4.867102622985839844e+00,4.865909099578857422e+00,4.864716053009033203e+00,4.863523483276367188e+00,4.862331390380859375e+00,4.861139774322509766e+00,4.859949111938476562e+00,4.858758449554443359e+00,4.857569217681884766e+00,4.856379985809326172e+00,4.855191707611083984e+00,4.854003429412841797e+00,4.852816581726074219e+00,4.851629734039306641e+00,4.850443363189697266e+00,4.849257946014404297e+00,4.848073005676269531e+00,4.846888065338134766e+00,3.633491992950439453e+00,4.844521045684814453e+00,4.275955200195312500e+00,4.842156410217285156e+00,4.840974807739257812e+00,4.839793682098388672e+00,4.838613033294677734e+00,4.837433815002441406e+00,4.836254119873046875e+00,4.835075378417968750e+00,4.833897113800048828e+00,4.832719802856445312e+00,4.831542968750000000e+00,4.830366134643554688e+00,4.829190731048583984e+00,4.828015327453613281e+00,4.665103435516357422e+00,4.489079952239990234e+00,4.325856208801269531e+00,4.174086570739746094e+00,4.032605648040771484e+00,3.900401353836059570e+00,3.776589870452880859e+00,3.660397052764892578e+00,3.551141023635864258e+00,3.448217391967773438e+00,3.351092100143432617e+00,3.259288311004638672e+00,3.172380685806274414e+00,3.089987039566040039e+00,3.011765003204345703e+00,2.937405824661254883e+00,2.866629600524902344e+00,2.799183845520019531e+00,2.734838724136352539e+00,2.673385858535766602e+00,2.614633560180664062e+00,2.558408260345458984e+00,2.504550218582153320e+00,2.452913045883178711e+00,2.403362035751342773e+00,2.355773210525512695e+00,2.310032606124877930e+00,2.266034364700317383e+00,2.223680734634399414e+00,2.182881355285644531e+00,2.143552064895629883e+00,2.105615139007568359e+00,2.068997383117675781e+00,2.033631801605224609e+00,1.999454617500305176e+00,1.966407299041748047e+00,1.934434533119201660e+00,1.903484940528869629e+00,1.873510003089904785e+00,1.844464540481567383e+00
3.777307271957397461e+00,3.776587963104248047e+00,3.775869131088256836e+00,3.775150775909423828e+00,3.774432420730590820e+00,3.773714542388916016e+00,3.772996902465820312e+00,3.772279262542724609e+00,3.771562337875366211e+00,3.770845413208007812e+00,3.770128726959228516e+00,3.769412517547607422e+00,3.768696069717407227e+00,3.767980575561523438e+00,3.767265081405639648e+00,3.766549587249755859e+00,3.765834808349609375e+00,3.765120267868041992e+00,3.764405488967895508e+00,3.763691425323486328e+00,3.762977838516235352e+00,3.762264013290405273e+00,3.761550664901733398e+00,3.760837793350219727e+00,3.760124683380126953e+00,3.759412288665771484e+00,3.758700132369995117e+00,3.757987976074218750e+00,3.757276296615600586e+00,3.756565093994140625e+00,3.755853652954101562e+00,3.755142927169799805e+00,3.754431962966918945e+00,3.753721714019775391e+00,3.753011703491210938e+00,3.752301692962646484e+00,3.751592159271240234e+00,3.750883102416992188e+00,3.750173807144165039e+00,3.749464988708496094e+00,3.748756647109985352e+00,3.748048305511474609e+00,3.747340440750122070e+00,3.746632814407348633e+00,3.745925188064575195e+00,3.745218038558959961e+00,3.744510889053344727e+00,3.660475254058837891e+00,3.551214218139648438e+00,3.448286533355712891e+00,3.351157665252685547e+00,3.259350538253784180e+00,3.172439098358154297e+00,3.090042829513549805e+00,3.011817932128906250e+00,2.937455892562866211e+00,2.866677284240722656e+00,2.799229621887207031e+00,2.734882593154907227e+00,2.673427343368530273e+00,2.614673614501953125e+00,2.558446407318115234e+00,2.504586696624755859e+00,2.452947854995727539e+00,2.403395652770996094e+00,2.355805635452270508e+00,2.310063600540161133e+00,2.266064167022705078e+00,2.223709583282470703e+00,2.182909250259399414e+00,2.143578767776489258e+00,2.105640888214111328e+00,2.069022178649902344e+00,2.033655643463134766e+00,1.999477744102478027e+00,1.966429948806762695e+00,1.934456348419189453e+00,1.903506040573120117e+00,1.873530507087707520e+00,1.844484448432922363e+00
3.083382606506347656e+00,3.082903385162353516e+00,3.082424640655517578e+00,3.081945657730102539e+00,3.081466913223266602e+00,3.080988407135009766e+00,3.080509901046752930e+00,3.080031633377075195e+00,3.079553842544555664e+00,3.079075574874877930e+00,3.078597784042358398e+00,3.078120231628417969e+00,3.077642679214477539e+00,3.077165365219116211e+00,3.076688289642333984e+00,3.076210975646972656e+00,3.075734138488769531e+00,3.075257062911987305e+00,3.074780702590942383e+00,3.074304342269897461e+00,3.073827743530273438e+00,3.073351621627807617e+00,3.072875738143920898e+00,3.072399616241455078e+00,3.071923971176147461e+00,3.071448564529418945e+00,3.070972919464111328e+00,3.070497512817382812e+00,3.070022583007812500e+00,3.069547414779663086e+00,3.069072723388671875e+00,3.068598031997680664e+00,3.068123340606689453e+00,3.067648887634277344e+00,3.067174434661865234e+00,3.066700458526611328e+00,3.066226482391357422e+00,3.065752744674682617e+00,3.065279006958007812e+00,3.064805507659912109e+00,3.064332008361816406e+00,3.063858985900878906e+00,3.063385963439941406e+00,3.062912702560424805e+00,3.062440156936645508e+00,3.061967372894287109e+00,3.061494827270507812e+00,3.061022520065307617e+00,3.060550451278686523e+00,3.060078144073486328e+00,3.059606313705444336e+00,3.059134244918823242e+00,3.058662652969360352e+00,3.058191299438476562e+00,3.011870622634887695e+00,2.937506437301635742e+00,2.866725206375122070e+00,2.799275159835815430e+00,2.734926223754882812e+00,2.673469066619873047e+00,2.614713191986083984e+00,2.558484554290771484e+00,2.504623413085937500e+00,2.452983140945434570e+00,2.403429269790649414e+00,2.355838060379028320e+00,2.310094833374023438e+00,2.266094207763671875e+00,2.223738431930541992e+00,2.182936906814575195e+00,2.143605709075927734e+00,2.105666637420654297e+00,2.069047212600708008e+00,2.033679962158203125e+00,1.999501109123229980e+00,1.966452240943908691e+00,1.934478163719177246e+00,1.903527259826660156e+00,1.873551011085510254e+00,1.844504356384277344e+00
2.604848861694335938e+00,2.604506969451904297e+00,2.604165315628051758e+00,2.603823423385620117e+00,2.603481769561767578e+00,2.603139877319335938e+00,2.602798461914062500e+00,2.602457046508789062e+00,2.602115631103515625e+00,2.601774454116821289e+00,2.601433277130126953e+00,2.601092100143432617e+00,2.600751161575317383e+00,2.600410461425781250e+00,2.600069522857666016e+00,2.599728822708129883e+00,2.599388360977172852e+00,2.599047660827636719e+00,2.598707199096679688e+00,2.598366975784301758e+00,2.598026514053344727e+00,2.597686290740966797e+00,2.597346067428588867e+00,2.597006320953369141e+00,2.596666336059570312e+00,2.596326351165771484e+00,2.595986843109130859e+00,2.595647096633911133e+00,2.595307350158691406e+00,2.594968080520629883e+00,2.594628810882568359e+00,2.594289302825927734e+00,2.593950271606445312e+00,2.593611240386962891e+00,2.593271970748901367e+00,2.592933177947998047e+00,2.592594385147094727e+00,2.592255353927612305e+00,2.591916799545288086e+00,2.591578006744384766e+00,2.591239690780639648e+00,2.590901374816894531e+00,2.590562820434570312e+00,2.590224742889404297e+00,2.589886665344238281e+00,2.589548349380493164e+00,2.589210510253906250e+00,2.588872671127319336e+00,2.588534832000732422e+00,2.588197231292724609e+00,2.587859630584716797e+00,2.587522029876708984e+00,2.587184667587280273e+00,2.586847305297851562e+00,2.586509943008422852e+00,2.586172819137573242e+00,2.585835695266723633e+00,2.585498809814453125e+00,2.585161924362182617e+00,2.584825038909912109e+00,2.584488391876220703e+00,2.558522701263427734e+00,2.504659891128540039e+00,2.453018188476562500e+00,2.403462886810302734e+00,2.355870485305786133e+00,2.310125827789306641e+00,2.266124010086059570e+00,2.223767280578613281e+00,2.182964563369750977e+00,2.143632411956787109e+00,2.105692625045776367e+00,2.069072246551513672e+00,2.033703804016113281e+00,1.999524474143981934e+00,1.966474890708923340e+00,1.934499859809875488e+00,1.903548121452331543e+00,1.873571515083312988e+00,1.844524145126342773e+00
2.254937410354614258e+00,2.254679441452026367e+00,2.254421234130859375e+00,2.254163265228271484e+00,2.253905296325683594e+00,2.253647565841674805e+00,2.253389835357666016e+00,2.253132104873657227e+00,2.252874374389648438e+00,2.252616643905639648e+00,2.252359151840209961e+00,2.252101659774780273e+00,2.251844167709350586e+00,2.251586914062500000e+00,2.251329421997070312e+00,2.251072168350219727e+00,2.250814914703369141e+00,2.250557899475097656e+00,2.250300645828247070e+00,2.250043630599975586e+00,2.249786615371704102e+00,2.249529600143432617e+00,2.249272823333740234e+00,2.249016046524047852e+00,2.248760461807250977e+00,2.248505592346191406e+00,2.248250722885131836e+00,2.247995853424072266e+00,2.247741222381591797e+00,2.247486829757690430e+00,2.247231960296630859e+00,2.246977567672729492e+00,2.246723175048828125e+00,2.246468782424926758e+00,2.246214389801025391e+00,2.245960235595703125e+00,2.245705842971801758e+00,2.245451688766479492e+00,2.245197534561157227e+00,2.244943380355834961e+00,2.244689464569091797e+00,2.244435548782348633e+00,2.244181632995605469e+00,2.243927717208862305e+00,2.243673801422119141e+00,2.243420124053955078e+00,2.243166685104370117e+00,2.242913007736206055e+00,2.242659330368041992e+00,2.242405891418457031e+00,2.242152452468872070e+00,2.241899251937866211e+00,2.241645812988281250e+00,2.241392612457275391e+00,2.241139411926269531e+00,2.240886211395263672e+00,2.240633010864257812e+00,2.240380048751831055e+00,2.240127086639404297e+00,2.239874124526977539e+00,2.239621400833129883e+00,2.239368438720703125e+00,2.239115715026855469e+00,2.238863229751586914e+00,2.238610267639160156e+00,2.238357782363891602e+00,2.238105297088623047e+00,2.237852811813354492e+00,2.223795890808105469e+00,2.182992458343505859e+00,2.143659353256225586e+00,2.105718374252319336e+00,2.069097042083740234e+00,2.033728122711181641e+00,1.999547719955444336e+00,1.966497421264648438e+00,1.934521675109863281e+00,1.903569340705871582e+00,1.873591780662536621e+00,1.844544053077697754e+00
1.987980723381042480e+00,1.987780094146728516e+00,1.987579703330993652e+00,1.987379074096679688e+00,1.987178564071655273e+00,1.986978054046630859e+00,1.986777782440185547e+00,1.986577391624450684e+00,1.986377000808715820e+00,1.986176848411560059e+00,1.985976576805114746e+00,1.985776305198669434e+00,1.985576033592224121e+00,1.985376119613647461e+00,1.985175967216491699e+00,1.984975814819335938e+00,1.984776020050048828e+00,1.984575986862182617e+00,1.984375953674316406e+00,1.984176039695739746e+00,1.983976364135742188e+00,1.983776450157165527e+00,1.983576655387878418e+00,1.983377099037170410e+00,1.983177304267883301e+00,1.982977628707885742e+00,1.982777953147888184e+00,1.982578516006469727e+00,1.982378959655761719e+00,1.982179403305053711e+00,1.981980204582214355e+00,1.981780648231506348e+00,1.981581211090087891e+00,1.981382131576538086e+00,1.981182813644409180e+00,1.980983495712280273e+00,1.980784177780151367e+00,1.980585217475891113e+00,1.980386018753051758e+00,1.980186820030212402e+00,1.979987978935241699e+00,1.979788899421691895e+00,1.979589819908142090e+00,1.979390859603881836e+00,1.979192137718200684e+00,1.978993296623229980e+00,1.978794336318969727e+00,1.978595852851867676e+00,1.978397011756896973e+00,1.978198289871215820e+00,1.977999567985534668e+00,1.977801084518432617e+00,1.977602481842041016e+00,1.977403879165649414e+00,1.977205514907836914e+00,1.977007031440734863e+00,1.976808547973632812e+00,1.976610183715820312e+00,1.976411938667297363e+00,1.976213693618774414e+00,1.976015329360961914e+00,1.975817322731018066e+00,1.975619077682495117e+00,1.975420832633972168e+00,1.975222706794738770e+00,1.975024819374084473e+00,1.974826693534851074e+00,1.974628686904907227e+00,1.974430918693542480e+00,1.974233031272888184e+00,1.974035143852233887e+00,1.973837494850158691e+00,1.973639607429504395e+00,1.973441839218139648e+00,1.973244071006774902e+00,1.966520071029663086e+00,1.934543609619140625e+00,1.903590559959411621e+00,1.873612284660339355e+00,1.844563722610473633e+00
1.777541756629943848e+00,1.777381300926208496e+00,1.777221083641052246e+00,1.777060747146606445e+00,1.776900410652160645e+00,1.776740193367004395e+00,1.776579976081848145e+00,1.776419639587402344e+00,1.776259422302246094e+00,1.776099443435668945e+00,1.775939226150512695e+00,1.775779128074645996e+00,1.775619149208068848e+00,1.775459051132202148e+00,1.775298953056335449e+00,1.775139093399047852e+00,1.774979114532470703e+00,1.774819135665893555e+00,1.774659156799316406e+00,1.774499416351318359e+00,1.774339556694030762e+00,1.774179697036743164e+00,1.774020075798034668e+00,1.773860216140747070e+00,1.773700475692749023e+00,1.773540735244750977e+00,1.773381114006042480e+00,1.773221492767333984e+00,1.773061752319335938e+00,1.772902369499206543e+00,1.772742748260498047e+00,1.772583127021789551e+00,1.772423624992370605e+00,1.772264242172241211e+00,1.772104740142822266e+00,1.771945357322692871e+00,1.771786093711853027e+00,1.771626710891723633e+00,1.771467328071594238e+00,1.771307945251464844e+00,1.771148800849914551e+00,1.770989537239074707e+00,1.770830273628234863e+00,1.770671248435974121e+00,1.770511984825134277e+00,1.770352840423583984e+00,1.770193696022033691e+00,1.770034790039062500e+00,1.769875645637512207e+00,1.769716620445251465e+00,1.769557714462280273e+00,1.769398689270019531e+00,1.769239783287048340e+00,1.769080758094787598e+00,1.768922090530395508e+00,1.768763184547424316e+00,1.768604278564453125e+00,1.768445611000061035e+00,1.768286824226379395e+00,1.768128037452697754e+00,1.767969489097595215e+00,1.767810821533203125e+00,1.767652034759521484e+00,1.767493367195129395e+00,1.767334938049316406e+00,1.767176389694213867e+00,1.767017841339111328e+00,1.766859412193298340e+00,1.766700863838195801e+00,1.766542434692382812e+00,1.766384005546569824e+00,1.766225695610046387e+00,1.766067266464233398e+00,1.765908956527709961e+00,1.765750765800476074e+00,1.765592455863952637e+00,1.765434145927429199e+00,1.765275955200195312e+00,1.765117883682250977e+00,1.764959692955017090e+00
1.607390403747558594e+00,1.607259392738342285e+00,1.607128143310546875e+00,1.606997013092041016e+00,1.606866121292114258e+00,1.606734991073608398e+00,1.606603860855102539e+00,1.606472730636596680e+00,1.606341838836669922e+00,1.606210827827453613e+00,1.606079816818237305e+00,1.605949044227600098e+00,1.605818033218383789e+00,1.605687141418457031e+00,1.605556249618530273e+00,1.605425477027893066e+00,1.605294585227966309e+00,1.605163693428039551e+00,1.605033040046691895e+00,1.604902267456054688e+00,1.604771494865417480e+00,1.604640722274780273e+00,1.604510068893432617e+00,1.604379296302795410e+00,1.604248642921447754e+00,1.604118108749389648e+00,1.603987455368041992e+00,1.603856801986694336e+00,1.603726148605346680e+00,1.603595733642578125e+00,1.603465199470520020e+00,1.603334546089172363e+00,1.603204250335693359e+00,1.603073716163635254e+00,1.602943181991577148e+00,1.602812767028808594e+00,1.602682471275329590e+00,1.602552056312561035e+00,1.602421641349792480e+00,1.602291345596313477e+00,1.602161049842834473e+00,1.602030634880065918e+00,1.601900339126586914e+00,1.601770162582397461e+00,1.601639866828918457e+00,1.601509690284729004e+00,1.601379513740539551e+00,1.601249337196350098e+00,1.601119160652160645e+00,1.600989103317260742e+00,1.600858926773071289e+00,1.600728869438171387e+00,1.600598692893981934e+00,1.600468754768371582e+00,1.600338697433471680e+00,1.600208640098571777e+00,1.600078821182250977e+00,1.599948763847351074e+00,1.599818706512451172e+00,1.599688768386840820e+00,1.599558949470520020e+00,1.599429130554199219e+00,1.599299192428588867e+00,1.599169492721557617e+00,1.599039554595947266e+00,1.598909735679626465e+00,1.598779916763305664e+00,1.598650336265563965e+00,1.598520517349243164e+00,1.598390817642211914e+00,1.598261237144470215e+00,1.598131537437438965e+00,1.598001837730407715e+00,1.597872138023376465e+00,1.597742676734924316e+00,1.597612977027893066e+00,1.597483396530151367e+00,1.597353935241699219e+00,1.597224354743957520e+00,1.597094893455505371e+00
1.466968178749084473e+00,1.466858863830566406e+00,1.466749668121337891e+00,1.466640353202819824e+00,1.466531276702880859e+00,1.466422080993652344e+00,1.466312885284423828e+00,1.466203808784484863e+00,1.466094613075256348e+00,1.465985536575317383e+00,1.465876340866088867e+00,1.465767383575439453e+00,1.465658307075500488e+00,1.465549230575561523e+00,1.465440273284912109e+00,1.465331196784973145e+00,1.465222239494323730e+00,1.465113162994384766e+00,1.465004324913024902e+00,1.464895367622375488e+00,1.464786291122436523e+00,1.464677572250366211e+00,1.464568614959716797e+00,1.464459657669067383e+00,1.464350700378417969e+00,1.464241981506347656e+00,1.464133143424987793e+00,1.464024305343627930e+00,1.463915586471557617e+00,1.463806748390197754e+00,1.463697910308837891e+00,1.463589310646057129e+00,1.463480472564697266e+00,1.463371753692626953e+00,1.463263034820556641e+00,1.463154435157775879e+00,1.463045716285705566e+00,1.462936997413635254e+00,1.462828397750854492e+00,1.462719798088073730e+00,1.462611079216003418e+00,1.462502479553222656e+00,1.462393999099731445e+00,1.462285399436950684e+00,1.462176799774169922e+00,1.462068438529968262e+00,1.461959838867187500e+00,1.461851358413696289e+00,1.461742877960205078e+00,1.461634397506713867e+00,1.461525917053222656e+00,1.461417555809020996e+00,1.461309194564819336e+00,1.461200714111328125e+00,1.461092352867126465e+00,1.460983872413635254e+00,1.460875630378723145e+00,1.460767269134521484e+00,1.460658907890319824e+00,1.460550785064697266e+00,1.460442423820495605e+00,1.460334062576293945e+00,1.460225820541381836e+00,1.460117697715759277e+00,1.460009455680847168e+00,1.459901213645935059e+00,1.459793090820312500e+00,1.459684848785400391e+00,1.459576606750488281e+00,1.459468483924865723e+00,1.459360480308532715e+00,1.459252357482910156e+00,1.459144115447998047e+00,1.459036231040954590e+00,1.458928108215332031e+00,1.458819985389709473e+00,1.458712100982666016e+00,1.458603978157043457e+00,1.458495974540710449e+00,1.458387970924377441e+00
1.349109292030334473e+00,1.349016904830932617e+00,1.348924517631530762e+00,1.348832249641418457e+00,1.348739862442016602e+00,1.348647475242614746e+00,1.348555088043212891e+00,1.348462820053100586e+00,1.348370552062988281e+00,1.348278164863586426e+00,1.348186016082763672e+00,1.348093628883361816e+00,1.348001360893249512e+00,1.347909092903137207e+00,1.347816944122314453e+00,1.347724676132202148e+00,1.347632527351379395e+00,1.347540378570556641e+00,1.347448229789733887e+00,1.347355961799621582e+00,1.347263932228088379e+00,1.347171783447265625e+00,1.347079634666442871e+00,1.346987485885620117e+00,1.346895456314086914e+00,1.346803307533264160e+00,1.346711158752441406e+00,1.346619248390197754e+00,1.346527099609375000e+00,1.346435070037841797e+00,1.346343040466308594e+00,1.346251130104064941e+00,1.346159100532531738e+00,1.346067070960998535e+00,1.345975160598754883e+00,1.345883131027221680e+00,1.345791101455688477e+00,1.345699191093444824e+00,1.345607280731201172e+00,1.345515370368957520e+00,1.345423460006713867e+00,1.345331668853759766e+00,1.345239758491516113e+00,1.345147848129272461e+00,1.345055937767028809e+00,1.344964146614074707e+00,1.344872355461120605e+00,1.344780445098876953e+00,1.344688773155212402e+00,1.344596982002258301e+00,1.344505190849304199e+00,1.344413399696350098e+00,1.344321727752685547e+00,1.344229936599731445e+00,1.344138145446777344e+00,1.344046473503112793e+00,1.343954801559448242e+00,1.343863010406494141e+00,1.343771338462829590e+00,1.343679785728454590e+00,1.343588113784790039e+00,1.343496441841125488e+00,1.343404889106750488e+00,1.343313217163085938e+00,1.343221545219421387e+00,1.343130111694335938e+00,1.343038439750671387e+00,1.342946887016296387e+00,1.342855334281921387e+00,1.342763781547546387e+00,1.342672228813171387e+00,1.342580676078796387e+00,1.342489242553710938e+00,1.342397809028625488e+00,1.342306256294250488e+00,1.342214703559875488e+00,1.342123389244079590e+00,1.342031955718994141e+00,1.341940402984619141e+00,1.341849088668823242e+00
1.248780131340026855e+00,1.248700976371765137e+00,1.248621702194213867e+00,1.248542666435241699e+00,1.248463511466979980e+00,1.248384356498718262e+00,1.248305320739746094e+00,1.248226165771484375e+00,1.248147130012512207e+00,1.248068094253540039e+00,1.247988939285278320e+00,1.247909903526306152e+00,1.247830748558044434e+00,1.247751832008361816e+00,1.247672796249389648e+00,1.247593760490417480e+00,1.247514724731445312e+00,1.247435688972473145e+00,1.247356772422790527e+00,1.247277736663818359e+00,1.247198820114135742e+00,1.247119784355163574e+00,1.247040867805480957e+00,1.246961951255798340e+00,1.246883034706115723e+00,1.246803998947143555e+00,1.246725082397460938e+00,1.246646285057067871e+00,1.246567368507385254e+00,1.246488451957702637e+00,1.246409654617309570e+00,1.246330738067626953e+00,1.246251821517944336e+00,1.246173024177551270e+00,1.246094226837158203e+00,1.246015429496765137e+00,1.245936512947082520e+00,1.245857834815979004e+00,1.245779037475585938e+00,1.245700240135192871e+00,1.245621442794799805e+00,1.245542645454406738e+00,1.245463967323303223e+00,1.245385169982910156e+00,1.245306491851806641e+00,1.245227694511413574e+00,1.245149016380310059e+00,1.245070338249206543e+00,1.244991660118103027e+00,1.244912981986999512e+00,1.244834184646606445e+00,1.244755625724792480e+00,1.244676947593688965e+00,1.244598269462585449e+00,1.244519710540771484e+00,1.244441032409667969e+00,1.244362473487854004e+00,1.244283795356750488e+00,1.244205236434936523e+00,1.244126677513122559e+00,1.244047999382019043e+00,1.243969559669494629e+00,1.243891000747680664e+00,1.243812441825866699e+00,1.243733882904052734e+00,1.243655443191528320e+00,1.243576884269714355e+00,1.243498325347900391e+00,1.243419885635375977e+00,1.243341445922851562e+00,1.243262887001037598e+00,1.243184447288513184e+00,1.243106007575988770e+00,1.243027567863464355e+00,1.242949128150939941e+00,1.242870688438415527e+00,1.242792248725891113e+00,1.242713809013366699e+00,1.242635488510131836e+00,1.242557168006896973e+00
1.162340402603149414e+00,1.162271738052368164e+00,1.162203311920166016e+00,1.162134647369384766e+00,1.162066102027893066e+00,1.161997556686401367e+00,1.161929011344909668e+00,1.161860466003417969e+00,1.161791920661926270e+00,1.161723494529724121e+00,1.161654949188232422e+00,1.161586403846740723e+00,1.161517977714538574e+00,1.161449432373046875e+00,1.161381006240844727e+00,1.161312460899353027e+00,1.161244034767150879e+00,1.161175608634948730e+00,1.161107063293457031e+00,1.161038756370544434e+00,1.160970330238342285e+00,1.160901784896850586e+00,1.160833358764648438e+00,1.160765051841735840e+00,1.160696625709533691e+00,1.160628199577331543e+00,1.160559892654418945e+00,1.160491466522216797e+00,1.160423159599304199e+00,1.160354733467102051e+00,1.160286426544189453e+00,1.160218119621276855e+00,1.160149693489074707e+00,1.160081386566162109e+00,1.160013079643249512e+00,1.159944772720336914e+00,1.159876465797424316e+00,1.159808158874511719e+00,1.159739851951599121e+00,1.159671545028686523e+00,1.159603357315063477e+00,1.159535050392150879e+00,1.159466862678527832e+00,1.159398674964904785e+00,1.159330368041992188e+00,1.159262061119079590e+00,1.159193873405456543e+00,1.159125685691833496e+00,1.159057497978210449e+00,1.158989310264587402e+00,1.158921122550964355e+00,1.158852934837341309e+00,1.158784747123718262e+00,1.158716559410095215e+00,1.158648490905761719e+00,1.158580303192138672e+00,1.158512115478515625e+00,1.158444046974182129e+00,1.158375859260559082e+00,1.158307790756225586e+00,1.158239603042602539e+00,1.158171653747558594e+00,1.158103466033935547e+00,1.158035397529602051e+00,1.157967329025268555e+00,1.157899260520935059e+00,1.157831192016601562e+00,1.157763123512268066e+00,1.157695174217224121e+00,1.157627105712890625e+00,1.157559037208557129e+00,1.157491087913513184e+00,1.157423019409179688e+00,1.157354950904846191e+00,1.157287001609802246e+00,1.157219052314758301e+00,1.157151103019714355e+00,1.157083034515380859e+00,1.157015204429626465e+00,1.156947135925292969e+00
1.087092518806457520e+00,1.087032556533813477e+00,1.086972594261169434e+00,1.086912512779235840e+00,1.086852550506591797e+00,1.086792707443237305e+00,1.086732625961303711e+00,1.086672663688659668e+00,1.086612820625305176e+00,1.086552858352661133e+00,1.086492896080017090e+00,1.086432933807373047e+00,1.086373090744018555e+00,1.086313128471374512e+00,1.086253285408020020e+00,1.086193442344665527e+00,1.086133480072021484e+00,1.086073637008666992e+00,1.086013674736022949e+00,1.085953831672668457e+00,1.085893988609313965e+00,1.085834145545959473e+00,1.085774302482604980e+00,1.085714459419250488e+00,1.085654616355895996e+00,1.085594773292541504e+00,1.085534930229187012e+00,1.085475087165832520e+00,1.085415244102478027e+00,1.085355520248413086e+00,1.085295677185058594e+00,1.085235953330993652e+00,1.085176110267639160e+00,1.085116386413574219e+00,1.085056543350219727e+00,1.084996819496154785e+00,1.084937095642089844e+00,1.084877371788024902e+00,1.084817528724670410e+00,1.084757804870605469e+00,1.084698081016540527e+00,1.084638357162475586e+00,1.084578633308410645e+00,1.084518909454345703e+00,1.084459185600280762e+00,1.084399461746215820e+00,1.084339857101440430e+00,1.084280133247375488e+00,1.084220409393310547e+00,1.084160804748535156e+00,1.084101080894470215e+00,1.084041476249694824e+00,1.083981752395629883e+00,1.083922147750854492e+00,1.083862543106079102e+00,1.083802819252014160e+00,1.083743214607238770e+00,1.083683609962463379e+00,1.083624005317687988e+00,1.083564400672912598e+00,1.083504796028137207e+00,1.083445191383361816e+00,1.083385586738586426e+00,1.083326101303100586e+00,1.083266496658325195e+00,1.083206892013549805e+00,1.083147287368774414e+00,1.083087801933288574e+00,1.083028197288513184e+00,1.082968711853027344e+00,1.082909226417541504e+00,1.082849621772766113e+00,1.082790136337280273e+00,1.082730531692504883e+00,1.082671046257019043e+00,1.082611560821533203e+00,1.082552075386047363e+00,1.082492589950561523e+00,1.082433104515075684e+00,1.082373619079589844e+00
1.020995140075683594e+00,1.020942211151123047e+00,1.020889282226562500e+00,1.020836353302001953e+00,1.020783543586730957e+00,1.020730614662170410e+00,1.020677685737609863e+00,1.020624876022338867e+00,1.020571947097778320e+00,1.020519018173217773e+00,1.020466208457946777e+00,1.020413398742675781e+00,1.020360469818115234e+00,1.020307660102844238e+00,1.020254850387573242e+00,1.020201921463012695e+00,1.020149111747741699e+00,1.020096302032470703e+00,1.020043492317199707e+00,1.019990682601928711e+00,1.019937753677368164e+00,1.019885063171386719e+00,1.019832253456115723e+00,1.019779443740844727e+00,1.019726634025573730e+00,1.019673824310302734e+00,1.019621014595031738e+00,1.019568324089050293e+00,1.019515514373779297e+00,1.019462823867797852e+00,1.019410014152526855e+00,1.019357204437255859e+00,1.019304513931274414e+00,1.019251704216003418e+00,1.019199013710021973e+00,1.019146323204040527e+00,1.019093632698059082e+00,1.019040822982788086e+00,1.018988132476806641e+00,1.018935441970825195e+00,1.018882751464843750e+00,1.018830060958862305e+00,1.018777370452880859e+00,1.018724679946899414e+00,1.018671989440917969e+00,1.018619298934936523e+00,1.018566608428955078e+00,1.018513917922973633e+00,1.018461227416992188e+00,1.018408656120300293e+00,1.018355965614318848e+00,1.018303275108337402e+00,1.018250703811645508e+00,1.018198132514953613e+00,1.018145442008972168e+00,1.018092751502990723e+00,1.018040180206298828e+00,1.017987608909606934e+00,1.017934918403625488e+00,1.017882466316223145e+00,1.017829775810241699e+00,1.017777204513549805e+00,1.017724633216857910e+00,1.017672061920166016e+00,1.017619490623474121e+00,1.017566919326782227e+00,1.017514348030090332e+00,1.017461776733398438e+00,1.017409205436706543e+00,1.017356634140014648e+00,1.017304182052612305e+00,1.017251610755920410e+00,1.017199039459228516e+00,1.017146587371826172e+00,1.017094016075134277e+00,1.017041563987731934e+00,1.016988992691040039e+00,1.016936540603637695e+00,1.016883969306945801e+00,1.016831517219543457e+00
9.624748229980468750e-01,9.624277949333190918e-01,9.623807072639465332e-01,9.623336791992187500e-01,9.622866511344909668e-01,9.622396230697631836e-01,9.621926546096801758e-01,9.621457457542419434e-01,9.620987176895141602e-01,9.620517492294311523e-01,9.620047211647033691e-01,9.619577527046203613e-01,9.619107246398925781e-01,9.618637561798095703e-01,9.618169069290161133e-01,9.617699384689331055e-01,9.617229104042053223e-01,9.616759419441223145e-01,9.616290330886840820e-01,9.615820646286010742e-01,9.615350961685180664e-01,9.614882469177246094e-01,9.614413380622863770e-01,9.613943696022033691e-01,9.613474607467651367e-01,9.613004922866821289e-01,9.612535834312438965e-01,9.612066745758056641e-01,9.611598849296569824e-01,9.611129164695739746e-01,9.610660076141357422e-01,9.610191583633422852e-01,9.609722495079040527e-01,9.609253406524658203e-01,9.608784317970275879e-01,9.608317017555236816e-01,9.607847929000854492e-01,9.607379436492919922e-01,9.606910347938537598e-01,9.606441855430603027e-01,9.605973362922668457e-01,9.605505466461181641e-01,9.605036973953247070e-01,9.604568481445312500e-01,9.604099988937377930e-01,9.603632092475891113e-01,9.603163599967956543e-01,9.602695107460021973e-01,9.602227807044982910e-01,9.601759910583496094e-01,9.601291418075561523e-01,9.600823521614074707e-01,9.600355625152587891e-01,9.599887132644653320e-01,9.599419236183166504e-01,9.598952531814575195e-01,9.598484635353088379e-01,9.598016738891601562e-01,9.597548842430114746e-01,9.597080945968627930e-01,9.596613645553588867e-01,9.596145749092102051e-01,9.595679640769958496e-01,9.595211744308471680e-01,9.594744443893432617e-01,9.594276547431945801e-01,9.593809247016906738e-01,9.593341946601867676e-01,9.592874646186828613e-01,9.592408537864685059e-01,9.591941237449645996e-01,9.591473937034606934e-01,9.591006636619567871e-01,9.590539336204528809e-01,9.590072631835937500e-01,9.589605331420898438e-01,9.589139819145202637e-01,9.588672518730163574e-01,9.588205814361572266e-01,9.587739109992980957e-01
9.102991819381713867e-01,9.102571010589599609e-01,9.102150201797485352e-01,9.101729393005371094e-01,9.101308584213256836e-01,9.100888371467590332e-01,9.100468754768371582e-01,9.100047945976257324e-01,9.099627137184143066e-01,9.099206924438476562e-01,9.098786711692810059e-01,9.098365902900695801e-01,9.097945690155029297e-01,9.097526073455810547e-01,9.097105860710144043e-01,9.096685647964477539e-01,9.096265435218811035e-01,9.095845222473144531e-01,9.095425009727478027e-01,9.095005393028259277e-01,9.094586372375488281e-01,9.094166159629821777e-01,9.093745946884155273e-01,9.093326330184936523e-01,9.092906117439270020e-01,9.092486500740051270e-01,9.092066884040832520e-01,9.091647863388061523e-01,9.091228246688842773e-01,9.090808629989624023e-01,9.090388417243957520e-01,9.089969396591186523e-01,9.089549779891967773e-01,9.089130163192749023e-01,9.088711738586425781e-01,9.088292121887207031e-01,9.087872505187988281e-01,9.087452888488769531e-01,9.087033867835998535e-01,9.086614251136779785e-01,9.086195230484008789e-01,9.085776805877685547e-01,9.085357785224914551e-01,9.084938764572143555e-01,9.084519743919372559e-01,9.084100127220153809e-01,9.083681106567382812e-01,9.083262085914611816e-01,9.082844257354736328e-01,9.082425236701965332e-01,9.082006812095642090e-01,9.081587791442871094e-01,9.081168770790100098e-01,9.080750346183776855e-01,9.080331325531005859e-01,9.079913496971130371e-01,9.079495072364807129e-01,9.079076647758483887e-01,9.078657627105712891e-01,9.078239202499389648e-01,9.077820777893066406e-01,9.077402353286743164e-01,9.076984524726867676e-01,9.076566696166992188e-01,9.076148271560668945e-01,9.075729846954345703e-01,9.075311422348022461e-01,9.074892997741699219e-01,9.074475765228271484e-01,9.074057936668395996e-01,9.073639512062072754e-01,9.073221683502197266e-01,9.072803854942321777e-01,9.072385430335998535e-01,9.071967601776123047e-01,9.071550965309143066e-01,9.071133136749267578e-01,9.070715308189392090e-01,9.070297479629516602e-01,9.069879651069641113e-01
8.634895086288452148e-01,8.634516596794128418e-01,8.634137511253356934e-01,8.633759021759033203e-01,8.633380532264709473e-01,8.633002042770385742e-01,8.632624745368957520e-01,8.632246255874633789e-01,8.631867766380310059e-01,8.631489276885986328e-01,8.631111383438110352e-01,8.630732893943786621e-01,8.630355596542358398e-01,8.629977107048034668e-01,8.629599213600158691e-01,8.629220724105834961e-01,8.628842830657958984e-01,8.628464937210083008e-01,8.628086447715759277e-01,8.627709150314331055e-01,8.627331256866455078e-01,8.626953363418579102e-01,8.626575469970703125e-01,8.626197576522827148e-01,8.625819683074951172e-01,8.625441789627075195e-01,8.625065088272094727e-01,8.624687194824218750e-01,8.624309301376342773e-01,8.623932003974914551e-01,8.623554110527038574e-01,8.623176217079162598e-01,8.622798919677734375e-01,8.622422218322753906e-01,8.622044920921325684e-01,8.621667027473449707e-01,8.621289730072021484e-01,8.620912432670593262e-01,8.620534539222717285e-01,8.620157241821289062e-01,8.619781136512756348e-01,8.619403839111328125e-01,8.619026541709899902e-01,8.618649244308471680e-01,8.618271946907043457e-01,8.617894649505615234e-01,8.617517948150634766e-01,8.617141246795654297e-01,8.616764545440673828e-01,8.616387248039245605e-01,8.616010546684265137e-01,8.615633249282836914e-01,8.615256547927856445e-01,8.614879250526428223e-01,8.614503741264343262e-01,8.614126443862915039e-01,8.613749742507934570e-01,8.613373041152954102e-01,8.612996339797973633e-01,8.612619638442993164e-01,8.612242937088012695e-01,8.611867427825927734e-01,8.611490726470947266e-01,8.611114025115966797e-01,8.610737323760986328e-01,8.610360622406005859e-01,8.609984517097473145e-01,8.609607815742492676e-01,8.609232306480407715e-01,8.608856201171875000e-01,8.608479499816894531e-01,8.608103394508361816e-01,8.607727289199829102e-01,8.607350587844848633e-01,8.606974482536315918e-01,8.606599569320678711e-01,8.606223464012145996e-01,8.605847358703613281e-01,8.605471253395080566e-01,8.605095148086547852e-01
8.212584853172302246e-01,8.212242722511291504e-01,8.211899995803833008e-01,8.211557865142822266e-01,8.211215138435363770e-01,8.210873603820800781e-01,8.210531473159790039e-01,8.210189342498779297e-01,8.209846615791320801e-01,8.209504485130310059e-01,8.209162354469299316e-01,8.208820223808288574e-01,8.208478689193725586e-01,8.208136558532714844e-01,8.207794427871704102e-01,8.207452297210693359e-01,8.207110166549682617e-01,8.206768035888671875e-01,8.206426501274108887e-01,8.206084966659545898e-01,8.205742835998535156e-01,8.205401301383972168e-01,8.205059170722961426e-01,8.204717636108398438e-01,8.204375505447387695e-01,8.204033970832824707e-01,8.203693032264709473e-01,8.203350901603698730e-01,8.203009366989135742e-01,8.202667832374572754e-01,8.202325701713562012e-01,8.201984167098999023e-01,8.201642632484436035e-01,8.201301693916320801e-01,8.200960159301757812e-01,8.200618624687194824e-01,8.200277090072631836e-01,8.199935555458068848e-01,8.199594616889953613e-01,8.199253678321838379e-01,8.198912143707275391e-01,8.198571205139160156e-01,8.198229670524597168e-01,8.197888135910034180e-01,8.197547197341918945e-01,8.197205662727355957e-01,8.196865320205688477e-01,8.196524381637573242e-01,8.196182847023010254e-01,8.195841908454895020e-01,8.195500969886779785e-01,8.195160031318664551e-01,8.194818496704101562e-01,8.194478750228881836e-01,8.194137811660766602e-01,8.193796277046203613e-01,8.193455338478088379e-01,8.193114399909973145e-01,8.192774057388305664e-01,8.192433118820190430e-01,8.192092776298522949e-01,8.191752433776855469e-01,8.191411495208740234e-01,8.191070556640625000e-01,8.190730214118957520e-01,8.190389275550842285e-01,8.190048336982727051e-01,8.189708590507507324e-01,8.189368247985839844e-01,8.189027905464172363e-01,8.188686966896057129e-01,8.188346624374389648e-01,8.188006281852722168e-01,8.187665343284606934e-01,8.187326192855834961e-01,8.186985850334167480e-01,8.186644911766052246e-01,8.186304569244384766e-01,8.185964226722717285e-01,8.185624480247497559e-01
