5.000000000000000000e+00,5.000000000000000000e+00,5.000000000000000000e+00,5.000000000000000000e+00,5.000000000000000000e+00,5.000000000000000000e+00,5.000000000000000000e+00,5.000000000000000000e+00,5.000000000000000000e+00,5.000000000000000000e+00,5.000000000000000000e+00,5.000000000000000000e+00,5.000000000000000000e+00,5.000000000000000000e+00,5.000000000000000000e+00,5.000000000000000000e+00,5.000000000000000000e+00,5.000000000000000000e+00,5.000000000000000000e+00,5.000000000000000000e+00,5.000000000000000000e+00,5.000000000000000000e+00,5.000000000000000000e+00,5.000000000000000000e+00,5.000000000000000000e+00,5.000000000000000000e+00,5.000000000000000000e+00,5.000000000000000000e+00,5.000000000000000000e+00,5.000000000000000000e+00,5.000000000000000000e+00,5.000000000000000000e+00,5.000000000000000000e+00,5.000000000000000000e+00,5.000000000000000000e+00,1.741740107536315918e+00,1.726448774337768555e+00,1.685757875442504883e+00,1.644116044044494629e+00,1.621784329414367676e+00,1.611114263534545898e+00,1.612543582916259766e+00,1.619468569755554199e+00,1.629173398017883301e+00,1.634067654609680176e+00,1.649603009223937988e+00,1.746228456497192383e+00,3.664680719375610352e+00,1.767998695373535156e+00,1.755488991737365723e+00,1.757817625999450684e+00,3.262518882751464844e+00,3.175402164459228516e+00,3.092816352844238281e+00,3.014417648315429688e+00,2.939895153045654297e+00,2.868968486785888672e+00,2.801383733749389648e+00,2.736909627914428711e+00,2.675336837768554688e+00,2.616473197937011719e+00,2.560144186019897461e+00,2.506189346313476562e+00,2.454461812973022461e+00,2.404826402664184570e+00,2.357158899307250977e+00,2.311344146728515625e+00,2.267276287078857422e+00,2.224857568740844727e+00,2.183996915817260742e+00,2.144609928131103516e+00,2.106618642807006836e+00,2.069949626922607422e+00,2.034535646438598633e+00,2.000312805175781250e+00,1.967222452163696289e+00,1.935208916664123535e+00,1.904220700263977051e+00,1.874209403991699219e+00,1.845129251480102539e+00
5.000000000000000000e+00,5.000000000000000000e+00,5.000000000000000000e+00,5.000000000000000000e+00,5.000000000000000000e+00,5.000000000000000000e+00,5.000000000000000000e+00,5.000000000000000000e+00,5.000000000000000000e+00,5.000000000000000000e+00,5.000000000000000000e+00,5.000000000000000000e+00,5.000000000000000000e+00,5.000000000000000000e+00,5.000000000000000000e+00,5.000000000000000000e+00,5.000000000000000000e+00,5.000000000000000000e+00,5.000000000000000000e+00,5.000000000000000000e+00,5.000000000000000000e+00,5.000000000000000000e+00,5.000000000000000000e+00,5.000000000000000000e+00,5.000000000000000000e+00,5.000000000000000000e+00,5.000000000000000000e+00,5.000000000000000000e+00,5.000000000000000000e+00,5.000000000000000000e+00,5.000000000000000000e+00,5.000000000000000000e+00,5.000000000000000000e+00,5.000000000000000000e+00,5.000000000000000000e+00,1.751510858535766602e+00,1.737750649452209473e+00,1.674644589424133301e+00,1.643191576004028320e+00,1.620123028755187988e+00,1.607848644256591797e+00,1.610576391220092773e+00,1.614834904670715332e+00,1.622558236122131348e+00,1.631137609481811523e+00,1.644755959510803223e+00,1.695629596710205078e+00,3.664759874343872070e+00,1.777561664581298828e+00,1.757753491401672363e+00,1.747861504554748535e+00,3.262581586837768555e+00,3.175461530685424805e+00,3.092872858047485352e+00,3.014471292495727539e+00,2.939946174621582031e+00,2.869017124176025391e+00,2.801429986953735352e+00,2.736953973770141602e+00,2.675379037857055664e+00,2.616513729095458984e+00,2.560182809829711914e+00,2.506226539611816406e+00,2.454497337341308594e+00,2.404860734939575195e+00,2.357191801071166992e+00,2.311375617980957031e+00,2.267306804656982422e+00,2.224886894226074219e+00,2.184025049209594727e+00,2.144637107849121094e+00,2.106644868850708008e+00,2.069974899291992188e+00,2.034559965133666992e+00,2.000336408615112305e+00,1.967245221138000488e+00,1.935230970382690430e+00,1.904242277145385742e+00,1.874230146408081055e+00,1.845149278640747070e+00
5.000000000000000000e+00,5.000000000000000000e+00,5.000000000000000000e+00,5.000000000000000000e+00,5.000000000000000000e+00,5.000000000000000000e+00,5.000000000000000000e+00,5.000000000000000000e+00,5.000000000000000000e+00,5.000000000000000000e+00,5.000000000000000000e+00,5.000000000000000000e+00,5.000000000000000000e+00,5.000000000000000000e+00,5.000000000000000000e+00,5.000000000000000000e+00,5.000000000000000000e+00,5.000000000000000000e+00,5.000000000000000000e+00,5.000000000000000000e+00,5.000000000000000000e+00,5.000000000000000000e+00,5.000000000000000000e+00,5.000000000000000000e+00,5.000000000000000000e+00,5.000000000000000000e+00,5.000000000000000000e+00,5.000000000000000000e+00,5.000000000000000000e+00,5.000000000000000000e+00,5.000000000000000000e+00,5.000000000000000000e+00,5.000000000000000000e+00,5.000000000000000000e+00,5.000000000000000000e+00,1.761869907379150391e+00,1.749201297760009766e+00,1.676199197769165039e+00,1.644450664520263672e+00,1.637137770652770996e+00,1.626516342163085938e+00,1.622568249702453613e+00,1.623584985733032227e+00,1.628326773643493652e+00,1.642849326133728027e+00,1.666529655456542969e+00,1.696638941764831543e+00,3.664839267730712891e+00,1.772295355796813965e+00,1.738751649856567383e+00,1.719942092895507812e+00,1.714899063110351562e+00,3.175521135330200195e+00,3.092929363250732422e+00,3.014524936676025391e+00,2.939997196197509766e+00,2.869065761566162109e+00,2.801476478576660156e+00,2.736998081207275391e+00,2.675421237945556641e+00,2.616554021835327148e+00,2.560221433639526367e+00,2.506263494491577148e+00,2.454533100128173828e+00,2.404894828796386719e+00,2.357224464416503906e+00,2.311407089233398438e+00,2.267337083816528320e+00,2.224915981292724609e+00,2.184053182601928711e+00,2.144664287567138672e+00,2.106671094894409180e+00,2.070000171661376953e+00,2.034584522247314453e+00,2.000360012054443359e+00,1.967268109321594238e+00,1.935253262519836426e+00,1.904263615608215332e+00,1.874250888824462891e+00,1.845169425010681152e+00
5.000000000000000000e+00,5.000000000000000000e+00,5.000000000000000000e+00,5.000000000000000000e+00,5.000000000000000000e+00,5.000000000000000000e+00,5.000000000000000000e+00,5.000000000000000000e+00,5.000000000000000000e+00,5.000000000000000000e+00,5.000000000000000000e+00,5.000000000000000000e+00,5.000000000000000000e+00,5.000000000000000000e+00,5.000000000000000000e+00,5.000000000000000000e+00,5.000000000000000000e+00,5.000000000000000000e+00,5.000000000000000000e+00,5.000000000000000000e+00,5.000000000000000000e+00,5.000000000000000000e+00,5.000000000000000000e+00,5.000000000000000000e+00,5.000000000000000000e+00,5.000000000000000000e+00,5.000000000000000000e+00,5.000000000000000000e+00,5.000000000000000000e+00,5.000000000000000000e+00,5.000000000000000000e+00,5.000000000000000000e+00,5.000000000000000000e+00,5.000000000000000000e+00,5.000000000000000000e+00,1.770326495170593262e+00,1.756588459014892578e+00,1.689656972885131836e+00,1.650930523872375488e+00,1.640059232711791992e+00,1.627603411674499512e+00,1.628554940223693848e+00,1.627335429191589355e+00,1.629026293754577637e+00,1.645358681678771973e+00,1.659827113151550293e+00,1.699094057083129883e+00,3.664918422698974609e+00,1.790089964866638184e+00,1.729882240295410156e+00,1.701961040496826172e+00,1.693024992942810059e+00,3.175580501556396484e+00,3.092985630035400391e+00,3.014578342437744141e+00,2.940048217773437500e+00,2.869114637374877930e+00,2.801522731781005859e+00,2.737042427062988281e+00,2.675463438034057617e+00,2.616594552993774414e+00,2.560260295867919922e+00,2.506300687789916992e+00,2.454568624496459961e+00,2.404928922653198242e+00,2.357257366180419922e+00,2.311438798904418945e+00,2.267367362976074219e+00,2.224945306777954102e+00,2.184081554412841797e+00,2.144691467285156250e+00,2.106697320938110352e+00,2.070025444030761719e+00,2.034608840942382812e+00,2.000383853912353516e+00,1.967291116714477539e+00,1.935275435447692871e+00,1.904285073280334473e+00,1.874271512031555176e+00,1.845189452171325684e+00
5.000000000000000000e+00,5.000000000000000000e+00,5.000000000000000000e+00,5.000000000000000000e+00,5.000000000000000000e+00,5.000000000000000000e+00,5.000000000000000000e+00,5.000000000000000000e+00,5.000000000000000000e+00,5.000000000000000000e+00,5.000000000000000000e+00,5.000000000000000000e+00,5.000000000000000000e+00,5.000000000000000000e+00,5.000000000000000000e+00,5.000000000000000000e+00,5.000000000000000000e+00,5.000000000000000000e+00,5.000000000000000000e+00,5.000000000000000000e+00,5.000000000000000000e+00,5.000000000000000000e+00,5.000000000000000000e+00,5.000000000000000000e+00,5.000000000000000000e+00,5.000000000000000000e+00,5.000000000000000000e+00,5.000000000000000000e+00,5.000000000000000000e+00,5.000000000000000000e+00,5.000000000000000000e+00,5.000000000000000000e+00,5.000000000000000000e+00,5.000000000000000000e+00,5.000000000000000000e+00,1.753542304039001465e+00,1.747148394584655762e+00,1.690307497978210449e+00,1.651188492774963379e+00,1.641197681427001953e+00,1.636146545410156250e+00,1.636083126068115234e+00,1.636019587516784668e+00,1.639232158660888672e+00,1.648022413253784180e+00,1.664042711257934570e+00,1.692871451377868652e+00,3.664997577667236328e+00,3.555421352386474609e+00,1.741206884384155273e+00,1.698369264602661133e+00,1.663865923881530762e+00,1.660192370414733887e+00,3.093042135238647461e+00,3.014631986618041992e+00,2.940099477767944336e+00,2.869163036346435547e+00,2.801568984985351562e+00,2.737086534500122070e+00,2.675505638122558594e+00,2.616634845733642578e+00,2.560299158096313477e+00,2.506337881088256836e+00,2.454604148864746094e+00,2.404963016510009766e+00,2.357290029525756836e+00,2.311470270156860352e+00,2.267397642135620117e+00,2.224974632263183594e+00,2.184109687805175781e+00,2.144718647003173828e+00,2.106723546981811523e+00,2.070050716400146484e+00,2.034633398056030273e+00,2.000407457351684570e+00,1.967314004898071289e+00,1.935297489166259766e+00,1.904306530952453613e+00,1.874292254447937012e+00,1.845209598541259766e+00
5.000000000000000000e+00,5.000000000000000000e+00,5.000000000000000000e+00,5.000000000000000000e+00,5.000000000000000000e+00,5.000000000000000000e+00,5.000000000000000000e+00,5.000000000000000000e+00,5.000000000000000000e+00,5.000000000000000000e+00,5.000000000000000000e+00,5.000000000000000000e+00,5.000000000000000000e+00,5.000000000000000000e+00,5.000000000000000000e+00,5.000000000000000000e+00,5.000000000000000000e+00,5.000000000000000000e+00,5.000000000000000000e+00,5.000000000000000000e+00,5.000000000000000000e+00,5.000000000000000000e+00,5.000000000000000000e+00,5.000000000000000000e+00,5.000000000000000000e+00,5.000000000000000000e+00,5.000000000000000000e+00,5.000000000000000000e+00,5.000000000000000000e+00,5.000000000000000000e+00,5.000000000000000000e+00,5.000000000000000000e+00,5.000000000000000000e+00,5.000000000000000000e+00,5.000000000000000000e+00,1.744373798370361328e+00,1.738695144653320312e+00,1.680107355117797852e+00,1.619235634803771973e+00,1.604801535606384277e+00,1.599318385124206543e+00,1.650991201400756836e+00,1.650926709175109863e+00,1.657099246978759766e+00,1.662728667259216309e+00,1.668396353721618652e+00,1.694720864295959473e+00,3.665076971054077148e+00,3.555496454238891602e+00,3.452277898788452148e+00,1.702050328254699707e+00,1.661589026451110840e+00,1.654514193534851074e+00,3.093098640441894531e+00,3.014685869216918945e+00,2.940150499343872070e+00,2.869211673736572266e+00,2.801615476608276367e+00,2.737130880355834961e+00,2.675548076629638672e+00,2.616675376892089844e+00,2.560337781906127930e+00,2.506374835968017578e+00,2.454639673233032227e+00,2.404997110366821289e+00,2.357322931289672852e+00,2.311501741409301758e+00,2.267428159713745117e+00,2.225003719329833984e+00,2.184137821197509766e+00,2.144745826721191406e+00,2.106749534606933594e+00,2.070075988769531250e+00,2.034657955169677734e+00,2.000431060791015625e+00,1.967336893081665039e+00,1.935319662094116211e+00,1.904327869415283203e+00,1.874312996864318848e+00,1.845229625701904297e+00
5.000000000000000000e+00,5.000000000000000000e+00,5.000000000000000000e+00,5.000000000000000000e+00,5.000000000000000000e+00,5.000000000000000000e+00,5.000000000000000000e+00,5.000000000000000000e+00,5.000000000000000000e+00,5.000000000000000000e+00,5.000000000000000000e+00,5.000000000000000000e+00,5.000000000000000000e+00,5.000000000000000000e+00,5.000000000000000000e+00,5.000000000000000000e+00,5.000000000000000000e+00,5.000000000000000000e+00,5.000000000000000000e+00,5.000000000000000000e+00,5.000000000000000000e+00,5.000000000000000000e+00,5.000000000000000000e+00,5.000000000000000000e+00,5.000000000000000000e+00,5.000000000000000000e+00,5.000000000000000000e+00,5.000000000000000000e+00,5.000000000000000000e+00,5.000000000000000000e+00,5.000000000000000000e+00,5.000000000000000000e+00,5.000000000000000000e+00,5.000000000000000000e+00,5.000000000000000000e+00,1.739437103271484375e+00,1.732949018478393555e+00,1.655105113983154297e+00,1.589070081710815430e+00,1.577229499816894531e+00,1.565839171409606934e+00,1.578863620758056641e+00,1.666111826896667480e+00,1.675360202789306641e+00,1.681114554405212402e+00,1.677508592605590820e+00,1.696974277496337891e+00,3.665156602859497070e+00,3.555571079254150391e+00,3.452348232269287109e+00,3.354949712753295898e+00,1.677489638328552246e+00,1.611294031143188477e+00,1.615127086639404297e+00,3.014739513397216797e+00,2.940201520919799805e+00,2.869260311126708984e+00,2.801661729812622070e+00,2.737174987792968750e+00,2.675590515136718750e+00,2.616715908050537109e+00,2.560376405715942383e+00,2.506412029266357422e+00,2.454675197601318359e+00,2.405031442642211914e+00,2.357355594635009766e+00,2.311533451080322266e+00,2.267458438873291016e+00,2.225033044815063477e+00,2.184165954589843750e+00,2.144773006439208984e+00,2.106775760650634766e+00,2.070101499557495117e+00,2.034682273864746094e+00,2.000454664230346680e+00,1.967359662055969238e+00,1.935341715812683105e+00,1.904349327087402344e+00,1.874333739280700684e+00,1.845249772071838379e+00
5.000000000000000000e+00,5.000000000000000000e+00,5.000000000000000000e+00,5.000000000000000000e+00,5.000000000000000000e+00,5.000000000000000000e+00,5.000000000000000000e+00,5.000000000000000000e+00,5.000000000000000000e+00,5.000000000000000000e+00,5.000000000000000000e+00,5.000000000000000000e+00,5.000000000000000000e+00,5.000000000000000000e+00,5.000000000000000000e+00,5.000000000000000000e+00,5.000000000000000000e+00,5.000000000000000000e+00,5.000000000000000000e+00,5.000000000000000000e+00,5.000000000000000000e+00,5.000000000000000000e+00,5.000000000000000000e+00,5.000000000000000000e+00,5.000000000000000000e+00,5.000000000000000000e+00,5.000000000000000000e+00,5.000000000000000000e+00,5.000000000000000000e+00,5.000000000000000000e+00,5.000000000000000000e+00,5.000000000000000000e+00,5.000000000000000000e+00,5.000000000000000000e+00,5.000000000000000000e+00,1.735251426696777344e+00,1.727152943611145020e+00,1.626333355903625488e+00,1.574148774147033691e+00,1.563061356544494629e+00,1.552129387855529785e+00,1.557040810585021973e+00,1.588338494300842285e+00,1.692278146743774414e+00,1.685386776924133301e+00,1.679522633552551270e+00,1.701780200004577637e+00,3.665235996246337891e+00,3.555645704269409180e+00,3.452418565750122070e+00,3.355015993118286133e+00,3.262958765029907227e+00,1.577135682106018066e+00,1.586504817008972168e+00,3.014793157577514648e+00,2.940252542495727539e+00,2.869308948516845703e+00,2.801707983016967773e+00,2.737219095230102539e+00,2.675632715225219727e+00,2.616756200790405273e+00,2.560415029525756836e+00,2.506448984146118164e+00,2.454710960388183594e+00,2.405065536499023438e+00,2.357388734817504883e+00,2.311564922332763672e+00,2.267488956451416016e+00,2.225062131881713867e+00,2.184194087982177734e+00,2.144800186157226562e+00,2.106802225112915039e+00,2.070126771926879883e+00,2.034706830978393555e+00,2.000478267669677734e+00,1.967382550239562988e+00,1.935363769531250000e+00,1.904370665550231934e+00,1.874354481697082520e+00,1.845269799232482910e+00
5.000000000000000000e+00,5.000000000000000000e+00,5.000000000000000000e+00,5.000000000000000000e+00,5.000000000000000000e+00,5.000000000000000000e+00,5.000000000000000000e+00,5.000000000000000000e+00,5.000000000000000000e+00,5.000000000000000000e+00,5.000000000000000000e+00,5.000000000000000000e+00,5.000000000000000000e+00,5.000000000000000000e+00,5.000000000000000000e+00,5.000000000000000000e+00,5.000000000000000000e+00,5.000000000000000000e+00,5.000000000000000000e+00,5.000000000000000000e+00,5.000000000000000000e+00,5.000000000000000000e+00,5.000000000000000000e+00,5.000000000000000000e+00,5.000000000000000000e+00,5.000000000000000000e+00,5.000000000000000000e+00,5.000000000000000000e+00,5.000000000000000000e+00,5.000000000000000000e+00,5.000000000000000000e+00,5.000000000000000000e+00,5.000000000000000000e+00,5.000000000000000000e+00,5.000000000000000000e+00,1.724990248680114746e+00,1.721597552299499512e+00,1.605851054191589355e+00,1.563043117523193359e+00,1.551732063293457031e+00,1.540957331657409668e+00,1.542714118957519531e+00,1.570767760276794434e+00,1.693015217781066895e+00,1.686680316925048828e+00,1.680392503738403320e+00,1.705340743064880371e+00,3.665315151214599609e+00,3.555720329284667969e+00,3.452488899230957031e+00,3.355082511901855469e+00,3.263021945953369141e+00,1.567482471466064453e+00,1.636101603507995605e+00,1.544088006019592285e+00,2.940303564071655273e+00,2.869357347488403320e+00,2.801754474639892578e+00,2.737263679504394531e+00,2.675674915313720703e+00,2.616796731948852539e+00,2.560453891754150391e+00,2.506486177444458008e+00,2.454746484756469727e+00,2.405099868774414062e+00,2.357421398162841797e+00,2.311596393585205078e+00,2.267519235610961914e+00,2.225091457366943359e+00,2.184222221374511719e+00,2.144827365875244141e+00,2.106828451156616211e+00,2.070152044296264648e+00,2.034731149673461914e+00,2.000501871109008789e+00,1.967405319213867188e+00,1.935385942459106445e+00,1.904392123222351074e+00,1.874375224113464355e+00,1.845289945602416992e+00
5.000000000000000000e+00,5.000000000000000000e+00,4.478051185607910156e+00,4.522500038146972656e+00,5.000000000000000000e+00,5.000000000000000000e+00,5.000000000000000000e+00,5.000000000000000000e+00,5.000000000000000000e+00,5.000000000000000000e+00,5.000000000000000000e+00,5.000000000000000000e+00,5.000000000000000000e+00,5.000000000000000000e+00,5.000000000000000000e+00,5.000000000000000000e+00,5.000000000000000000e+00,5.000000000000000000e+00,5.000000000000000000e+00,5.000000000000000000e+00,5.000000000000000000e+00,5.000000000000000000e+00,5.000000000000000000e+00,5.000000000000000000e+00,5.000000000000000000e+00,5.000000000000000000e+00,5.000000000000000000e+00,5.000000000000000000e+00,5.000000000000000000e+00,5.000000000000000000e+00,5.000000000000000000e+00,5.000000000000000000e+00,5.000000000000000000e+00,5.000000000000000000e+00,5.000000000000000000e+00,1.718308448791503906e+00,1.720002651214599609e+00,1.612874865531921387e+00,1.553303122520446777e+00,1.541086554527282715e+00,1.529945015907287598e+00,1.528648734092712402e+00,1.555551886558532715e+00,1.695504069328308105e+00,1.687473893165588379e+00,1.682930231094360352e+00,1.706478357315063477e+00,3.665394544601440430e+00,3.555794715881347656e+00,3.452559232711791992e+00,3.355149269104003906e+00,3.263084888458251953e+00,3.175937891006469727e+00,3.093324661254882812e+00,1.616075396537780762e+00,2.940354585647583008e+00,2.869405984878540039e+00,2.801800966262817383e+00,2.737307786941528320e+00,2.675717115402221680e+00,2.616837024688720703e+00,2.560492515563964844e+00,2.506523132324218750e+00,2.454782247543334961e+00,2.405133962631225586e+00,2.357454299926757812e+00,2.311628103256225586e+00,2.267549514770507812e+00,2.225120544433593750e+00,2.184250593185424805e+00,2.144854545593261719e+00,2.106854438781738281e+00,2.070177316665649414e+00,2.034755706787109375e+00,2.000525474548339844e+00,1.967428207397460938e+00,1.935407996177673340e+00,1.904413461685180664e+00,1.874395966529846191e+00,1.845310091972351074e+00
5.000000000000000000e+00,5.000000000000000000e+00,4.491761684417724609e+00,4.528164863586425781e+00,5.000000000000000000e+00,5.000000000000000000e+00,5.000000000000000000e+00,5.000000000000000000e+00,5.000000000000000000e+00,5.000000000000000000e+00,5.000000000000000000e+00,5.000000000000000000e+00,5.000000000000000000e+00,5.000000000000000000e+00,5.000000000000000000e+00,5.000000000000000000e+00,5.000000000000000000e+00,5.000000000000000000e+00,5.000000000000000000e+00,5.000000000000000000e+00,5.000000000000000000e+00,5.000000000000000000e+00,5.000000000000000000e+00,5.000000000000000000e+00,5.000000000000000000e+00,5.000000000000000000e+00,5.000000000000000000e+00,5.000000000000000000e+00,5.000000000000000000e+00,5.000000000000000000e+00,5.000000000000000000e+00,5.000000000000000000e+00,5.000000000000000000e+00,5.000000000000000000e+00,5.000000000000000000e+00,1.730850815773010254e+00,1.741133689880371094e+00,1.636251568794250488e+00,1.550485610961914062e+00,1.531617522239685059e+00,1.519738316535949707e+00,1.514837384223937988e+00,1.539009571075439453e+00,1.698923110961914062e+00,1.691309571266174316e+00,1.689684271812438965e+00,1.715406656265258789e+00,3.665473699569702148e+00,3.555869340896606445e+00,3.452629804611206055e+00,3.355215787887573242e+00,3.263147592544555664e+00,3.175997495651245117e+00,3.093381166458129883e+00,3.014954090118408203e+00,1.579363703727722168e+00,2.869454860687255859e+00,2.801847219467163086e+00,2.737352132797241211e+00,2.675759315490722656e+00,2.616877555847167969e+00,2.560531139373779297e+00,2.506560564041137695e+00,2.454817771911621094e+00,2.405168056488037109e+00,2.357486963272094727e+00,2.311659574508666992e+00,2.267579793930053711e+00,2.225150108337402344e+00,2.184278726577758789e+00,2.144881725311279297e+00,2.106880664825439453e+00,2.070202589035034180e+00,2.034780025482177734e+00,2.000549077987670898e+00,1.967450976371765137e+00,1.935430169105529785e+00,1.904434919357299805e+00,1.874416708946228027e+00,1.845330119132995605e+00
5.000000000000000000e+00,5.000000000000000000e+00,4.568615436553955078e+00,4.589780807495117188e+00,5.000000000000000000e+00,5.000000000000000000e+00,5.000000000000000000e+00,5.000000000000000000e+00,5.000000000000000000e+00,5.000000000000000000e+00,5.000000000000000000e+00,5.000000000000000000e+00,5.000000000000000000e+00,5.000000000000000000e+00,5.000000000000000000e+00,5.000000000000000000e+00,5.000000000000000000e+00,5.000000000000000000e+00,5.000000000000000000e+00,5.000000000000000000e+00,5.000000000000000000e+00,5.000000000000000000e+00,5.000000000000000000e+00,5.000000000000000000e+00,5.000000000000000000e+00,5.000000000000000000e+00,5.000000000000000000e+00,5.000000000000000000e+00,5.000000000000000000e+00,5.000000000000000000e+00,5.000000000000000000e+00,5.000000000000000000e+00,5.000000000000000000e+00,5.000000000000000000e+00,5.000000000000000000e+00,1.718713641166687012e+00,1.708063602447509766e+00,1.672947525978088379e+00,1.558196187019348145e+00,1.521266698837280273e+00,1.508554100990295410e+00,1.499680280685424805e+00,1.522861480712890625e+00,1.705882549285888672e+00,1.697126865386962891e+00,1.698849201202392578e+00,1.725982189178466797e+00,3.665553092956542969e+00,3.555944442749023438e+00,3.452700138092041016e+00,3.355282068252563477e+00,3.263210535049438477e+00,3.176057100296020508e+00,3.093437671661376953e+00,3.015007734298706055e+00,2.940456867218017578e+00,2.869503498077392578e+00,2.801893472671508789e+00,2.737396240234375000e+00,2.675801753997802734e+00,2.616917848587036133e+00,2.560570001602172852e+00,2.506597518920898438e+00,2.454853296279907227e+00,2.405202150344848633e+00,2.357519865036010742e+00,2.311691045761108398e+00,2.267610311508178711e+00,2.225179195404052734e+00,2.184306859970092773e+00,2.144908905029296875e+00,2.106906890869140625e+00,2.070227861404418945e+00,2.034804582595825195e+00,2.000572919845581055e+00,1.967473864555358887e+00,1.935452222824096680e+00,1.904456257820129395e+00,1.874437451362609863e+00,1.845350265502929688e+00
4.472454547882080078e+00,4.482144355773925781e+00,4.506253242492675781e+00,4.522671699523925781e+00,4.591900825500488281e+00,4.633876323699951172e+00,5.000000000000000000e+00,5.000000000000000000e+00,5.000000000000000000e+00,5.000000000000000000e+00,5.000000000000000000e+00,5.000000000000000000e+00,5.000000000000000000e+00,5.000000000000000000e+00,5.000000000000000000e+00,5.000000000000000000e+00,5.000000000000000000e+00,5.000000000000000000e+00,5.000000000000000000e+00,5.000000000000000000e+00,5.000000000000000000e+00,5.000000000000000000e+00,5.000000000000000000e+00,5.000000000000000000e+00,5.000000000000000000e+00,5.000000000000000000e+00,5.000000000000000000e+00,5.000000000000000000e+00,5.000000000000000000e+00,5.000000000000000000e+00,5.000000000000000000e+00,5.000000000000000000e+00,5.000000000000000000e+00,5.000000000000000000e+00,5.000000000000000000e+00,1.700805068016052246e+00,1.695680618286132812e+00,5.000000000000000000e+00,1.566136956214904785e+00,1.509644985198974609e+00,1.495155930519104004e+00,1.484630584716796875e+00,1.507345199584960938e+00,1.714545726776123047e+00,1.705989122390747070e+00,1.711436629295349121e+00,1.739230990409851074e+00,3.665632724761962891e+00,3.556019067764282227e+00,3.452770471572875977e+00,3.355348587036132812e+00,3.263273239135742188e+00,3.176116466522216797e+00,3.093494176864624023e+00,3.015061616897583008e+00,2.940507888793945312e+00,2.869552135467529297e+00,2.801939964294433594e+00,2.737440586090087891e+00,2.675843954086303711e+00,2.616958618164062500e+00,2.560608625411987305e+00,2.506634712219238281e+00,2.454888820648193359e+00,2.405236244201660156e+00,2.357552528381347656e+00,2.311722517013549805e+00,2.267640829086303711e+00,2.225208520889282227e+00,2.184334993362426758e+00,2.144935846328735352e+00,2.106933116912841797e+00,2.070253133773803711e+00,2.034829139709472656e+00,2.000596523284912109e+00,1.967496752738952637e+00,1.935474395751953125e+00,1.904477715492248535e+00,1.874458193778991699e+00,1.845370531082153320e+00
4.465030670166015625e+00,4.448410511016845703e+00,4.465962886810302734e+00,4.498518466949462891e+00,4.548281192779541016e+00,4.633504390716552734e+00,4.676209449768066406e+00,5.000000000000000000e+00,5.000000000000000000e+00,5.000000000000000000e+00,5.000000000000000000e+00,5.000000000000000000e+00,5.000000000000000000e+00,5.000000000000000000e+00,5.000000000000000000e+00,5.000000000000000000e+00,5.000000000000000000e+00,5.000000000000000000e+00,5.000000000000000000e+00,5.000000000000000000e+00,5.000000000000000000e+00,5.000000000000000000e+00,5.000000000000000000e+00,5.000000000000000000e+00,5.000000000000000000e+00,5.000000000000000000e+00,5.000000000000000000e+00,5.000000000000000000e+00,5.000000000000000000e+00,5.000000000000000000e+00,5.000000000000000000e+00,5.000000000000000000e+00,5.000000000000000000e+00,5.000000000000000000e+00,5.000000000000000000e+00,1.691807031631469727e+00,5.000000000000000000e+00,5.000000000000000000e+00,1.581794977188110352e+00,1.503238916397094727e+00,1.482196331024169922e+00,1.469926357269287109e+00,1.491423130035400391e+00,1.512812376022338867e+00,1.715445518493652344e+00,1.724462151527404785e+00,1.754468560218811035e+00,3.665711879730224609e+00,3.556093692779541016e+00,3.452841043472290039e+00,3.355415105819702148e+00,3.263336181640625000e+00,3.176176071166992188e+00,3.093550920486450195e+00,3.015115261077880859e+00,2.940558910369873047e+00,2.869600534439086914e+00,2.801986217498779297e+00,2.737484693527221680e+00,2.675886392593383789e+00,2.616998910903930664e+00,2.560647487640380859e+00,2.506671667098999023e+00,2.454924345016479492e+00,2.405270338058471680e+00,2.357585430145263672e+00,2.311754226684570312e+00,2.267671108245849609e+00,2.225237607955932617e+00,2.184363126754760742e+00,2.144963026046752930e+00,2.106959342956542969e+00,2.070278644561767578e+00,2.034853458404541016e+00,2.000620126724243164e+00,1.967519521713256836e+00,1.935496449470520020e+00,1.904499053955078125e+00,1.874479055404663086e+00,1.845390677452087402e+00
4.493121147155761719e+00,4.459057331085205078e+00,4.460185527801513672e+00,4.495390892028808594e+00,4.557907104492187500e+00,4.661684989929199219e+00,4.682295799255371094e+00,5.000000000000000000e+00,5.000000000000000000e+00,5.000000000000000000e+00,5.000000000000000000e+00,5.000000000000000000e+00,5.000000000000000000e+00,5.000000000000000000e+00,5.000000000000000000e+00,5.000000000000000000e+00,5.000000000000000000e+00,5.000000000000000000e+00,5.000000000000000000e+00,5.000000000000000000e+00,5.000000000000000000e+00,5.000000000000000000e+00,5.000000000000000000e+00,5.000000000000000000e+00,5.000000000000000000e+00,5.000000000000000000e+00,5.000000000000000000e+00,5.000000000000000000e+00,5.000000000000000000e+00,5.000000000000000000e+00,5.000000000000000000e+00,5.000000000000000000e+00,5.000000000000000000e+00,5.000000000000000000e+00,5.000000000000000000e+00,1.680131793022155762e+00,5.000000000000000000e+00,5.000000000000000000e+00,1.610751390457153320e+00,1.514532446861267090e+00,1.475769519805908203e+00,1.457202553749084473e+00,1.473686456680297852e+00,1.491138339042663574e+00,1.725007176399230957e+00,1.737687587738037109e+00,1.770845651626586914e+00,3.665791273117065430e+00,3.556168317794799805e+00,3.452911376953125000e+00,3.355481386184692383e+00,3.263399124145507812e+00,3.176235914230346680e+00,3.093607425689697266e+00,3.015168905258178711e+00,2.940609931945800781e+00,2.869649171829223633e+00,2.802032470703125000e+00,2.737529039382934570e+00,2.675928592681884766e+00,2.617039442062377930e+00,2.560686111450195312e+00,2.506708860397338867e+00,2.454959869384765625e+00,2.405304670333862305e+00,2.357618331909179688e+00,2.311785936355590820e+00,2.267701387405395508e+00,2.225266933441162109e+00,2.184391260147094727e+00,2.144990205764770508e+00,2.106985569000244141e+00,2.070303916931152344e+00,2.034878015518188477e+00,2.000643730163574219e+00,1.967542409896850586e+00,1.935518503189086914e+00,1.904520750045776367e+00,1.874499797821044922e+00,1.845410704612731934e+00
4.492685317993164062e+00,4.452341079711914062e+00,4.461557865142822266e+00,4.495423793792724609e+00,4.553725242614746094e+00,5.000000000000000000e+00,4.680685520172119141e+00,5.000000000000000000e+00,5.000000000000000000e+00,5.000000000000000000e+00,5.000000000000000000e+00,5.000000000000000000e+00,5.000000000000000000e+00,5.000000000000000000e+00,5.000000000000000000e+00,5.000000000000000000e+00,5.000000000000000000e+00,5.000000000000000000e+00,5.000000000000000000e+00,5.000000000000000000e+00,5.000000000000000000e+00,5.000000000000000000e+00,5.000000000000000000e+00,5.000000000000000000e+00,5.000000000000000000e+00,5.000000000000000000e+00,5.000000000000000000e+00,5.000000000000000000e+00,5.000000000000000000e+00,5.000000000000000000e+00,5.000000000000000000e+00,5.000000000000000000e+00,5.000000000000000000e+00,5.000000000000000000e+00,5.000000000000000000e+00,1.672089099884033203e+00,5.000000000000000000e+00,5.000000000000000000e+00,5.000000000000000000e+00,1.524347066879272461e+00,1.468973994255065918e+00,1.448132991790771484e+00,1.459855079650878906e+00,1.474708437919616699e+00,1.734233379364013672e+00,1.753602862358093262e+00,3.782472133636474609e+00,3.665870666503906250e+00,3.556242942810058594e+00,3.452981710433959961e+00,3.355547904968261719e+00,3.263462305068969727e+00,3.176295518875122070e+00,3.093663930892944336e+00,3.015222549438476562e+00,2.940660953521728516e+00,2.869697809219360352e+00,2.802079200744628906e+00,2.737573385238647461e+00,2.675970792770385742e+00,2.617079734802246094e+00,2.560724735260009766e+00,2.506745815277099609e+00,2.454995632171630859e+00,2.405339002609252930e+00,2.357651233673095703e+00,2.311817407608032227e+00,2.267731666564941406e+00,2.225296020507812500e+00,2.184419393539428711e+00,2.145017623901367188e+00,2.107011795043945312e+00,2.070329189300537109e+00,2.034902334213256836e+00,2.000667333602905273e+00,1.967565298080444336e+00,1.935540914535522461e+00,1.904542088508605957e+00,1.874520540237426758e+00,1.845430850982666016e+00
4.518493652343750000e+00,4.437058925628662109e+00,4.453366756439208984e+00,4.491109848022460938e+00,4.549357891082763672e+00,5.000000000000000000e+00,4.691536903381347656e+00,5.000000000000000000e+00,5.000000000000000000e+00,5.000000000000000000e+00,5.000000000000000000e+00,5.000000000000000000e+00,5.000000000000000000e+00,5.000000000000000000e+00,5.000000000000000000e+00,5.000000000000000000e+00,5.000000000000000000e+00,5.000000000000000000e+00,5.000000000000000000e+00,5.000000000000000000e+00,5.000000000000000000e+00,5.000000000000000000e+00,5.000000000000000000e+00,5.000000000000000000e+00,5.000000000000000000e+00,5.000000000000000000e+00,5.000000000000000000e+00,5.000000000000000000e+00,5.000000000000000000e+00,5.000000000000000000e+00,5.000000000000000000e+00,5.000000000000000000e+00,5.000000000000000000e+00,5.000000000000000000e+00,5.000000000000000000e+00,5.000000000000000000e+00,5.000000000000000000e+00,5.000000000000000000e+00,5.000000000000000000e+00,1.540045142173767090e+00,1.467409133911132812e+00,1.443962693214416504e+00,1.452176332473754883e+00,1.464818239212036133e+00,1.743312358856201172e+00,1.765222311019897461e+00,3.782556772232055664e+00,3.665949821472167969e+00,3.556317567825317383e+00,3.453052043914794922e+00,3.355614662170410156e+00,3.263525009155273438e+00,3.176354885101318359e+00,3.093720436096191406e+00,3.015276193618774414e+00,2.940711975097656250e+00,2.869746685028076172e+00,2.802125453948974609e+00,2.737617492675781250e+00,2.676013231277465820e+00,2.617120265960693359e+00,2.560763597488403320e+00,2.506783008575439453e+00,2.455031156539916992e+00,2.405373096466064453e+00,2.357683897018432617e+00,2.311848878860473633e+00,2.267762184143066406e+00,2.225325345993041992e+00,2.184447765350341797e+00,2.145044803619384766e+00,2.107038021087646484e+00,2.070354461669921875e+00,2.034926891326904297e+00,2.000690937042236328e+00,1.967588305473327637e+00,1.935562968254089355e+00,1.904563546180725098e+00,1.874541282653808594e+00,1.845450878143310547e+00
4.520286083221435547e+00,4.449075222015380859e+00,4.463705062866210938e+00,4.498061180114746094e+00,4.557289123535156250e+00,5.000000000000000000e+00,4.652059078216552734e+00,5.000000000000000000e+00,5.000000000000000000e+00,5.000000000000000000e+00,5.000000000000000000e+00,5.000000000000000000e+00,5.000000000000000000e+00,5.000000000000000000e+00,5.000000000000000000e+00,5.000000000000000000e+00,5.000000000000000000e+00,5.000000000000000000e+00,5.000000000000000000e+00,5.000000000000000000e+00,5.000000000000000000e+00,5.000000000000000000e+00,5.000000000000000000e+00,5.000000000000000000e+00,5.000000000000000000e+00,5.000000000000000000e+00,5.000000000000000000e+00,5.000000000000000000e+00,5.000000000000000000e+00,5.000000000000000000e+00,5.000000000000000000e+00,5.000000000000000000e+00,5.000000000000000000e+00,5.000000000000000000e+00,5.000000000000000000e+00,5.000000000000000000e+00,5.000000000000000000e+00,5.000000000000000000e+00,5.000000000000000000e+00,1.552750825881958008e+00,1.470191240310668945e+00,1.445819377899169922e+00,1.454290866851806641e+00,1.467391848564147949e+00,1.752786278724670410e+00,1.776154160499572754e+00,3.782641172409057617e+00,3.666029214859008789e+00,3.556392192840576172e+00,3.453122615814208984e+00,3.355681180953979492e+00,3.263587951660156250e+00,3.176414489746093750e+00,3.093776702880859375e+00,3.015329837799072266e+00,2.940763235092163086e+00,2.869795322418212891e+00,2.802171707153320312e+00,2.737661838531494141e+00,2.676055431365966797e+00,2.617160558700561523e+00,2.560802221298217773e+00,2.506820201873779297e+00,2.455066919326782227e+00,2.405407190322875977e+00,2.357716798782348633e+00,2.311880588531494141e+00,2.267792463302612305e+00,2.225354671478271484e+00,2.184475898742675781e+00,2.145071744918823242e+00,2.107064247131347656e+00,2.070379734039306641e+00,2.034951210021972656e+00,2.000714540481567383e+00,1.967611193656921387e+00,1.935585141181945801e+00,1.904584884643554688e+00,1.874562025070190430e+00,1.845471024513244629e+00
4.506792068481445312e+00,4.417615413665771484e+00,4.476693153381347656e+00,4.526050567626953125e+00,4.556721210479736328e+00,5.000000000000000000e+00,4.618411064147949219e+00,5.000000000000000000e+00,5.000000000000000000e+00,5.000000000000000000e+00,5.000000000000000000e+00,5.000000000000000000e+00,5.000000000000000000e+00,5.000000000000000000e+00,5.000000000000000000e+00,5.000000000000000000e+00,5.000000000000000000e+00,5.000000000000000000e+00,5.000000000000000000e+00,5.000000000000000000e+00,5.000000000000000000e+00,5.000000000000000000e+00,5.000000000000000000e+00,5.000000000000000000e+00,5.000000000000000000e+00,5.000000000000000000e+00,5.000000000000000000e+00,5.000000000000000000e+00,5.000000000000000000e+00,5.000000000000000000e+00,5.000000000000000000e+00,5.000000000000000000e+00,5.000000000000000000e+00,5.000000000000000000e+00,5.000000000000000000e+00,5.000000000000000000e+00,5.000000000000000000e+00,5.000000000000000000e+00,5.000000000000000000e+00,4.866281986236572266e+00,1.473528265953063965e+00,1.453939914703369141e+00,1.458898901939392090e+00,1.474577784538269043e+00,1.762363791465759277e+00,1.800705075263977051e+00,3.782725572586059570e+00,3.666108369827270508e+00,3.556467056274414062e+00,3.453193187713623047e+00,3.355747461318969727e+00,3.263650655746459961e+00,3.176474094390869141e+00,3.093833208084106445e+00,3.015383958816528320e+00,2.940814256668090820e+00,2.869843721389770508e+00,2.802218198776245117e+00,2.737705945968627930e+00,2.676097631454467773e+00,2.617201089859008789e+00,2.560841083526611328e+00,2.506857156753540039e+00,2.455102443695068359e+00,2.405441284179687500e+00,2.357749462127685547e+00,2.311912059783935547e+00,2.267822980880737305e+00,2.225383996963500977e+00,2.184504032135009766e+00,2.145098924636840820e+00,2.107090473175048828e+00,2.070405244827270508e+00,2.034975767135620117e+00,2.000738382339477539e+00,1.967633962631225586e+00,1.935607194900512695e+00,1.904606342315673828e+00,1.874582767486572266e+00,1.845491051673889160e+00
4.501986026763916016e+00,4.392031669616699219e+00,4.432700634002685547e+00,4.526413917541503906e+00,4.548459529876708984e+00,5.000000000000000000e+00,4.568988323211669922e+00,5.000000000000000000e+00,5.000000000000000000e+00,5.000000000000000000e+00,5.000000000000000000e+00,5.000000000000000000e+00,5.000000000000000000e+00,5.000000000000000000e+00,5.000000000000000000e+00,5.000000000000000000e+00,5.000000000000000000e+00,5.000000000000000000e+00,5.000000000000000000e+00,5.000000000000000000e+00,5.000000000000000000e+00,5.000000000000000000e+00,5.000000000000000000e+00,5.000000000000000000e+00,5.000000000000000000e+00,5.000000000000000000e+00,5.000000000000000000e+00,5.000000000000000000e+00,5.000000000000000000e+00,5.000000000000000000e+00,5.000000000000000000e+00,5.000000000000000000e+00,5.000000000000000000e+00,5.000000000000000000e+00,5.000000000000000000e+00,5.000000000000000000e+00,5.000000000000000000e+00,5.000000000000000000e+00,5.000000000000000000e+00,4.866422176361083984e+00,1.476705551147460938e+00,1.462152242660522461e+00,1.463536143302917480e+00,1.484476208686828613e+00,1.771991968154907227e+00,3.907095432281494141e+00,3.782809972763061523e+00,3.666188240051269531e+00,3.556541919708251953e+00,3.453263521194458008e+00,3.355813980102539062e+00,3.263713598251342773e+00,3.176533460617065430e+00,3.093890190124511719e+00,3.015437602996826172e+00,2.940865278244018555e+00,2.869892358779907227e+00,2.802264451980590820e+00,2.737750291824340820e+00,2.676139831542968750e+00,2.617241621017456055e+00,2.560879707336425781e+00,2.506894350051879883e+00,2.455137968063354492e+00,2.405475378036499023e+00,2.357782363891601562e+00,2.311943769454956055e+00,2.267853260040283203e+00,2.225413084030151367e+00,2.184532165527343750e+00,2.145126104354858398e+00,2.107116460800170898e+00,2.070430517196655273e+00,2.035000324249267578e+00,2.000761985778808594e+00,1.967656850814819336e+00,1.935629367828369141e+00,1.904627680778503418e+00,1.874603509902954102e+00,1.845511198043823242e+00
4.481657981872558594e+00,4.378108978271484375e+00,4.415346145629882812e+00,4.529849052429199219e+00,4.552875518798828125e+00,5.000000000000000000e+00,5.000000000000000000e+00,4.604251861572265625e+00,5.000000000000000000e+00,5.000000000000000000e+00,5.000000000000000000e+00,5.000000000000000000e+00,5.000000000000000000e+00,5.000000000000000000e+00,5.000000000000000000e+00,5.000000000000000000e+00,5.000000000000000000e+00,5.000000000000000000e+00,5.000000000000000000e+00,5.000000000000000000e+00,5.000000000000000000e+00,5.000000000000000000e+00,5.000000000000000000e+00,5.000000000000000000e+00,5.000000000000000000e+00,5.000000000000000000e+00,5.000000000000000000e+00,5.000000000000000000e+00,5.000000000000000000e+00,5.000000000000000000e+00,5.000000000000000000e+00,5.000000000000000000e+00,5.000000000000000000e+00,5.000000000000000000e+00,5.000000000000000000e+00,5.000000000000000000e+00,5.000000000000000000e+00,5.000000000000000000e+00,5.000000000000000000e+00,1.538035511970520020e+00,1.479896426200866699e+00,1.469669103622436523e+00,1.468203067779541016e+00,1.494508385658264160e+00,1.782726645469665527e+00,3.907185554504394531e+00,3.782894849777221680e+00,3.666267395019531250e+00,3.556616544723510742e+00,3.453333854675292969e+00,3.355880498886108398e+00,3.263776540756225586e+00,3.176593303680419922e+00,3.093946456909179688e+00,3.015491247177124023e+00,2.940916299819946289e+00,2.869940996170043945e+00,2.802310705184936523e+00,2.737794399261474609e+00,2.676182508468627930e+00,2.617282152175903320e+00,2.560918569564819336e+00,2.506931543350219727e+00,2.455173492431640625e+00,2.405509710311889648e+00,2.357815265655517578e+00,2.311975240707397461e+00,2.267883777618408203e+00,2.225442409515380859e+00,2.184560298919677734e+00,2.145153284072875977e+00,2.107142686843872070e+00,2.070455789566040039e+00,2.035024642944335938e+00,2.000785589218139648e+00,1.967679738998413086e+00,1.935651421546936035e+00,1.904649138450622559e+00,1.874624252319335938e+00,1.845531344413757324e+00
5.000000000000000000e+00,4.361000537872314453e+00,4.396377563476562500e+00,4.538832664489746094e+00,4.562488079071044922e+00,5.000000000000000000e+00,5.000000000000000000e+00,5.000000000000000000e+00,5.000000000000000000e+00,5.000000000000000000e+00,5.000000000000000000e+00,5.000000000000000000e+00,5.000000000000000000e+00,5.000000000000000000e+00,5.000000000000000000e+00,5.000000000000000000e+00,5.000000000000000000e+00,5.000000000000000000e+00,5.000000000000000000e+00,5.000000000000000000e+00,5.000000000000000000e+00,5.000000000000000000e+00,5.000000000000000000e+00,5.000000000000000000e+00,5.000000000000000000e+00,5.000000000000000000e+00,5.000000000000000000e+00,5.000000000000000000e+00,5.000000000000000000e+00,5.000000000000000000e+00,5.000000000000000000e+00,5.000000000000000000e+00,5.000000000000000000e+00,5.000000000000000000e+00,5.000000000000000000e+00,5.000000000000000000e+00,5.000000000000000000e+00,5.000000000000000000e+00,5.000000000000000000e+00,1.518633842468261719e+00,1.483101129531860352e+00,1.472829818725585938e+00,1.477584242820739746e+00,1.504677176475524902e+00,1.846719861030578613e+00,3.907275915145874023e+00,3.782979249954223633e+00,3.666346788406372070e+00,3.556691169738769531e+00,3.453404188156127930e+00,3.355947017669677734e+00,3.263839721679687500e+00,3.176652908325195312e+00,3.094002962112426758e+00,3.015544891357421875e+00,2.940967321395874023e+00,2.869989633560180664e+00,2.802357196807861328e+00,2.737838983535766602e+00,2.676224708557128906e+00,2.617322444915771484e+00,2.560957193374633789e+00,2.506968498229980469e+00,2.455209016799926758e+00,2.405544042587280273e+00,2.357848167419433594e+00,2.312006711959838867e+00,2.267914056777954102e+00,2.225471496582031250e+00,2.184588670730590820e+00,2.145180463790893555e+00,2.107169151306152344e+00,2.070481061935424805e+00,2.035049200057983398e+00,2.000809192657470703e+00,1.967702507972717285e+00,1.935673475265502930e+00,1.904670596122741699e+00,1.874644994735717773e+00,1.845551371574401855e+00
5.000000000000000000e+00,4.350838661193847656e+00,4.373284816741943359e+00,4.546144008636474609e+00,4.569841861724853516e+00,5.000000000000000000e+00,5.000000000000000000e+00,5.000000000000000000e+00,5.000000000000000000e+00,5.000000000000000000e+00,5.000000000000000000e+00,5.000000000000000000e+00,5.000000000000000000e+00,5.000000000000000000e+00,5.000000000000000000e+00,5.000000000000000000e+00,5.000000000000000000e+00,5.000000000000000000e+00,5.000000000000000000e+00,5.000000000000000000e+00,5.000000000000000000e+00,5.000000000000000000e+00,5.000000000000000000e+00,5.000000000000000000e+00,5.000000000000000000e+00,5.000000000000000000e+00,5.000000000000000000e+00,5.000000000000000000e+00,5.000000000000000000e+00,5.000000000000000000e+00,5.000000000000000000e+00,5.000000000000000000e+00,5.000000000000000000e+00,5.000000000000000000e+00,5.000000000000000000e+00,5.000000000000000000e+00,5.000000000000000000e+00,5.000000000000000000e+00,5.000000000000000000e+00,1.519006252288818359e+00,1.484169244766235352e+00,1.471849322319030762e+00,1.475422978401184082e+00,1.501354098320007324e+00,4.040114402770996094e+00,3.907366037368774414e+00,3.783063650131225586e+00,3.666426181793212891e+00,3.556765794754028320e+00,3.453474521636962891e+00,3.356013774871826172e+00,3.263902425765991211e+00,3.176712512969970703e+00,3.094059467315673828e+00,3.015598535537719727e+00,2.941018342971801758e+00,2.870038270950317383e+00,2.802403688430786133e+00,2.737883090972900391e+00,2.676266908645629883e+00,2.617362976074218750e+00,2.560995817184448242e+00,2.507005691528320312e+00,2.455244779586791992e+00,2.405578136444091797e+00,2.357881069183349609e+00,2.312038421630859375e+00,2.267944335937500000e+00,2.225500822067260742e+00,2.184616804122924805e+00,2.145207643508911133e+00,2.107195377349853516e+00,2.070506334304809570e+00,2.035073518753051758e+00,2.000832796096801758e+00,1.967725396156311035e+00,1.935695648193359375e+00,1.904691934585571289e+00,1.874665737152099609e+00,1.845571517944335938e+00
5.000000000000000000e+00,4.374638557434082031e+00,4.378061771392822266e+00,4.559454441070556641e+00,4.576151371002197266e+00,5.000000000000000000e+00,5.000000000000000000e+00,5.000000000000000000e+00,5.000000000000000000e+00,5.000000000000000000e+00,5.000000000000000000e+00,5.000000000000000000e+00,5.000000000000000000e+00,5.000000000000000000e+00,5.000000000000000000e+00,5.000000000000000000e+00,5.000000000000000000e+00,5.000000000000000000e+00,5.000000000000000000e+00,5.000000000000000000e+00,5.000000000000000000e+00,5.000000000000000000e+00,5.000000000000000000e+00,5.000000000000000000e+00,5.000000000000000000e+00,5.000000000000000000e+00,5.000000000000000000e+00,5.000000000000000000e+00,5.000000000000000000e+00,5.000000000000000000e+00,5.000000000000000000e+00,5.000000000000000000e+00,5.000000000000000000e+00,5.000000000000000000e+00,5.000000000000000000e+00,5.000000000000000000e+00,5.000000000000000000e+00,5.000000000000000000e+00,5.000000000000000000e+00,1.521018385887145996e+00,1.486120820045471191e+00,1.468616127967834473e+00,1.469779133796691895e+00,1.494902491569519043e+00,4.040210723876953125e+00,3.907456159591674805e+00,3.783148288726806641e+00,3.666505575180053711e+00,3.556840419769287109e+00,3.453544855117797852e+00,3.356080293655395508e+00,3.263965368270874023e+00,3.176772117614746094e+00,3.094115972518920898e+00,3.015652179718017578e+00,2.941069602966308594e+00,2.870087146759033203e+00,2.802449941635131836e+00,2.737927436828613281e+00,2.676309108734130859e+00,2.617403268814086914e+00,2.561034679412841797e+00,2.507042884826660156e+00,2.455280542373657227e+00,2.405612230300903320e+00,2.357913732528686523e+00,2.312069892883300781e+00,2.267974615097045898e+00,2.225529909133911133e+00,2.184644937515258789e+00,2.145234823226928711e+00,2.107221603393554688e+00,2.070531845092773438e+00,2.035098075866699219e+00,2.000856399536132812e+00,1.967748284339904785e+00,1.935717701911926270e+00,1.904713392257690430e+00,1.874686479568481445e+00,1.845591545104980469e+00
5.000000000000000000e+00,4.395548820495605469e+00,4.405860900878906250e+00,4.649085521697998047e+00,4.641176700592041016e+00,5.000000000000000000e+00,5.000000000000000000e+00,5.000000000000000000e+00,5.000000000000000000e+00,5.000000000000000000e+00,5.000000000000000000e+00,5.000000000000000000e+00,5.000000000000000000e+00,5.000000000000000000e+00,5.000000000000000000e+00,5.000000000000000000e+00,5.000000000000000000e+00,5.000000000000000000e+00,5.000000000000000000e+00,5.000000000000000000e+00,5.000000000000000000e+00,5.000000000000000000e+00,5.000000000000000000e+00,5.000000000000000000e+00,5.000000000000000000e+00,5.000000000000000000e+00,5.000000000000000000e+00,5.000000000000000000e+00,5.000000000000000000e+00,5.000000000000000000e+00,5.000000000000000000e+00,5.000000000000000000e+00,5.000000000000000000e+00,5.000000000000000000e+00,5.000000000000000000e+00,5.000000000000000000e+00,5.000000000000000000e+00,5.000000000000000000e+00,5.000000000000000000e+00,4.867120265960693359e+00,1.488077402114868164e+00,1.465397000312805176e+00,1.464178442955017090e+00,1.488506078720092773e+00,4.040307044982910156e+00,3.907546281814575195e+00,3.783232688903808594e+00,3.666584730148315430e+00,3.556915044784545898e+00,3.453615665435791016e+00,3.356146574020385742e+00,3.264028310775756836e+00,3.176831483840942383e+00,3.094172477722167969e+00,3.015705823898315430e+00,2.941120862960815430e+00,2.870135784149169922e+00,2.802496433258056641e+00,2.737971782684326172e+00,2.676351547241210938e+00,2.617443799972534180e+00,2.561073541641235352e+00,2.507080078125000000e+00,2.455316066741943359e+00,2.405646324157714844e+00,2.357946634292602539e+00,2.312101364135742188e+00,2.268005132675170898e+00,2.225559473037719727e+00,2.184673309326171875e+00,2.145262002944946289e+00,2.107247591018676758e+00,2.070557117462158203e+00,2.035122394561767578e+00,2.000880241394042969e+00,1.967771053314208984e+00,1.935739874839782715e+00,1.904734730720520020e+00,1.874707221984863281e+00,1.845611691474914551e+00
5.000000000000000000e+00,4.419666290283203125e+00,4.409948825836181641e+00,4.734350681304931641e+00,4.749276161193847656e+00,5.000000000000000000e+00,5.000000000000000000e+00,5.000000000000000000e+00,5.000000000000000000e+00,5.000000000000000000e+00,5.000000000000000000e+00,5.000000000000000000e+00,5.000000000000000000e+00,5.000000000000000000e+00,5.000000000000000000e+00,5.000000000000000000e+00,5.000000000000000000e+00,5.000000000000000000e+00,5.000000000000000000e+00,5.000000000000000000e+00,5.000000000000000000e+00,5.000000000000000000e+00,5.000000000000000000e+00,5.000000000000000000e+00,5.000000000000000000e+00,5.000000000000000000e+00,5.000000000000000000e+00,5.000000000000000000e+00,5.000000000000000000e+00,5.000000000000000000e+00,5.000000000000000000e+00,5.000000000000000000e+00,5.000000000000000000e+00,5.000000000000000000e+00,5.000000000000000000e+00,5.000000000000000000e+00,5.000000000000000000e+00,5.000000000000000000e+00,5.000000000000000000e+00,4.867259025573730469e+00,1.490039110183715820e+00,1.463907241821289062e+00,1.458620190620422363e+00,1.482164263725280762e+00,4.040403366088867188e+00,3.907636404037475586e+00,3.783317089080810547e+00,3.666664123535156250e+00,3.556990146636962891e+00,3.453685998916625977e+00,3.356213092803955078e+00,3.264091014862060547e+00,3.176891088485717773e+00,3.094228982925415039e+00,3.015759706497192383e+00,2.941171884536743164e+00,2.870184421539306641e+00,2.802542686462402344e+00,2.738015890121459961e+00,2.676393747329711914e+00,2.617484331130981445e+00,2.561112165451049805e+00,2.507117033004760742e+00,2.455351591110229492e+00,2.405680418014526367e+00,2.357979297637939453e+00,2.312133073806762695e+00,2.268035650253295898e+00,2.225588560104370117e+00,2.184701442718505859e+00,2.145289182662963867e+00,2.107273817062377930e+00,2.070582389831542969e+00,2.035146951675415039e+00,2.000903844833374023e+00,1.967793941497802734e+00,1.935761928558349609e+00,1.904756188392639160e+00,1.874727964401245117e+00,1.845631837844848633e+00
5.000000000000000000e+00,5.000000000000000000e+00,4.409151077270507812e+00,4.834673404693603516e+00,4.860963344573974609e+00,5.000000000000000000e+00,5.000000000000000000e+00,5.000000000000000000e+00,5.000000000000000000e+00,5.000000000000000000e+00,5.000000000000000000e+00,5.000000000000000000e+00,5.000000000000000000e+00,5.000000000000000000e+00,5.000000000000000000e+00,5.000000000000000000e+00,5.000000000000000000e+00,5.000000000000000000e+00,5.000000000000000000e+00,5.000000000000000000e+00,5.000000000000000000e+00,5.000000000000000000e+00,5.000000000000000000e+00,5.000000000000000000e+00,5.000000000000000000e+00,5.000000000000000000e+00,5.000000000000000000e+00,5.000000000000000000e+00,5.000000000000000000e+00,5.000000000000000000e+00,5.000000000000000000e+00,5.000000000000000000e+00,5.000000000000000000e+00,5.000000000000000000e+00,5.000000000000000000e+00,5.000000000000000000e+00,5.000000000000000000e+00,5.000000000000000000e+00,5.000000000000000000e+00,4.867398262023925781e+00,1.492006063461303711e+00,1.462847352027893066e+00,1.453022241592407227e+00,1.475876212120056152e+00,4.040499687194824219e+00,3.907726526260375977e+00,3.783401489257812500e+00,3.666743993759155273e+00,3.557064771652221680e+00,3.453756332397460938e+00,3.356279611587524414e+00,3.264153957366943359e+00,3.176950693130493164e+00,3.094285726547241211e+00,3.015813350677490234e+00,2.941222906112670898e+00,2.870232820510864258e+00,2.802589178085327148e+00,2.738060235977172852e+00,2.676436185836791992e+00,2.617524862289428711e+00,2.561150789260864258e+00,2.507154226303100586e+00,2.455387115478515625e+00,2.405714750289916992e+00,2.358012199401855469e+00,2.312164783477783203e+00,2.268065929412841797e+00,2.225617885589599609e+00,2.184729576110839844e+00,2.145316362380981445e+00,2.107300043106079102e+00,2.070607662200927734e+00,2.035171508789062500e+00,2.000927448272705078e+00,1.967816829681396484e+00,1.935784101486206055e+00,1.904777646064758301e+00,1.874748706817626953e+00,1.845652103424072266e+00
5.000000000000000000e+00,5.000000000000000000e+00,4.420951366424560547e+00,4.886944770812988281e+00,5.000000000000000000e+00,5.000000000000000000e+00,5.000000000000000000e+00,5.000000000000000000e+00,5.000000000000000000e+00,5.000000000000000000e+00,5.000000000000000000e+00,5.000000000000000000e+00,5.000000000000000000e+00,5.000000000000000000e+00,5.000000000000000000e+00,5.000000000000000000e+00,5.000000000000000000e+00,5.000000000000000000e+00,5.000000000000000000e+00,5.000000000000000000e+00,5.000000000000000000e+00,5.000000000000000000e+00,5.000000000000000000e+00,5.000000000000000000e+00,5.000000000000000000e+00,5.000000000000000000e+00,5.000000000000000000e+00,5.000000000000000000e+00,5.000000000000000000e+00,5.000000000000000000e+00,5.000000000000000000e+00,5.000000000000000000e+00,5.000000000000000000e+00,5.000000000000000000e+00,5.000000000000000000e+00,5.000000000000000000e+00,5.000000000000000000e+00,5.000000000000000000e+00,5.000000000000000000e+00,4.867537498474121094e+00,1.493978142738342285e+00,1.462877154350280762e+00,1.448275446891784668e+00,1.470688581466674805e+00,4.040596008300781250e+00,3.907816648483276367e+00,3.783486366271972656e+00,3.666823148727416992e+00,3.557139396667480469e+00,3.453826904296875000e+00,3.356346130371093750e+00,3.264216899871826172e+00,3.177010536193847656e+00,3.094342231750488281e+00,3.015866994857788086e+00,2.941273927688598633e+00,2.870281457901000977e+00,2.802635431289672852e+00,2.738104820251464844e+00,2.676478385925292969e+00,2.617565155029296875e+00,2.561189651489257812e+00,2.507191181182861328e+00,2.455422639846801758e+00,2.405748844146728516e+00,2.358045101165771484e+00,2.312196254730224609e+00,2.268096208572387695e+00,2.225646972656250000e+00,2.184757709503173828e+00,2.145343542098999023e+00,2.107326507568359375e+00,2.070633172988891602e+00,2.035195827484130859e+00,2.000951051712036133e+00,1.967839598655700684e+00,1.935806155204772949e+00,1.904798984527587891e+00,1.874769568443298340e+00,1.845672249794006348e+00
5.000000000000000000e+00,5.000000000000000000e+00,4.441978931427001953e+00,4.880698204040527344e+00,5.000000000000000000e+00,5.000000000000000000e+00,5.000000000000000000e+00,5.000000000000000000e+00,5.000000000000000000e+00,5.000000000000000000e+00,5.000000000000000000e+00,5.000000000000000000e+00,5.000000000000000000e+00,5.000000000000000000e+00,5.000000000000000000e+00,5.000000000000000000e+00,5.000000000000000000e+00,5.000000000000000000e+00,5.000000000000000000e+00,5.000000000000000000e+00,5.000000000000000000e+00,5.000000000000000000e+00,5.000000000000000000e+00,5.000000000000000000e+00,5.000000000000000000e+00,5.000000000000000000e+00,5.000000000000000000e+00,5.000000000000000000e+00,5.000000000000000000e+00,5.000000000000000000e+00,5.000000000000000000e+00,5.000000000000000000e+00,5.000000000000000000e+00,5.000000000000000000e+00,5.000000000000000000e+00,5.000000000000000000e+00,5.000000000000000000e+00,5.000000000000000000e+00,5.000000000000000000e+00,4.867676258087158203e+00,1.496987700462341309e+00,1.465187311172485352e+00,1.451599597930908203e+00,1.465757846832275391e+00,4.040692329406738281e+00,3.907907247543334961e+00,3.783571004867553711e+00,3.666902542114257812e+00,3.557214021682739258e+00,3.453897237777709961e+00,3.356412649154663086e+00,3.264280080795288086e+00,3.177070140838623047e+00,3.094398736953735352e+00,3.015920877456665039e+00,2.941324949264526367e+00,2.870330095291137695e+00,2.802681684494018555e+00,2.738148927688598633e+00,2.676520824432373047e+00,2.617605686187744141e+00,2.561228275299072266e+00,2.507228374481201172e+00,2.455458402633666992e+00,2.405783176422119141e+00,2.358078002929687500e+00,2.312227725982666016e+00,2.268126726150512695e+00,2.225676298141479492e+00,2.184785842895507812e+00,2.145370721817016602e+00,2.107352733612060547e+00,2.070658445358276367e+00,2.035220384597778320e+00,2.000974655151367188e+00,1.967862486839294434e+00,1.935828328132629395e+00,1.904820680618286133e+00,1.874790310859680176e+00,1.845692276954650879e+00
4.875470161437988281e+00,4.874258995056152344e+00,4.374594688415527344e+00,4.374800682067871094e+00,4.870628356933593750e+00,4.869420051574707031e+00,4.868211746215820312e+00,4.867003917694091797e+00,4.865797042846679688e+00,4.864590644836425781e+00,4.863384723663330078e+00,4.862179756164550781e+00,4.860974788665771484e+00,4.859770774841308594e+00,4.858567237854003906e+00,4.857364654541015625e+00,4.856162071228027344e+00,4.854960918426513672e+00,4.853759765625000000e+00,4.852559089660644531e+00,4.851359367370605469e+00,4.850160121917724609e+00,4.848961353302001953e+00,4.847763538360595703e+00,4.846565723419189453e+00,4.845369338989257812e+00,4.844172477722167969e+00,4.842977046966552734e+00,4.841782093048095703e+00,4.840587139129638672e+00,4.839393615722656250e+00,4.838199615478515625e+00,4.837007045745849609e+00,4.835814952850341797e+00,4.834623336791992188e+00,4.833432197570800781e+00,4.832241535186767578e+00,4.831051826477050781e+00,4.829862594604492188e+00,4.828674316406250000e+00,1.500102400779724121e+00,1.468256711959838867e+00,1.454938888549804688e+00,1.460860013961791992e+00,4.040789127349853516e+00,3.907997131347656250e+00,3.783655405044555664e+00,3.666981935501098633e+00,3.557288646697998047e+00,3.453967571258544922e+00,3.356479406356811523e+00,3.264342784881591797e+00,3.177129745483398438e+00,3.094455242156982422e+00,3.015974521636962891e+00,2.941375970840454102e+00,2.870378732681274414e+00,2.802728414535522461e+00,2.738193273544311523e+00,2.676563024520874023e+00,2.617646217346191406e+00,2.561267137527465820e+00,2.507265329360961914e+00,2.455494165420532227e+00,2.405817270278930664e+00,2.358110666275024414e+00,2.312259435653686523e+00,2.268157005310058594e+00,2.225705623626708984e+00,2.184814214706420898e+00,2.145397901535034180e+00,2.107378959655761719e+00,2.070683717727661133e+00,2.035244703292846680e+00,2.000998258590698242e+00,1.967885375022888184e+00,1.935850620269775391e+00,1.904842019081115723e+00,1.874811053276062012e+00,1.845712423324584961e+00
3.778259992599487305e+00,3.777532577514648438e+00,3.776805400848388672e+00,3.776078701019287109e+00,3.775352239608764648e+00,3.774625539779663086e+00,3.773899555206298828e+00,3.773173809051513672e+00,3.772448539733886719e+00,3.771723270416259766e+00,3.770998001098632812e+00,3.770273447036743164e+00,3.769549131393432617e+00,3.768825292587280273e+00,3.768101453781127930e+00,3.767377614974975586e+00,3.766654491424560547e+00,3.765931606292724609e+00,3.765208959579467773e+00,3.764486551284790039e+00,3.763764142990112305e+00,3.763042449951171875e+00,3.762320756912231445e+00,3.761599540710449219e+00,3.760878562927246094e+00,3.760157585144042969e+00,3.759437084197998047e+00,3.758717060089111328e+00,3.757997274398803711e+00,3.757277727127075195e+00,3.756557941436767578e+00,3.755838871002197266e+00,3.755120277404785156e+00,3.754401683807373047e+00,3.753683567047119141e+00,3.752965211868286133e+00,3.752247571945190430e+00,3.751530170440673828e+00,3.750813007354736328e+00,3.750096082687377930e+00,2.049171686172485352e+00,1.471339106559753418e+00,1.454289197921752930e+00,1.455994963645935059e+00,3.746515750885009766e+00,3.745800018310546875e+00,3.745085239410400391e+00,3.667061328887939453e+00,3.557363510131835938e+00,3.454038381576538086e+00,3.356545925140380859e+00,3.264405727386474609e+00,3.177189350128173828e+00,3.094511747360229492e+00,3.016028165817260742e+00,2.941426992416381836e+00,2.870427608489990234e+00,2.802774667739868164e+00,2.738237380981445312e+00,2.676605224609375000e+00,2.617686510086059570e+00,2.561305761337280273e+00,2.507302761077880859e+00,2.455529689788818359e+00,2.405851364135742188e+00,2.358143568038940430e+00,2.312290906906127930e+00,2.268187284469604492e+00,2.225734949111938477e+00,2.184842348098754883e+00,2.145425081253051758e+00,2.107404947280883789e+00,2.070708990097045898e+00,2.035269260406494141e+00,2.001021862030029297e+00,1.967908382415771484e+00,1.935872793197631836e+00,1.904863476753234863e+00,1.874831795692443848e+00,1.845732450485229492e+00
3.084175825119018555e+00,3.083691120147705078e+00,3.083206176757812500e+00,3.082721948623657227e+00,3.082237720489501953e+00,3.081753730773925781e+00,3.081269741058349609e+00,3.080785751342773438e+00,3.080302000045776367e+00,3.079818487167358398e+00,3.079335212707519531e+00,3.078852176666259766e+00,3.078368902206420898e+00,3.077885866165161133e+00,3.077403306961059570e+00,3.076920747756958008e+00,3.076437950134277344e+00,3.075955629348754883e+00,3.075473546981811523e+00,3.074991703033447266e+00,3.074509859085083008e+00,3.074028015136718750e+00,3.073546409606933594e+00,3.073065042495727539e+00,3.072583913803100586e+00,3.072102785110473633e+00,3.071621656417846680e+00,3.071141004562377930e+00,3.070660352706909180e+00,3.070179939270019531e+00,3.069699525833129883e+00,3.069219112396240234e+00,3.068739175796508789e+00,3.068259239196777344e+00,3.067779541015625000e+00,3.067300081253051758e+00,3.066820383071899414e+00,3.066341161727905273e+00,3.065862178802490234e+00,2.140856266021728516e+00,2.033201694488525391e+00,1.474434375762939453e+00,1.451838612556457520e+00,1.451162099838256836e+00,3.062990427017211914e+00,3.062512397766113281e+00,3.062034368515014648e+00,3.061556577682495117e+00,3.061079025268554688e+00,3.060601472854614258e+00,3.060124158859252930e+00,3.059646606445312500e+00,3.059169769287109375e+00,3.058692932128906250e+00,3.016081809997558594e+00,2.941478490829467773e+00,2.870476245880126953e+00,2.802821159362792969e+00,2.738281726837158203e+00,2.676647663116455078e+00,2.617727041244506836e+00,2.561344623565673828e+00,2.507339715957641602e+00,2.455565214157104492e+00,2.405885696411132812e+00,2.358176469802856445e+00,2.312322378158569336e+00,2.268217802047729492e+00,2.225764036178588867e+00,2.184870481491088867e+00,2.145452260971069336e+00,2.107431173324584961e+00,2.070734262466430664e+00,2.035293579101562500e+00,2.001045703887939453e+00,1.967931270599365234e+00,1.935894846916198730e+00,1.904884815216064453e+00,1.874852538108825684e+00,1.845752596855163574e+00
2.605527877807617188e+00,2.605181932449340820e+00,2.604835987091064453e+00,2.604490041732788086e+00,2.604144334793090820e+00,2.603798866271972656e+00,2.603453397750854492e+00,2.603107929229736328e+00,2.602762460708618164e+00,2.602417230606079102e+00,2.602072238922119141e+00,2.601727247238159180e+00,2.601382255554199219e+00,2.601037263870239258e+00,2.600692510604858398e+00,2.600347995758056641e+00,2.600003480911254883e+00,2.599658966064453125e+00,2.599314451217651367e+00,2.598969936370849609e+00,2.598625898361206055e+00,2.598281860351562500e+00,2.597937583923339844e+00,2.597593545913696289e+00,2.597249746322631836e+00,2.596906185150146484e+00,2.596562385559082031e+00,2.596218824386596680e+00,2.595875263214111328e+00,2.595531940460205078e+00,2.595188617706298828e+00,2.594845533370971680e+00,2.594502210617065430e+00,2.594159126281738281e+00,2.593816280364990234e+00,2.593473434448242188e+00,2.593130588531494141e+00,2.592787742614746094e+00,2.592445373535156250e+00,2.592102766036987305e+00,2.003305912017822266e+00,1.477542757987976074e+00,1.467481613159179688e+00,1.448945641517639160e+00,2.590391635894775391e+00,2.590049743652343750e+00,2.589707851409912109e+00,2.589365959167480469e+00,2.589024305343627930e+00,2.588682889938354492e+00,2.588341236114501953e+00,2.588000059127807617e+00,2.587658405303955078e+00,2.587317228317260742e+00,2.586976289749145508e+00,2.586635112762451172e+00,2.586294174194335938e+00,2.585953235626220703e+00,2.585612535476684570e+00,2.585271835327148438e+00,2.584931373596191406e+00,2.561383247375488281e+00,2.507376909255981445e+00,2.455600738525390625e+00,2.405919790267944336e+00,2.358209133148193359e+00,2.312354087829589844e+00,2.268248319625854492e+00,2.225793361663818359e+00,2.184898614883422852e+00,2.145479440689086914e+00,2.107457399368286133e+00,2.070759534835815430e+00,2.035318136215209961e+00,2.001069307327270508e+00,1.967954158782958984e+00,1.935917019844055176e+00,1.904906272888183594e+00,1.874873280525207520e+00,1.845772743225097656e+00
2.255503654479980469e+00,2.255243778228759766e+00,2.254983901977539062e+00,2.254724025726318359e+00,2.254464149475097656e+00,2.254204511642456055e+00,2.253944635391235352e+00,2.253685235977172852e+00,2.253425598144531250e+00,2.253166198730468750e+00,2.252906799316406250e+00,2.252647399902343750e+00,2.252388000488281250e+00,2.252128839492797852e+00,2.251869678497314453e+00,2.251610517501831055e+00,2.251351356506347656e+00,2.251092433929443359e+00,2.250833511352539062e+00,2.250574827194213867e+00,2.250315904617309570e+00,2.250056982040405273e+00,2.249798297882080078e+00,2.249540090560913086e+00,2.249282121658325195e+00,2.249024391174316406e+00,2.248766660690307617e+00,2.248508930206298828e+00,2.248251199722290039e+00,2.247993469238281250e+00,2.247735977172851562e+00,2.247478723526000977e+00,2.247221231460571289e+00,2.246963977813720703e+00,2.246706485748291016e+00,2.246449232101440430e+00,2.246192216873168945e+00,2.245934963226318359e+00,2.245677947998046875e+00,1.996499657630920410e+00,1.977053642272949219e+00,1.991536021232604980e+00,1.464245676994323730e+00,1.452322840690612793e+00,2.244136571884155273e+00,2.243880033493041992e+00,2.243623495101928711e+00,2.243366956710815430e+00,2.243110418319702148e+00,2.242854118347167969e+00,2.242597579956054688e+00,2.242341518402099609e+00,2.242085218429565430e+00,2.241828918457031250e+00,2.241572856903076172e+00,2.241316795349121094e+00,2.241060733795166016e+00,2.240804910659790039e+00,2.240548849105834961e+00,2.240293025970458984e+00,2.240037202835083008e+00,2.239781618118286133e+00,2.239526033401489258e+00,2.239270210266113281e+00,2.239014863967895508e+00,2.238759279251098633e+00,2.238503932952880859e+00,2.238248586654663086e+00,2.225822687149047852e+00,2.184926748275756836e+00,2.145506620407104492e+00,2.107483625411987305e+00,2.070785045623779297e+00,2.035342693328857422e+00,2.001092910766601562e+00,1.967976927757263184e+00,1.935939073562622070e+00,1.904927730560302734e+00,1.874894022941589355e+00,1.845792770385742188e+00
1.988416671752929688e+00,1.988214731216430664e+00,1.988012790679931641e+00,1.987810730934143066e+00,1.987608909606933594e+00,1.987406849861145020e+00,1.987205147743225098e+00,1.987003207206726074e+00,1.986801505088806152e+00,1.986599922180175781e+00,1.986398100852966309e+00,1.986196637153625488e+00,1.985994815826416016e+00,1.985793471336364746e+00,1.985592007637023926e+00,1.985390424728393555e+00,1.985189080238342285e+00,1.984987616539001465e+00,1.984786391258239746e+00,1.984585165977478027e+00,1.984383702278137207e+00,1.984182596206665039e+00,1.983981251716613770e+00,1.983780264854431152e+00,1.983578920364379883e+00,1.983378052711486816e+00,1.983177065849304199e+00,1.982975959777832031e+00,1.982775092124938965e+00,1.982574105262756348e+00,1.982373356819152832e+00,1.982172608375549316e+00,1.981971740722656250e+00,1.981771111488342285e+00,1.981570243835449219e+00,1.981369733810424805e+00,1.981168985366821289e+00,1.980968475341796875e+00,1.980768084526062012e+00,1.980567455291748047e+00,1.980367064476013184e+00,1.980166554450988770e+00,1.447682023048400879e+00,1.422712206840515137e+00,1.979565620422363281e+00,1.979365468025207520e+00,1.979165077209472656e+00,1.978965044021606445e+00,1.978764772415161133e+00,1.978564739227294922e+00,1.978364825248718262e+00,1.978164672851562500e+00,1.977964758872985840e+00,1.977764725685119629e+00,1.977564930915832520e+00,1.977365136146545410e+00,1.977165222167968750e+00,1.976965546607971191e+00,1.976765751838684082e+00,1.976566195487976074e+00,1.976366639137268066e+00,1.976166844367980957e+00,1.975967407226562500e+00,1.975767731666564941e+00,1.975568294525146484e+00,1.975368738174438477e+00,1.975169420242309570e+00,1.974970221519470215e+00,1.974770784378051758e+00,1.974571585655212402e+00,1.974372148513793945e+00,1.974173069000244141e+00,1.973973989486694336e+00,1.973774790763854980e+00,1.973575711250305176e+00,1.967999815940856934e+00,1.935961246490478516e+00,1.904949069023132324e+00,1.874914765357971191e+00,1.845812916755676270e+00
1.777887105941772461e+00,1.777725577354431152e+00,1.777563929557800293e+00,1.777402639389038086e+00,1.777241230010986328e+00,1.777079701423645020e+00,1.776918411254882812e+00,1.776757001876831055e+00,1.776595711708068848e+00,1.776434540748596191e+00,1.776273131370544434e+00,1.776111960411071777e+00,1.775950670242309570e+00,1.775789618492126465e+00,1.775628566741943359e+00,1.775467276573181152e+00,1.775306344032287598e+00,1.775145173072814941e+00,1.774984240531921387e+00,1.774823069572448730e+00,1.774662137031555176e+00,1.774501323699951172e+00,1.774340271949768066e+00,1.774179458618164062e+00,1.774018526077270508e+00,1.773857831954956055e+00,1.773697137832641602e+00,1.773536205291748047e+00,1.773375511169433594e+00,1.773214697837829590e+00,1.773054122924804688e+00,1.772893309593200684e+00,1.772732853889465332e+00,1.772572278976440430e+00,1.772411584854125977e+00,1.772251129150390625e+00,1.772090554237365723e+00,1.771930217742919922e+00,1.771769762039184570e+00,1.771609306335449219e+00,1.771448969841003418e+00,1.771288514137268066e+00,1.417747020721435547e+00,1.388637661933898926e+00,1.376922369003295898e+00,1.770647525787353516e+00,1.770487189292907715e+00,1.770327091217041016e+00,1.770166754722595215e+00,1.770006775856018066e+00,1.769846677780151367e+00,1.769686579704284668e+00,1.769526600837707520e+00,1.769366383552551270e+00,1.769206523895263672e+00,1.769046664237976074e+00,1.768886566162109375e+00,1.768726825714111328e+00,1.768566846847534180e+00,1.768407106399536133e+00,1.768247127532958984e+00,1.768087506294250488e+00,1.767927765846252441e+00,1.767767906188964844e+00,1.767608284950256348e+00,1.767448544502258301e+00,1.767289042472839355e+00,1.767129421234130859e+00,1.766969799995422363e+00,1.766810297966003418e+00,1.766650676727294922e+00,1.766491293907165527e+00,1.766331672668457031e+00,1.766172409057617188e+00,1.766013026237487793e+00,1.765853524208068848e+00,1.765694260597229004e+00,1.765534877777099609e+00,1.765375733375549316e+00,1.765216469764709473e+00
1.607670187950134277e+00,1.607538104057312012e+00,1.607406020164489746e+00,1.607274055480957031e+00,1.607142090797424316e+00,1.607010006904602051e+00,1.606878042221069336e+00,1.606746077537536621e+00,1.606614112854003906e+00,1.606482386589050293e+00,1.606350302696228027e+00,1.606218576431274414e+00,1.606086611747741699e+00,1.605954885482788086e+00,1.605823040008544922e+00,1.605691313743591309e+00,1.605559587478637695e+00,1.605427742004394531e+00,1.605296134948730469e+00,1.605164289474487305e+00,1.605032682418823242e+00,1.604901194572448730e+00,1.604769468307495117e+00,1.604637861251831055e+00,1.604506254196166992e+00,1.604374766349792480e+00,1.604243159294128418e+00,1.604111671447753906e+00,1.603980183601379395e+00,1.603848695755004883e+00,1.603717327117919922e+00,1.603585720062255859e+00,1.603454470634460449e+00,1.603323101997375488e+00,1.603191614151000977e+00,1.603060364723205566e+00,1.602928996086120605e+00,1.602797746658325195e+00,1.602666497230529785e+00,1.602535128593444824e+00,1.602403998374938965e+00,1.602272629737854004e+00,1.366553544998168945e+00,1.336596131324768066e+00,1.320023655891418457e+00,1.312769889831542969e+00,1.308655381202697754e+00,1.601485967636108398e+00,1.601354837417602539e+00,1.601223826408386230e+00,1.601092815399169922e+00,1.600961804389953613e+00,1.600830793380737305e+00,1.600699782371520996e+00,1.600568890571594238e+00,1.600437998771667480e+00,1.600307106971740723e+00,1.600176334381103516e+00,1.600045323371887207e+00,1.599914550781250000e+00,1.599783658981323242e+00,1.599653005599975586e+00,1.599522233009338379e+00,1.599391460418701172e+00,1.599260807037353516e+00,1.599130034446716309e+00,1.598999381065368652e+00,1.598868727684020996e+00,1.598738074302673340e+00,1.598607540130615234e+00,1.598476767539978027e+00,1.598346352577209473e+00,1.598215699195861816e+00,1.598085165023803711e+00,1.597954750061035156e+00,1.597824215888977051e+00,1.597693800926208496e+00,1.597563266754150391e+00,1.597432851791381836e+00,1.597302556037902832e+00
1.467198848724365234e+00,1.467088937759399414e+00,1.466978788375854492e+00,1.466868877410888672e+00,1.466758966445922852e+00,1.466648936271667480e+00,1.466539144515991211e+00,1.466429114341735840e+00,1.466319322586059570e+00,1.466209292411804199e+00,1.466099500656127930e+00,1.465989708900451660e+00,1.465879797935485840e+00,1.465770125389099121e+00,1.465660214424133301e+00,1.465550541877746582e+00,1.465440750122070312e+00,1.465330958366394043e+00,1.465221285820007324e+00,1.465111494064331055e+00,1.465001821517944336e+00,1.464892268180847168e+00,1.464782476425170898e+00,1.464672923088073730e+00,1.464563250541687012e+00,1.464453697204589844e+00,1.464344024658203125e+00,1.464234471321105957e+00,1.464124917984008789e+00,1.464015364646911621e+00,1.463905811309814453e+00,1.463796257972717285e+00,1.463686823844909668e+00,1.463577389717102051e+00,1.463467836380004883e+00,1.463358402252197266e+00,1.463248968124389648e+00,1.463139533996582031e+00,1.463030099868774414e+00,1.462920784950256348e+00,1.462811470031738281e+00,1.462702035903930664e+00,1.462592720985412598e+00,1.357368707656860352e+00,1.462374091148376465e+00,1.462264895439147949e+00,1.462155580520629883e+00,1.462046384811401367e+00,1.461937069892883301e+00,1.461827874183654785e+00,1.461718678474426270e+00,1.461609482765197754e+00,1.461500406265258789e+00,1.461391210556030273e+00,1.461282134056091309e+00,1.461172819137573242e+00,1.461063861846923828e+00,1.460954785346984863e+00,1.460845589637756348e+00,1.460736632347106934e+00,1.460627555847167969e+00,1.460518598556518555e+00,1.460409641265869141e+00,1.460300564765930176e+00,1.460191607475280762e+00,1.460082650184631348e+00,1.459973692893981934e+00,1.459864735603332520e+00,1.459755897521972656e+00,1.459647059440612793e+00,1.459538102149963379e+00,1.459429264068603516e+00,1.459320306777954102e+00,1.459211587905883789e+00,1.459102749824523926e+00,1.458993911743164062e+00,1.458885192871093750e+00,1.458776354789733887e+00,1.458667635917663574e+00,1.458558917045593262e+00
1.349302530288696289e+00,1.349209547042846680e+00,1.349116444587707520e+00,1.349023461341857910e+00,1.348930478096008301e+00,1.348837494850158691e+00,1.348744630813598633e+00,1.348651528358459473e+00,1.348558664321899414e+00,1.348465681076049805e+00,1.348372817039489746e+00,1.348279953002929688e+00,1.348186969757080078e+00,1.348094105720520020e+00,1.348001122474670410e+00,1.347908377647399902e+00,1.347815513610839844e+00,1.347722649574279785e+00,1.347629904747009277e+00,1.347537040710449219e+00,1.347444295883178711e+00,1.347351431846618652e+00,1.347258687019348145e+00,1.347166061401367188e+00,1.347073197364807129e+00,1.346980571746826172e+00,1.346887707710266113e+00,1.346795082092285156e+00,1.346702456474304199e+00,1.346609711647033691e+00,1.346517086029052734e+00,1.346424341201782227e+00,1.346331834793090820e+00,1.346239089965820312e+00,1.346146464347839355e+00,1.346053957939147949e+00,1.345961332321166992e+00,1.345868825912475586e+00,1.345776200294494629e+00,1.345683693885803223e+00,1.345591187477111816e+00,1.345498561859130859e+00,1.345406055450439453e+00,1.345313549041748047e+00,1.345221042633056641e+00,1.345128536224365234e+00,1.345036149024963379e+00,1.344943761825561523e+00,1.344851255416870117e+00,1.344758868217468262e+00,1.344666361808776855e+00,1.344573974609375000e+00,1.344481706619262695e+00,1.344389200210571289e+00,1.344296932220458984e+00,1.344204425811767578e+00,1.344112157821655273e+00,1.344019889831542969e+00,1.343927502632141113e+00,1.343835234642028809e+00,1.343742966651916504e+00,1.343650698661804199e+00,1.343558430671691895e+00,1.343466162681579590e+00,1.343374013900756836e+00,1.343281745910644531e+00,1.343189477920532227e+00,1.343097209930419922e+00,1.343005180358886719e+00,1.342913031578063965e+00,1.342820763587951660e+00,1.342728614807128906e+00,1.342636466026306152e+00,1.342544436454772949e+00,1.342452168464660645e+00,1.342360138893127441e+00,1.342268109321594238e+00,1.342175960540771484e+00,1.342083930969238281e+00,1.341991901397705078e+00
1.248944044113159180e+00,1.248864412307739258e+00,1.248784661293029785e+00,1.248705029487609863e+00,1.248625278472900391e+00,1.248545646667480469e+00,1.248466014862060547e+00,1.248386383056640625e+00,1.248306751251220703e+00,1.248227000236511230e+00,1.248147487640380859e+00,1.248067855834960938e+00,1.247988224029541016e+00,1.247908711433410645e+00,1.247829079627990723e+00,1.247749447822570801e+00,1.247669935226440430e+00,1.247590422630310059e+00,1.247510910034179688e+00,1.247431278228759766e+00,1.247351765632629395e+00,1.247272253036499023e+00,1.247192740440368652e+00,1.247113347053527832e+00,1.247033834457397461e+00,1.246954321861267090e+00,1.246874809265136719e+00,1.246795415878295898e+00,1.246715903282165527e+00,1.246636509895324707e+00,1.246557116508483887e+00,1.246477723121643066e+00,1.246398329734802246e+00,1.246318936347961426e+00,1.246239542961120605e+00,1.246160268783569336e+00,1.246080875396728516e+00,1.246001482009887695e+00,1.245922088623046875e+00,1.245842814445495605e+00,1.245763421058654785e+00,1.245684146881103516e+00,1.245604872703552246e+00,1.245525598526000977e+00,1.245446324348449707e+00,1.245367050170898438e+00,1.245287775993347168e+00,1.245208621025085449e+00,1.245129346847534180e+00,1.245050072669982910e+00,1.244970798492431641e+00,1.244891643524169922e+00,1.244812488555908203e+00,1.244733333587646484e+00,1.244654178619384766e+00,1.244574904441833496e+00,1.244495749473571777e+00,1.244416594505310059e+00,1.244337558746337891e+00,1.244258403778076172e+00,1.244179248809814453e+00,1.244100213050842285e+00,1.244021058082580566e+00,1.243942022323608398e+00,1.243862986564636230e+00,1.243783831596374512e+00,1.243704795837402344e+00,1.243625760078430176e+00,1.243546724319458008e+00,1.243467688560485840e+00,1.243388652801513672e+00,1.243309736251831055e+00,1.243230700492858887e+00,1.243151664733886719e+00,1.243072628974914551e+00,1.242993712425231934e+00,1.242914795875549316e+00,1.242835879325866699e+00,1.242756962776184082e+00,1.242677927017211914e+00
1.162481069564819336e+00,1.162412047386169434e+00,1.162342905998229980e+00,1.162274003028869629e+00,1.162204861640930176e+00,1.162135839462280273e+00,1.162066936492919922e+00,1.161997795104980469e+00,1.161928892135620117e+00,1.161859869956970215e+00,1.161790847778320312e+00,1.161721825599670410e+00,1.161652922630310059e+00,1.161584019660949707e+00,1.161514997482299805e+00,1.161446094512939453e+00,1.161377072334289551e+00,1.161308169364929199e+00,1.161239266395568848e+00,1.161170363426208496e+00,1.161101460456848145e+00,1.161032557487487793e+00,1.160963654518127441e+00,1.160894751548767090e+00,1.160825967788696289e+00,1.160757064819335938e+00,1.160688161849975586e+00,1.160619378089904785e+00,1.160550475120544434e+00,1.160481691360473633e+00,1.160412907600402832e+00,1.160344004631042480e+00,1.160275220870971680e+00,1.160206437110900879e+00,1.160137653350830078e+00,1.160068869590759277e+00,1.160000085830688477e+00,1.159931421279907227e+00,1.159862518310546875e+00,1.159793853759765625e+00,1.159725069999694824e+00,1.159656405448913574e+00,1.159587621688842773e+00,1.159518957138061523e+00,1.159450292587280273e+00,1.159381508827209473e+00,1.159312844276428223e+00,1.159244179725646973e+00,1.159175395965576172e+00,1.159106850624084473e+00,1.159038066864013672e+00,1.158969521522521973e+00,1.158900856971740723e+00,1.158832192420959473e+00,1.158763647079467773e+00,1.158694982528686523e+00,1.158626317977905273e+00,1.158557653427124023e+00,1.158489108085632324e+00,1.158420562744140625e+00,1.158352017402648926e+00,1.158283472061157227e+00,1.158214807510375977e+00,1.158146381378173828e+00,1.158077716827392578e+00,1.158009290695190430e+00,1.157940745353698730e+00,1.157872200012207031e+00,1.157803654670715332e+00,1.157735109329223633e+00,1.157666683197021484e+00,1.157598257064819336e+00,1.157529711723327637e+00,1.157461285591125488e+00,1.157392740249633789e+00,1.157324314117431641e+00,1.157255887985229492e+00,1.157187461853027344e+00,1.157119035720825195e+00,1.157050609588623047e+00
1.087214350700378418e+00,1.087154030799865723e+00,1.087093591690063477e+00,1.087033152580261230e+00,1.086972713470458984e+00,1.086912393569946289e+00,1.086851954460144043e+00,1.086791634559631348e+00,1.086731314659118652e+00,1.086670994758605957e+00,1.086610674858093262e+00,1.086550235748291016e+00,1.086489915847778320e+00,1.086429715156555176e+00,1.086369276046752930e+00,1.086309075355529785e+00,1.086248636245727539e+00,1.086188435554504395e+00,1.086128115653991699e+00,1.086067795753479004e+00,1.086007595062255859e+00,1.085947275161743164e+00,1.085887074470520020e+00,1.085826754570007324e+00,1.085766553878784180e+00,1.085706233978271484e+00,1.085646033287048340e+00,1.085585832595825195e+00,1.085525512695312500e+00,1.085465312004089355e+00,1.085405230522155762e+00,1.085344910621643066e+00,1.085284709930419922e+00,1.085224509239196777e+00,1.085164427757263184e+00,1.085104107856750488e+00,1.085044026374816895e+00,1.084983825683593750e+00,1.084923744201660156e+00,1.084863543510437012e+00,1.084803342819213867e+00,1.084743261337280273e+00,1.084683179855346680e+00,1.084622979164123535e+00,1.084562897682189941e+00,1.084502696990966797e+00,1.084442615509033203e+00,1.084382534027099609e+00,1.084322452545166016e+00,1.084262371063232422e+00,1.084202289581298828e+00,1.084142208099365234e+00,1.084082126617431641e+00,1.084022164344787598e+00,1.083962082862854004e+00,1.083902001380920410e+00,1.083842039108276367e+00,1.083781957626342773e+00,1.083721995353698730e+00,1.083661913871765137e+00,1.083601951599121094e+00,1.083541870117187500e+00,1.083481907844543457e+00,1.083421945571899414e+00,1.083361864089965820e+00,1.083301901817321777e+00,1.083242058753967285e+00,1.083181977272033691e+00,1.083122014999389648e+00,1.083062052726745605e+00,1.083002209663391113e+00,1.082942247390747070e+00,1.082882285118103027e+00,1.082822322845458984e+00,1.082762479782104492e+00,1.082702517509460449e+00,1.082642555236816406e+00,1.082582712173461914e+00,1.082522869110107422e+00,1.082462906837463379e+00
1.021101593971252441e+00,1.021048188209533691e+00,1.020995020866394043e+00,1.020941734313964844e+00,1.020888447761535645e+00,1.020835161209106445e+00,1.020781874656677246e+00,1.020728707313537598e+00,1.020675420761108398e+00,1.020622134208679199e+00,1.020568966865539551e+00,1.020515680313110352e+00,1.020462512969970703e+00,1.020409345626831055e+00,1.020356059074401855e+00,1.020302891731262207e+00,1.020249605178833008e+00,1.020196437835693359e+00,1.020143270492553711e+00,1.020090103149414062e+00,1.020036935806274414e+00,1.019983768463134766e+00,1.019930601119995117e+00,1.019877433776855469e+00,1.019824266433715820e+00,1.019771218299865723e+00,1.019718050956726074e+00,1.019664883613586426e+00,1.019611716270446777e+00,1.019558668136596680e+00,1.019505500793457031e+00,1.019452333450317383e+00,1.019399285316467285e+00,1.019346117973327637e+00,1.019293069839477539e+00,1.019239902496337891e+00,1.019186854362487793e+00,1.019133806228637695e+00,1.019080758094787598e+00,1.019027709960937500e+00,1.018974542617797852e+00,1.018921494483947754e+00,1.018868446350097656e+00,1.018815398216247559e+00,1.018762350082397461e+00,1.018709301948547363e+00,1.018656253814697266e+00,1.018603205680847168e+00,1.018550276756286621e+00,1.018497228622436523e+00,1.018444180488586426e+00,1.018391251564025879e+00,1.018338203430175781e+00,1.018285274505615234e+00,1.018232226371765137e+00,1.018179178237915039e+00,1.018126249313354492e+00,1.018073320388793945e+00,1.018020272254943848e+00,1.017967343330383301e+00,1.017914414405822754e+00,1.017861485481262207e+00,1.017808556556701660e+00,1.017755627632141113e+00,1.017702579498291016e+00,1.017649769783020020e+00,1.017596840858459473e+00,1.017543911933898926e+00,1.017490983009338379e+00,1.017438054084777832e+00,1.017385125160217285e+00,1.017332196235656738e+00,1.017279386520385742e+00,1.017226457595825195e+00,1.017173528671264648e+00,1.017120718955993652e+00,1.017067790031433105e+00,1.017014980316162109e+00,1.016962170600891113e+00,1.016909241676330566e+00
9.625683426856994629e-01,9.625209569931030273e-01,9.624737501144409180e-01,9.624263644218444824e-01,9.623789787292480469e-01,9.623317122459411621e-01,9.622843265533447266e-01,9.622370004653930664e-01,9.621897339820861816e-01,9.621424078941345215e-01,9.620950818061828613e-01,9.620477557182312012e-01,9.620005488395690918e-01,9.619532227516174316e-01,9.619058966636657715e-01,9.618586897850036621e-01,9.618113636970520020e-01,9.617640376091003418e-01,9.617167711257934570e-01,9.616695642471313477e-01,9.616222977638244629e-01,9.615749716758728027e-01,9.615278244018554688e-01,9.614805579185485840e-01,9.614332914352416992e-01,9.613860249519348145e-01,9.613388180732727051e-01,9.612916111946105957e-01,9.612443447113037109e-01,9.611971974372863770e-01,9.611499309539794922e-01,9.611027240753173828e-01,9.610555768013000488e-01,9.610083699226379395e-01,9.609611034393310547e-01,9.609138965606689453e-01,9.608668088912963867e-01,9.608195424079895020e-01,9.607723355293273926e-01,9.607252478599548340e-01,9.606780409812927246e-01,9.606308937072753906e-01,9.605836868286132812e-01,9.605365991592407227e-01,9.604893922805786133e-01,9.604422450065612793e-01,9.603951573371887207e-01,9.603480100631713867e-01,9.603008627891540527e-01,9.602537751197814941e-01,9.602066278457641602e-01,9.601594805717468262e-01,9.601123332977294922e-01,9.600653052330017090e-01,9.600182175636291504e-01,9.599710702896118164e-01,9.599240422248840332e-01,9.598768949508666992e-01,9.598298072814941406e-01,9.597826600074768066e-01,9.597356915473937988e-01,9.596886038780212402e-01,9.596415162086486816e-01,9.595944881439208984e-01,9.595474004745483398e-01,9.595003128051757812e-01,9.594532251358032227e-01,9.594062566757202148e-01,9.593592286109924316e-01,9.593121409416198730e-01,9.592651724815368652e-01,9.592181444168090820e-01,9.591710567474365234e-01,9.591241478919982910e-01,9.590771198272705078e-01,9.590300321578979492e-01,9.589830040931701660e-01,9.589360952377319336e-01,9.588890671730041504e-01,9.588420391082763672e-01
9.103820323944091797e-01,9.103396534919738770e-01,9.102972745895385742e-01,9.102550148963928223e-01,9.102126359939575195e-01,9.101702570915222168e-01,9.101279377937316895e-01,9.100856781005859375e-01,9.100432991981506348e-01,9.100009202957153320e-01,9.099587202072143555e-01,9.099163413047790527e-01,9.098740220069885254e-01,9.098316431045532227e-01,9.097894430160522461e-01,9.097471237182617188e-01,9.097048044204711914e-01,9.096625447273254395e-01,9.096202254295349121e-01,9.095779657363891602e-01,9.095356464385986328e-01,9.094934463500976562e-01,9.094511270523071289e-01,9.094088077545166016e-01,9.093666076660156250e-01,9.093243479728698730e-01,9.092820286750793457e-01,9.092398881912231445e-01,9.091976284980773926e-01,9.091553092002868652e-01,9.091130495071411133e-01,9.090709090232849121e-01,9.090286493301391602e-01,9.089863896369934082e-01,9.089441895484924316e-01,9.089019894599914551e-01,9.088597297668457031e-01,9.088174700736999512e-01,9.087753295898437500e-01,9.087331295013427734e-01,9.086908698081970215e-01,9.086487293243408203e-01,9.086065292358398438e-01,9.085643291473388672e-01,9.085221886634826660e-01,9.084799885749816895e-01,9.084377884864807129e-01,9.083955883979797363e-01,9.083535075187683105e-01,9.083113074302673340e-01,9.082691073417663574e-01,9.082270264625549316e-01,9.081848263740539551e-01,9.081426262855529785e-01,9.081004858016967773e-01,9.080584049224853516e-01,9.080162048339843750e-01,9.079740643501281738e-01,9.079319834709167480e-01,9.078898429870605469e-01,9.078477025032043457e-01,9.078055620193481445e-01,9.077634811401367188e-01,9.077213406562805176e-01,9.076792597770690918e-01,9.076371788978576660e-01,9.075950980186462402e-01,9.075529575347900391e-01,9.075109362602233887e-01,9.074687957763671875e-01,9.074267148971557617e-01,9.073845744132995605e-01,9.073426127433776855e-01,9.073004722595214844e-01,9.072583913803100586e-01,9.072163701057434082e-01,9.071742892265319824e-01,9.071322083473205566e-01,9.070901274681091309e-01,9.070481657981872559e-01
8.635632991790771484e-01,8.635251522064208984e-01,8.634871244430541992e-01,8.634489774703979492e-01,8.634108304977416992e-01,8.633728027343750000e-01,8.633347153663635254e-01,8.632965683937072754e-01,8.632584810256958008e-01,8.632204532623291016e-01,8.631823658943176270e-01,8.631442189216613770e-01,8.631062507629394531e-01,8.630681633949279785e-01,8.630300164222717285e-01,8.629919290542602539e-01,8.629539608955383301e-01,8.629158735275268555e-01,8.628777861595153809e-01,8.628398180007934570e-01,8.628017306327819824e-01,8.627636432647705078e-01,8.627256751060485840e-01,8.626876473426818848e-01,8.626495599746704102e-01,8.626115322113037109e-01,8.625735640525817871e-01,8.625354766845703125e-01,8.624974489212036133e-01,8.624594807624816895e-01,8.624214529991149902e-01,8.623834252357482910e-01,8.623453974723815918e-01,8.623074293136596680e-01,8.622694015502929688e-01,8.622314333915710449e-01,8.621934652328491211e-01,8.621554374694824219e-01,8.621174693107604980e-01,8.620795011520385742e-01,8.620415329933166504e-01,8.620035052299499512e-01,8.619655370712280273e-01,8.619276285171508789e-01,8.618896007537841797e-01,8.618516325950622559e-01,8.618137240409851074e-01,8.617757558822631836e-01,8.617377877235412598e-01,8.616998195648193359e-01,8.616619110107421875e-01,8.616239428520202637e-01,8.615859746932983398e-01,8.615481257438659668e-01,8.615101575851440430e-01,8.614721894264221191e-01,8.614342212677001953e-01,8.613963723182678223e-01,8.613584637641906738e-01,8.613204956054687500e-01,8.612826466560363770e-01,8.612447381019592285e-01,8.612067699432373047e-01,8.611689209938049316e-01,8.611310124397277832e-01,8.610931038856506348e-01,8.610551953315734863e-01,8.610173463821411133e-01,8.609794378280639648e-01,8.609415292739868164e-01,8.609037399291992188e-01,8.608658313751220703e-01,8.608279228210449219e-01,8.607900142669677734e-01,8.607522249221801758e-01,8.607143163681030273e-01,8.606764674186706543e-01,8.606386780738830566e-01,8.606007695198059082e-01,8.605629205703735352e-01
8.213245868682861328e-01,8.212901353836059570e-01,8.212556242942810059e-01,8.212211132049560547e-01,8.211867213249206543e-01,8.211522102355957031e-01,8.211177587509155273e-01,8.210833668708801270e-01,8.210488557815551758e-01,8.210144042968750000e-01,8.209799528121948242e-01,8.209455609321594238e-01,8.209111094474792480e-01,8.208765983581542969e-01,8.208422660827636719e-01,8.208078145980834961e-01,8.207733631134033203e-01,8.207389712333679199e-01,8.207045197486877441e-01,8.206700682640075684e-01,8.206356167793273926e-01,8.206012845039367676e-01,8.205668330192565918e-01,8.205324411392211914e-01,8.204980492591857910e-01,8.204636573791503906e-01,8.204292058944702148e-01,8.203948140144348145e-01,8.203604817390441895e-01,8.203260302543640137e-01,8.202916383743286133e-01,8.202573060989379883e-01,8.202229142189025879e-01,8.201884627342224121e-01,8.201541900634765625e-01,8.201197385787963867e-01,8.200853466987609863e-01,8.200509548187255859e-01,8.200166821479797363e-01,8.199822902679443359e-01,8.199478983879089355e-01,8.199136257171630859e-01,8.198792338371276855e-01,8.198448419570922852e-01,8.198104500770568848e-01,8.197761774063110352e-01,8.197417855262756348e-01,8.197074532508850098e-01,8.196731805801391602e-01,8.196387887001037598e-01,8.196044564247131348e-01,8.195701837539672852e-01,8.195358514785766602e-01,8.195014595985412598e-01,8.194671273231506348e-01,8.194328546524047852e-01,8.193985223770141602e-01,8.193641901016235352e-01,8.193299770355224609e-01,8.192956447601318359e-01,8.192613124847412109e-01,8.192269802093505859e-01,8.191927075386047363e-01,8.191584348678588867e-01,8.191241025924682617e-01,8.190898895263671875e-01,8.190555572509765625e-01,8.190212249755859375e-01,8.189869523048400879e-01,8.189527392387390137e-01,8.189184069633483887e-01,8.188841342926025391e-01,8.188499212265014648e-01,8.188156485557556152e-01,8.187813162803649902e-01,8.187471628189086914e-01,8.187128305435180664e-01,8.186785578727722168e-01,8.186442852020263672e-01,8.186101317405700684e-01
