5.000000000000000000e+00,5.000000000000000000e+00,5.000000000000000000e+00,5.000000000000000000e+00,5.000000000000000000e+00,5.000000000000000000e+00,5.000000000000000000e+00,5.000000000000000000e+00,5.000000000000000000e+00,5.000000000000000000e+00,5.000000000000000000e+00,5.000000000000000000e+00,5.000000000000000000e+00,5.000000000000000000e+00,5.000000000000000000e+00,5.000000000000000000e+00,5.000000000000000000e+00,5.000000000000000000e+00,5.000000000000000000e+00,5.000000000000000000e+00,5.000000000000000000e+00,5.000000000000000000e+00,5.000000000000000000e+00,5.000000000000000000e+00,5.000000000000000000e+00,5.000000000000000000e+00,5.000000000000000000e+00,5.000000000000000000e+00,5.000000000000000000e+00,5.000000000000000000e+00,5.000000000000000000e+00,5.000000000000000000e+00,5.000000000000000000e+00,5.000000000000000000e+00,5.000000000000000000e+00,5.000000000000000000e+00,5.000000000000000000e+00,5.000000000000000000e+00,5.000000000000000000e+00,5.000000000000000000e+00,5.000000000000000000e+00,4.485410213470458984e+00,4.322447776794433594e+00,4.170911788940429688e+00,4.029641628265380859e+00,3.897627353668212891e+00,3.773988246917724609e+00,3.657952308654785156e+00,3.548838615417480469e+00,3.446046352386474609e+00,3.349040746688842773e+00,3.257347345352172852e+00,3.170540809631347656e+00,3.088240861892700195e+00,3.010105609893798828e+00,2.935826778411865234e+00,2.865125179290771484e+00,2.797748804092407227e+00,2.733468532562255859e+00,2.672075986862182617e+00,2.613380432128906250e+00,2.557208061218261719e+00,2.503399372100830078e+00,2.451808691024780273e+00,2.402301549911499023e+00,2.354754209518432617e+00,2.309052228927612305e+00,2.265090703964233398e+00,2.222771644592285156e+00,2.182005167007446289e+00,2.142706871032714844e+00,2.104799270629882812e+00,2.068209171295166016e+00,2.032870054244995117e+00,1.998718142509460449e+00,1.965694785118103027e+00,1.933744788169860840e+00,1.902816891670227051e+00,1.872862577438354492e+00,1.843836903572082520e+00
5.000000000000000000e+00,5.000000000000000000e+00,5.000000000000000000e+00,5.000000000000000000e+00,5.000000000000000000e+00,5.000000000000000000e+00,5.000000000000000000e+00,5.000000000000000000e+00,5.000000000000000000e+00,5.000000000000000000e+00,5.000000000000000000e+00,5.000000000000000000e+00,5.000000000000000000e+00,5.000000000000000000e+00,5.000000000000000000e+00,5.000000000000000000e+00,5.000000000000000000e+00,5.000000000000000000e+00,5.000000000000000000e+00,5.000000000000000000e+00,5.000000000000000000e+00,5.000000000000000000e+00,5.000000000000000000e+00,5.000000000000000000e+00,5.000000000000000000e+00,5.000000000000000000e+00,5.000000000000000000e+00,5.000000000000000000e+00,5.000000000000000000e+00,5.000000000000000000e+00,5.000000000000000000e+00,5.000000000000000000e+00,5.000000000000000000e+00,5.000000000000000000e+00,5.000000000000000000e+00,5.000000000000000000e+00,5.000000000000000000e+00,5.000000000000000000e+00,5.000000000000000000e+00,5.000000000000000000e+00,4.661268711090087891e+00,4.485527992248535156e+00,4.322557449340820312e+00,4.171014308929443359e+00,4.029736518859863281e+00,3.897716522216796875e+00,3.774071931838989258e+00,3.658030748367309570e+00,3.548913002014160156e+00,3.446115970611572266e+00,3.349106550216674805e+00,3.257409572601318359e+00,3.170599699020385742e+00,3.088296890258789062e+00,3.010159015655517578e+00,2.935877323150634766e+00,2.865173339843750000e+00,2.797794818878173828e+00,2.733512401580810547e+00,2.672117948532104492e+00,2.613420486450195312e+00,2.557246446609497070e+00,2.503436326980590820e+00,2.451843976974487305e+00,2.402335643768310547e+00,2.354786872863769531e+00,2.309083461761474609e+00,2.265120744705200195e+00,2.222800731658935547e+00,2.182033061981201172e+00,2.142733812332153320e+00,2.104825258255004883e+00,2.068234443664550781e+00,2.032894372940063477e+00,1.998741388320922852e+00,1.965717554092407227e+00,1.933766841888427734e+00,1.902838230133056641e+00,1.872883319854736328e+00,1.843856930732727051e+00
5.000000000000000000e+00,5.000000000000000000e+00,5.000000000000000000e+00,5.000000000000000000e+00,5.000000000000000000e+00,5.000000000000000000e+00,5.000000000000000000e+00,5.000000000000000000e+00,5.000000000000000000e+00,5.000000000000000000e+00,5.000000000000000000e+00,5.000000000000000000e+00,5.000000000000000000e+00,5.000000000000000000e+00,5.000000000000000000e+00,5.000000000000000000e+00,5.000000000000000000e+00,5.000000000000000000e+00,5.000000000000000000e+00,5.000000000000000000e+00,5.000000000000000000e+00,5.000000000000000000e+00,5.000000000000000000e+00,5.000000000000000000e+00,5.000000000000000000e+00,5.000000000000000000e+00,5.000000000000000000e+00,5.000000000000000000e+00,5.000000000000000000e+00,5.000000000000000000e+00,5.000000000000000000e+00,5.000000000000000000e+00,5.000000000000000000e+00,5.000000000000000000e+00,5.000000000000000000e+00,5.000000000000000000e+00,5.000000000000000000e+00,5.000000000000000000e+00,5.000000000000000000e+00,4.851480007171630859e+00,4.661396503448486328e+00,4.485646247863769531e+00,4.322667598724365234e+00,4.171116352081298828e+00,4.029832363128662109e+00,3.897805690765380859e+00,3.774155616760253906e+00,3.658109664916992188e+00,3.548986911773681641e+00,3.446185827255249023e+00,3.349172592163085938e+00,3.257471799850463867e+00,3.170659065246582031e+00,3.088353157043457031e+00,3.010212182998657227e+00,2.935927867889404297e+00,2.865221500396728516e+00,2.797840833663940430e+00,2.733556509017944336e+00,2.672159910202026367e+00,2.613460540771484375e+00,2.557284832000732422e+00,2.503473043441772461e+00,2.451879501342773438e+00,2.402369499206542969e+00,2.354819297790527344e+00,2.309114933013916016e+00,2.265151023864746094e+00,2.222829818725585938e+00,2.182061195373535156e+00,2.142760753631591797e+00,2.104851245880126953e+00,2.068259477615356445e+00,2.032918453216552734e+00,1.998764991760253906e+00,1.965740084648132324e+00,1.933788657188415527e+00,1.902859330177307129e+00,1.872903823852539062e+00,1.843877077102661133e+00
5.000000000000000000e+00,5.000000000000000000e+00,5.000000000000000000e+00,5.000000000000000000e+00,5.000000000000000000e+00,5.000000000000000000e+00,5.000000000000000000e+00,5.000000000000000000e+00,5.000000000000000000e+00,5.000000000000000000e+00,5.000000000000000000e+00,5.000000000000000000e+00,5.000000000000000000e+00,5.000000000000000000e+00,5.000000000000000000e+00,5.000000000000000000e+00,5.000000000000000000e+00,5.000000000000000000e+00,5.000000000000000000e+00,5.000000000000000000e+00,5.000000000000000000e+00,5.000000000000000000e+00,5.000000000000000000e+00,5.000000000000000000e+00,5.000000000000000000e+00,5.000000000000000000e+00,5.000000000000000000e+00,5.000000000000000000e+00,5.000000000000000000e+00,5.000000000000000000e+00,5.000000000000000000e+00,5.000000000000000000e+00,5.000000000000000000e+00,5.000000000000000000e+00,5.000000000000000000e+00,5.000000000000000000e+00,5.000000000000000000e+00,5.000000000000000000e+00,5.000000000000000000e+00,4.851618289947509766e+00,4.661523818969726562e+00,4.485764503479003906e+00,4.322777271270751953e+00,4.171218872070312500e+00,4.029927730560302734e+00,3.897894859313964844e+00,3.774239540100097656e+00,3.658188343048095703e+00,3.549060821533203125e+00,3.446255445480346680e+00,3.349238395690917969e+00,3.257534503936767578e+00,3.170718193054199219e+00,3.088409185409545898e+00,3.010265350341796875e+00,2.935978651046752930e+00,2.865269660949707031e+00,2.797887086868286133e+00,2.733600378036499023e+00,2.672201871871948242e+00,2.613500833511352539e+00,2.557323217391967773e+00,2.503509998321533203e+00,2.451914787292480469e+00,2.402403354644775391e+00,2.354851961135864258e+00,2.309146165847778320e+00,2.265181303024291992e+00,2.222858905792236328e+00,2.182089090347290039e+00,2.142787694931030273e+00,2.104877233505249023e+00,2.068284511566162109e+00,2.032943010330200195e+00,1.998788595199584961e+00,1.965762972831726074e+00,1.933810710906982422e+00,1.902880787849426270e+00,1.872924566268920898e+00,1.843896865844726562e+00
5.000000000000000000e+00,5.000000000000000000e+00,5.000000000000000000e+00,5.000000000000000000e+00,5.000000000000000000e+00,5.000000000000000000e+00,5.000000000000000000e+00,5.000000000000000000e+00,5.000000000000000000e+00,5.000000000000000000e+00,5.000000000000000000e+00,5.000000000000000000e+00,5.000000000000000000e+00,5.000000000000000000e+00,5.000000000000000000e+00,5.000000000000000000e+00,5.000000000000000000e+00,5.000000000000000000e+00,5.000000000000000000e+00,5.000000000000000000e+00,5.000000000000000000e+00,5.000000000000000000e+00,5.000000000000000000e+00,5.000000000000000000e+00,5.000000000000000000e+00,5.000000000000000000e+00,5.000000000000000000e+00,5.000000000000000000e+00,5.000000000000000000e+00,5.000000000000000000e+00,5.000000000000000000e+00,5.000000000000000000e+00,5.000000000000000000e+00,5.000000000000000000e+00,5.000000000000000000e+00,5.000000000000000000e+00,5.000000000000000000e+00,5.000000000000000000e+00,5.000000000000000000e+00,4.851756572723388672e+00,4.661651611328125000e+00,4.485882759094238281e+00,4.322886943817138672e+00,4.171320915222167969e+00,4.030023097991943359e+00,3.897984504699707031e+00,3.774323225021362305e+00,3.658266782760620117e+00,3.549134731292724609e+00,3.446325302124023438e+00,3.349304437637329102e+00,3.257596731185913086e+00,3.170777082443237305e+00,3.088465213775634766e+00,3.010318517684936523e+00,2.936029195785522461e+00,2.865318298339843750e+00,2.797933101654052734e+00,2.733644247055053711e+00,2.672243833541870117e+00,2.613540887832641602e+00,2.557361841201782227e+00,2.503546714782714844e+00,2.451950073242187500e+00,2.402437210083007812e+00,2.354884386062622070e+00,2.309177637100219727e+00,2.265211343765258789e+00,2.222887754440307617e+00,2.182116985321044922e+00,2.142814874649047852e+00,2.104903221130371094e+00,2.068309783935546875e+00,2.032967329025268555e+00,1.998811960220336914e+00,1.965785503387451172e+00,1.933832645416259766e+00,1.902902126312255859e+00,1.872945189476013184e+00,1.843916893005371094e+00
5.000000000000000000e+00,5.000000000000000000e+00,5.000000000000000000e+00,5.000000000000000000e+00,5.000000000000000000e+00,5.000000000000000000e+00,5.000000000000000000e+00,5.000000000000000000e+00,5.000000000000000000e+00,5.000000000000000000e+00,5.000000000000000000e+00,5.000000000000000000e+00,5.000000000000000000e+00,5.000000000000000000e+00,5.000000000000000000e+00,5.000000000000000000e+00,5.000000000000000000e+00,5.000000000000000000e+00,5.000000000000000000e+00,5.000000000000000000e+00,5.000000000000000000e+00,5.000000000000000000e+00,5.000000000000000000e+00,5.000000000000000000e+00,5.000000000000000000e+00,5.000000000000000000e+00,5.000000000000000000e+00,5.000000000000000000e+00,5.000000000000000000e+00,5.000000000000000000e+00,5.000000000000000000e+00,5.000000000000000000e+00,5.000000000000000000e+00,5.000000000000000000e+00,5.000000000000000000e+00,5.000000000000000000e+00,5.000000000000000000e+00,5.000000000000000000e+00,5.000000000000000000e+00,4.851894855499267578e+00,4.661779403686523438e+00,4.486001491546630859e+00,4.322996616363525391e+00,4.171423435211181641e+00,4.030118465423583984e+00,3.898073911666870117e+00,3.774406909942626953e+00,3.658345460891723633e+00,3.549208641052246094e+00,3.446395158767700195e+00,3.349370479583740234e+00,3.257659196853637695e+00,3.170836210250854492e+00,3.088521242141723633e+00,3.010372161865234375e+00,2.936079978942871094e+00,2.865366458892822266e+00,2.797978878021240234e+00,2.733688116073608398e+00,2.672285795211791992e+00,2.613581180572509766e+00,2.557400226593017578e+00,2.503583669662475586e+00,2.451985359191894531e+00,2.402471065521240234e+00,2.354917287826538086e+00,2.309208869934082031e+00,2.265241384506225586e+00,2.222916841506958008e+00,2.182144880294799805e+00,2.142841815948486328e+00,2.104929447174072266e+00,2.068335056304931641e+00,2.032991409301757812e+00,1.998835444450378418e+00,1.965808272361755371e+00,1.933854699134826660e+00,1.902923226356506348e+00,1.872965693473815918e+00,1.843936800956726074e+00
5.000000000000000000e+00,5.000000000000000000e+00,5.000000000000000000e+00,5.000000000000000000e+00,5.000000000000000000e+00,5.000000000000000000e+00,5.000000000000000000e+00,5.000000000000000000e+00,5.000000000000000000e+00,5.000000000000000000e+00,5.000000000000000000e+00,5.000000000000000000e+00,5.000000000000000000e+00,5.000000000000000000e+00,5.000000000000000000e+00,5.000000000000000000e+00,5.000000000000000000e+00,5.000000000000000000e+00,5.000000000000000000e+00,5.000000000000000000e+00,5.000000000000000000e+00,5.000000000000000000e+00,5.000000000000000000e+00,5.000000000000000000e+00,5.000000000000000000e+00,5.000000000000000000e+00,5.000000000000000000e+00,5.000000000000000000e+00,5.000000000000000000e+00,5.000000000000000000e+00,5.000000000000000000e+00,5.000000000000000000e+00,5.000000000000000000e+00,5.000000000000000000e+00,5.000000000000000000e+00,5.000000000000000000e+00,5.000000000000000000e+00,5.000000000000000000e+00,5.000000000000000000e+00,4.852033138275146484e+00,4.661907196044921875e+00,4.486119270324707031e+00,4.323106765747070312e+00,4.171525478363037109e+00,4.030213832855224609e+00,3.898163080215454102e+00,3.774490356445312500e+00,3.658424139022827148e+00,3.549283027648925781e+00,3.446465015411376953e+00,3.349436283111572266e+00,3.257721424102783203e+00,3.170895099639892578e+00,3.088577508926391602e+00,3.010425329208374023e+00,2.936130762100219727e+00,2.865414619445800781e+00,2.798024892807006836e+00,2.733731985092163086e+00,2.672327756881713867e+00,2.613621234893798828e+00,2.557438611984252930e+00,2.503620386123657227e+00,2.452020645141601562e+00,2.402505159378051758e+00,2.354949712753295898e+00,2.309240341186523438e+00,2.265271663665771484e+00,2.222945928573608398e+00,2.182173013687133789e+00,2.142868757247924805e+00,2.104955434799194336e+00,2.068360090255737305e+00,2.033015727996826172e+00,1.998858809471130371e+00,1.965831041336059570e+00,1.933876752853393555e+00,1.902944564819335938e+00,1.872986435890197754e+00,1.843956828117370605e+00
5.000000000000000000e+00,5.000000000000000000e+00,5.000000000000000000e+00,5.000000000000000000e+00,5.000000000000000000e+00,5.000000000000000000e+00,5.000000000000000000e+00,5.000000000000000000e+00,5.000000000000000000e+00,5.000000000000000000e+00,5.000000000000000000e+00,5.000000000000000000e+00,5.000000000000000000e+00,5.000000000000000000e+00,5.000000000000000000e+00,5.000000000000000000e+00,5.000000000000000000e+00,5.000000000000000000e+00,5.000000000000000000e+00,5.000000000000000000e+00,5.000000000000000000e+00,5.000000000000000000e+00,5.000000000000000000e+00,5.000000000000000000e+00,5.000000000000000000e+00,5.000000000000000000e+00,5.000000000000000000e+00,5.000000000000000000e+00,5.000000000000000000e+00,5.000000000000000000e+00,5.000000000000000000e+00,5.000000000000000000e+00,5.000000000000000000e+00,5.000000000000000000e+00,5.000000000000000000e+00,5.000000000000000000e+00,5.000000000000000000e+00,5.000000000000000000e+00,5.000000000000000000e+00,4.852171897888183594e+00,4.662034988403320312e+00,4.486237525939941406e+00,4.323216438293457031e+00,4.171627998352050781e+00,4.030309677124023438e+00,3.898252248764038086e+00,3.774574041366577148e+00,3.658503055572509766e+00,3.549356937408447266e+00,3.446534633636474609e+00,3.349502086639404297e+00,3.257783651351928711e+00,3.170954465866088867e+00,3.088633537292480469e+00,3.010478496551513672e+00,2.936181306838989258e+00,2.865462779998779297e+00,2.798070907592773438e+00,2.733776092529296875e+00,2.672369718551635742e+00,2.613661289215087891e+00,2.557476997375488281e+00,2.503657102584838867e+00,2.452056169509887695e+00,2.402539014816284180e+00,2.354982376098632812e+00,2.309271574020385742e+00,2.265301704406738281e+00,2.222975015640258789e+00,2.182201147079467773e+00,2.142895698547363281e+00,2.104981422424316406e+00,2.068385124206542969e+00,2.033040046691894531e+00,1.998882412910461426e+00,1.965853691101074219e+00,1.933898568153381348e+00,1.902965784072875977e+00,1.873006939888000488e+00,1.843976974487304688e+00
5.000000000000000000e+00,5.000000000000000000e+00,5.000000000000000000e+00,5.000000000000000000e+00,5.000000000000000000e+00,5.000000000000000000e+00,5.000000000000000000e+00,5.000000000000000000e+00,5.000000000000000000e+00,5.000000000000000000e+00,5.000000000000000000e+00,5.000000000000000000e+00,5.000000000000000000e+00,5.000000000000000000e+00,5.000000000000000000e+00,5.000000000000000000e+00,5.000000000000000000e+00,5.000000000000000000e+00,5.000000000000000000e+00,5.000000000000000000e+00,5.000000000000000000e+00,5.000000000000000000e+00,5.000000000000000000e+00,5.000000000000000000e+00,5.000000000000000000e+00,5.000000000000000000e+00,5.000000000000000000e+00,5.000000000000000000e+00,5.000000000000000000e+00,5.000000000000000000e+00,5.000000000000000000e+00,5.000000000000000000e+00,5.000000000000000000e+00,5.000000000000000000e+00,5.000000000000000000e+00,5.000000000000000000e+00,5.000000000000000000e+00,5.000000000000000000e+00,5.000000000000000000e+00,4.852310180664062500e+00,4.662162303924560547e+00,4.486356258392333984e+00,4.323326110839843750e+00,4.171730041503906250e+00,4.030405044555664062e+00,3.898341417312622070e+00,3.774658203125000000e+00,3.658581495285034180e+00,3.549431085586547852e+00,3.446604490280151367e+00,3.349568128585815430e+00,3.257846355438232422e+00,3.171013593673706055e+00,3.088689327239990234e+00,3.010531663894653320e+00,2.936231851577758789e+00,2.865510940551757812e+00,2.798117160797119141e+00,2.733819961547851562e+00,2.672411680221557617e+00,2.613701581954956055e+00,2.557515382766723633e+00,2.503694295883178711e+00,2.452091455459594727e+00,2.402572870254516602e+00,2.355014801025390625e+00,2.309302806854248047e+00,2.265331983566284180e+00,2.223004102706909180e+00,2.182229042053222656e+00,2.142922639846801758e+00,2.105007410049438477e+00,2.068410396575927734e+00,2.033064365386962891e+00,1.998906016349792480e+00,1.965876460075378418e+00,1.933920621871948242e+00,1.902987122535705566e+00,1.873027563095092773e+00,1.843996763229370117e+00
5.000000000000000000e+00,5.000000000000000000e+00,5.000000000000000000e+00,5.000000000000000000e+00,5.000000000000000000e+00,5.000000000000000000e+00,5.000000000000000000e+00,5.000000000000000000e+00,5.000000000000000000e+00,5.000000000000000000e+00,5.000000000000000000e+00,5.000000000000000000e+00,5.000000000000000000e+00,5.000000000000000000e+00,5.000000000000000000e+00,5.000000000000000000e+00,5.000000000000000000e+00,5.000000000000000000e+00,5.000000000000000000e+00,5.000000000000000000e+00,5.000000000000000000e+00,5.000000000000000000e+00,5.000000000000000000e+00,5.000000000000000000e+00,5.000000000000000000e+00,5.000000000000000000e+00,5.000000000000000000e+00,5.000000000000000000e+00,5.000000000000000000e+00,5.000000000000000000e+00,5.000000000000000000e+00,5.000000000000000000e+00,5.000000000000000000e+00,5.000000000000000000e+00,5.000000000000000000e+00,5.000000000000000000e+00,5.000000000000000000e+00,5.000000000000000000e+00,5.000000000000000000e+00,4.852448463439941406e+00,4.662290573120117188e+00,4.486474037170410156e+00,4.323436260223388672e+00,4.171832561492919922e+00,4.030500411987304688e+00,3.898431062698364258e+00,3.774741888046264648e+00,3.658660173416137695e+00,3.549504995346069336e+00,3.446674346923828125e+00,3.349634170532226562e+00,3.257908582687377930e+00,3.171072483062744141e+00,3.088745355606079102e+00,3.010584831237792969e+00,2.936282873153686523e+00,2.865559577941894531e+00,2.798163175582885742e+00,2.733863830566406250e+00,2.672453641891479492e+00,2.613741636276245117e+00,2.557554006576538086e+00,2.503731012344360352e+00,2.452126741409301758e+00,2.402606725692749023e+00,2.355047464370727539e+00,2.309334278106689453e+00,2.265362024307250977e+00,2.223033189773559570e+00,2.182256937026977539e+00,2.142949819564819336e+00,2.105033636093139648e+00,2.068435668945312500e+00,2.033088684082031250e+00,1.998929381370544434e+00,1.965899109840393066e+00,1.933942437171936035e+00,1.903008460998535156e+00,1.873048305511474609e+00,1.844016909599304199e+00
5.000000000000000000e+00,5.000000000000000000e+00,5.000000000000000000e+00,5.000000000000000000e+00,5.000000000000000000e+00,5.000000000000000000e+00,5.000000000000000000e+00,5.000000000000000000e+00,5.000000000000000000e+00,5.000000000000000000e+00,5.000000000000000000e+00,5.000000000000000000e+00,5.000000000000000000e+00,5.000000000000000000e+00,5.000000000000000000e+00,5.000000000000000000e+00,5.000000000000000000e+00,5.000000000000000000e+00,5.000000000000000000e+00,5.000000000000000000e+00,5.000000000000000000e+00,5.000000000000000000e+00,5.000000000000000000e+00,5.000000000000000000e+00,5.000000000000000000e+00,5.000000000000000000e+00,5.000000000000000000e+00,5.000000000000000000e+00,5.000000000000000000e+00,5.000000000000000000e+00,5.000000000000000000e+00,5.000000000000000000e+00,5.000000000000000000e+00,5.000000000000000000e+00,5.000000000000000000e+00,5.000000000000000000e+00,5.000000000000000000e+00,5.000000000000000000e+00,5.000000000000000000e+00,4.852586746215820312e+00,4.662417888641357422e+00,4.486592769622802734e+00,4.323545932769775391e+00,4.171934604644775391e+00,4.030595779418945312e+00,3.898520469665527344e+00,3.774825572967529297e+00,3.658738851547241211e+00,3.549578905105590820e+00,3.446744441986083984e+00,3.349699974060058594e+00,3.257971048355102539e+00,3.171131610870361328e+00,3.088801383972167969e+00,3.010638475418090820e+00,2.936333417892456055e+00,2.865607738494873047e+00,2.798208951950073242e+00,2.733907938003540039e+00,2.672495603561401367e+00,2.613781929016113281e+00,2.557592391967773438e+00,2.503767728805541992e+00,2.452162027359008789e+00,2.402640581130981445e+00,2.355080127716064453e+00,2.309365749359130859e+00,2.265392303466796875e+00,2.223062038421630859e+00,2.182284832000732422e+00,2.142976760864257812e+00,2.105059623718261719e+00,2.068460702896118164e+00,2.033113002777099609e+00,1.998952865600585938e+00,1.965921878814697266e+00,1.933964610099792480e+00,1.903029680252075195e+00,1.873068809509277344e+00,1.844036698341369629e+00
5.000000000000000000e+00,5.000000000000000000e+00,5.000000000000000000e+00,5.000000000000000000e+00,5.000000000000000000e+00,5.000000000000000000e+00,5.000000000000000000e+00,5.000000000000000000e+00,5.000000000000000000e+00,5.000000000000000000e+00,5.000000000000000000e+00,5.000000000000000000e+00,5.000000000000000000e+00,5.000000000000000000e+00,5.000000000000000000e+00,5.000000000000000000e+00,5.000000000000000000e+00,5.000000000000000000e+00,5.000000000000000000e+00,5.000000000000000000e+00,5.000000000000000000e+00,5.000000000000000000e+00,5.000000000000000000e+00,5.000000000000000000e+00,4.486096382141113281e+00,4.505498886108398438e+00,5.000000000000000000e+00,5.000000000000000000e+00,5.000000000000000000e+00,5.000000000000000000e+00,5.000000000000000000e+00,5.000000000000000000e+00,5.000000000000000000e+00,5.000000000000000000e+00,5.000000000000000000e+00,5.000000000000000000e+00,5.000000000000000000e+00,5.000000000000000000e+00,5.000000000000000000e+00,4.852725028991699219e+00,4.662546157836914062e+00,4.486711025238037109e+00,4.323655605316162109e+00,4.172037124633789062e+00,4.030691146850585938e+00,3.898609638214111328e+00,3.774909257888793945e+00,3.658817291259765625e+00,3.549653291702270508e+00,3.446814060211181641e+00,3.349766016006469727e+00,3.258033275604248047e+00,3.171190738677978516e+00,3.088857650756835938e+00,3.010691642761230469e+00,2.936383962631225586e+00,2.865655899047851562e+00,2.798254966735839844e+00,2.733951807022094727e+00,2.672537803649902344e+00,2.613821983337402344e+00,2.557630777359008789e+00,2.503804683685302734e+00,2.452197313308715820e+00,2.402674674987792969e+00,2.355112791061401367e+00,2.309396982192993164e+00,2.265422344207763672e+00,2.223091125488281250e+00,2.182312965393066406e+00,2.143003702163696289e+00,2.105085611343383789e+00,2.068485736846923828e+00,2.033137321472167969e+00,1.998976230621337891e+00,1.965944647789001465e+00,1.933986663818359375e+00,1.903051018714904785e+00,1.873089432716369629e+00,1.844056725502014160e+00
5.000000000000000000e+00,5.000000000000000000e+00,5.000000000000000000e+00,5.000000000000000000e+00,5.000000000000000000e+00,5.000000000000000000e+00,5.000000000000000000e+00,5.000000000000000000e+00,5.000000000000000000e+00,5.000000000000000000e+00,5.000000000000000000e+00,5.000000000000000000e+00,5.000000000000000000e+00,5.000000000000000000e+00,5.000000000000000000e+00,5.000000000000000000e+00,5.000000000000000000e+00,5.000000000000000000e+00,5.000000000000000000e+00,5.000000000000000000e+00,5.000000000000000000e+00,5.000000000000000000e+00,5.000000000000000000e+00,5.000000000000000000e+00,4.498699665069580078e+00,4.511780738830566406e+00,5.000000000000000000e+00,5.000000000000000000e+00,5.000000000000000000e+00,5.000000000000000000e+00,5.000000000000000000e+00,5.000000000000000000e+00,5.000000000000000000e+00,5.000000000000000000e+00,5.000000000000000000e+00,5.000000000000000000e+00,5.000000000000000000e+00,5.000000000000000000e+00,5.000000000000000000e+00,4.852863788604736328e+00,4.662673473358154297e+00,4.486829280853271484e+00,4.323765754699707031e+00,4.172139167785644531e+00,4.030786991119384766e+00,3.898698806762695312e+00,3.774992942810058594e+00,3.658896446228027344e+00,3.549727201461791992e+00,3.446883916854858398e+00,3.349831819534301758e+00,3.258095502853393555e+00,3.171250104904174805e+00,3.088913679122924805e+00,3.010744810104370117e+00,2.936434507369995117e+00,2.865704059600830078e+00,2.798301219940185547e+00,2.733995914459228516e+00,2.672579765319824219e+00,2.613862037658691406e+00,2.557669162750244141e+00,2.503841400146484375e+00,2.452232837677001953e+00,2.402708530426025391e+00,2.355145215988159180e+00,2.309428215026855469e+00,2.265452623367309570e+00,2.223120212554931641e+00,2.182340860366821289e+00,2.143030643463134766e+00,2.105111598968505859e+00,2.068511009216308594e+00,2.033161640167236328e+00,1.998999834060668945e+00,1.965967178344726562e+00,1.934008479118347168e+00,1.903072237968444824e+00,1.873109936714172363e+00,1.844076871871948242e+00
5.000000000000000000e+00,5.000000000000000000e+00,5.000000000000000000e+00,5.000000000000000000e+00,5.000000000000000000e+00,5.000000000000000000e+00,5.000000000000000000e+00,5.000000000000000000e+00,5.000000000000000000e+00,5.000000000000000000e+00,5.000000000000000000e+00,5.000000000000000000e+00,5.000000000000000000e+00,5.000000000000000000e+00,5.000000000000000000e+00,5.000000000000000000e+00,5.000000000000000000e+00,5.000000000000000000e+00,5.000000000000000000e+00,5.000000000000000000e+00,5.000000000000000000e+00,5.000000000000000000e+00,5.000000000000000000e+00,5.000000000000000000e+00,4.588642120361328125e+00,4.578205585479736328e+00,5.000000000000000000e+00,5.000000000000000000e+00,5.000000000000000000e+00,5.000000000000000000e+00,5.000000000000000000e+00,5.000000000000000000e+00,5.000000000000000000e+00,5.000000000000000000e+00,5.000000000000000000e+00,5.000000000000000000e+00,5.000000000000000000e+00,5.000000000000000000e+00,5.000000000000000000e+00,4.853002071380615234e+00,4.662801742553710938e+00,4.486947536468505859e+00,4.323875427246093750e+00,4.172241687774658203e+00,4.030882358551025391e+00,3.898787975311279297e+00,3.775076866149902344e+00,3.658974885940551758e+00,3.549801349639892578e+00,3.446953535079956055e+00,3.349897623062133789e+00,3.258158206939697266e+00,3.171308994293212891e+00,3.088969707489013672e+00,3.010797977447509766e+00,2.936485290527343750e+00,2.865752696990966797e+00,2.798347234725952148e+00,2.734039783477783203e+00,2.672621488571166992e+00,2.613902330398559570e+00,2.557707548141479492e+00,2.503878355026245117e+00,2.452268123626708984e+00,2.402742624282836914e+00,2.355177879333496094e+00,2.309459686279296875e+00,2.265482902526855469e+00,2.223149299621582031e+00,2.182368993759155273e+00,2.143057584762573242e+00,2.105137586593627930e+00,2.068536281585693359e+00,2.033185958862304688e+00,1.999023437500000000e+00,1.965990066528320312e+00,1.934030532836914062e+00,1.903093576431274414e+00,1.873130679130554199e+00,1.844096660614013672e+00
5.000000000000000000e+00,5.000000000000000000e+00,5.000000000000000000e+00,5.000000000000000000e+00,5.000000000000000000e+00,5.000000000000000000e+00,5.000000000000000000e+00,5.000000000000000000e+00,5.000000000000000000e+00,5.000000000000000000e+00,5.000000000000000000e+00,5.000000000000000000e+00,5.000000000000000000e+00,5.000000000000000000e+00,5.000000000000000000e+00,5.000000000000000000e+00,5.000000000000000000e+00,5.000000000000000000e+00,5.000000000000000000e+00,5.000000000000000000e+00,5.000000000000000000e+00,5.000000000000000000e+00,4.496373176574707031e+00,4.514435291290283203e+00,4.506299972534179688e+00,4.505703926086425781e+00,4.584223747253417969e+00,4.606875896453857422e+00,5.000000000000000000e+00,5.000000000000000000e+00,5.000000000000000000e+00,5.000000000000000000e+00,5.000000000000000000e+00,5.000000000000000000e+00,5.000000000000000000e+00,5.000000000000000000e+00,5.000000000000000000e+00,5.000000000000000000e+00,5.000000000000000000e+00,4.853140830993652344e+00,4.662929058074951172e+00,4.487065792083740234e+00,4.323985576629638672e+00,4.172343730926513672e+00,4.030977725982666016e+00,3.898877859115600586e+00,3.775160551071166992e+00,3.659053564071655273e+00,3.549875259399414062e+00,3.447023391723632812e+00,3.349963903427124023e+00,3.258220672607421875e+00,3.171368122100830078e+00,3.089025735855102539e+00,3.010851383209228516e+00,2.936536073684692383e+00,2.865800857543945312e+00,2.798393249511718750e+00,2.734083652496337891e+00,2.672663450241088867e+00,2.613942384719848633e+00,2.557746171951293945e+00,2.503915309906005859e+00,2.452303409576416016e+00,2.402776479721069336e+00,2.355210304260253906e+00,2.309491157531738281e+00,2.265512704849243164e+00,2.223178386688232422e+00,2.182396888732910156e+00,2.143084764480590820e+00,2.105163812637329102e+00,2.068561315536499023e+00,2.033210039138793945e+00,1.999046802520751953e+00,1.966012597084045410e+00,1.934052348136901855e+00,1.903114914894104004e+00,1.873151421546936035e+00,1.844116806983947754e+00
5.000000000000000000e+00,5.000000000000000000e+00,5.000000000000000000e+00,5.000000000000000000e+00,5.000000000000000000e+00,5.000000000000000000e+00,5.000000000000000000e+00,5.000000000000000000e+00,5.000000000000000000e+00,5.000000000000000000e+00,5.000000000000000000e+00,5.000000000000000000e+00,5.000000000000000000e+00,5.000000000000000000e+00,5.000000000000000000e+00,5.000000000000000000e+00,5.000000000000000000e+00,5.000000000000000000e+00,5.000000000000000000e+00,5.000000000000000000e+00,5.000000000000000000e+00,5.000000000000000000e+00,4.502024650573730469e+00,4.460295200347900391e+00,4.455247402191162109e+00,4.475542068481445312e+00,4.521504878997802734e+00,4.624401569366455078e+00,5.000000000000000000e+00,5.000000000000000000e+00,5.000000000000000000e+00,5.000000000000000000e+00,5.000000000000000000e+00,5.000000000000000000e+00,5.000000000000000000e+00,5.000000000000000000e+00,5.000000000000000000e+00,5.000000000000000000e+00,5.000000000000000000e+00,4.853279113769531250e+00,4.663056850433349609e+00,4.487184047698974609e+00,4.324095249176025391e+00,4.172446250915527344e+00,4.031073570251464844e+00,3.898967027664184570e+00,3.775244235992431641e+00,3.659132242202758789e+00,3.549949169158935547e+00,3.447093486785888672e+00,3.350029945373535156e+00,3.258282899856567383e+00,3.171427249908447266e+00,3.089081764221191406e+00,3.010904788970947266e+00,2.936586856842041016e+00,2.865849018096923828e+00,2.798439025878906250e+00,2.734127521514892578e+00,2.672705411911010742e+00,2.613982677459716797e+00,2.557784557342529297e+00,2.503952026367187500e+00,2.452338695526123047e+00,2.402810335159301758e+00,2.355243206024169922e+00,2.309522390365600586e+00,2.265542984008789062e+00,2.223207235336303711e+00,2.182424783706665039e+00,2.143111705780029297e+00,2.105189800262451172e+00,2.068586349487304688e+00,2.033234357833862305e+00,1.999070286750793457e+00,1.966035485267639160e+00,1.934074521064758301e+00,1.903136134147644043e+00,1.873171925544738770e+00,1.844136595726013184e+00
5.000000000000000000e+00,5.000000000000000000e+00,5.000000000000000000e+00,5.000000000000000000e+00,5.000000000000000000e+00,5.000000000000000000e+00,5.000000000000000000e+00,5.000000000000000000e+00,5.000000000000000000e+00,5.000000000000000000e+00,5.000000000000000000e+00,5.000000000000000000e+00,5.000000000000000000e+00,5.000000000000000000e+00,5.000000000000000000e+00,5.000000000000000000e+00,5.000000000000000000e+00,5.000000000000000000e+00,5.000000000000000000e+00,5.000000000000000000e+00,5.000000000000000000e+00,5.000000000000000000e+00,4.501345157623291016e+00,4.471439838409423828e+00,4.452159881591796875e+00,4.471282005310058594e+00,4.529297828674316406e+00,4.629037380218505859e+00,5.000000000000000000e+00,5.000000000000000000e+00,5.000000000000000000e+00,5.000000000000000000e+00,5.000000000000000000e+00,5.000000000000000000e+00,5.000000000000000000e+00,5.000000000000000000e+00,5.000000000000000000e+00,5.000000000000000000e+00,5.000000000000000000e+00,4.853417396545410156e+00,4.663185119628906250e+00,4.487302303314208984e+00,4.324205398559570312e+00,4.172548770904541016e+00,4.031168937683105469e+00,3.899056196212768555e+00,3.775327920913696289e+00,3.659210681915283203e+00,3.550023555755615234e+00,3.447163343429565430e+00,3.350095748901367188e+00,3.258345127105712891e+00,3.171486139297485352e+00,3.089138031005859375e+00,3.010957956314086914e+00,2.936637401580810547e+00,2.865897178649902344e+00,2.798485040664672852e+00,2.734171628952026367e+00,2.672747611999511719e+00,2.614022731781005859e+00,2.557822942733764648e+00,2.503988742828369141e+00,2.452374219894409180e+00,2.402844429016113281e+00,2.355275630950927734e+00,2.309553623199462891e+00,2.265573024749755859e+00,2.223236322402954102e+00,2.182452917098999023e+00,2.143138647079467773e+00,2.105215787887573242e+00,2.068611621856689453e+00,2.033258676528930664e+00,1.999093890190124512e+00,1.966058254241943359e+00,1.934096574783325195e+00,1.903157472610473633e+00,1.873192548751831055e+00,1.844156742095947266e+00
5.000000000000000000e+00,5.000000000000000000e+00,5.000000000000000000e+00,5.000000000000000000e+00,5.000000000000000000e+00,5.000000000000000000e+00,5.000000000000000000e+00,5.000000000000000000e+00,5.000000000000000000e+00,5.000000000000000000e+00,5.000000000000000000e+00,5.000000000000000000e+00,5.000000000000000000e+00,5.000000000000000000e+00,5.000000000000000000e+00,5.000000000000000000e+00,5.000000000000000000e+00,5.000000000000000000e+00,5.000000000000000000e+00,5.000000000000000000e+00,5.000000000000000000e+00,5.000000000000000000e+00,4.495053768157958984e+00,4.490514278411865234e+00,4.455237388610839844e+00,4.469519138336181641e+00,4.522200107574462891e+00,4.632406234741210938e+00,5.000000000000000000e+00,5.000000000000000000e+00,5.000000000000000000e+00,5.000000000000000000e+00,5.000000000000000000e+00,5.000000000000000000e+00,5.000000000000000000e+00,5.000000000000000000e+00,5.000000000000000000e+00,5.000000000000000000e+00,5.000000000000000000e+00,4.853555679321289062e+00,4.663312435150146484e+00,4.487421035766601562e+00,4.324315071105957031e+00,4.172650814056396484e+00,4.031264305114746094e+00,3.899145603179931641e+00,3.775411605834960938e+00,3.659289836883544922e+00,3.550097465515136719e+00,3.447232961654663086e+00,3.350161552429199219e+00,3.258407592773437500e+00,3.171545505523681641e+00,3.089194059371948242e+00,3.011011123657226562e+00,2.936687946319580078e+00,2.865945577621459961e+00,2.798531293869018555e+00,2.734215497970581055e+00,2.672789573669433594e+00,2.614062786102294922e+00,2.557861328125000000e+00,2.504025697708129883e+00,2.452409505844116211e+00,2.402878284454345703e+00,2.355308294296264648e+00,2.309585094451904297e+00,2.265603303909301758e+00,2.223265409469604492e+00,2.182480812072753906e+00,2.143165588378906250e+00,2.105241775512695312e+00,2.068636655807495117e+00,2.033282995223999023e+00,1.999117255210876465e+00,1.966080784797668457e+00,1.934118390083312988e+00,1.903178572654724121e+00,1.873213052749633789e+00,1.844176769256591797e+00
5.000000000000000000e+00,5.000000000000000000e+00,5.000000000000000000e+00,5.000000000000000000e+00,5.000000000000000000e+00,5.000000000000000000e+00,5.000000000000000000e+00,5.000000000000000000e+00,5.000000000000000000e+00,5.000000000000000000e+00,5.000000000000000000e+00,5.000000000000000000e+00,5.000000000000000000e+00,5.000000000000000000e+00,5.000000000000000000e+00,5.000000000000000000e+00,5.000000000000000000e+00,5.000000000000000000e+00,5.000000000000000000e+00,5.000000000000000000e+00,5.000000000000000000e+00,5.000000000000000000e+00,4.501239776611328125e+00,4.478862285614013672e+00,4.447583198547363281e+00,4.461808204650878906e+00,4.508568286895751953e+00,4.664522171020507812e+00,5.000000000000000000e+00,5.000000000000000000e+00,5.000000000000000000e+00,5.000000000000000000e+00,5.000000000000000000e+00,5.000000000000000000e+00,5.000000000000000000e+00,5.000000000000000000e+00,5.000000000000000000e+00,5.000000000000000000e+00,5.000000000000000000e+00,4.853693962097167969e+00,4.663440704345703125e+00,4.487539291381835938e+00,4.324425220489501953e+00,4.172753334045410156e+00,4.031359672546386719e+00,3.899234771728515625e+00,3.775495767593383789e+00,3.659368515014648438e+00,3.550171613693237305e+00,3.447302818298339844e+00,3.350227594375610352e+00,3.258470296859741211e+00,3.171604633331298828e+00,3.089250087738037109e+00,3.011064529418945312e+00,2.936738729476928711e+00,2.865993976593017578e+00,2.798577308654785156e+00,2.734259366989135742e+00,2.672831535339355469e+00,2.614103078842163086e+00,2.557899713516235352e+00,2.504062652587890625e+00,2.452444791793823242e+00,2.402912139892578125e+00,2.355340957641601562e+00,2.309616327285766602e+00,2.265633583068847656e+00,2.223294496536254883e+00,2.182508945465087891e+00,2.143192529678344727e+00,2.105267763137817383e+00,2.068661928176879883e+00,2.033307313919067383e+00,1.999140858650207520e+00,1.966103672981262207e+00,1.934140443801879883e+00,1.903200030326843262e+00,1.873233795166015625e+00,1.844196677207946777e+00
5.000000000000000000e+00,5.000000000000000000e+00,5.000000000000000000e+00,5.000000000000000000e+00,5.000000000000000000e+00,5.000000000000000000e+00,5.000000000000000000e+00,5.000000000000000000e+00,5.000000000000000000e+00,5.000000000000000000e+00,5.000000000000000000e+00,5.000000000000000000e+00,5.000000000000000000e+00,5.000000000000000000e+00,5.000000000000000000e+00,5.000000000000000000e+00,5.000000000000000000e+00,5.000000000000000000e+00,5.000000000000000000e+00,5.000000000000000000e+00,5.000000000000000000e+00,5.000000000000000000e+00,4.460841178894042969e+00,4.479194164276123047e+00,4.456852912902832031e+00,4.472163200378417969e+00,4.521060466766357422e+00,4.668079853057861328e+00,5.000000000000000000e+00,5.000000000000000000e+00,5.000000000000000000e+00,5.000000000000000000e+00,5.000000000000000000e+00,5.000000000000000000e+00,5.000000000000000000e+00,5.000000000000000000e+00,5.000000000000000000e+00,5.000000000000000000e+00,5.000000000000000000e+00,4.853832721710205078e+00,4.663568019866943359e+00,4.487657546997070312e+00,4.324535369873046875e+00,4.172855377197265625e+00,4.031455516815185547e+00,3.899324417114257812e+00,3.775579452514648438e+00,3.659446954727172852e+00,3.550245523452758789e+00,3.447372436523437500e+00,3.350293874740600586e+00,3.258532524108886719e+00,3.171663761138916016e+00,3.089306116104125977e+00,3.011117696762084961e+00,2.936789512634277344e+00,2.866042137145996094e+00,2.798623323440551758e+00,2.734303236007690430e+00,2.672873497009277344e+00,2.614143371582031250e+00,2.557938337326049805e+00,2.504099369049072266e+00,2.452480316162109375e+00,2.402945995330810547e+00,2.355373382568359375e+00,2.309647798538208008e+00,2.265663623809814453e+00,2.223323583602905273e+00,2.182536840438842773e+00,2.143219709396362305e+00,2.105293989181518555e+00,2.068686962127685547e+00,2.033331632614135742e+00,1.999164223670959473e+00,1.966126203536987305e+00,1.934162497520446777e+00,1.903221368789672852e+00,1.873254537582397461e+00,1.844216704368591309e+00
5.000000000000000000e+00,5.000000000000000000e+00,5.000000000000000000e+00,5.000000000000000000e+00,5.000000000000000000e+00,5.000000000000000000e+00,5.000000000000000000e+00,5.000000000000000000e+00,5.000000000000000000e+00,5.000000000000000000e+00,5.000000000000000000e+00,5.000000000000000000e+00,5.000000000000000000e+00,5.000000000000000000e+00,5.000000000000000000e+00,5.000000000000000000e+00,5.000000000000000000e+00,5.000000000000000000e+00,5.000000000000000000e+00,5.000000000000000000e+00,5.000000000000000000e+00,5.000000000000000000e+00,4.409501075744628906e+00,4.477576732635498047e+00,4.485988140106201172e+00,4.488229751586914062e+00,4.481213092803955078e+00,4.669198989868164062e+00,5.000000000000000000e+00,5.000000000000000000e+00,5.000000000000000000e+00,5.000000000000000000e+00,5.000000000000000000e+00,5.000000000000000000e+00,5.000000000000000000e+00,5.000000000000000000e+00,5.000000000000000000e+00,5.000000000000000000e+00,5.000000000000000000e+00,4.853971004486083984e+00,4.663695812225341797e+00,4.487775802612304688e+00,4.324645042419433594e+00,4.172957897186279297e+00,4.031550884246826172e+00,3.899413824081420898e+00,3.775663137435913086e+00,3.659525632858276367e+00,3.550319671630859375e+00,3.447442770004272461e+00,3.350359678268432617e+00,3.258594751358032227e+00,3.171722650527954102e+00,3.089362382888793945e+00,3.011171102523803711e+00,2.936840295791625977e+00,2.866090297698974609e+00,2.798669338226318359e+00,2.734347105026245117e+00,2.672915697097778320e+00,2.614183425903320312e+00,2.557976722717285156e+00,2.504136323928833008e+00,2.452515602111816406e+00,2.402980089187622070e+00,2.355406045913696289e+00,2.309679031372070312e+00,2.265693902969360352e+00,2.223352670669555664e+00,2.182564735412597656e+00,2.143246650695800781e+00,2.105319976806640625e+00,2.068712234497070312e+00,2.033355951309204102e+00,1.999187707901000977e+00,1.966148972511291504e+00,1.934184432029724121e+00,1.903242468833923340e+00,1.873275041580200195e+00,1.844236612319946289e+00
5.000000000000000000e+00,5.000000000000000000e+00,5.000000000000000000e+00,5.000000000000000000e+00,5.000000000000000000e+00,5.000000000000000000e+00,5.000000000000000000e+00,5.000000000000000000e+00,5.000000000000000000e+00,5.000000000000000000e+00,5.000000000000000000e+00,5.000000000000000000e+00,5.000000000000000000e+00,5.000000000000000000e+00,5.000000000000000000e+00,5.000000000000000000e+00,5.000000000000000000e+00,5.000000000000000000e+00,5.000000000000000000e+00,5.000000000000000000e+00,5.000000000000000000e+00,5.000000000000000000e+00,4.352872848510742188e+00,4.475357055664062500e+00,4.492348670959472656e+00,4.421610355377197266e+00,4.436508655548095703e+00,5.000000000000000000e+00,5.000000000000000000e+00,5.000000000000000000e+00,5.000000000000000000e+00,5.000000000000000000e+00,5.000000000000000000e+00,5.000000000000000000e+00,5.000000000000000000e+00,5.000000000000000000e+00,5.000000000000000000e+00,5.000000000000000000e+00,5.000000000000000000e+00,4.854109287261962891e+00,4.663824081420898438e+00,4.487894058227539062e+00,4.324755191802978516e+00,4.173060417175292969e+00,4.031646251678466797e+00,3.899502992630004883e+00,3.775746822357177734e+00,3.659604310989379883e+00,3.550394058227539062e+00,3.447512388229370117e+00,3.350425481796264648e+00,3.258657217025756836e+00,3.171781778335571289e+00,3.089418649673461914e+00,3.011224508285522461e+00,2.936890840530395508e+00,2.866138696670532227e+00,2.798715353012084961e+00,2.734391212463378906e+00,2.672957658767700195e+00,2.614223480224609375e+00,2.558015346527099609e+00,2.504173040390014648e+00,2.452550888061523438e+00,2.403014183044433594e+00,2.355438709259033203e+00,2.309710502624511719e+00,2.265723943710327148e+00,2.223381519317626953e+00,2.182592868804931641e+00,2.143273591995239258e+00,2.105345964431762695e+00,2.068737268447875977e+00,2.033380270004272461e+00,1.999211311340332031e+00,1.966171860694885254e+00,1.934206485748291016e+00,1.903263926506042480e+00,1.873295664787292480e+00,1.844256639480590820e+00
5.000000000000000000e+00,5.000000000000000000e+00,5.000000000000000000e+00,5.000000000000000000e+00,5.000000000000000000e+00,5.000000000000000000e+00,5.000000000000000000e+00,5.000000000000000000e+00,5.000000000000000000e+00,5.000000000000000000e+00,5.000000000000000000e+00,5.000000000000000000e+00,5.000000000000000000e+00,5.000000000000000000e+00,5.000000000000000000e+00,5.000000000000000000e+00,5.000000000000000000e+00,5.000000000000000000e+00,5.000000000000000000e+00,5.000000000000000000e+00,5.000000000000000000e+00,5.000000000000000000e+00,5.000000000000000000e+00,4.490101814270019531e+00,4.500518321990966797e+00,4.391088008880615234e+00,4.408637046813964844e+00,4.635274887084960938e+00,5.000000000000000000e+00,5.000000000000000000e+00,5.000000000000000000e+00,5.000000000000000000e+00,5.000000000000000000e+00,5.000000000000000000e+00,5.000000000000000000e+00,5.000000000000000000e+00,5.000000000000000000e+00,5.000000000000000000e+00,5.000000000000000000e+00,4.854248046875000000e+00,4.663951873779296875e+00,4.488012790679931641e+00,4.324864864349365234e+00,4.173162460327148438e+00,4.031742095947265625e+00,3.899592399597167969e+00,3.775830507278442383e+00,3.659683227539062500e+00,3.550467967987060547e+00,3.447582244873046875e+00,3.350491523742675781e+00,3.258719444274902344e+00,3.171841144561767578e+00,3.089474678039550781e+00,3.011277675628662109e+00,2.936941385269165039e+00,2.866186857223510742e+00,2.798761367797851562e+00,2.734435081481933594e+00,2.672999382019042969e+00,2.614263772964477539e+00,2.558053731918334961e+00,2.504209995269775391e+00,2.452586412429809570e+00,2.403048038482666016e+00,2.355471372604370117e+00,2.309741735458374023e+00,2.265753984451293945e+00,2.223410844802856445e+00,2.182621002197265625e+00,2.143300771713256836e+00,2.105372190475463867e+00,2.068762540817260742e+00,2.033404588699340820e+00,1.999234676361083984e+00,1.966194391250610352e+00,1.934228301048278809e+00,1.903285026550292969e+00,1.873316168785095215e+00,1.844276785850524902e+00
5.000000000000000000e+00,5.000000000000000000e+00,5.000000000000000000e+00,5.000000000000000000e+00,5.000000000000000000e+00,5.000000000000000000e+00,5.000000000000000000e+00,5.000000000000000000e+00,5.000000000000000000e+00,5.000000000000000000e+00,5.000000000000000000e+00,5.000000000000000000e+00,5.000000000000000000e+00,5.000000000000000000e+00,5.000000000000000000e+00,5.000000000000000000e+00,5.000000000000000000e+00,5.000000000000000000e+00,5.000000000000000000e+00,5.000000000000000000e+00,5.000000000000000000e+00,5.000000000000000000e+00,5.000000000000000000e+00,4.513068675994873047e+00,4.520578384399414062e+00,4.358258724212646484e+00,4.374805450439453125e+00,5.000000000000000000e+00,5.000000000000000000e+00,5.000000000000000000e+00,5.000000000000000000e+00,5.000000000000000000e+00,5.000000000000000000e+00,5.000000000000000000e+00,5.000000000000000000e+00,5.000000000000000000e+00,5.000000000000000000e+00,5.000000000000000000e+00,5.000000000000000000e+00,4.854386329650878906e+00,4.664079666137695312e+00,4.488131046295166016e+00,4.324974536895751953e+00,4.173264980316162109e+00,4.031837463378906250e+00,3.899682044982910156e+00,3.775914669036865234e+00,3.659761905670166016e+00,3.550541877746582031e+00,3.447652101516723633e+00,3.350557327270507812e+00,3.258782148361206055e+00,3.171900272369384766e+00,3.089530706405639648e+00,3.011330842971801758e+00,2.936992168426513672e+00,2.866235256195068359e+00,2.798807382583618164e+00,2.734479188919067383e+00,2.673041343688964844e+00,2.614303827285766602e+00,2.558092355728149414e+00,2.504246950149536133e+00,2.452621698379516602e+00,2.403081893920898438e+00,2.355503797531127930e+00,2.309773206710815430e+00,2.265784263610839844e+00,2.223439693450927734e+00,2.182648897171020508e+00,2.143327713012695312e+00,2.105398178100585938e+00,2.068787574768066406e+00,2.033428907394409180e+00,1.999258279800415039e+00,1.966217279434204102e+00,1.934250354766845703e+00,1.903306484222412109e+00,1.873336911201477051e+00,1.844296574592590332e+00
5.000000000000000000e+00,5.000000000000000000e+00,5.000000000000000000e+00,5.000000000000000000e+00,5.000000000000000000e+00,5.000000000000000000e+00,5.000000000000000000e+00,5.000000000000000000e+00,5.000000000000000000e+00,5.000000000000000000e+00,5.000000000000000000e+00,5.000000000000000000e+00,5.000000000000000000e+00,5.000000000000000000e+00,5.000000000000000000e+00,5.000000000000000000e+00,5.000000000000000000e+00,5.000000000000000000e+00,5.000000000000000000e+00,5.000000000000000000e+00,5.000000000000000000e+00,5.000000000000000000e+00,5.000000000000000000e+00,4.533129692077636719e+00,4.538540840148925781e+00,4.324623107910156250e+00,4.357864379882812500e+00,5.000000000000000000e+00,5.000000000000000000e+00,5.000000000000000000e+00,5.000000000000000000e+00,5.000000000000000000e+00,5.000000000000000000e+00,5.000000000000000000e+00,5.000000000000000000e+00,5.000000000000000000e+00,5.000000000000000000e+00,5.000000000000000000e+00,5.000000000000000000e+00,4.854525089263916016e+00,4.664207458496093750e+00,4.488249301910400391e+00,4.325084686279296875e+00,4.173367023468017578e+00,4.031933307647705078e+00,3.899771451950073242e+00,3.775998353958129883e+00,3.659840583801269531e+00,3.550616025924682617e+00,3.447721719741821289e+00,3.350623607635498047e+00,3.258844614028930664e+00,3.171959400177001953e+00,3.089586734771728516e+00,3.011384248733520508e+00,2.937042951583862305e+00,2.866283655166625977e+00,2.798853397369384766e+00,2.734523057937622070e+00,2.673083305358886719e+00,2.614344120025634766e+00,2.558130741119384766e+00,2.504283666610717773e+00,2.452656984329223633e+00,2.403115749359130859e+00,2.355536460876464844e+00,2.309804677963256836e+00,2.265814542770385742e+00,2.223468780517578125e+00,2.182676792144775391e+00,2.143354654312133789e+00,2.105424165725708008e+00,2.068812847137451172e+00,2.033453226089477539e+00,1.999281644821166992e+00,1.966239809989929199e+00,1.934272527694702148e+00,1.903327822685241699e+00,1.873357653617858887e+00,1.844316720962524414e+00
5.000000000000000000e+00,5.000000000000000000e+00,5.000000000000000000e+00,5.000000000000000000e+00,5.000000000000000000e+00,5.000000000000000000e+00,5.000000000000000000e+00,5.000000000000000000e+00,5.000000000000000000e+00,5.000000000000000000e+00,5.000000000000000000e+00,5.000000000000000000e+00,5.000000000000000000e+00,5.000000000000000000e+00,5.000000000000000000e+00,5.000000000000000000e+00,5.000000000000000000e+00,5.000000000000000000e+00,5.000000000000000000e+00,5.000000000000000000e+00,5.000000000000000000e+00,5.000000000000000000e+00,5.000000000000000000e+00,5.000000000000000000e+00,4.551948070526123047e+00,4.337241649627685547e+00,4.371726989746093750e+00,5.000000000000000000e+00,5.000000000000000000e+00,5.000000000000000000e+00,5.000000000000000000e+00,5.000000000000000000e+00,5.000000000000000000e+00,5.000000000000000000e+00,5.000000000000000000e+00,5.000000000000000000e+00,5.000000000000000000e+00,5.000000000000000000e+00,5.000000000000000000e+00,4.854662418365478516e+00,4.664335250854492188e+00,4.488368034362792969e+00,4.325194835662841797e+00,4.173469543457031250e+00,4.032028675079345703e+00,3.899860620498657227e+00,3.776082038879394531e+00,3.659919261932373047e+00,3.550689935684204102e+00,3.447792053222656250e+00,3.350689411163330078e+00,3.258906841278076172e+00,3.172018289566040039e+00,3.089642763137817383e+00,3.011437654495239258e+00,2.937093734741210938e+00,2.866331815719604492e+00,2.798899412155151367e+00,2.734566926956176758e+00,2.673125505447387695e+00,2.614384174346923828e+00,2.558169126510620117e+00,2.504320621490478516e+00,2.452692270278930664e+00,2.403149604797363281e+00,2.355569124221801758e+00,2.309835910797119141e+00,2.265844583511352539e+00,2.223497867584228516e+00,2.182704925537109375e+00,2.143381595611572266e+00,2.105450391769409180e+00,2.068837881088256836e+00,2.033477306365966797e+00,1.999305248260498047e+00,1.966262578964233398e+00,1.934294342994689941e+00,1.903348922729492188e+00,1.873378157615661621e+00,1.844336509704589844e+00
5.000000000000000000e+00,5.000000000000000000e+00,5.000000000000000000e+00,5.000000000000000000e+00,5.000000000000000000e+00,5.000000000000000000e+00,5.000000000000000000e+00,5.000000000000000000e+00,5.000000000000000000e+00,5.000000000000000000e+00,5.000000000000000000e+00,5.000000000000000000e+00,5.000000000000000000e+00,5.000000000000000000e+00,5.000000000000000000e+00,5.000000000000000000e+00,5.000000000000000000e+00,5.000000000000000000e+00,5.000000000000000000e+00,5.000000000000000000e+00,5.000000000000000000e+00,5.000000000000000000e+00,5.000000000000000000e+00,5.000000000000000000e+00,4.610215187072753906e+00,4.371501922607421875e+00,4.387395381927490234e+00,5.000000000000000000e+00,5.000000000000000000e+00,5.000000000000000000e+00,5.000000000000000000e+00,5.000000000000000000e+00,5.000000000000000000e+00,5.000000000000000000e+00,5.000000000000000000e+00,5.000000000000000000e+00,5.000000000000000000e+00,5.000000000000000000e+00,5.000000000000000000e+00,4.854800224304199219e+00,4.664463043212890625e+00,4.488486289978027344e+00,4.325304985046386719e+00,4.173572063446044922e+00,4.032124042510986328e+00,3.899950027465820312e+00,3.776165723800659180e+00,3.659998178482055664e+00,3.550764322280883789e+00,3.447861671447753906e+00,3.350755453109741211e+00,3.258969306945800781e+00,3.172077417373657227e+00,3.089699029922485352e+00,3.011490821838378906e+00,2.937144279479980469e+00,2.866379976272583008e+00,2.798945426940917969e+00,2.734611034393310547e+00,2.673167467117309570e+00,2.614424467086791992e+00,2.558207511901855469e+00,2.504357337951660156e+00,2.452727794647216797e+00,2.403183698654174805e+00,2.355601787567138672e+00,2.309867143630981445e+00,2.265874862670898438e+00,2.223526954650878906e+00,2.182732820510864258e+00,2.143408775329589844e+00,2.105476379394531250e+00,2.068863153457641602e+00,2.033501625061035156e+00,1.999328851699829102e+00,1.966285467147827148e+00,1.934316396713256836e+00,1.903370380401611328e+00,1.873398780822753906e+00,1.844356656074523926e+00
5.000000000000000000e+00,5.000000000000000000e+00,5.000000000000000000e+00,5.000000000000000000e+00,5.000000000000000000e+00,5.000000000000000000e+00,5.000000000000000000e+00,5.000000000000000000e+00,5.000000000000000000e+00,5.000000000000000000e+00,5.000000000000000000e+00,5.000000000000000000e+00,5.000000000000000000e+00,5.000000000000000000e+00,5.000000000000000000e+00,5.000000000000000000e+00,5.000000000000000000e+00,5.000000000000000000e+00,5.000000000000000000e+00,5.000000000000000000e+00,5.000000000000000000e+00,5.000000000000000000e+00,5.000000000000000000e+00,5.000000000000000000e+00,4.730002403259277344e+00,4.368445873260498047e+00,4.400307655334472656e+00,5.000000000000000000e+00,5.000000000000000000e+00,5.000000000000000000e+00,5.000000000000000000e+00,5.000000000000000000e+00,5.000000000000000000e+00,5.000000000000000000e+00,5.000000000000000000e+00,5.000000000000000000e+00,5.000000000000000000e+00,5.000000000000000000e+00,5.000000000000000000e+00,4.854938030242919922e+00,4.664589405059814453e+00,4.488604545593261719e+00,4.325414657592773438e+00,4.173674106597900391e+00,4.032219886779785156e+00,3.900039196014404297e+00,3.776249885559082031e+00,3.660076856613159180e+00,3.550838470458984375e+00,3.447931528091430664e+00,3.350821256637573242e+00,3.259031534194946289e+00,3.172136783599853516e+00,3.089755058288574219e+00,3.011544227600097656e+00,2.937195062637329102e+00,2.866428375244140625e+00,2.798991680145263672e+00,2.734654903411865234e+00,2.673209428787231445e+00,2.614464521408081055e+00,2.558245897293090820e+00,2.504394292831420898e+00,2.452763080596923828e+00,2.403217792510986328e+00,2.355634450912475586e+00,2.309898614883422852e+00,2.265904903411865234e+00,2.223556041717529297e+00,2.182760953903198242e+00,2.143435716629028320e+00,2.105502367019653320e+00,2.068888187408447266e+00,2.033526182174682617e+00,1.999352097511291504e+00,1.966307997703552246e+00,1.934338331222534180e+00,1.903391480445861816e+00,1.873419523239135742e+00,1.844376683235168457e+00
5.000000000000000000e+00,5.000000000000000000e+00,5.000000000000000000e+00,5.000000000000000000e+00,5.000000000000000000e+00,5.000000000000000000e+00,5.000000000000000000e+00,5.000000000000000000e+00,5.000000000000000000e+00,5.000000000000000000e+00,5.000000000000000000e+00,5.000000000000000000e+00,5.000000000000000000e+00,5.000000000000000000e+00,5.000000000000000000e+00,5.000000000000000000e+00,5.000000000000000000e+00,5.000000000000000000e+00,5.000000000000000000e+00,5.000000000000000000e+00,5.000000000000000000e+00,5.000000000000000000e+00,5.000000000000000000e+00,5.000000000000000000e+00,4.806758880615234375e+00,4.365359306335449219e+00,4.413775444030761719e+00,5.000000000000000000e+00,5.000000000000000000e+00,5.000000000000000000e+00,5.000000000000000000e+00,5.000000000000000000e+00,5.000000000000000000e+00,5.000000000000000000e+00,5.000000000000000000e+00,5.000000000000000000e+00,5.000000000000000000e+00,5.000000000000000000e+00,5.000000000000000000e+00,4.855076313018798828e+00,4.664716720581054688e+00,4.488721370697021484e+00,4.325524330139160156e+00,4.173776626586914062e+00,4.032315254211425781e+00,3.900129079818725586e+00,3.776333570480346680e+00,3.660155534744262695e+00,3.550912380218505859e+00,3.448001384735107422e+00,3.350887298583984375e+00,3.259094238281250000e+00,3.172195911407470703e+00,3.089811086654663086e+00,3.011597394943237305e+00,2.937245607376098633e+00,2.866476774215698242e+00,2.799037694931030273e+00,2.734698772430419922e+00,2.673251390457153320e+00,2.614504575729370117e+00,2.558284521102905273e+00,2.504431247711181641e+00,2.452798366546630859e+00,2.403251647949218750e+00,2.355666875839233398e+00,2.309929847717285156e+00,2.265935182571411133e+00,2.223585128784179688e+00,2.182788848876953125e+00,2.143462657928466797e+00,2.105528354644775391e+00,2.068913459777832031e+00,2.033550262451171875e+00,1.999375700950622559e+00,1.966330885887145996e+00,1.934360384941101074e+00,1.903412938117980957e+00,1.873440027236938477e+00,1.844396591186523438e+00
5.000000000000000000e+00,5.000000000000000000e+00,5.000000000000000000e+00,5.000000000000000000e+00,5.000000000000000000e+00,5.000000000000000000e+00,5.000000000000000000e+00,5.000000000000000000e+00,5.000000000000000000e+00,5.000000000000000000e+00,5.000000000000000000e+00,5.000000000000000000e+00,5.000000000000000000e+00,5.000000000000000000e+00,5.000000000000000000e+00,5.000000000000000000e+00,5.000000000000000000e+00,5.000000000000000000e+00,5.000000000000000000e+00,5.000000000000000000e+00,5.000000000000000000e+00,5.000000000000000000e+00,5.000000000000000000e+00,5.000000000000000000e+00,4.923138618469238281e+00,4.364922046661376953e+00,5.000000000000000000e+00,5.000000000000000000e+00,5.000000000000000000e+00,5.000000000000000000e+00,5.000000000000000000e+00,5.000000000000000000e+00,5.000000000000000000e+00,5.000000000000000000e+00,5.000000000000000000e+00,5.000000000000000000e+00,5.000000000000000000e+00,5.000000000000000000e+00,5.000000000000000000e+00,4.855214118957519531e+00,4.664844036102294922e+00,4.488839626312255859e+00,4.325633525848388672e+00,4.173879146575927734e+00,4.032411098480224609e+00,3.900218248367309570e+00,3.776417493820190430e+00,3.660234212875366211e+00,3.550986528396606445e+00,3.448071241378784180e+00,3.350953578948974609e+00,3.259156703948974609e+00,3.172255039215087891e+00,3.089867115020751953e+00,3.011650562286376953e+00,2.937296390533447266e+00,2.866524934768676758e+00,2.799083709716796875e+00,2.734742641448974609e+00,2.673293352127075195e+00,2.614545106887817383e+00,2.558322906494140625e+00,2.504467964172363281e+00,2.452833652496337891e+00,2.403285503387451172e+00,2.355699539184570312e+00,2.309961318969726562e+00,2.265965461730957031e+00,2.223613977432250977e+00,2.182816743850708008e+00,2.143489599227905273e+00,2.105554580688476562e+00,2.068938493728637695e+00,2.033574581146240234e+00,1.999399065971374512e+00,1.966353416442871094e+00,1.934382438659667969e+00,1.903434276580810547e+00,1.873460769653320312e+00,1.844416618347167969e+00
5.000000000000000000e+00,5.000000000000000000e+00,5.000000000000000000e+00,5.000000000000000000e+00,5.000000000000000000e+00,5.000000000000000000e+00,5.000000000000000000e+00,5.000000000000000000e+00,5.000000000000000000e+00,5.000000000000000000e+00,5.000000000000000000e+00,5.000000000000000000e+00,5.000000000000000000e+00,5.000000000000000000e+00,5.000000000000000000e+00,5.000000000000000000e+00,5.000000000000000000e+00,5.000000000000000000e+00,5.000000000000000000e+00,5.000000000000000000e+00,5.000000000000000000e+00,5.000000000000000000e+00,5.000000000000000000e+00,5.000000000000000000e+00,4.909442424774169922e+00,4.371932506561279297e+00,5.000000000000000000e+00,5.000000000000000000e+00,5.000000000000000000e+00,5.000000000000000000e+00,5.000000000000000000e+00,5.000000000000000000e+00,5.000000000000000000e+00,5.000000000000000000e+00,5.000000000000000000e+00,5.000000000000000000e+00,5.000000000000000000e+00,5.000000000000000000e+00,5.000000000000000000e+00,4.855352401733398438e+00,4.664971828460693359e+00,4.488957405090332031e+00,4.325743198394775391e+00,4.173981666564941406e+00,4.032506465911865234e+00,3.900307655334472656e+00,3.776501178741455078e+00,3.660312891006469727e+00,3.551060914993286133e+00,3.448141336441040039e+00,3.351019382476806641e+00,3.259218931198120117e+00,3.172314167022705078e+00,3.089923381805419922e+00,3.011704206466674805e+00,2.937347173690795898e+00,2.866573333740234375e+00,2.799129724502563477e+00,2.734786510467529297e+00,2.673335552215576172e+00,2.614585161209106445e+00,2.558361530303955078e+00,2.504504919052124023e+00,2.452869176864624023e+00,2.403319597244262695e+00,2.355732202529907227e+00,2.309992790222167969e+00,2.265995502471923828e+00,2.223643064498901367e+00,2.182844877243041992e+00,2.143516778945922852e+00,2.105580568313598633e+00,2.068963766098022461e+00,2.033598899841308594e+00,1.999422669410705566e+00,1.966376185417175293e+00,1.934404253959655762e+00,1.903455495834350586e+00,1.873481273651123047e+00,1.844436526298522949e+00
4.875296592712402344e+00,4.874085903167724609e+00,4.872876167297363281e+00,4.871666431427001953e+00,4.870458126068115234e+00,4.869249820709228516e+00,4.868042469024658203e+00,4.866835594177246094e+00,4.865629673004150391e+00,4.864423751831054688e+00,4.863218784332275391e+00,4.862014293670654297e+00,4.860810279846191406e+00,4.859606742858886719e+00,4.858404636383056641e+00,4.857202053070068359e+00,4.856000900268554688e+00,4.854799747467041016e+00,4.853599548339843750e+00,4.852399826049804688e+00,4.851201057434082031e+00,4.850002288818359375e+00,4.848804473876953125e+00,4.847607612609863281e+00,4.846410274505615234e+00,4.239257812500000000e+00,4.844018936157226562e+00,4.842823982238769531e+00,4.841629505157470703e+00,4.840435504913330078e+00,4.839242458343505859e+00,4.838049888610839844e+00,4.836857795715332031e+00,4.835666179656982422e+00,4.834475040435791016e+00,4.833285331726074219e+00,4.832095146179199219e+00,4.830906391143798828e+00,4.829717636108398438e+00,4.828529834747314453e+00,4.665099143981933594e+00,4.489075660705566406e+00,4.325852394104003906e+00,4.174082756042480469e+00,4.032601833343505859e+00,3.900397062301635742e+00,3.776584863662719727e+00,3.660392045974731445e+00,3.551134824752807617e+00,3.448211193084716797e+00,3.351085424423217773e+00,3.259281396865844727e+00,3.172373056411743164e+00,3.089979648590087891e+00,3.011757373809814453e+00,2.937397718429565430e+00,2.866621494293212891e+00,2.799175739288330078e+00,2.734830856323242188e+00,2.673377513885498047e+00,2.614625215530395508e+00,2.558399915695190430e+00,2.504541635513305664e+00,2.452904462814331055e+00,2.403353452682495117e+00,2.355764865875244141e+00,2.310024023056030273e+00,2.266025781631469727e+00,2.223672151565551758e+00,2.182873010635375977e+00,2.143543720245361328e+00,2.105606555938720703e+00,2.068988800048828125e+00,2.033623218536376953e+00,1.999446272850036621e+00,1.966399073600769043e+00,1.934426426887512207e+00,1.903476834297180176e+00,1.873502016067504883e+00,1.844456553459167480e+00
3.778115272521972656e+00,3.777388334274291992e+00,3.776661872863769531e+00,3.775935411453247070e+00,3.775208950042724609e+00,3.774483203887939453e+00,3.773757696151733398e+00,3.773032665252685547e+00,3.772307157516479492e+00,3.771582603454589844e+00,3.770858287811279297e+00,3.770134210586547852e+00,3.769409894943237305e+00,3.768686294555664062e+00,3.767963171005249023e+00,3.767240285873413086e+00,3.766517162322998047e+00,3.765794754028320312e+00,3.765072584152221680e+00,3.764350652694702148e+00,3.763628482818603516e+00,3.762907266616821289e+00,3.762186288833618164e+00,3.761465549468994141e+00,3.760744571685791016e+00,3.760024547576904297e+00,3.759304523468017578e+00,3.758584976196289062e+00,3.757864952087402344e+00,3.757145881652832031e+00,3.756427049636840820e+00,3.755708694458007812e+00,3.754989862442016602e+00,3.754271984100341797e+00,3.753554105758666992e+00,3.752836704254150391e+00,3.752119064331054688e+00,3.751402139663696289e+00,3.750685453414916992e+00,3.749969244003295898e+00,3.749252557754516602e+00,3.748536825180053711e+00,3.747821331024169922e+00,3.747106075286865234e+00,3.746390581130981445e+00,3.745675802230834961e+00,3.744961500167846680e+00,3.660470485687255859e+00,3.551208972930908203e+00,3.448280811309814453e+00,3.351151227951049805e+00,3.259343862533569336e+00,3.172432422637939453e+00,3.090035676956176758e+00,3.011810779571533203e+00,2.937448501586914062e+00,2.866669654846191406e+00,2.799221992492675781e+00,2.734874725341796875e+00,2.673419475555419922e+00,2.614665508270263672e+00,2.558438301086425781e+00,2.504578828811645508e+00,2.452939987182617188e+00,2.403387308120727539e+00,2.355797529220581055e+00,2.310055255889892578e+00,2.266055822372436523e+00,2.223701238632202148e+00,2.182900905609130859e+00,2.143570661544799805e+00,2.105632543563842773e+00,2.069014072418212891e+00,2.033647537231445312e+00,1.999469637870788574e+00,1.966421604156494141e+00,1.934448242187500000e+00,1.903497934341430664e+00,1.873522639274597168e+00,1.844476699829101562e+00
3.084052085876464844e+00,3.083567857742309570e+00,3.083083629608154297e+00,3.082599639892578125e+00,3.082115411758422852e+00,3.081631660461425781e+00,3.081148147583007812e+00,3.080664634704589844e+00,3.080181121826171875e+00,3.079697847366333008e+00,3.079214811325073242e+00,3.078732013702392578e+00,3.078248977661132812e+00,3.077766418457031250e+00,3.077284097671508789e+00,3.076802015304565430e+00,3.076319456100463867e+00,3.075837612152099609e+00,3.075355768203735352e+00,3.074874162673950195e+00,3.074392318725585938e+00,3.073911190032958984e+00,3.073429822921752930e+00,3.072948932647705078e+00,3.072467803955078125e+00,3.071986913681030273e+00,3.071506500244140625e+00,3.071025848388671875e+00,3.070545434951782227e+00,3.070065259933471680e+00,3.069585323333740234e+00,3.069105386734008789e+00,3.068625688552856445e+00,3.068145990371704102e+00,3.067666530609130859e+00,3.067187309265136719e+00,3.066708326339721680e+00,3.066229104995727539e+00,3.065750360488891602e+00,3.065271854400634766e+00,3.064793348312377930e+00,3.064314603805541992e+00,3.063836574554443359e+00,3.063358545303344727e+00,3.062880516052246094e+00,3.062402486801147461e+00,3.061924934387207031e+00,3.061447620391845703e+00,3.060970306396484375e+00,3.060492753982543945e+00,3.060015916824340820e+00,3.059539079666137695e+00,3.059062242507934570e+00,3.058585405349731445e+00,3.011863946914672852e+00,2.937499046325683594e+00,2.866718292236328125e+00,2.799268007278442383e+00,2.734918594360351562e+00,2.673461437225341797e+00,2.614705562591552734e+00,2.558476924896240234e+00,2.504615545272827148e+00,2.452975273132324219e+00,2.403421401977539062e+00,2.355829954147338867e+00,2.310086727142333984e+00,2.266086101531982422e+00,2.223730325698852539e+00,2.182928800582885742e+00,2.143597602844238281e+00,2.105658769607543945e+00,2.069039344787597656e+00,2.033671855926513672e+00,1.999493241310119629e+00,1.966444492340087891e+00,1.934470295906066895e+00,1.903519392013549805e+00,1.873543143272399902e+00,1.844496488571166992e+00
2.605420589447021484e+00,2.605074644088745117e+00,2.604728937149047852e+00,2.604383468627929688e+00,2.604038238525390625e+00,2.603692531585693359e+00,2.603347301483154297e+00,2.603002309799194336e+00,2.602657079696655273e+00,2.602312088012695312e+00,2.601967096328735352e+00,2.601622343063354492e+00,2.601277589797973633e+00,2.600932836532592773e+00,2.600588321685791016e+00,2.600244045257568359e+00,2.599899530410766602e+00,2.599555253982543945e+00,2.599210977554321289e+00,2.598866939544677734e+00,2.598523139953613281e+00,2.598178863525390625e+00,2.597835302352905273e+00,2.597491502761840820e+00,2.597147941589355469e+00,2.596804141998291016e+00,2.596460819244384766e+00,2.596117496490478516e+00,2.595774173736572266e+00,2.595430850982666016e+00,2.595087766647338867e+00,2.594744920730590820e+00,2.594402074813842773e+00,2.594058990478515625e+00,2.593716382980346680e+00,2.593373775482177734e+00,2.593031167984008789e+00,2.592688560485839844e+00,2.592346429824829102e+00,2.592004060745239258e+00,2.591661930084228516e+00,2.591319799423217773e+00,2.590977668762207031e+00,2.590635776519775391e+00,2.590294122695922852e+00,2.589952230453491211e+00,2.589610576629638672e+00,2.589269161224365234e+00,2.588927745819091797e+00,2.588586091995239258e+00,2.588244915008544922e+00,2.587903738021850586e+00,2.587562799453735352e+00,2.587221622467041016e+00,2.586880683898925781e+00,2.586539983749389648e+00,2.586199283599853516e+00,2.585858345031738281e+00,2.585517883300781250e+00,2.585177421569824219e+00,2.584837198257446289e+00,2.558515310287475586e+00,2.504652261734008789e+00,2.453010559082031250e+00,2.403455257415771484e+00,2.355862855911254883e+00,2.310118198394775391e+00,2.266116380691528320e+00,2.223759412765502930e+00,2.182956933975219727e+00,2.143624544143676758e+00,2.105684757232666016e+00,2.069064378738403320e+00,2.033696174621582031e+00,1.999516606330871582e+00,1.966467022895812988e+00,1.934492349624633789e+00,1.903540730476379395e+00,1.873563885688781738e+00,1.844516634941101074e+00
2.255412817001342773e+00,2.255152940750122070e+00,2.254893302917480469e+00,2.254633426666259766e+00,2.254373550415039062e+00,2.254113912582397461e+00,2.253854274749755859e+00,2.253594636917114258e+00,2.253334999084472656e+00,2.253075599670410156e+00,2.252816200256347656e+00,2.252557039260864258e+00,2.252297639846801758e+00,2.252038478851318359e+00,2.251779079437255859e+00,2.251520156860351562e+00,2.251260995864868164e+00,2.251002073287963867e+00,2.250743150711059570e+00,2.250484228134155273e+00,2.250225543975830078e+00,2.249966621398925781e+00,2.249707937240600586e+00,2.249449253082275391e+00,2.249191284179687500e+00,2.248933792114257812e+00,2.248676061630249023e+00,2.248418569564819336e+00,2.248161077499389648e+00,2.247903585433959961e+00,2.247646093368530273e+00,2.247388839721679688e+00,2.247131586074829102e+00,2.246874570846557617e+00,2.246617317199707031e+00,2.246360301971435547e+00,2.246103286743164062e+00,2.245846271514892578e+00,2.245589256286621094e+00,2.245332479476928711e+00,2.245075702667236328e+00,2.244818925857543945e+00,2.244562149047851562e+00,2.244305610656738281e+00,2.244049072265625000e+00,2.243792772293090820e+00,2.243536233901977539e+00,2.243279933929443359e+00,2.243023633956909180e+00,2.242767333984375000e+00,2.242511034011840820e+00,2.242254972457885742e+00,2.241998910903930664e+00,2.241742849349975586e+00,2.241486787796020508e+00,2.241230964660644531e+00,2.240975141525268555e+00,2.240719318389892578e+00,2.240463495254516602e+00,2.240207910537719727e+00,2.239952325820922852e+00,2.239696741104125977e+00,2.239441156387329102e+00,2.239185810089111328e+00,2.238930463790893555e+00,2.238675117492675781e+00,2.238419771194458008e+00,2.238164663314819336e+00,2.223788499832153320e+00,2.182984828948974609e+00,2.143651723861694336e+00,2.105710744857788086e+00,2.069089412689208984e+00,2.033720493316650391e+00,1.999540209770202637e+00,1.966489911079406738e+00,1.934514284133911133e+00,1.903561949729919434e+00,1.873584389686584473e+00,1.844536423683166504e+00
1.988344788551330566e+00,1.988142609596252441e+00,1.987940669059753418e+00,1.987738847732543945e+00,1.987536787986755371e+00,1.987335085868835449e+00,1.987133145332336426e+00,1.986931443214416504e+00,1.986729502677917480e+00,1.986527919769287109e+00,1.986326217651367188e+00,1.986124634742736816e+00,1.985923171043395996e+00,1.985721468925476074e+00,1.985520124435424805e+00,1.985318541526794434e+00,1.985117197036743164e+00,1.984915733337402344e+00,1.984714508056640625e+00,1.984513044357299805e+00,1.984311819076538086e+00,1.984110713005065918e+00,1.983909487724304199e+00,1.983708381652832031e+00,1.983507275581359863e+00,1.983306288719177246e+00,1.983105182647705078e+00,1.982904314994812012e+00,1.982703208923339844e+00,1.982502460479736328e+00,1.982301473617553711e+00,1.982100725173950195e+00,1.981900095939636230e+00,1.981699228286743164e+00,1.981498599052429199e+00,1.981297850608825684e+00,1.981097340583801270e+00,1.980896711349487305e+00,1.980696201324462891e+00,1.980495691299438477e+00,1.980295300483703613e+00,1.980095028877258301e+00,1.979894518852233887e+00,1.979694247245788574e+00,1.979493856430053711e+00,1.979293704032897949e+00,1.979093432426452637e+00,1.978893399238586426e+00,1.978693127632141113e+00,1.978493094444274902e+00,1.978293180465698242e+00,1.978093028068542480e+00,1.977893233299255371e+00,1.977693200111389160e+00,1.977493405342102051e+00,1.977293372154235840e+00,1.977093696594238281e+00,1.976893782615661621e+00,1.976694226264953613e+00,1.976494669914245605e+00,1.976294875144958496e+00,1.976095438003540039e+00,1.975895643234252930e+00,1.975696325302124023e+00,1.975496649742126465e+00,1.975297331809997559e+00,1.975097894668579102e+00,1.974898576736450195e+00,1.974699378013610840e+00,1.974499940872192383e+00,1.974300861358642578e+00,1.974101543426513672e+00,1.973902463912963867e+00,1.973703265190124512e+00,1.973504304885864258e+00,1.966512680053710938e+00,1.934536337852478027e+00,1.903583288192749023e+00,1.873605132102966309e+00,1.844556570053100586e+00
1.777828216552734375e+00,1.777666807174682617e+00,1.777505278587341309e+00,1.777343869209289551e+00,1.777182459831237793e+00,1.777021050453186035e+00,1.776859760284423828e+00,1.776698231697082520e+00,1.776537060737609863e+00,1.776375651359558105e+00,1.776214480400085449e+00,1.776053190231323242e+00,1.775892019271850586e+00,1.775730967521667480e+00,1.775569677352905273e+00,1.775408744812011719e+00,1.775247454643249512e+00,1.775086522102355957e+00,1.774925351142883301e+00,1.774764537811279297e+00,1.774603486061096191e+00,1.774442553520202637e+00,1.774281620979309082e+00,1.774120807647705078e+00,1.773959994316101074e+00,1.773799061775207520e+00,1.773638367652893066e+00,1.773477554321289062e+00,1.773316860198974609e+00,1.773156046867370605e+00,1.772995471954345703e+00,1.772834777832031250e+00,1.772674202919006348e+00,1.772513628005981445e+00,1.772353053092956543e+00,1.772192597389221191e+00,1.772032022476196289e+00,1.771871566772460938e+00,1.771710991859436035e+00,1.771550774574279785e+00,1.771390199661254883e+00,1.771229982376098633e+00,1.771069765090942383e+00,1.770909309387207031e+00,1.770749092102050781e+00,1.770588755607604980e+00,1.770428657531738281e+00,1.770268440246582031e+00,1.770108342170715332e+00,1.769948124885559082e+00,1.769788026809692383e+00,1.769628047943115234e+00,1.769467949867248535e+00,1.769308090209960938e+00,1.769147992134094238e+00,1.768988132476806641e+00,1.768828034400939941e+00,1.768668293952941895e+00,1.768508315086364746e+00,1.768348574638366699e+00,1.768188834190368652e+00,1.768028974533081055e+00,1.767869234085083008e+00,1.767709493637084961e+00,1.767549872398376465e+00,1.767390131950378418e+00,1.767230510711669922e+00,1.767070889472961426e+00,1.766911387443542480e+00,1.766751885414123535e+00,1.766592264175415039e+00,1.766432881355285645e+00,1.766273379325866699e+00,1.766113996505737305e+00,1.765954494476318359e+00,1.765795230865478516e+00,1.765635728836059570e+00,1.765476584434509277e+00,1.765317320823669434e+00,1.765158057212829590e+00
1.607621192932128906e+00,1.607488989830017090e+00,1.607357025146484375e+00,1.607224941253662109e+00,1.607092976570129395e+00,1.606961011886596680e+00,1.606828927993774414e+00,1.606697082519531250e+00,1.606565117835998535e+00,1.606433272361755371e+00,1.606301307678222656e+00,1.606169462203979492e+00,1.606037616729736328e+00,1.605905890464782715e+00,1.605773925781250000e+00,1.605642318725585938e+00,1.605510592460632324e+00,1.605378746986389160e+00,1.605247139930725098e+00,1.605115294456481934e+00,1.604983806610107422e+00,1.604852080345153809e+00,1.604720473289489746e+00,1.604588747024536133e+00,1.604457259178161621e+00,1.604325771331787109e+00,1.604194164276123047e+00,1.604062795639038086e+00,1.603931188583374023e+00,1.603799819946289062e+00,1.603668212890625000e+00,1.603536844253540039e+00,1.603405356407165527e+00,1.603274106979370117e+00,1.603142738342285156e+00,1.603011369705200195e+00,1.602880120277404785e+00,1.602748751640319824e+00,1.602617502212524414e+00,1.602486133575439453e+00,1.602355003356933594e+00,1.602223753929138184e+00,1.602092623710632324e+00,1.601961493492126465e+00,1.601830244064331055e+00,1.601699233055114746e+00,1.601567983627319336e+00,1.601436972618103027e+00,1.601305842399597168e+00,1.601174950599670410e+00,1.601043820381164551e+00,1.600912928581237793e+00,1.600781917572021484e+00,1.600650906562805176e+00,1.600520133972167969e+00,1.600389122962951660e+00,1.600258231163024902e+00,1.600127339363098145e+00,1.599996447563171387e+00,1.599865555763244629e+00,1.599734902381896973e+00,1.599604129791259766e+00,1.599473237991333008e+00,1.599342584609985352e+00,1.599211812019348145e+00,1.599081158638000488e+00,1.598950386047363281e+00,1.598819851875305176e+00,1.598689198493957520e+00,1.598558545112609863e+00,1.598428130149841309e+00,1.598297476768493652e+00,1.598166942596435547e+00,1.598036289215087891e+00,1.597905874252319336e+00,1.597775340080261230e+00,1.597644925117492676e+00,1.597514390945434570e+00,1.597384095191955566e+00,1.597253799438476562e+00
1.467157125473022461e+00,1.467047214508056641e+00,1.466937184333801270e+00,1.466827273368835449e+00,1.466717243194580078e+00,1.466607332229614258e+00,1.466497421264648438e+00,1.466387510299682617e+00,1.466277599334716797e+00,1.466167688369750977e+00,1.466057896614074707e+00,1.465947985649108887e+00,1.465838193893432617e+00,1.465728282928466797e+00,1.465618610382080078e+00,1.465508818626403809e+00,1.465399026870727539e+00,1.465289354324340820e+00,1.465179562568664551e+00,1.465069890022277832e+00,1.464960217475891113e+00,1.464850544929504395e+00,1.464740872383117676e+00,1.464631199836730957e+00,1.464521527290344238e+00,1.464411973953247070e+00,1.464302420616149902e+00,1.464192748069763184e+00,1.464083313941955566e+00,1.463973641395568848e+00,1.463864207267761230e+00,1.463754653930664062e+00,1.463645219802856445e+00,1.463535666465759277e+00,1.463426232337951660e+00,1.463316798210144043e+00,1.463207364082336426e+00,1.463098049163818359e+00,1.462988495826721191e+00,1.462879180908203125e+00,1.462769746780395508e+00,1.462660431861877441e+00,1.462551116943359375e+00,1.462441802024841309e+00,1.462332606315612793e+00,1.462223291397094727e+00,1.462113976478576660e+00,1.462004661560058594e+00,1.461895585060119629e+00,1.461786270141601562e+00,1.461677074432373047e+00,1.461567878723144531e+00,1.461458802223205566e+00,1.461349606513977051e+00,1.461240410804748535e+00,1.461131453514099121e+00,1.461022257804870605e+00,1.460913181304931641e+00,1.460804104804992676e+00,1.460695028305053711e+00,1.460585951805114746e+00,1.460476994514465332e+00,1.460368037223815918e+00,1.460258960723876953e+00,1.460150122642517090e+00,1.460041046142578125e+00,1.459932208061218262e+00,1.459823131561279297e+00,1.459714293479919434e+00,1.459605336189270020e+00,1.459496498107910156e+00,1.459387779235839844e+00,1.459278821945190430e+00,1.459170103073120117e+00,1.459061145782470703e+00,1.458952426910400391e+00,1.458843588829040527e+00,1.458734869956970215e+00,1.458626031875610352e+00,1.458517432212829590e+00
1.349266648292541504e+00,1.349173545837402344e+00,1.349080562591552734e+00,1.348987460136413574e+00,1.348894596099853516e+00,1.348801493644714355e+00,1.348708629608154297e+00,1.348615646362304688e+00,1.348522663116455078e+00,1.348429799079895020e+00,1.348336815834045410e+00,1.348243951797485352e+00,1.348150968551635742e+00,1.348058104515075684e+00,1.347965240478515625e+00,1.347872376441955566e+00,1.347779512405395508e+00,1.347686767578125000e+00,1.347593903541564941e+00,1.347501039505004883e+00,1.347408294677734375e+00,1.347315549850463867e+00,1.347222805023193359e+00,1.347130060195922852e+00,1.347037315368652344e+00,1.346944570541381836e+00,1.346851825714111328e+00,1.346759200096130371e+00,1.346666455268859863e+00,1.346573829650878906e+00,1.346481084823608398e+00,1.346388459205627441e+00,1.346295833587646484e+00,1.346203207969665527e+00,1.346110582351684570e+00,1.346017956733703613e+00,1.345925450325012207e+00,1.345832824707031250e+00,1.345740318298339844e+00,1.345647692680358887e+00,1.345555186271667480e+00,1.345462679862976074e+00,1.345370173454284668e+00,1.345277547836303711e+00,1.345185160636901855e+00,1.345092773437500000e+00,1.345000267028808594e+00,1.344907760620117188e+00,1.344815254211425781e+00,1.344722986221313477e+00,1.344630479812622070e+00,1.344538092613220215e+00,1.344445705413818359e+00,1.344353318214416504e+00,1.344261050224304199e+00,1.344168663024902344e+00,1.344076275825500488e+00,1.343983888626098633e+00,1.343891739845275879e+00,1.343799352645874023e+00,1.343707084655761719e+00,1.343614816665649414e+00,1.343522548675537109e+00,1.343430399894714355e+00,1.343338012695312500e+00,1.343245863914489746e+00,1.343153595924377441e+00,1.343061447143554688e+00,1.342969179153442383e+00,1.342877149581909180e+00,1.342784881591796875e+00,1.342692732810974121e+00,1.342600584030151367e+00,1.342508554458618164e+00,1.342416405677795410e+00,1.342324256896972656e+00,1.342232227325439453e+00,1.342140078544616699e+00,1.342048168182373047e+00,1.341956019401550293e+00
1.248912692070007324e+00,1.248832941055297852e+00,1.248753309249877930e+00,1.248673558235168457e+00,1.248593926429748535e+00,1.248514294624328613e+00,1.248434543609619141e+00,1.248354911804199219e+00,1.248275279998779297e+00,1.248195648193359375e+00,1.248116016387939453e+00,1.248036384582519531e+00,1.247956871986389160e+00,1.247877240180969238e+00,1.247797608375549316e+00,1.247718095779418945e+00,1.247638583183288574e+00,1.247558951377868652e+00,1.247479438781738281e+00,1.247399926185607910e+00,1.247320413589477539e+00,1.247240900993347168e+00,1.247161388397216797e+00,1.247081875801086426e+00,1.247002363204956055e+00,1.246922969818115234e+00,1.246843457221984863e+00,1.246764063835144043e+00,1.246684670448303223e+00,1.246605157852172852e+00,1.246525764465332031e+00,1.246446371078491211e+00,1.246366977691650391e+00,1.246287465095520020e+00,1.246208190917968750e+00,1.246128797531127930e+00,1.246049404144287109e+00,1.245970129966735840e+00,1.245890736579895020e+00,1.245811462402343750e+00,1.245732069015502930e+00,1.245652794837951660e+00,1.245573520660400391e+00,1.245494246482849121e+00,1.245414853096008301e+00,1.245335698127746582e+00,1.245256423950195312e+00,1.245177149772644043e+00,1.245097994804382324e+00,1.245018720626831055e+00,1.244939565658569336e+00,1.244860291481018066e+00,1.244781136512756348e+00,1.244701862335205078e+00,1.244622707366943359e+00,1.244543671607971191e+00,1.244464397430419922e+00,1.244385361671447754e+00,1.244306087493896484e+00,1.244227051734924316e+00,1.244147896766662598e+00,1.244068861007690430e+00,1.243989706039428711e+00,1.243910670280456543e+00,1.243831515312194824e+00,1.243752479553222656e+00,1.243673443794250488e+00,1.243594408035278320e+00,1.243515372276306152e+00,1.243436336517333984e+00,1.243357300758361816e+00,1.243278264999389648e+00,1.243199348449707031e+00,1.243120312690734863e+00,1.243041396141052246e+00,1.242962479591369629e+00,1.242883443832397461e+00,1.242804527282714844e+00,1.242725491523742676e+00,1.242646694183349609e+00
1.162453293800354004e+00,1.162384271621704102e+00,1.162315249443054199e+00,1.162246227264404297e+00,1.162177205085754395e+00,1.162108063697814941e+00,1.162039160728454590e+00,1.161970019340515137e+00,1.161901116371154785e+00,1.161832094192504883e+00,1.161763072013854980e+00,1.161694169044494629e+00,1.161625146865844727e+00,1.161556243896484375e+00,1.161487221717834473e+00,1.161418318748474121e+00,1.161349415779113770e+00,1.161280512809753418e+00,1.161211490631103516e+00,1.161142587661743164e+00,1.161073803901672363e+00,1.161004781723022461e+00,1.160935997962951660e+00,1.160867094993591309e+00,1.160798192024230957e+00,1.160729289054870605e+00,1.160660505294799805e+00,1.160591602325439453e+00,1.160522818565368652e+00,1.160454034805297852e+00,1.160385131835937500e+00,1.160316348075866699e+00,1.160247564315795898e+00,1.160178780555725098e+00,1.160109877586364746e+00,1.160041213035583496e+00,1.159972310066223145e+00,1.159903645515441895e+00,1.159834861755371094e+00,1.159766077995300293e+00,1.159697413444519043e+00,1.159628629684448242e+00,1.159559965133666992e+00,1.159491181373596191e+00,1.159422516822814941e+00,1.159353733062744141e+00,1.159285068511962891e+00,1.159216403961181641e+00,1.159147739410400391e+00,1.159079074859619141e+00,1.159010410308837891e+00,1.158941745758056641e+00,1.158873081207275391e+00,1.158804535865783691e+00,1.158735871315002441e+00,1.158667206764221191e+00,1.158598661422729492e+00,1.158529996871948242e+00,1.158461451530456543e+00,1.158392786979675293e+00,1.158324360847473145e+00,1.158255696296691895e+00,1.158187150955200195e+00,1.158118605613708496e+00,1.158050060272216797e+00,1.157981514930725098e+00,1.157912969589233398e+00,1.157844543457031250e+00,1.157775998115539551e+00,1.157707571983337402e+00,1.157639026641845703e+00,1.157570481300354004e+00,1.157502055168151855e+00,1.157433629035949707e+00,1.157365083694458008e+00,1.157296657562255859e+00,1.157228231430053711e+00,1.157159805297851562e+00,1.157091379165649414e+00,1.157022953033447266e+00
1.087189674377441406e+00,1.087129235267639160e+00,1.087068796157836914e+00,1.087008476257324219e+00,1.086948037147521973e+00,1.086887717247009277e+00,1.086827278137207031e+00,1.086766958236694336e+00,1.086706519126892090e+00,1.086646199226379395e+00,1.086585879325866699e+00,1.086525559425354004e+00,1.086465239524841309e+00,1.086404919624328613e+00,1.086344599723815918e+00,1.086284279823303223e+00,1.086223959922790527e+00,1.086163640022277832e+00,1.086103439331054688e+00,1.086043119430541992e+00,1.085982799530029297e+00,1.085922598838806152e+00,1.085862278938293457e+00,1.085802078247070312e+00,1.085741758346557617e+00,1.085681557655334473e+00,1.085621237754821777e+00,1.085561037063598633e+00,1.085500836372375488e+00,1.085440635681152344e+00,1.085380434989929199e+00,1.085320234298706055e+00,1.085260033607482910e+00,1.085199832916259766e+00,1.085139632225036621e+00,1.085079431533813477e+00,1.085019350051879883e+00,1.084959149360656738e+00,1.084898948669433594e+00,1.084838867187500000e+00,1.084778666496276855e+00,1.084718585014343262e+00,1.084658384323120117e+00,1.084598302841186523e+00,1.084538102149963379e+00,1.084478020668029785e+00,1.084417939186096191e+00,1.084357857704162598e+00,1.084297776222229004e+00,1.084237694740295410e+00,1.084177613258361816e+00,1.084117531776428223e+00,1.084057450294494629e+00,1.083997368812561035e+00,1.083937406539916992e+00,1.083877325057983398e+00,1.083817243576049805e+00,1.083757281303405762e+00,1.083697199821472168e+00,1.083637237548828125e+00,1.083577156066894531e+00,1.083517193794250488e+00,1.083457231521606445e+00,1.083397269248962402e+00,1.083337187767028809e+00,1.083277225494384766e+00,1.083217263221740723e+00,1.083157300949096680e+00,1.083097338676452637e+00,1.083037376403808594e+00,1.082977533340454102e+00,1.082917451858520508e+00,1.082857608795166016e+00,1.082797646522521973e+00,1.082737803459167480e+00,1.082677841186523438e+00,1.082617878913879395e+00,1.082558035850524902e+00,1.082498073577880859e+00,1.082438230514526367e+00
1.021079301834106445e+00,1.021026015281677246e+00,1.020972728729248047e+00,1.020919442176818848e+00,1.020866274833679199e+00,1.020812988281250000e+00,1.020759701728820801e+00,1.020706415176391602e+00,1.020653247833251953e+00,1.020599961280822754e+00,1.020546793937683105e+00,1.020493507385253906e+00,1.020440340042114258e+00,1.020387053489685059e+00,1.020333886146545410e+00,1.020280718803405762e+00,1.020227432250976562e+00,1.020174264907836914e+00,1.020121097564697266e+00,1.020067930221557617e+00,1.020014643669128418e+00,1.019961595535278320e+00,1.019908428192138672e+00,1.019855260848999023e+00,1.019802093505859375e+00,1.019748926162719727e+00,1.019695758819580078e+00,1.019642591476440430e+00,1.019589543342590332e+00,1.019536375999450684e+00,1.019483327865600586e+00,1.019430160522460938e+00,1.019376993179321289e+00,1.019323945045471191e+00,1.019270777702331543e+00,1.019217729568481445e+00,1.019164681434631348e+00,1.019111633300781250e+00,1.019058465957641602e+00,1.019005417823791504e+00,1.018952369689941406e+00,1.018899321556091309e+00,1.018846273422241211e+00,1.018793225288391113e+00,1.018740177154541016e+00,1.018687129020690918e+00,1.018634080886840820e+00,1.018581032752990723e+00,1.018527984619140625e+00,1.018475055694580078e+00,1.018422007560729980e+00,1.018369078636169434e+00,1.018316030502319336e+00,1.018262982368469238e+00,1.018210053443908691e+00,1.018157005310058594e+00,1.018104076385498047e+00,1.018051147460937500e+00,1.017998099327087402e+00,1.017945170402526855e+00,1.017892241477966309e+00,1.017839193344116211e+00,1.017786383628845215e+00,1.017733335494995117e+00,1.017680406570434570e+00,1.017627477645874023e+00,1.017574548721313477e+00,1.017521619796752930e+00,1.017468810081481934e+00,1.017415881156921387e+00,1.017362952232360840e+00,1.017310023307800293e+00,1.017257213592529297e+00,1.017204284667968750e+00,1.017151355743408203e+00,1.017098546028137207e+00,1.017045617103576660e+00,1.016992807388305664e+00,1.016939997673034668e+00,1.016887068748474121e+00
9.625482559204101562e-01,9.625008702278137207e-01,9.624536037445068359e-01,9.624062776565551758e-01,9.623588919639587402e-01,9.623116254806518555e-01,9.622642397880554199e-01,9.622169137001037598e-01,9.621695876121520996e-01,9.621223211288452148e-01,9.620749950408935547e-01,9.620276689529418945e-01,9.619803428649902344e-01,9.619331359863281250e-01,9.618858098983764648e-01,9.618384838104248047e-01,9.617912769317626953e-01,9.617440104484558105e-01,9.616966843605041504e-01,9.616494178771972656e-01,9.616022109985351562e-01,9.615549445152282715e-01,9.615076780319213867e-01,9.614604711532592773e-01,9.614132046699523926e-01,9.613659381866455078e-01,9.613186717033386230e-01,9.612715244293212891e-01,9.612242579460144043e-01,9.611770510673522949e-01,9.611297845840454102e-01,9.610826373100280762e-01,9.610354304313659668e-01,9.609882235527038574e-01,9.609410762786865234e-01,9.608938694000244141e-01,9.608466625213623047e-01,9.607994556427001953e-01,9.607523083686828613e-01,9.607051610946655273e-01,9.606579542160034180e-01,9.606108665466308594e-01,9.605636596679687500e-01,9.605164527893066406e-01,9.604693055152893066e-01,9.604222178459167480e-01,9.603750705718994141e-01,9.603279232978820801e-01,9.602807164192199707e-01,9.602336883544921875e-01,9.601865410804748535e-01,9.601393938064575195e-01,9.600923657417297363e-01,9.600452184677124023e-01,9.599980711936950684e-01,9.599509239196777344e-01,9.599039554595947266e-01,9.598568081855773926e-01,9.598097205162048340e-01,9.597625732421875000e-01,9.597156047821044922e-01,9.596685171127319336e-01,9.596213698387145996e-01,9.595744013786315918e-01,9.595273137092590332e-01,9.594802260398864746e-01,9.594331383705139160e-01,9.593862295150756836e-01,9.593391418457031250e-01,9.592920541763305664e-01,9.592451453208923340e-01,9.591980576515197754e-01,9.591510295867919922e-01,9.591039419174194336e-01,9.590570330619812012e-01,9.590100049972534180e-01,9.589629769325256348e-01,9.589159488677978516e-01,9.588690400123596191e-01,9.588220119476318359e-01
9.103636741638183594e-01,9.103214144706726074e-01,9.102790355682373047e-01,9.102366566658020020e-01,9.101942777633666992e-01,9.101520180702209473e-01,9.101096391677856445e-01,9.100672602653503418e-01,9.100250005722045898e-01,9.099826812744140625e-01,9.099403619766235352e-01,9.098979830741882324e-01,9.098557829856872559e-01,9.098134040832519531e-01,9.097710847854614258e-01,9.097288846969604492e-01,9.096865653991699219e-01,9.096442461013793945e-01,9.096019268035888672e-01,9.095596671104431152e-01,9.095174074172973633e-01,9.094750881195068359e-01,9.094327688217163086e-01,9.093905687332153320e-01,9.093483090400695801e-01,9.093059897422790527e-01,9.092638492584228516e-01,9.092215299606323242e-01,9.091792702674865723e-01,9.091370105743408203e-01,9.090948104858398438e-01,9.090525507926940918e-01,9.090102910995483398e-01,9.089681506156921387e-01,9.089258909225463867e-01,9.088836312294006348e-01,9.088414311408996582e-01,9.087992906570434570e-01,9.087570309638977051e-01,9.087147712707519531e-01,9.086725711822509766e-01,9.086304306983947754e-01,9.085882306098937988e-01,9.085460305213928223e-01,9.085038900375366211e-01,9.084616899490356445e-01,9.084194898605346680e-01,9.083772897720336914e-01,9.083352088928222656e-01,9.082930088043212891e-01,9.082508087158203125e-01,9.082086086273193359e-01,9.081665277481079102e-01,9.081243872642517090e-01,9.080821871757507324e-01,9.080401062965393066e-01,9.079979658126831055e-01,9.079557657241821289e-01,9.079136252403259277e-01,9.078716039657592773e-01,9.078294038772583008e-01,9.077872633934020996e-01,9.077452421188354492e-01,9.077031016349792480e-01,9.076609611511230469e-01,9.076188206672668457e-01,9.075767993927001953e-01,9.075346589088439941e-01,9.074925780296325684e-01,9.074504375457763672e-01,9.074084162712097168e-01,9.073663353919982910e-01,9.073242545127868652e-01,9.072822332382202148e-01,9.072401523590087891e-01,9.071980714797973633e-01,9.071559309959411621e-01,9.071139693260192871e-01,9.070718884468078613e-01,9.070298075675964355e-01
