5.000000000000000000e+00,5.000000000000000000e+00,5.000000000000000000e+00,5.000000000000000000e+00,5.000000000000000000e+00,5.000000000000000000e+00,5.000000000000000000e+00,5.000000000000000000e+00,5.000000000000000000e+00,5.000000000000000000e+00,5.000000000000000000e+00,5.000000000000000000e+00,5.000000000000000000e+00,5.000000000000000000e+00,5.000000000000000000e+00,5.000000000000000000e+00,5.000000000000000000e+00,5.000000000000000000e+00,5.000000000000000000e+00,5.000000000000000000e+00,5.000000000000000000e+00,5.000000000000000000e+00,5.000000000000000000e+00,5.000000000000000000e+00,5.000000000000000000e+00,5.000000000000000000e+00,5.000000000000000000e+00,5.000000000000000000e+00,5.000000000000000000e+00,5.000000000000000000e+00,5.000000000000000000e+00,5.000000000000000000e+00,5.000000000000000000e+00,5.000000000000000000e+00,5.000000000000000000e+00,5.000000000000000000e+00,5.000000000000000000e+00,5.000000000000000000e+00,5.000000000000000000e+00,4.848569869995117188e+00,4.658735275268554688e+00,4.483205795288085938e+00,4.320422649383544922e+00,4.169047355651855469e+00,4.027919769287109375e+00,3.896034240722656250e+00,3.772511720657348633e+00,3.656580448150634766e+00,3.547562599182128906e+00,3.444856882095336914e+00,3.347930431365966797e+00,3.256309509277343750e+00,3.169569492340087891e+00,3.087330341339111328e+00,3.009251356124877930e+00,2.935024261474609375e+00,2.864370346069335938e+00,2.797038555145263672e+00,2.732799530029296875e+00,2.671444892883300781e+00,2.612784624099731445e+00,2.556645154953002930e+00,2.502867698669433594e+00,2.451305627822875977e+00,2.401825428009033203e+00,2.354303121566772461e+00,2.308624744415283203e+00,2.264685392379760742e+00,2.222387313842773438e+00,2.181640148162841797e+00,2.142360448837280273e+00,2.104470014572143555e+00,2.067896604537963867e+00,2.032572746276855469e+00,1.998435497283935547e+00,1.965425968170166016e+00,1.933488965034484863e+00,1.902573466300964355e+00,1.872630953788757324e+00,1.843616485595703125e+00
5.000000000000000000e+00,5.000000000000000000e+00,5.000000000000000000e+00,5.000000000000000000e+00,5.000000000000000000e+00,5.000000000000000000e+00,5.000000000000000000e+00,5.000000000000000000e+00,5.000000000000000000e+00,5.000000000000000000e+00,5.000000000000000000e+00,5.000000000000000000e+00,5.000000000000000000e+00,5.000000000000000000e+00,5.000000000000000000e+00,5.000000000000000000e+00,5.000000000000000000e+00,5.000000000000000000e+00,5.000000000000000000e+00,5.000000000000000000e+00,5.000000000000000000e+00,5.000000000000000000e+00,5.000000000000000000e+00,5.000000000000000000e+00,5.000000000000000000e+00,5.000000000000000000e+00,5.000000000000000000e+00,5.000000000000000000e+00,5.000000000000000000e+00,5.000000000000000000e+00,5.000000000000000000e+00,5.000000000000000000e+00,5.000000000000000000e+00,5.000000000000000000e+00,5.000000000000000000e+00,5.000000000000000000e+00,5.000000000000000000e+00,5.000000000000000000e+00,5.000000000000000000e+00,4.848707675933837891e+00,4.658862590789794922e+00,4.483323574066162109e+00,4.320532321929931641e+00,4.169148921966552734e+00,4.028014659881591797e+00,3.896123409271240234e+00,3.772594690322875977e+00,3.656659126281738281e+00,3.547636508941650391e+00,3.444926261901855469e+00,3.347996234893798828e+00,3.256371736526489258e+00,3.169628381729125977e+00,3.087386369705200195e+00,3.009304523468017578e+00,2.935074806213378906e+00,2.864418506622314453e+00,2.797084331512451172e+00,2.732843160629272461e+00,2.671486616134643555e+00,2.612824678421020508e+00,2.556683540344238281e+00,2.502904176712036133e+00,2.451340913772583008e+00,2.401859283447265625e+00,2.354335546493530273e+00,2.308655977249145508e+00,2.264715433120727539e+00,2.222416400909423828e+00,2.181668043136596680e+00,2.142387390136718750e+00,2.104496002197265625e+00,2.067921638488769531e+00,2.032597064971923828e+00,1.998458862304687500e+00,1.965448617935180664e+00,1.933511018753051758e+00,1.902594804763793945e+00,1.872651457786560059e+00,1.843636274337768555e+00
5.000000000000000000e+00,5.000000000000000000e+00,5.000000000000000000e+00,5.000000000000000000e+00,5.000000000000000000e+00,5.000000000000000000e+00,5.000000000000000000e+00,5.000000000000000000e+00,5.000000000000000000e+00,5.000000000000000000e+00,5.000000000000000000e+00,5.000000000000000000e+00,5.000000000000000000e+00,5.000000000000000000e+00,5.000000000000000000e+00,5.000000000000000000e+00,5.000000000000000000e+00,5.000000000000000000e+00,5.000000000000000000e+00,5.000000000000000000e+00,5.000000000000000000e+00,5.000000000000000000e+00,5.000000000000000000e+00,5.000000000000000000e+00,5.000000000000000000e+00,5.000000000000000000e+00,5.000000000000000000e+00,5.000000000000000000e+00,5.000000000000000000e+00,5.000000000000000000e+00,5.000000000000000000e+00,5.000000000000000000e+00,5.000000000000000000e+00,5.000000000000000000e+00,5.000000000000000000e+00,5.000000000000000000e+00,5.000000000000000000e+00,5.000000000000000000e+00,5.000000000000000000e+00,4.848845481872558594e+00,4.658989906311035156e+00,4.483441352844238281e+00,4.320641994476318359e+00,4.169250965118408203e+00,4.028110027313232422e+00,3.896212577819824219e+00,3.772678375244140625e+00,3.656737565994262695e+00,3.547710418701171875e+00,3.444995880126953125e+00,3.348062038421630859e+00,3.256433963775634766e+00,3.169687032699584961e+00,3.087442398071289062e+00,3.009357690811157227e+00,2.935125112533569336e+00,2.864466667175292969e+00,2.797130346298217773e+00,2.732887029647827148e+00,2.671528577804565430e+00,2.612864732742309570e+00,2.556721925735473633e+00,2.502940893173217773e+00,2.451376199722290039e+00,2.401893138885498047e+00,2.354368209838867188e+00,2.308687210083007812e+00,2.264745712280273438e+00,2.222445249557495117e+00,2.181696176528930664e+00,2.142414331436157227e+00,2.104521989822387695e+00,2.067946672439575195e+00,2.032621383666992188e+00,1.998482465744018555e+00,1.965471148490905762e+00,1.933532834053039551e+00,1.902615904808044434e+00,1.872672200202941895e+00,1.843656420707702637e+00
5.000000000000000000e+00,5.000000000000000000e+00,5.000000000000000000e+00,5.000000000000000000e+00,5.000000000000000000e+00,5.000000000000000000e+00,5.000000000000000000e+00,5.000000000000000000e+00,5.000000000000000000e+00,5.000000000000000000e+00,5.000000000000000000e+00,5.000000000000000000e+00,5.000000000000000000e+00,5.000000000000000000e+00,5.000000000000000000e+00,5.000000000000000000e+00,5.000000000000000000e+00,5.000000000000000000e+00,5.000000000000000000e+00,5.000000000000000000e+00,5.000000000000000000e+00,5.000000000000000000e+00,5.000000000000000000e+00,5.000000000000000000e+00,5.000000000000000000e+00,5.000000000000000000e+00,5.000000000000000000e+00,5.000000000000000000e+00,5.000000000000000000e+00,5.000000000000000000e+00,5.000000000000000000e+00,5.000000000000000000e+00,5.000000000000000000e+00,5.000000000000000000e+00,5.000000000000000000e+00,5.000000000000000000e+00,5.000000000000000000e+00,5.000000000000000000e+00,5.000000000000000000e+00,4.848983764648437500e+00,4.659117221832275391e+00,4.483559608459472656e+00,4.320751190185546875e+00,4.169353008270263672e+00,4.028204917907714844e+00,3.896301269531250000e+00,3.772761821746826172e+00,3.656816005706787109e+00,3.547783851623535156e+00,3.445065498352050781e+00,3.348127841949462891e+00,3.256496191024780273e+00,3.169746160507202148e+00,3.087498426437377930e+00,3.009410858154296875e+00,2.935175657272338867e+00,2.864514827728271484e+00,2.797176361083984375e+00,2.732930660247802734e+00,2.671570301055908203e+00,2.612904787063598633e+00,2.556760311126708984e+00,2.502977848052978516e+00,2.451411485671997070e+00,2.401926755905151367e+00,2.354400634765625000e+00,2.308718681335449219e+00,2.264775753021240234e+00,2.222474098205566406e+00,2.181724071502685547e+00,2.142441272735595703e+00,2.104547977447509766e+00,2.067971706390380859e+00,2.032645463943481445e+00,1.998505711555480957e+00,1.965493917465209961e+00,1.933554887771606445e+00,1.902637124061584473e+00,1.872692704200744629e+00,1.843676209449768066e+00
5.000000000000000000e+00,5.000000000000000000e+00,5.000000000000000000e+00,5.000000000000000000e+00,5.000000000000000000e+00,5.000000000000000000e+00,5.000000000000000000e+00,5.000000000000000000e+00,5.000000000000000000e+00,5.000000000000000000e+00,5.000000000000000000e+00,5.000000000000000000e+00,5.000000000000000000e+00,5.000000000000000000e+00,5.000000000000000000e+00,5.000000000000000000e+00,5.000000000000000000e+00,5.000000000000000000e+00,5.000000000000000000e+00,5.000000000000000000e+00,5.000000000000000000e+00,5.000000000000000000e+00,5.000000000000000000e+00,5.000000000000000000e+00,5.000000000000000000e+00,5.000000000000000000e+00,5.000000000000000000e+00,5.000000000000000000e+00,5.000000000000000000e+00,5.000000000000000000e+00,5.000000000000000000e+00,5.000000000000000000e+00,5.000000000000000000e+00,5.000000000000000000e+00,5.000000000000000000e+00,5.000000000000000000e+00,5.000000000000000000e+00,5.000000000000000000e+00,5.000000000000000000e+00,4.849121570587158203e+00,4.659244537353515625e+00,4.483677387237548828e+00,4.320860862731933594e+00,4.169455051422119141e+00,4.028300285339355469e+00,3.896390438079833984e+00,3.772845506668090820e+00,3.656894445419311523e+00,3.547857761383056641e+00,3.445135116577148438e+00,3.348193645477294922e+00,3.256558179855346680e+00,3.169805049896240234e+00,3.087554216384887695e+00,3.009463787078857422e+00,2.935226202011108398e+00,2.864562988281250000e+00,2.797221899032592773e+00,2.732974529266357422e+00,2.671612262725830078e+00,2.612944841384887695e+00,2.556798696517944336e+00,2.503014564514160156e+00,2.451446771621704102e+00,2.401960611343383789e+00,2.354433298110961914e+00,2.308749914169311523e+00,2.264805793762207031e+00,2.222503185272216797e+00,2.181751966476440430e+00,2.142467975616455078e+00,2.104573965072631836e+00,2.067996978759765625e+00,2.032669782638549805e+00,1.998529076576232910e+00,1.965516448020935059e+00,1.933576703071594238e+00,1.902658462524414062e+00,1.872713327407836914e+00,1.843696236610412598e+00
5.000000000000000000e+00,5.000000000000000000e+00,5.000000000000000000e+00,5.000000000000000000e+00,5.000000000000000000e+00,5.000000000000000000e+00,5.000000000000000000e+00,5.000000000000000000e+00,5.000000000000000000e+00,5.000000000000000000e+00,5.000000000000000000e+00,5.000000000000000000e+00,5.000000000000000000e+00,5.000000000000000000e+00,5.000000000000000000e+00,5.000000000000000000e+00,5.000000000000000000e+00,5.000000000000000000e+00,5.000000000000000000e+00,5.000000000000000000e+00,5.000000000000000000e+00,5.000000000000000000e+00,5.000000000000000000e+00,5.000000000000000000e+00,5.000000000000000000e+00,5.000000000000000000e+00,5.000000000000000000e+00,5.000000000000000000e+00,5.000000000000000000e+00,5.000000000000000000e+00,5.000000000000000000e+00,5.000000000000000000e+00,5.000000000000000000e+00,5.000000000000000000e+00,5.000000000000000000e+00,5.000000000000000000e+00,5.000000000000000000e+00,5.000000000000000000e+00,5.000000000000000000e+00,4.849259376525878906e+00,4.659371852874755859e+00,4.483795166015625000e+00,4.320970535278320312e+00,4.169557094573974609e+00,4.028395652770996094e+00,3.896479606628417969e+00,3.772928953170776367e+00,3.656972646713256836e+00,3.547931671142578125e+00,3.445204973220825195e+00,3.348259449005126953e+00,3.256620407104492188e+00,3.169864177703857422e+00,3.087610244750976562e+00,3.009516954421997070e+00,2.935276985168457031e+00,2.864611148834228516e+00,2.797267913818359375e+00,2.733018398284912109e+00,2.671654224395751953e+00,2.612984895706176758e+00,2.556837081909179688e+00,2.503051280975341797e+00,2.451481819152832031e+00,2.401994466781616211e+00,2.354465723037719727e+00,2.308781147003173828e+00,2.264835834503173828e+00,2.222532033920288086e+00,2.181779861450195312e+00,2.142494916915893555e+00,2.104599952697753906e+00,2.068022012710571289e+00,2.032693862915039062e+00,1.998552680015563965e+00,1.965539336204528809e+00,1.933598518371582031e+00,1.902679562568664551e+00,1.872733831405639648e+00,1.843716144561767578e+00
5.000000000000000000e+00,5.000000000000000000e+00,5.000000000000000000e+00,5.000000000000000000e+00,5.000000000000000000e+00,5.000000000000000000e+00,5.000000000000000000e+00,5.000000000000000000e+00,5.000000000000000000e+00,5.000000000000000000e+00,5.000000000000000000e+00,5.000000000000000000e+00,5.000000000000000000e+00,5.000000000000000000e+00,5.000000000000000000e+00,5.000000000000000000e+00,5.000000000000000000e+00,5.000000000000000000e+00,5.000000000000000000e+00,5.000000000000000000e+00,5.000000000000000000e+00,5.000000000000000000e+00,5.000000000000000000e+00,5.000000000000000000e+00,5.000000000000000000e+00,5.000000000000000000e+00,5.000000000000000000e+00,5.000000000000000000e+00,5.000000000000000000e+00,5.000000000000000000e+00,5.000000000000000000e+00,5.000000000000000000e+00,5.000000000000000000e+00,5.000000000000000000e+00,5.000000000000000000e+00,5.000000000000000000e+00,5.000000000000000000e+00,5.000000000000000000e+00,5.000000000000000000e+00,4.849397182464599609e+00,4.659499168395996094e+00,4.483913421630859375e+00,4.321079730987548828e+00,4.169659137725830078e+00,4.028490543365478516e+00,3.896568536758422852e+00,3.773012638092041016e+00,3.657051086425781250e+00,3.548005580902099609e+00,3.445274591445922852e+00,3.348325014114379883e+00,3.256682634353637695e+00,3.169923067092895508e+00,3.087666034698486328e+00,3.009570121765136719e+00,2.935327529907226562e+00,2.864659309387207031e+00,2.797313928604125977e+00,2.733062267303466797e+00,2.671696186065673828e+00,2.613024950027465820e+00,2.556875467300415039e+00,2.503088235855102539e+00,2.451517105102539062e+00,2.402028322219848633e+00,2.354498386383056641e+00,2.308812379837036133e+00,2.264865875244140625e+00,2.222561120986938477e+00,2.181807756423950195e+00,2.142522096633911133e+00,2.104625940322875977e+00,2.068047046661376953e+00,2.032718181610107422e+00,1.998575925827026367e+00,1.965561866760253906e+00,1.933620691299438477e+00,1.902700901031494141e+00,1.872754573822021484e+00,1.843735933303833008e+00
5.000000000000000000e+00,5.000000000000000000e+00,5.000000000000000000e+00,5.000000000000000000e+00,5.000000000000000000e+00,5.000000000000000000e+00,5.000000000000000000e+00,5.000000000000000000e+00,5.000000000000000000e+00,5.000000000000000000e+00,5.000000000000000000e+00,5.000000000000000000e+00,5.000000000000000000e+00,5.000000000000000000e+00,5.000000000000000000e+00,5.000000000000000000e+00,5.000000000000000000e+00,5.000000000000000000e+00,5.000000000000000000e+00,5.000000000000000000e+00,5.000000000000000000e+00,5.000000000000000000e+00,5.000000000000000000e+00,5.000000000000000000e+00,5.000000000000000000e+00,5.000000000000000000e+00,5.000000000000000000e+00,5.000000000000000000e+00,5.000000000000000000e+00,5.000000000000000000e+00,5.000000000000000000e+00,5.000000000000000000e+00,5.000000000000000000e+00,5.000000000000000000e+00,5.000000000000000000e+00,5.000000000000000000e+00,5.000000000000000000e+00,5.000000000000000000e+00,5.000000000000000000e+00,4.849535465240478516e+00,4.659626483917236328e+00,4.484031200408935547e+00,4.321189403533935547e+00,4.169760704040527344e+00,4.028585910797119141e+00,3.896657705307006836e+00,3.773095846176147461e+00,3.657129764556884766e+00,3.548079490661621094e+00,3.445343971252441406e+00,3.348390817642211914e+00,3.256745100021362305e+00,3.169982194900512695e+00,3.087721824645996094e+00,3.009623289108276367e+00,2.935378074645996094e+00,2.864707469940185547e+00,2.797359704971313477e+00,2.733106136322021484e+00,2.671737909317016602e+00,2.613065004348754883e+00,2.556913614273071289e+00,2.503124713897705078e+00,2.451552391052246094e+00,2.402062177658081055e+00,2.354530572891235352e+00,2.308843612670898438e+00,2.264896154403686523e+00,2.222590208053588867e+00,2.181835651397705078e+00,2.142549037933349609e+00,2.104651927947998047e+00,2.068072080612182617e+00,2.032742500305175781e+00,1.998599529266357422e+00,1.965584397315979004e+00,1.933642506599426270e+00,1.902722120285034180e+00,1.872775077819824219e+00,1.843756079673767090e+00
5.000000000000000000e+00,5.000000000000000000e+00,5.000000000000000000e+00,5.000000000000000000e+00,5.000000000000000000e+00,5.000000000000000000e+00,5.000000000000000000e+00,5.000000000000000000e+00,5.000000000000000000e+00,5.000000000000000000e+00,5.000000000000000000e+00,5.000000000000000000e+00,5.000000000000000000e+00,5.000000000000000000e+00,5.000000000000000000e+00,5.000000000000000000e+00,5.000000000000000000e+00,5.000000000000000000e+00,5.000000000000000000e+00,5.000000000000000000e+00,5.000000000000000000e+00,5.000000000000000000e+00,5.000000000000000000e+00,5.000000000000000000e+00,5.000000000000000000e+00,5.000000000000000000e+00,5.000000000000000000e+00,5.000000000000000000e+00,5.000000000000000000e+00,5.000000000000000000e+00,5.000000000000000000e+00,5.000000000000000000e+00,5.000000000000000000e+00,5.000000000000000000e+00,5.000000000000000000e+00,5.000000000000000000e+00,5.000000000000000000e+00,5.000000000000000000e+00,5.000000000000000000e+00,4.849673271179199219e+00,4.659753799438476562e+00,4.484148979187011719e+00,4.321298599243164062e+00,4.169862747192382812e+00,4.028680801391601562e+00,3.896746873855590820e+00,3.773179292678833008e+00,3.657208204269409180e+00,3.548153400421142578e+00,3.445413589477539062e+00,3.348456621170043945e+00,3.256807327270507812e+00,3.170040845870971680e+00,3.087777853012084961e+00,3.009676456451416016e+00,2.935428380966186523e+00,2.864755630493164062e+00,2.797405719757080078e+00,2.733149766921997070e+00,2.671779632568359375e+00,2.613105058670043945e+00,2.556951999664306641e+00,2.503161430358886719e+00,2.451587677001953125e+00,2.402096033096313477e+00,2.354563236236572266e+00,2.308874845504760742e+00,2.264926195144653320e+00,2.222619056701660156e+00,2.181863546371459961e+00,2.142575979232788086e+00,2.104677915573120117e+00,2.068097352981567383e+00,2.032766819000244141e+00,1.998622894287109375e+00,1.965607285499572754e+00,1.933664560317993164e+00,1.902743458747863770e+00,1.872795462608337402e+00,1.843775868415832520e+00
5.000000000000000000e+00,5.000000000000000000e+00,5.000000000000000000e+00,5.000000000000000000e+00,5.000000000000000000e+00,5.000000000000000000e+00,5.000000000000000000e+00,5.000000000000000000e+00,5.000000000000000000e+00,5.000000000000000000e+00,5.000000000000000000e+00,5.000000000000000000e+00,5.000000000000000000e+00,5.000000000000000000e+00,5.000000000000000000e+00,5.000000000000000000e+00,5.000000000000000000e+00,5.000000000000000000e+00,5.000000000000000000e+00,5.000000000000000000e+00,5.000000000000000000e+00,5.000000000000000000e+00,5.000000000000000000e+00,5.000000000000000000e+00,5.000000000000000000e+00,5.000000000000000000e+00,5.000000000000000000e+00,5.000000000000000000e+00,5.000000000000000000e+00,5.000000000000000000e+00,5.000000000000000000e+00,5.000000000000000000e+00,5.000000000000000000e+00,5.000000000000000000e+00,5.000000000000000000e+00,5.000000000000000000e+00,5.000000000000000000e+00,5.000000000000000000e+00,5.000000000000000000e+00,4.849811077117919922e+00,4.659881114959716797e+00,4.484267234802246094e+00,4.321408271789550781e+00,4.169964790344238281e+00,4.028776168823242188e+00,3.896835565567016602e+00,3.773262977600097656e+00,3.657286882400512695e+00,3.548226833343505859e+00,3.445483207702636719e+00,3.348522424697875977e+00,3.256869554519653320e+00,3.170099735260009766e+00,3.087833881378173828e+00,3.009729623794555664e+00,2.935478925704956055e+00,2.864803791046142578e+00,2.797451734542846680e+00,2.733193635940551758e+00,2.671821594238281250e+00,2.613145112991333008e+00,2.556990385055541992e+00,2.503198385238647461e+00,2.451622962951660156e+00,2.402129888534545898e+00,2.354595661163330078e+00,2.308906316757202148e+00,2.264956235885620117e+00,2.222647905349731445e+00,2.181891441345214844e+00,2.142602920532226562e+00,2.104703903198242188e+00,2.068122386932373047e+00,2.032790899276733398e+00,1.998646140098571777e+00,1.965629816055297852e+00,1.933686375617980957e+00,1.902764678001403809e+00,1.872816205024719238e+00,1.843796014785766602e+00
5.000000000000000000e+00,5.000000000000000000e+00,5.000000000000000000e+00,5.000000000000000000e+00,5.000000000000000000e+00,5.000000000000000000e+00,5.000000000000000000e+00,5.000000000000000000e+00,5.000000000000000000e+00,5.000000000000000000e+00,5.000000000000000000e+00,5.000000000000000000e+00,5.000000000000000000e+00,5.000000000000000000e+00,5.000000000000000000e+00,5.000000000000000000e+00,5.000000000000000000e+00,5.000000000000000000e+00,5.000000000000000000e+00,5.000000000000000000e+00,5.000000000000000000e+00,5.000000000000000000e+00,5.000000000000000000e+00,5.000000000000000000e+00,5.000000000000000000e+00,5.000000000000000000e+00,5.000000000000000000e+00,5.000000000000000000e+00,5.000000000000000000e+00,5.000000000000000000e+00,5.000000000000000000e+00,5.000000000000000000e+00,5.000000000000000000e+00,5.000000000000000000e+00,5.000000000000000000e+00,5.000000000000000000e+00,5.000000000000000000e+00,5.000000000000000000e+00,5.000000000000000000e+00,4.849949359893798828e+00,4.660008430480957031e+00,4.484385013580322266e+00,4.321517944335937500e+00,4.170066833496093750e+00,4.028871536254882812e+00,3.896924734115600586e+00,3.773346662521362305e+00,3.657365322113037109e+00,3.548300743103027344e+00,3.445553064346313477e+00,3.348588228225708008e+00,3.256931543350219727e+00,3.170158863067626953e+00,3.087889909744262695e+00,3.009782552719116211e+00,2.935529470443725586e+00,2.864851951599121094e+00,2.797497272491455078e+00,2.733237504959106445e+00,2.671863555908203125e+00,2.613185167312622070e+00,2.557028770446777344e+00,2.503235101699829102e+00,2.451658248901367188e+00,2.402163743972778320e+00,2.354628324508666992e+00,2.308937549591064453e+00,2.264986276626586914e+00,2.222676992416381836e+00,2.181919574737548828e+00,2.142629623413085938e+00,2.104729890823364258e+00,2.068147420883178711e+00,2.032815217971801758e+00,1.998669743537902832e+00,1.965652585029602051e+00,1.933708429336547852e+00,1.902785778045654297e+00,1.872836709022521973e+00,1.843815803527832031e+00
5.000000000000000000e+00,5.000000000000000000e+00,5.000000000000000000e+00,5.000000000000000000e+00,5.000000000000000000e+00,5.000000000000000000e+00,5.000000000000000000e+00,5.000000000000000000e+00,5.000000000000000000e+00,5.000000000000000000e+00,5.000000000000000000e+00,5.000000000000000000e+00,5.000000000000000000e+00,5.000000000000000000e+00,5.000000000000000000e+00,5.000000000000000000e+00,5.000000000000000000e+00,5.000000000000000000e+00,5.000000000000000000e+00,5.000000000000000000e+00,5.000000000000000000e+00,5.000000000000000000e+00,5.000000000000000000e+00,5.000000000000000000e+00,5.000000000000000000e+00,5.000000000000000000e+00,5.000000000000000000e+00,5.000000000000000000e+00,5.000000000000000000e+00,5.000000000000000000e+00,5.000000000000000000e+00,5.000000000000000000e+00,5.000000000000000000e+00,5.000000000000000000e+00,5.000000000000000000e+00,5.000000000000000000e+00,5.000000000000000000e+00,5.000000000000000000e+00,5.000000000000000000e+00,4.850087165832519531e+00,4.660136222839355469e+00,4.484502792358398438e+00,4.321627140045166016e+00,4.170168876647949219e+00,4.028966903686523438e+00,3.897013902664184570e+00,3.773430109024047852e+00,3.657443523406982422e+00,3.548374652862548828e+00,3.445622682571411133e+00,3.348653793334960938e+00,3.256993770599365234e+00,3.170217752456665039e+00,3.087945938110351562e+00,3.009835720062255859e+00,2.935580253601074219e+00,2.864900112152099609e+00,2.797543287277221680e+00,2.733281373977661133e+00,2.671905517578125000e+00,2.613225221633911133e+00,2.557067155838012695e+00,2.503271818161010742e+00,2.451693296432495117e+00,2.402197599411010742e+00,2.354660749435424805e+00,2.308968782424926758e+00,2.265016317367553711e+00,2.222706079483032227e+00,2.181947469711303711e+00,2.142656564712524414e+00,2.104755878448486328e+00,2.068172454833984375e+00,2.032839298248291016e+00,1.998693108558654785e+00,1.965675115585327148e+00,1.933730244636535645e+00,1.902807116508483887e+00,1.872857451438903809e+00,1.843835711479187012e+00
5.000000000000000000e+00,5.000000000000000000e+00,5.000000000000000000e+00,5.000000000000000000e+00,5.000000000000000000e+00,5.000000000000000000e+00,5.000000000000000000e+00,5.000000000000000000e+00,5.000000000000000000e+00,5.000000000000000000e+00,5.000000000000000000e+00,5.000000000000000000e+00,5.000000000000000000e+00,5.000000000000000000e+00,5.000000000000000000e+00,5.000000000000000000e+00,5.000000000000000000e+00,5.000000000000000000e+00,5.000000000000000000e+00,5.000000000000000000e+00,5.000000000000000000e+00,5.000000000000000000e+00,5.000000000000000000e+00,5.000000000000000000e+00,5.000000000000000000e+00,5.000000000000000000e+00,5.000000000000000000e+00,5.000000000000000000e+00,5.000000000000000000e+00,5.000000000000000000e+00,5.000000000000000000e+00,5.000000000000000000e+00,5.000000000000000000e+00,5.000000000000000000e+00,5.000000000000000000e+00,5.000000000000000000e+00,5.000000000000000000e+00,5.000000000000000000e+00,5.000000000000000000e+00,4.850225448608398438e+00,4.660263538360595703e+00,4.484621047973632812e+00,4.321736812591552734e+00,4.170270919799804688e+00,4.029061794281005859e+00,3.897103071212768555e+00,3.773513793945312500e+00,3.657521963119506836e+00,3.548448801040649414e+00,3.445692300796508789e+00,3.348719596862792969e+00,3.257055997848510742e+00,3.170276880264282227e+00,3.088001489639282227e+00,3.009889125823974609e+00,2.935630798339843750e+00,2.864948034286499023e+00,2.797589302062988281e+00,2.733325242996215820e+00,2.671947479248046875e+00,2.613265275955200195e+00,2.557105541229248047e+00,2.503308773040771484e+00,2.451728582382202148e+00,2.402231454849243164e+00,2.354693412780761719e+00,2.309000015258789062e+00,2.265046596527099609e+00,2.222734928131103516e+00,2.181975364685058594e+00,2.142683506011962891e+00,2.104781866073608398e+00,2.068197488784790039e+00,2.032863616943359375e+00,1.998716711997985840e+00,1.965698003768920898e+00,1.933752179145812988e+00,1.902828335762023926e+00,1.872877836227416992e+00,1.843855738639831543e+00
5.000000000000000000e+00,5.000000000000000000e+00,5.000000000000000000e+00,5.000000000000000000e+00,5.000000000000000000e+00,5.000000000000000000e+00,5.000000000000000000e+00,5.000000000000000000e+00,5.000000000000000000e+00,5.000000000000000000e+00,5.000000000000000000e+00,5.000000000000000000e+00,5.000000000000000000e+00,5.000000000000000000e+00,5.000000000000000000e+00,5.000000000000000000e+00,5.000000000000000000e+00,5.000000000000000000e+00,5.000000000000000000e+00,5.000000000000000000e+00,5.000000000000000000e+00,5.000000000000000000e+00,5.000000000000000000e+00,5.000000000000000000e+00,5.000000000000000000e+00,5.000000000000000000e+00,5.000000000000000000e+00,5.000000000000000000e+00,5.000000000000000000e+00,5.000000000000000000e+00,5.000000000000000000e+00,5.000000000000000000e+00,5.000000000000000000e+00,5.000000000000000000e+00,5.000000000000000000e+00,5.000000000000000000e+00,5.000000000000000000e+00,5.000000000000000000e+00,5.000000000000000000e+00,4.850363254547119141e+00,4.660390853881835938e+00,4.484738826751708984e+00,4.321846485137939453e+00,4.170372962951660156e+00,4.029157161712646484e+00,3.897192239761352539e+00,3.773597002029418945e+00,3.657600641250610352e+00,3.548522710800170898e+00,3.445761680603027344e+00,3.348785400390625000e+00,3.257118463516235352e+00,3.170335769653320312e+00,3.088057518005371094e+00,3.009942293167114258e+00,2.935681343078613281e+00,2.864996194839477539e+00,2.797635316848754883e+00,2.733369112014770508e+00,2.671988964080810547e+00,2.613305330276489258e+00,2.557143926620483398e+00,2.503345251083374023e+00,2.451763868331909180e+00,2.402265310287475586e+00,2.354725837707519531e+00,2.309031248092651367e+00,2.265076637268066406e+00,2.222764015197753906e+00,2.182003259658813477e+00,2.142710447311401367e+00,2.104807853698730469e+00,2.068222761154174805e+00,2.032887935638427734e+00,1.998739957809448242e+00,1.965720534324645996e+00,1.933774232864379883e+00,1.902849674224853516e+00,1.872898340225219727e+00,1.843875646591186523e+00
5.000000000000000000e+00,5.000000000000000000e+00,5.000000000000000000e+00,5.000000000000000000e+00,5.000000000000000000e+00,5.000000000000000000e+00,5.000000000000000000e+00,5.000000000000000000e+00,5.000000000000000000e+00,5.000000000000000000e+00,5.000000000000000000e+00,5.000000000000000000e+00,5.000000000000000000e+00,5.000000000000000000e+00,5.000000000000000000e+00,5.000000000000000000e+00,5.000000000000000000e+00,5.000000000000000000e+00,5.000000000000000000e+00,5.000000000000000000e+00,5.000000000000000000e+00,5.000000000000000000e+00,5.000000000000000000e+00,5.000000000000000000e+00,5.000000000000000000e+00,5.000000000000000000e+00,5.000000000000000000e+00,5.000000000000000000e+00,5.000000000000000000e+00,5.000000000000000000e+00,5.000000000000000000e+00,5.000000000000000000e+00,5.000000000000000000e+00,5.000000000000000000e+00,5.000000000000000000e+00,5.000000000000000000e+00,5.000000000000000000e+00,5.000000000000000000e+00,5.000000000000000000e+00,4.850501060485839844e+00,4.660518169403076172e+00,4.484857082366943359e+00,4.321956157684326172e+00,4.170475006103515625e+00,4.029252529144287109e+00,3.897281408309936523e+00,3.773680448532104492e+00,3.657679080963134766e+00,3.548596620559692383e+00,3.445831537246704102e+00,3.348851203918457031e+00,3.257180690765380859e+00,3.170394420623779297e+00,3.088113546371459961e+00,3.009995460510253906e+00,2.935731649398803711e+00,2.865044355392456055e+00,2.797681093215942383e+00,2.733412742614746094e+00,2.672030925750732422e+00,2.613345384597778320e+00,2.557182312011718750e+00,2.503381967544555664e+00,2.451799154281616211e+00,2.402299165725708008e+00,2.354758262634277344e+00,2.309062480926513672e+00,2.265106678009033203e+00,2.222792863845825195e+00,2.182031154632568359e+00,2.142737388610839844e+00,2.104833841323852539e+00,2.068247795104980469e+00,2.032912254333496094e+00,1.998763322830200195e+00,1.965743064880371094e+00,1.933796048164367676e+00,1.902870774269104004e+00,1.872919082641601562e+00,1.843895673751831055e+00
5.000000000000000000e+00,5.000000000000000000e+00,5.000000000000000000e+00,5.000000000000000000e+00,5.000000000000000000e+00,5.000000000000000000e+00,5.000000000000000000e+00,5.000000000000000000e+00,5.000000000000000000e+00,5.000000000000000000e+00,5.000000000000000000e+00,5.000000000000000000e+00,5.000000000000000000e+00,5.000000000000000000e+00,5.000000000000000000e+00,5.000000000000000000e+00,5.000000000000000000e+00,5.000000000000000000e+00,5.000000000000000000e+00,5.000000000000000000e+00,5.000000000000000000e+00,5.000000000000000000e+00,5.000000000000000000e+00,5.000000000000000000e+00,5.000000000000000000e+00,5.000000000000000000e+00,5.000000000000000000e+00,5.000000000000000000e+00,5.000000000000000000e+00,5.000000000000000000e+00,5.000000000000000000e+00,5.000000000000000000e+00,5.000000000000000000e+00,5.000000000000000000e+00,5.000000000000000000e+00,5.000000000000000000e+00,5.000000000000000000e+00,5.000000000000000000e+00,5.000000000000000000e+00,4.850639343261718750e+00,4.660645484924316406e+00,4.484974861145019531e+00,4.322065830230712891e+00,4.170576572418212891e+00,4.029347896575927734e+00,3.897370100021362305e+00,3.773764133453369141e+00,3.657757759094238281e+00,3.548670053482055664e+00,3.445901155471801758e+00,3.348917007446289062e+00,3.257242679595947266e+00,3.170453548431396484e+00,3.088169574737548828e+00,3.010048627853393555e+00,2.935782194137573242e+00,2.865092754364013672e+00,2.797727108001708984e+00,2.733456611633300781e+00,2.672072887420654297e+00,2.613385438919067383e+00,2.557220458984375000e+00,2.503418922424316406e+00,2.451834440231323242e+00,2.402333021163940430e+00,2.354790925979614258e+00,2.309093952178955078e+00,2.265136718750000000e+00,2.222821950912475586e+00,2.182059049606323242e+00,2.142764329910278320e+00,2.104859828948974609e+00,2.068272829055786133e+00,2.032936334609985352e+00,1.998786926269531250e+00,1.965765953063964844e+00,1.933818101882934570e+00,1.902891993522644043e+00,1.872939586639404297e+00,1.843915462493896484e+00
5.000000000000000000e+00,5.000000000000000000e+00,5.000000000000000000e+00,5.000000000000000000e+00,5.000000000000000000e+00,5.000000000000000000e+00,5.000000000000000000e+00,5.000000000000000000e+00,5.000000000000000000e+00,5.000000000000000000e+00,5.000000000000000000e+00,5.000000000000000000e+00,5.000000000000000000e+00,5.000000000000000000e+00,5.000000000000000000e+00,5.000000000000000000e+00,5.000000000000000000e+00,5.000000000000000000e+00,5.000000000000000000e+00,5.000000000000000000e+00,5.000000000000000000e+00,5.000000000000000000e+00,5.000000000000000000e+00,5.000000000000000000e+00,5.000000000000000000e+00,5.000000000000000000e+00,5.000000000000000000e+00,5.000000000000000000e+00,5.000000000000000000e+00,5.000000000000000000e+00,5.000000000000000000e+00,5.000000000000000000e+00,5.000000000000000000e+00,5.000000000000000000e+00,5.000000000000000000e+00,5.000000000000000000e+00,5.000000000000000000e+00,5.000000000000000000e+00,5.000000000000000000e+00,4.850777626037597656e+00,4.660773277282714844e+00,4.485092639923095703e+00,4.322175502777099609e+00,4.170679092407226562e+00,4.029442787170410156e+00,3.897459268569946289e+00,3.773847818374633789e+00,3.657836198806762695e+00,3.548743963241577148e+00,3.445971012115478516e+00,3.348983049392700195e+00,3.257304906845092773e+00,3.170512676239013672e+00,3.088225603103637695e+00,3.010101556777954102e+00,2.935832977294921875e+00,2.865140914916992188e+00,2.797772884368896484e+00,2.733500480651855469e+00,2.672114849090576172e+00,2.613425731658935547e+00,2.557258844375610352e+00,2.503455638885498047e+00,2.451869726181030273e+00,2.402366876602172852e+00,2.354823589324951172e+00,2.309125185012817383e+00,2.265166759490966797e+00,2.222850799560546875e+00,2.182087182998657227e+00,2.142791271209716797e+00,2.104885816574096680e+00,2.068298101425170898e+00,2.032960653305053711e+00,1.998810291290283203e+00,1.965788483619689941e+00,1.933839917182922363e+00,1.902913331985473633e+00,1.872960209846496582e+00,1.843935608863830566e+00
5.000000000000000000e+00,5.000000000000000000e+00,5.000000000000000000e+00,5.000000000000000000e+00,5.000000000000000000e+00,5.000000000000000000e+00,5.000000000000000000e+00,5.000000000000000000e+00,5.000000000000000000e+00,5.000000000000000000e+00,5.000000000000000000e+00,5.000000000000000000e+00,5.000000000000000000e+00,5.000000000000000000e+00,5.000000000000000000e+00,5.000000000000000000e+00,5.000000000000000000e+00,5.000000000000000000e+00,5.000000000000000000e+00,5.000000000000000000e+00,5.000000000000000000e+00,5.000000000000000000e+00,5.000000000000000000e+00,5.000000000000000000e+00,5.000000000000000000e+00,5.000000000000000000e+00,5.000000000000000000e+00,5.000000000000000000e+00,5.000000000000000000e+00,5.000000000000000000e+00,5.000000000000000000e+00,5.000000000000000000e+00,5.000000000000000000e+00,5.000000000000000000e+00,5.000000000000000000e+00,5.000000000000000000e+00,5.000000000000000000e+00,5.000000000000000000e+00,5.000000000000000000e+00,4.850915431976318359e+00,4.660900592803955078e+00,4.485210895538330078e+00,4.322284698486328125e+00,4.170781135559082031e+00,4.029538154602050781e+00,3.897548675537109375e+00,3.773931264877319336e+00,3.657914400100708008e+00,3.548817873001098633e+00,3.446040630340576172e+00,3.349048376083374023e+00,3.257367134094238281e+00,3.170571565628051758e+00,3.088281393051147461e+00,3.010154724121093750e+00,2.935883522033691406e+00,2.865189075469970703e+00,2.797818899154663086e+00,2.733544349670410156e+00,2.672156810760498047e+00,2.613465547561645508e+00,2.557297229766845703e+00,2.503492355346679688e+00,2.451905012130737305e+00,2.402400732040405273e+00,2.354856014251708984e+00,2.309156417846679688e+00,2.265197038650512695e+00,2.222879886627197266e+00,2.182115077972412109e+00,2.142818212509155273e+00,2.104911804199218750e+00,2.068323135375976562e+00,2.032984733581542969e+00,1.998833775520324707e+00,1.965811252593994141e+00,1.933861851692199707e+00,1.902934432029724121e+00,1.872980713844299316e+00,1.843955397605895996e+00
5.000000000000000000e+00,5.000000000000000000e+00,5.000000000000000000e+00,5.000000000000000000e+00,5.000000000000000000e+00,5.000000000000000000e+00,5.000000000000000000e+00,5.000000000000000000e+00,5.000000000000000000e+00,5.000000000000000000e+00,5.000000000000000000e+00,5.000000000000000000e+00,5.000000000000000000e+00,5.000000000000000000e+00,5.000000000000000000e+00,5.000000000000000000e+00,5.000000000000000000e+00,5.000000000000000000e+00,5.000000000000000000e+00,5.000000000000000000e+00,5.000000000000000000e+00,5.000000000000000000e+00,5.000000000000000000e+00,5.000000000000000000e+00,5.000000000000000000e+00,5.000000000000000000e+00,5.000000000000000000e+00,5.000000000000000000e+00,5.000000000000000000e+00,5.000000000000000000e+00,5.000000000000000000e+00,5.000000000000000000e+00,5.000000000000000000e+00,5.000000000000000000e+00,5.000000000000000000e+00,5.000000000000000000e+00,5.000000000000000000e+00,5.000000000000000000e+00,5.000000000000000000e+00,4.851053237915039062e+00,4.661027908325195312e+00,4.485329151153564453e+00,4.322394371032714844e+00,4.170882701873779297e+00,4.029633522033691406e+00,3.897637844085693359e+00,3.774014949798583984e+00,3.657992839813232422e+00,3.548892021179199219e+00,3.446110248565673828e+00,3.349114418029785156e+00,3.257429599761962891e+00,3.170630693435668945e+00,3.088337182998657227e+00,3.010207891464233398e+00,2.935934066772460938e+00,2.865236997604370117e+00,2.797864913940429688e+00,2.733588218688964844e+00,2.672198534011840820e+00,2.613505601882934570e+00,2.557335615158081055e+00,2.503529310226440430e+00,2.451940298080444336e+00,2.402434587478637695e+00,2.354888677597045898e+00,2.309187650680541992e+00,2.265227079391479492e+00,2.222908973693847656e+00,2.182142734527587891e+00,2.142845153808593750e+00,2.104937791824340820e+00,2.068348169326782227e+00,2.033009052276611328e+00,1.998857140541076660e+00,1.965833902359008789e+00,1.933883905410766602e+00,1.902955889701843262e+00,1.873001456260681152e+00,1.843975305557250977e+00
5.000000000000000000e+00,5.000000000000000000e+00,5.000000000000000000e+00,5.000000000000000000e+00,5.000000000000000000e+00,5.000000000000000000e+00,5.000000000000000000e+00,5.000000000000000000e+00,5.000000000000000000e+00,5.000000000000000000e+00,5.000000000000000000e+00,5.000000000000000000e+00,5.000000000000000000e+00,5.000000000000000000e+00,5.000000000000000000e+00,5.000000000000000000e+00,5.000000000000000000e+00,5.000000000000000000e+00,5.000000000000000000e+00,5.000000000000000000e+00,5.000000000000000000e+00,5.000000000000000000e+00,5.000000000000000000e+00,5.000000000000000000e+00,5.000000000000000000e+00,5.000000000000000000e+00,5.000000000000000000e+00,5.000000000000000000e+00,5.000000000000000000e+00,5.000000000000000000e+00,5.000000000000000000e+00,5.000000000000000000e+00,5.000000000000000000e+00,5.000000000000000000e+00,5.000000000000000000e+00,5.000000000000000000e+00,5.000000000000000000e+00,5.000000000000000000e+00,5.000000000000000000e+00,4.851191043853759766e+00,4.661155223846435547e+00,4.485446929931640625e+00,4.322504043579101562e+00,4.170985221862792969e+00,4.029728889465332031e+00,3.897727012634277344e+00,3.774098157882690430e+00,3.658071517944335938e+00,3.548965930938720703e+00,3.446179628372192383e+00,3.349180221557617188e+00,3.257491827011108398e+00,3.170689582824707031e+00,3.088393211364746094e+00,3.010261058807373047e+00,2.935984611511230469e+00,2.865285158157348633e+00,2.797910928726196289e+00,2.733632087707519531e+00,2.672240257263183594e+00,2.613545656204223633e+00,2.557374000549316406e+00,2.503565788269042969e+00,2.451975584030151367e+00,2.402468442916870117e+00,2.354920864105224609e+00,2.309218883514404297e+00,2.265257120132446289e+00,2.222938060760498047e+00,2.182170867919921875e+00,2.142872095108032227e+00,2.104963779449462891e+00,2.068373203277587891e+00,2.033033370971679688e+00,1.998880743980407715e+00,1.965856432914733887e+00,1.933905720710754395e+00,1.902976989746093750e+00,1.873021960258483887e+00,1.843995332717895508e+00
5.000000000000000000e+00,5.000000000000000000e+00,5.000000000000000000e+00,5.000000000000000000e+00,5.000000000000000000e+00,5.000000000000000000e+00,5.000000000000000000e+00,5.000000000000000000e+00,5.000000000000000000e+00,5.000000000000000000e+00,5.000000000000000000e+00,5.000000000000000000e+00,5.000000000000000000e+00,5.000000000000000000e+00,5.000000000000000000e+00,5.000000000000000000e+00,5.000000000000000000e+00,5.000000000000000000e+00,5.000000000000000000e+00,5.000000000000000000e+00,5.000000000000000000e+00,5.000000000000000000e+00,5.000000000000000000e+00,5.000000000000000000e+00,5.000000000000000000e+00,5.000000000000000000e+00,5.000000000000000000e+00,5.000000000000000000e+00,5.000000000000000000e+00,5.000000000000000000e+00,5.000000000000000000e+00,5.000000000000000000e+00,5.000000000000000000e+00,5.000000000000000000e+00,5.000000000000000000e+00,5.000000000000000000e+00,5.000000000000000000e+00,5.000000000000000000e+00,5.000000000000000000e+00,4.851329326629638672e+00,4.661282539367675781e+00,4.485565185546875000e+00,4.322613716125488281e+00,4.171087265014648438e+00,4.029823780059814453e+00,3.897816181182861328e+00,3.774181842803955078e+00,3.658149957656860352e+00,3.549039840698242188e+00,3.446249485015869141e+00,3.349246025085449219e+00,3.257554054260253906e+00,3.170748472213745117e+00,3.088449239730834961e+00,3.010314226150512695e+00,2.936035156250000000e+00,2.865333318710327148e+00,2.797956705093383789e+00,2.733675718307495117e+00,2.672282218933105469e+00,2.613585948944091797e+00,2.557412385940551758e+00,2.503602743148803711e+00,2.452010869979858398e+00,2.402502298355102539e+00,2.354953527450561523e+00,2.309250354766845703e+00,2.265287399291992188e+00,2.222966909408569336e+00,2.182198762893676758e+00,2.142899036407470703e+00,2.104989767074584961e+00,2.068398237228393555e+00,2.033057689666748047e+00,1.998904109001159668e+00,1.965879201889038086e+00,1.933927774429321289e+00,1.902998328208923340e+00,1.873042464256286621e+00,1.844015240669250488e+00
5.000000000000000000e+00,5.000000000000000000e+00,5.000000000000000000e+00,5.000000000000000000e+00,5.000000000000000000e+00,5.000000000000000000e+00,5.000000000000000000e+00,5.000000000000000000e+00,5.000000000000000000e+00,5.000000000000000000e+00,5.000000000000000000e+00,5.000000000000000000e+00,5.000000000000000000e+00,5.000000000000000000e+00,5.000000000000000000e+00,5.000000000000000000e+00,5.000000000000000000e+00,5.000000000000000000e+00,5.000000000000000000e+00,5.000000000000000000e+00,5.000000000000000000e+00,5.000000000000000000e+00,5.000000000000000000e+00,5.000000000000000000e+00,5.000000000000000000e+00,5.000000000000000000e+00,5.000000000000000000e+00,5.000000000000000000e+00,5.000000000000000000e+00,5.000000000000000000e+00,5.000000000000000000e+00,5.000000000000000000e+00,5.000000000000000000e+00,5.000000000000000000e+00,5.000000000000000000e+00,5.000000000000000000e+00,5.000000000000000000e+00,5.000000000000000000e+00,5.000000000000000000e+00,4.851467609405517578e+00,4.661410331726074219e+00,4.485682964324951172e+00,4.322723388671875000e+00,4.171189308166503906e+00,4.029919147491455078e+00,3.897904872894287109e+00,3.774265527725219727e+00,3.658228635787963867e+00,3.549113512039184570e+00,3.446319103240966797e+00,3.349311828613281250e+00,3.257616043090820312e+00,3.170807361602783203e+00,3.088505268096923828e+00,3.010367631912231445e+00,2.936085700988769531e+00,2.865381479263305664e+00,2.798002719879150391e+00,2.733719587326049805e+00,2.672324180603027344e+00,2.613626003265380859e+00,2.557450532913208008e+00,2.503639459609985352e+00,2.452046155929565430e+00,2.402536153793334961e+00,2.354986190795898438e+00,2.309281587600708008e+00,2.265317440032958984e+00,2.222995758056640625e+00,2.182226657867431641e+00,2.142925977706909180e+00,2.105015754699707031e+00,2.068423509597778320e+00,2.033082008361816406e+00,1.998927474021911621e+00,1.965901851654052734e+00,1.933949589729309082e+00,1.903019547462463379e+00,1.873063087463378906e+00,1.844035267829895020e+00
5.000000000000000000e+00,5.000000000000000000e+00,5.000000000000000000e+00,5.000000000000000000e+00,5.000000000000000000e+00,5.000000000000000000e+00,5.000000000000000000e+00,5.000000000000000000e+00,5.000000000000000000e+00,5.000000000000000000e+00,5.000000000000000000e+00,5.000000000000000000e+00,5.000000000000000000e+00,5.000000000000000000e+00,5.000000000000000000e+00,5.000000000000000000e+00,5.000000000000000000e+00,5.000000000000000000e+00,5.000000000000000000e+00,5.000000000000000000e+00,5.000000000000000000e+00,5.000000000000000000e+00,5.000000000000000000e+00,5.000000000000000000e+00,5.000000000000000000e+00,5.000000000000000000e+00,5.000000000000000000e+00,5.000000000000000000e+00,5.000000000000000000e+00,5.000000000000000000e+00,5.000000000000000000e+00,5.000000000000000000e+00,5.000000000000000000e+00,5.000000000000000000e+00,5.000000000000000000e+00,5.000000000000000000e+00,5.000000000000000000e+00,5.000000000000000000e+00,5.000000000000000000e+00,4.851605892181396484e+00,4.661537647247314453e+00,4.485800743103027344e+00,4.322832584381103516e+00,4.171291351318359375e+00,4.030014514923095703e+00,3.897994041442871094e+00,3.774349212646484375e+00,3.658307075500488281e+00,3.549187421798706055e+00,3.446388959884643555e+00,3.349377870559692383e+00,3.257678270339965820e+00,3.170866489410400391e+00,3.088561296463012695e+00,3.010420560836791992e+00,2.936136245727539062e+00,2.865429878234863281e+00,2.798048496246337891e+00,2.733763456344604492e+00,2.672366142272949219e+00,2.613665819168090820e+00,2.557488918304443359e+00,2.503676176071166992e+00,2.452081441879272461e+00,2.402570009231567383e+00,2.355018615722656250e+00,2.309312820434570312e+00,2.265347480773925781e+00,2.223024845123291016e+00,2.182254791259765625e+00,2.142952919006347656e+00,2.105041742324829102e+00,2.068448543548583984e+00,2.033106088638305664e+00,1.998950958251953125e+00,1.965924620628356934e+00,1.933971524238586426e+00,1.903040647506713867e+00,1.873083591461181641e+00,1.844055175781250000e+00
5.000000000000000000e+00,5.000000000000000000e+00,5.000000000000000000e+00,5.000000000000000000e+00,5.000000000000000000e+00,5.000000000000000000e+00,5.000000000000000000e+00,5.000000000000000000e+00,5.000000000000000000e+00,5.000000000000000000e+00,5.000000000000000000e+00,5.000000000000000000e+00,5.000000000000000000e+00,5.000000000000000000e+00,5.000000000000000000e+00,5.000000000000000000e+00,5.000000000000000000e+00,5.000000000000000000e+00,5.000000000000000000e+00,5.000000000000000000e+00,5.000000000000000000e+00,5.000000000000000000e+00,5.000000000000000000e+00,5.000000000000000000e+00,5.000000000000000000e+00,5.000000000000000000e+00,5.000000000000000000e+00,5.000000000000000000e+00,5.000000000000000000e+00,5.000000000000000000e+00,5.000000000000000000e+00,5.000000000000000000e+00,5.000000000000000000e+00,5.000000000000000000e+00,5.000000000000000000e+00,5.000000000000000000e+00,5.000000000000000000e+00,5.000000000000000000e+00,5.000000000000000000e+00,4.851743698120117188e+00,4.661665439605712891e+00,4.485918998718261719e+00,4.322942733764648438e+00,4.171393394470214844e+00,4.030109882354736328e+00,3.898083209991455078e+00,3.774432659149169922e+00,3.658385276794433594e+00,3.549261331558227539e+00,3.446458578109741211e+00,3.349443197250366211e+00,3.257740736007690430e+00,3.170925378799438477e+00,3.088617324829101562e+00,3.010473728179931641e+00,2.936187028884887695e+00,2.865478038787841797e+00,2.798094511032104492e+00,2.733807325363159180e+00,2.672408103942871094e+00,2.613705873489379883e+00,2.557527542114257812e+00,2.503713130950927734e+00,2.452116489410400391e+00,2.402603864669799805e+00,2.355051279067993164e+00,2.309344053268432617e+00,2.265377521514892578e+00,2.223053932189941406e+00,2.182282686233520508e+00,2.142979860305786133e+00,2.105067729949951172e+00,2.068473815917968750e+00,2.033130407333374023e+00,1.998974323272705078e+00,1.965947151184082031e+00,1.933993577957153320e+00,1.903061985969543457e+00,1.873104333877563477e+00,1.844074964523315430e+00
4.873915672302246094e+00,4.872718811035156250e+00,4.871522426605224609e+00,4.870326519012451172e+00,4.869131088256835938e+00,4.867936134338378906e+00,4.866742610931396484e+00,4.865549087524414062e+00,4.864356040954589844e+00,4.863163948059082031e+00,4.861971855163574219e+00,4.860780715942382812e+00,4.859590530395507812e+00,4.858400344848632812e+00,4.857211112976074219e+00,4.856022357940673828e+00,4.854834079742431641e+00,4.853646278381347656e+00,4.852459430694580078e+00,4.851273059844970703e+00,4.850087165832519531e+00,4.848901748657226562e+00,4.847716808319091797e+00,4.846532821655273438e+00,4.845349311828613281e+00,4.844166278839111328e+00,4.842983722686767578e+00,4.841802120208740234e+00,4.840620517730712891e+00,4.839439868927001953e+00,4.838259696960449219e+00,4.837080001831054688e+00,4.835901260375976562e+00,4.834722518920898438e+00,4.833544731140136719e+00,4.832367897033691406e+00,4.831190586090087891e+00,4.830014705657958984e+00,4.828839302062988281e+00,4.827664375305175781e+00,4.661792755126953125e+00,4.486037254333496094e+00,4.323052406311035156e+00,4.171495437622070312e+00,4.030205249786376953e+00,3.898172616958618164e+00,3.774516344070434570e+00,3.658463954925537109e+00,3.549335241317749023e+00,3.446528434753417969e+00,3.349509239196777344e+00,3.257802963256835938e+00,3.170984506607055664e+00,3.088672876358032227e+00,3.010526895523071289e+00,2.936237573623657227e+00,2.865525960922241211e+00,2.798140525817871094e+00,2.733851194381713867e+00,2.672449827194213867e+00,2.613746166229248047e+00,2.557565927505493164e+00,2.503749847412109375e+00,2.452151775360107422e+00,2.402637720108032227e+00,2.355083703994750977e+00,2.309375286102294922e+00,2.265407800674438477e+00,2.223082780838012695e+00,2.182310342788696289e+00,2.143006801605224609e+00,2.105093717575073242e+00,2.068498611450195312e+00,2.033154487609863281e+00,1.998997926712036133e+00,1.965969800949096680e+00,1.934015393257141113e+00,1.903083205223083496e+00,1.873124837875366211e+00,1.844095110893249512e+00
3.776963710784912109e+00,3.776244878768920898e+00,3.775526285171508789e+00,3.774808168411254883e+00,3.774089813232421875e+00,3.773371934890747070e+00,3.772654533386230469e+00,3.771937370300292969e+00,3.771220684051513672e+00,3.770503520965576172e+00,3.769787311553955078e+00,3.769071102142333984e+00,3.768355369567871094e+00,3.767639875411987305e+00,3.766924142837524414e+00,3.766209363937377930e+00,3.765494585037231445e+00,3.764780282974243164e+00,3.764065980911254883e+00,3.763351678848266602e+00,3.762638092041015625e+00,3.761924743652343750e+00,3.761211633682250977e+00,3.760499000549316406e+00,3.759785890579223633e+00,3.759073734283447266e+00,3.758361816406250000e+00,3.757650136947631836e+00,3.756938457489013672e+00,3.756227016448974609e+00,3.755516052246093750e+00,3.754805326461791992e+00,3.754095077514648438e+00,3.753384828567504883e+00,3.752674579620361328e+00,3.751965045928955078e+00,3.751255750656127930e+00,3.750546693801879883e+00,3.749838113784790039e+00,3.749129533767700195e+00,3.748420953750610352e+00,3.747712850570678711e+00,3.747005224227905273e+00,3.746297836303710938e+00,3.745590686798095703e+00,3.744883298873901367e+00,3.744176626205444336e+00,3.658542394638061523e+00,3.549409151077270508e+00,3.446597814559936523e+00,3.349575042724609375e+00,3.257865428924560547e+00,3.171043157577514648e+00,3.088728904724121094e+00,3.010580062866210938e+00,2.936288118362426758e+00,2.865574121475219727e+00,2.798186302185058594e+00,2.733895063400268555e+00,2.672491788864135742e+00,2.613786220550537109e+00,2.557604312896728516e+00,2.503786563873291016e+00,2.452187061309814453e+00,2.402671575546264648e+00,2.355116128921508789e+00,2.309406757354736328e+00,2.265437841415405273e+00,2.223111629486083984e+00,2.182338476181030273e+00,2.143033742904663086e+00,2.105119705200195312e+00,2.068523883819580078e+00,2.033178806304931641e+00,1.999021291732788086e+00,1.965992569923400879e+00,1.934037446975708008e+00,1.903104543685913086e+00,1.873145341873168945e+00,1.844114899635314941e+00
3.083070039749145508e+00,3.082591056823730469e+00,3.082112312316894531e+00,3.081633329391479492e+00,3.081154823303222656e+00,3.080676555633544922e+00,3.080198287963867188e+00,3.079720258712768555e+00,3.079241991043090820e+00,3.078764200210571289e+00,3.078286647796630859e+00,3.077809095382690430e+00,3.077331781387329102e+00,3.076854467391967773e+00,3.076377391815185547e+00,3.075900554656982422e+00,3.075423717498779297e+00,3.074947118759155273e+00,3.074470520019531250e+00,3.073994159698486328e+00,3.073518037796020508e+00,3.073041915893554688e+00,3.072566270828247070e+00,3.072090148925781250e+00,3.071614742279052734e+00,3.071139335632324219e+00,3.070663928985595703e+00,3.070188760757446289e+00,3.069713592529296875e+00,3.069238901138305664e+00,3.068764209747314453e+00,3.068289518356323242e+00,3.067815303802490234e+00,3.067340850830078125e+00,3.066866636276245117e+00,3.066392660140991211e+00,3.065918922424316406e+00,3.065445423126220703e+00,3.064971685409545898e+00,3.064498186111450195e+00,3.064025163650512695e+00,3.063552141189575195e+00,3.063079118728637695e+00,3.062606096267700195e+00,3.062133550643920898e+00,3.061661005020141602e+00,3.061188697814941406e+00,3.060716390609741211e+00,3.060244083404541016e+00,3.059772253036499023e+00,3.059300422668457031e+00,3.058828830718994141e+00,3.058357477188110352e+00,3.057886123657226562e+00,3.010633230209350586e+00,2.936338424682617188e+00,2.865622282028198242e+00,2.798232316970825195e+00,2.733938694000244141e+00,2.672533750534057617e+00,2.613826274871826172e+00,2.557642459869384766e+00,2.503823280334472656e+00,2.452222585678100586e+00,2.402705430984497070e+00,2.355148792266845703e+00,2.309437990188598633e+00,2.265467882156372070e+00,2.223140716552734375e+00,2.182366371154785156e+00,2.143060684204101562e+00,2.105145692825317383e+00,2.068548917770385742e+00,2.033203125000000000e+00,1.999044656753540039e+00,1.966015100479125977e+00,1.934059262275695801e+00,1.903125762939453125e+00,1.873166084289550781e+00,1.844135046005249023e+00
2.604566097259521484e+00,2.604224205017089844e+00,2.603882312774658203e+00,2.603540658950805664e+00,2.603199005126953125e+00,2.602857589721679688e+00,2.602516174316406250e+00,2.602174758911132812e+00,2.601833581924438477e+00,2.601492404937744141e+00,2.601151466369628906e+00,2.600810527801513672e+00,2.600469350814819336e+00,2.600128650665283203e+00,2.599787950515747070e+00,2.599447488784790039e+00,2.599107027053833008e+00,2.598766326904296875e+00,2.598426103591918945e+00,2.598085880279541016e+00,2.597745656967163086e+00,2.597405672073364258e+00,2.597065448760986328e+00,2.596725702285766602e+00,2.596385955810546875e+00,2.596046209335327148e+00,2.595706701278686523e+00,2.595366954803466797e+00,2.595027446746826172e+00,2.594688177108764648e+00,2.594348907470703125e+00,2.594009637832641602e+00,2.593670368194580078e+00,2.593331575393676758e+00,2.592992544174194336e+00,2.592653751373291016e+00,2.592315196990966797e+00,2.591976404190063477e+00,2.591637849807739258e+00,2.591299295425415039e+00,2.590960979461669922e+00,2.590622663497924805e+00,2.590284347534179688e+00,2.589946269989013672e+00,2.589608192443847656e+00,2.589270353317260742e+00,2.588932514190673828e+00,2.588594436645507812e+00,2.588256835937500000e+00,2.587919235229492188e+00,2.587581872940063477e+00,2.587244510650634766e+00,2.586906909942626953e+00,2.586569786071777344e+00,2.586232662200927734e+00,2.585895538330078125e+00,2.585558652877807617e+00,2.585221767425537109e+00,2.584884881973266602e+00,2.584548234939575195e+00,2.584211587905883789e+00,2.557680845260620117e+00,2.503859996795654297e+00,2.452257871627807617e+00,2.402739286422729492e+00,2.355181217193603516e+00,2.309469223022460938e+00,2.265497922897338867e+00,2.223169803619384766e+00,2.182394266128540039e+00,2.143087625503540039e+00,2.105171680450439453e+00,2.068573951721191406e+00,2.033227443695068359e+00,1.999068140983581543e+00,1.966037988662719727e+00,1.934081435203552246e+00,1.903146862983703613e+00,1.873186469078063965e+00,1.844154834747314453e+00
2.254692792892456055e+00,2.254434347152709961e+00,2.254175901412963867e+00,2.253917455673217773e+00,2.253659248352050781e+00,2.253400802612304688e+00,2.253142595291137695e+00,2.252884387969970703e+00,2.252626419067382812e+00,2.252368211746215820e+00,2.252110242843627930e+00,2.251852273941040039e+00,2.251594305038452148e+00,2.251336574554443359e+00,2.251078844070434570e+00,2.250821113586425781e+00,2.250563621520996094e+00,2.250305891036987305e+00,2.250048398971557617e+00,2.249790906906127930e+00,2.249533414840698242e+00,2.249276161193847656e+00,2.249018907546997070e+00,2.248761653900146484e+00,2.248505592346191406e+00,2.248250722885131836e+00,2.247995853424072266e+00,2.247741222381591797e+00,2.247486829757690430e+00,2.247232198715209961e+00,2.246977806091308594e+00,2.246723175048828125e+00,2.246468782424926758e+00,2.246214628219604492e+00,2.245960235595703125e+00,2.245706081390380859e+00,2.245451688766479492e+00,2.245197772979736328e+00,2.244943618774414062e+00,2.244689702987670898e+00,2.244435787200927734e+00,2.244181871414184570e+00,2.243927955627441406e+00,2.243674278259277344e+00,2.243420600891113281e+00,2.243167161941528320e+00,2.242913484573364258e+00,2.242659807205200195e+00,2.242406368255615234e+00,2.242153167724609375e+00,2.241899728775024414e+00,2.241646289825439453e+00,2.241393089294433594e+00,2.241139888763427734e+00,2.240886926651000977e+00,2.240633726119995117e+00,2.240380764007568359e+00,2.240127801895141602e+00,2.239874839782714844e+00,2.239622116088867188e+00,2.239369392395019531e+00,2.239116430282592773e+00,2.238863945007324219e+00,2.238611221313476562e+00,2.238358736038208008e+00,2.238106250762939453e+00,2.237853765487670898e+00,2.237601280212402344e+00,2.223198890686035156e+00,2.182422399520874023e+00,2.143114566802978516e+00,2.105197668075561523e+00,2.068599224090576172e+00,2.033251523971557617e+00,1.999091506004333496e+00,1.966060519218444824e+00,1.934103250503540039e+00,1.903168201446533203e+00,1.873207211494445801e+00,1.844174981117248535e+00
1.987787604331970215e+00,1.987586736679077148e+00,1.987385869026184082e+00,1.987184882164001465e+00,1.986984133720397949e+00,1.986783385276794434e+00,1.986582517623901367e+00,1.986381888389587402e+00,1.986181259155273438e+00,1.985980510711669922e+00,1.985780000686645508e+00,1.985579609870910645e+00,1.985378861427307129e+00,1.985178470611572266e+00,1.984978199005126953e+00,1.984777688980102539e+00,1.984577417373657227e+00,1.984377145767211914e+00,1.984176754951477051e+00,1.983976602554321289e+00,1.983776450157165527e+00,1.983576178550720215e+00,1.983376145362854004e+00,1.983176112174987793e+00,1.982975959777832031e+00,1.982776045799255371e+00,1.982576251029968262e+00,1.982376217842102051e+00,1.982176423072814941e+00,1.981976628303527832e+00,1.981776714324951172e+00,1.981577038764953613e+00,1.981377363204956055e+00,1.981177568435668945e+00,1.980978131294250488e+00,1.980778574943542480e+00,1.980578899383544922e+00,1.980379462242126465e+00,1.980180025100708008e+00,1.979980468750000000e+00,1.979781150817871094e+00,1.979581952095031738e+00,1.979382514953613281e+00,1.979183316230773926e+00,1.978984117507934570e+00,1.978784799575805664e+00,1.978585720062255859e+00,1.978386759757995605e+00,1.978187561035156250e+00,1.977988600730895996e+00,1.977789640426635742e+00,1.977590560913085938e+00,1.977391719818115234e+00,1.977192997932434082e+00,1.976994037628173828e+00,1.976795315742492676e+00,1.976596593856811523e+00,1.976397752761840820e+00,1.976199150085449219e+00,1.976000666618347168e+00,1.975801944732666016e+00,1.975603461265563965e+00,1.975404977798461914e+00,1.975206375122070312e+00,1.975008130073547363e+00,1.974809765815734863e+00,1.974611282348632812e+00,1.974413037300109863e+00,1.974214911460876465e+00,1.974016547203063965e+00,1.973818421363830566e+00,1.973620295524597168e+00,1.973422050476074219e+00,1.973224163055419922e+00,1.973026156425476074e+00,1.966083407402038574e+00,1.934125065803527832e+00,1.903189420700073242e+00,1.873227715492248535e+00,1.844194889068603516e+00
1.777385115623474121e+00,1.777224540710449219e+00,1.777063727378845215e+00,1.776903152465820312e+00,1.776742696762084961e+00,1.776582002639770508e+00,1.776421546936035156e+00,1.776261091232299805e+00,1.776100516319274902e+00,1.775940179824829102e+00,1.775779843330383301e+00,1.775619387626647949e+00,1.775459051132202148e+00,1.775298833847045898e+00,1.775138378143310547e+00,1.774978160858154297e+00,1.774818062782287598e+00,1.774657726287841797e+00,1.774497628211975098e+00,1.774337530136108398e+00,1.774177312850952148e+00,1.774017214775085449e+00,1.773857235908508301e+00,1.773697137832641602e+00,1.773537158966064453e+00,1.773377180099487305e+00,1.773217201232910156e+00,1.773057341575622559e+00,1.772897481918334961e+00,1.772737503051757812e+00,1.772577762603759766e+00,1.772418022155761719e+00,1.772258162498474121e+00,1.772098422050476074e+00,1.771938800811767578e+00,1.771778941154479980e+00,1.771619319915771484e+00,1.771459817886352539e+00,1.771300077438354492e+00,1.771140575408935547e+00,1.770981073379516602e+00,1.770821452140808105e+00,1.770662069320678711e+00,1.770502686500549316e+00,1.770343065261840820e+00,1.770183801651000977e+00,1.770024418830871582e+00,1.769865036010742188e+00,1.769705772399902344e+00,1.769546508789062500e+00,1.769387125968933105e+00,1.769227981567382812e+00,1.769068837165832520e+00,1.768909573554992676e+00,1.768750429153442383e+00,1.768591403961181641e+00,1.768432259559631348e+00,1.768273234367370605e+00,1.768114328384399414e+00,1.767955183982849121e+00,1.767796277999877930e+00,1.767637372016906738e+00,1.767478346824645996e+00,1.767319560050964355e+00,1.767160773277282715e+00,1.767001748085021973e+00,1.766843080520629883e+00,1.766684412956237793e+00,1.766525506973266602e+00,1.766366839408874512e+00,1.766208291053771973e+00,1.766049504280090332e+00,1.765890955924987793e+00,1.765732407569885254e+00,1.765573740005493164e+00,1.765415310859680176e+00,1.765256762504577637e+00,1.765098214149475098e+00,1.764939785003662109e+00,1.764781475067138672e+00
1.607260346412658691e+00,1.607128977775573730e+00,1.606997609138488770e+00,1.606866240501403809e+00,1.606734991073608398e+00,1.606603741645812988e+00,1.606472373008728027e+00,1.606341123580932617e+00,1.606209993362426758e+00,1.606078624725341797e+00,1.605947494506835938e+00,1.605816364288330078e+00,1.605685114860534668e+00,1.605554103851318359e+00,1.605422973632812500e+00,1.605291843414306641e+00,1.605160832405090332e+00,1.605029821395874023e+00,1.604898691177368164e+00,1.604767799377441406e+00,1.604636788368225098e+00,1.604505777359008789e+00,1.604374885559082031e+00,1.604243993759155273e+00,1.604113101959228516e+00,1.603982210159301758e+00,1.603851437568664551e+00,1.603720545768737793e+00,1.603589773178100586e+00,1.603459000587463379e+00,1.603328108787536621e+00,1.603197455406188965e+00,1.603066802024841309e+00,1.602936029434204102e+00,1.602805376052856445e+00,1.602674722671508789e+00,1.602544069290161133e+00,1.602413535118103027e+00,1.602282881736755371e+00,1.602152228355407715e+00,1.602021813392639160e+00,1.601891279220581055e+00,1.601760745048522949e+00,1.601630210876464844e+00,1.601499795913696289e+00,1.601369261741638184e+00,1.601238965988159180e+00,1.601108551025390625e+00,1.600978136062622070e+00,1.600847840309143066e+00,1.600717544555664062e+00,1.600587129592895508e+00,1.600456833839416504e+00,1.600326657295227051e+00,1.600196242332458496e+00,1.600066065788269043e+00,1.599935889244079590e+00,1.599805593490600586e+00,1.599675536155700684e+00,1.599545478820800781e+00,1.599415183067321777e+00,1.599285125732421875e+00,1.599155068397521973e+00,1.599025011062622070e+00,1.598894953727722168e+00,1.598765015602111816e+00,1.598634958267211914e+00,1.598505020141601562e+00,1.598375082015991211e+00,1.598245024681091309e+00,1.598115205764770508e+00,1.597985386848449707e+00,1.597855329513549805e+00,1.597725629806518555e+00,1.597595810890197754e+00,1.597465872764587402e+00,1.597336173057556152e+00,1.597206473350524902e+00,1.597076654434204102e+00,1.596946954727172852e+00
1.466858148574829102e+00,1.466748714447021484e+00,1.466639280319213867e+00,1.466529846191406250e+00,1.466420531272888184e+00,1.466311097145080566e+00,1.466201782226562500e+00,1.466092467308044434e+00,1.465983033180236816e+00,1.465873837471008301e+00,1.465764522552490234e+00,1.465655207633972168e+00,1.465546011924743652e+00,1.465436816215515137e+00,1.465327501296997070e+00,1.465218305587768555e+00,1.465109229087829590e+00,1.464999914169311523e+00,1.464890837669372559e+00,1.464781761169433594e+00,1.464672565460205078e+00,1.464563488960266113e+00,1.464454412460327148e+00,1.464345216751098633e+00,1.464236259460449219e+00,1.464127302169799805e+00,1.464018106460571289e+00,1.463909149169921875e+00,1.463800191879272461e+00,1.463691115379333496e+00,1.463582277297973633e+00,1.463473320007324219e+00,1.463364362716674805e+00,1.463255405426025391e+00,1.463146567344665527e+00,1.463037610054016113e+00,1.462928771972656250e+00,1.462820053100585938e+00,1.462711095809936523e+00,1.462602376937866211e+00,1.462493538856506348e+00,1.462384700775146484e+00,1.462275981903076172e+00,1.462167263031005859e+00,1.462058424949645996e+00,1.461949825286865234e+00,1.461841106414794922e+00,1.461732387542724609e+00,1.461623787879943848e+00,1.461515188217163086e+00,1.461406469345092773e+00,1.461297869682312012e+00,1.461189270019531250e+00,1.461080670356750488e+00,1.460972070693969727e+00,1.460863590240478516e+00,1.460754990577697754e+00,1.460646510124206543e+00,1.460538029670715332e+00,1.460429430007934570e+00,1.460321068763732910e+00,1.460212588310241699e+00,1.460104107856750488e+00,1.459995627403259277e+00,1.459887266159057617e+00,1.459778785705566406e+00,1.459670543670654297e+00,1.459562182426452637e+00,1.459453701972961426e+00,1.459345459938049316e+00,1.459237217903137207e+00,1.459128856658935547e+00,1.459020614624023438e+00,1.458912372589111328e+00,1.458804011344909668e+00,1.458695769309997559e+00,1.458587646484375000e+00,1.458479404449462891e+00,1.458371281623840332e+00,1.458263039588928223e+00
1.349014878273010254e+00,1.348922252655029297e+00,1.348829746246337891e+00,1.348737239837646484e+00,1.348644733428955078e+00,1.348552227020263672e+00,1.348459720611572266e+00,1.348367214202880859e+00,1.348274827003479004e+00,1.348182320594787598e+00,1.348089933395385742e+00,1.347997546195983887e+00,1.347905039787292480e+00,1.347812652587890625e+00,1.347720265388488770e+00,1.347627878189086914e+00,1.347535490989685059e+00,1.347443222999572754e+00,1.347350835800170898e+00,1.347258567810058594e+00,1.347166299819946289e+00,1.347073912620544434e+00,1.346981644630432129e+00,1.346889376640319824e+00,1.346797108650207520e+00,1.346704840660095215e+00,1.346612691879272461e+00,1.346520304679870605e+00,1.346428155899047852e+00,1.346336007118225098e+00,1.346243739128112793e+00,1.346151590347290039e+00,1.346059441566467285e+00,1.345967292785644531e+00,1.345875144004821777e+00,1.345782995223999023e+00,1.345690846443176270e+00,1.345598816871643066e+00,1.345506787300109863e+00,1.345414638519287109e+00,1.345322608947753906e+00,1.345230579376220703e+00,1.345138430595397949e+00,1.345046520233154297e+00,1.344954490661621094e+00,1.344862461090087891e+00,1.344770431518554688e+00,1.344678521156311035e+00,1.344586491584777832e+00,1.344494581222534180e+00,1.344402670860290527e+00,1.344310641288757324e+00,1.344218850135803223e+00,1.344126939773559570e+00,1.344035029411315918e+00,1.343943119049072266e+00,1.343851327896118164e+00,1.343759417533874512e+00,1.343667626380920410e+00,1.343575835227966309e+00,1.343483924865722656e+00,1.343392133712768555e+00,1.343300461769104004e+00,1.343208551406860352e+00,1.343116879463195801e+00,1.343025088310241699e+00,1.342933297157287598e+00,1.342841625213623047e+00,1.342749953269958496e+00,1.342658162117004395e+00,1.342566490173339844e+00,1.342474937438964844e+00,1.342383146286010742e+00,1.342291593551635742e+00,1.342199921607971191e+00,1.342108249664306641e+00,1.342016696929931641e+00,1.341925144195556641e+00,1.341833472251892090e+00,1.341741919517517090e+00
1.248697996139526367e+00,1.248618841171264648e+00,1.248539447784423828e+00,1.248460173606872559e+00,1.248380899429321289e+00,1.248301625251770020e+00,1.248222351074218750e+00,1.248143196105957031e+00,1.248063921928405762e+00,1.247984647750854492e+00,1.247905492782592773e+00,1.247826218605041504e+00,1.247747063636779785e+00,1.247667908668518066e+00,1.247588753700256348e+00,1.247509598731994629e+00,1.247430443763732910e+00,1.247351288795471191e+00,1.247272133827209473e+00,1.247193098068237305e+00,1.247113823890686035e+00,1.247034788131713867e+00,1.246955752372741699e+00,1.246876597404479980e+00,1.246797561645507812e+00,1.246718525886535645e+00,1.246639370918273926e+00,1.246560454368591309e+00,1.246481418609619141e+00,1.246402382850646973e+00,1.246323347091674805e+00,1.246244430541992188e+00,1.246165275573730469e+00,1.246086359024047852e+00,1.246007442474365234e+00,1.245928406715393066e+00,1.245849490165710449e+00,1.245770573616027832e+00,1.245691537857055664e+00,1.245612740516662598e+00,1.245533823966979980e+00,1.245454907417297363e+00,1.245375990867614746e+00,1.245297193527221680e+00,1.245218157768249512e+00,1.245139360427856445e+00,1.245060563087463379e+00,1.244981646537780762e+00,1.244902849197387695e+00,1.244824051856994629e+00,1.244745135307312012e+00,1.244666457176208496e+00,1.244587659835815430e+00,1.244508862495422363e+00,1.244430065155029297e+00,1.244351387023925781e+00,1.244272589683532715e+00,1.244193792343139648e+00,1.244115114212036133e+00,1.244036316871643066e+00,1.243957638740539551e+00,1.243878960609436035e+00,1.243800282478332520e+00,1.243721604347229004e+00,1.243642926216125488e+00,1.243564248085021973e+00,1.243485569953918457e+00,1.243407011032104492e+00,1.243328332901000977e+00,1.243249773979187012e+00,1.243171095848083496e+00,1.243092536926269531e+00,1.243013858795166016e+00,1.242935419082641602e+00,1.242856740951538086e+00,1.242778182029724121e+00,1.242699742317199707e+00,1.242621064186096191e+00,1.242542624473571777e+00,1.242464065551757812e+00
1.162268280982971191e+00,1.162199497222900391e+00,1.162130832672119141e+00,1.162062168121337891e+00,1.161993503570556641e+00,1.161924839019775391e+00,1.161856174468994141e+00,1.161787509918212891e+00,1.161718845367431641e+00,1.161650180816650391e+00,1.161581635475158691e+00,1.161512970924377441e+00,1.161444306373596191e+00,1.161375761032104492e+00,1.161307215690612793e+00,1.161238551139831543e+00,1.161170005798339844e+00,1.161101460456848145e+00,1.161032795906066895e+00,1.160964250564575195e+00,1.160895705223083496e+00,1.160827159881591797e+00,1.160758614540100098e+00,1.160690069198608398e+00,1.160621523857116699e+00,1.160553097724914551e+00,1.160484552383422852e+00,1.160416007041931152e+00,1.160347580909729004e+00,1.160279154777526855e+00,1.160210609436035156e+00,1.160142183303833008e+00,1.160073757171630859e+00,1.160005211830139160e+00,1.159936785697937012e+00,1.159868478775024414e+00,1.159799933433532715e+00,1.159731507301330566e+00,1.159663200378417969e+00,1.159594774246215820e+00,1.159526348114013672e+00,1.159458041191101074e+00,1.159389615058898926e+00,1.159321188926696777e+00,1.159252882003784180e+00,1.159184455871582031e+00,1.159116148948669434e+00,1.159047842025756836e+00,1.158979535102844238e+00,1.158911228179931641e+00,1.158842921257019043e+00,1.158774614334106445e+00,1.158706307411193848e+00,1.158638000488281250e+00,1.158569693565368652e+00,1.158501505851745605e+00,1.158433198928833008e+00,1.158365011215209961e+00,1.158296704292297363e+00,1.158228516578674316e+00,1.158160209655761719e+00,1.158092021942138672e+00,1.158023834228515625e+00,1.157955646514892578e+00,1.157887458801269531e+00,1.157819271087646484e+00,1.157751083374023438e+00,1.157682895660400391e+00,1.157614827156066895e+00,1.157546520233154297e+00,1.157478451728820801e+00,1.157410383224487305e+00,1.157342195510864258e+00,1.157274007797241211e+00,1.157205939292907715e+00,1.157137751579284668e+00,1.157069683074951172e+00,1.157001614570617676e+00,1.156933546066284180e+00,1.156865477561950684e+00
1.087028503417968750e+00,1.086968421936035156e+00,1.086908340454101562e+00,1.086848258972167969e+00,1.086788177490234375e+00,1.086728096008300781e+00,1.086668014526367188e+00,1.086608052253723145e+00,1.086547970771789551e+00,1.086487889289855957e+00,1.086427927017211914e+00,1.086367845535278320e+00,1.086307764053344727e+00,1.086247801780700684e+00,1.086187720298767090e+00,1.086127758026123047e+00,1.086067795753479004e+00,1.086007833480834961e+00,1.085947871208190918e+00,1.085887908935546875e+00,1.085827827453613281e+00,1.085767865180969238e+00,1.085708022117614746e+00,1.085647940635681152e+00,1.085588097572326660e+00,1.085528135299682617e+00,1.085468173027038574e+00,1.085408210754394531e+00,1.085348367691040039e+00,1.085288405418395996e+00,1.085228562355041504e+00,1.085168600082397461e+00,1.085108757019042969e+00,1.085048913955688477e+00,1.084988951683044434e+00,1.084929108619689941e+00,1.084869265556335449e+00,1.084809422492980957e+00,1.084749460220336914e+00,1.084689617156982422e+00,1.084629893302917480e+00,1.084569931030273438e+00,1.084510207176208496e+00,1.084450364112854004e+00,1.084390521049499512e+00,1.084330797195434570e+00,1.084270954132080078e+00,1.084211111068725586e+00,1.084151387214660645e+00,1.084091663360595703e+00,1.084031820297241211e+00,1.083972096443176270e+00,1.083912253379821777e+00,1.083852529525756836e+00,1.083792805671691895e+00,1.083733081817626953e+00,1.083673238754272461e+00,1.083613634109497070e+00,1.083553910255432129e+00,1.083494186401367188e+00,1.083434462547302246e+00,1.083374738693237305e+00,1.083315014839172363e+00,1.083255410194396973e+00,1.083195686340332031e+00,1.083135962486267090e+00,1.083076357841491699e+00,1.083016753196716309e+00,1.082957029342651367e+00,1.082897424697875977e+00,1.082837700843811035e+00,1.082778096199035645e+00,1.082718491554260254e+00,1.082658886909484863e+00,1.082599163055419922e+00,1.082539677619934082e+00,1.082480072975158691e+00,1.082420349121093750e+00,1.082360863685607910e+00,1.082301259040832520e+00
1.020937919616699219e+00,1.020884871482849121e+00,1.020831942558288574e+00,1.020778894424438477e+00,1.020725846290588379e+00,1.020672917366027832e+00,1.020619869232177734e+00,1.020566940307617188e+00,1.020514011383056641e+00,1.020460963249206543e+00,1.020408034324645996e+00,1.020355105400085449e+00,1.020302057266235352e+00,1.020249128341674805e+00,1.020196199417114258e+00,1.020143270492553711e+00,1.020090341567993164e+00,1.020037412643432617e+00,1.019984483718872070e+00,1.019931554794311523e+00,1.019878745079040527e+00,1.019825816154479980e+00,1.019772887229919434e+00,1.019720077514648438e+00,1.019667148590087891e+00,1.019614219665527344e+00,1.019561409950256348e+00,1.019508481025695801e+00,1.019455671310424805e+00,1.019402861595153809e+00,1.019349932670593262e+00,1.019297122955322266e+00,1.019244313240051270e+00,1.019191384315490723e+00,1.019138574600219727e+00,1.019085764884948730e+00,1.019032955169677734e+00,1.018980145454406738e+00,1.018927335739135742e+00,1.018874526023864746e+00,1.018821716308593750e+00,1.018768906593322754e+00,1.018716096878051758e+00,1.018663406372070312e+00,1.018610596656799316e+00,1.018557786941528320e+00,1.018505096435546875e+00,1.018452286720275879e+00,1.018399477005004883e+00,1.018346786499023438e+00,1.018294095993041992e+00,1.018241286277770996e+00,1.018188595771789551e+00,1.018135905265808105e+00,1.018083095550537109e+00,1.018030405044555664e+00,1.017977714538574219e+00,1.017924904823303223e+00,1.017872333526611328e+00,1.017819643020629883e+00,1.017766833305358887e+00,1.017714262008666992e+00,1.017661571502685547e+00,1.017608880996704102e+00,1.017556190490722656e+00,1.017503619194030762e+00,1.017450809478759766e+00,1.017398238182067871e+00,1.017345666885375977e+00,1.017292976379394531e+00,1.017240285873413086e+00,1.017187714576721191e+00,1.017135024070739746e+00,1.017082452774047852e+00,1.017029881477355957e+00,1.016977190971374512e+00,1.016924619674682617e+00,1.016872048377990723e+00,1.016819477081298828e+00,1.016766905784606934e+00
9.624232649803161621e-01,9.623761177062988281e-01,9.623289704322814941e-01,9.622819423675537109e-01,9.622347950935363770e-01,9.621876478195190430e-01,9.621406793594360352e-01,9.620935320854187012e-01,9.620464444160461426e-01,9.619994163513183594e-01,9.619523286819458008e-01,9.619052410125732422e-01,9.618582129478454590e-01,9.618111252784729004e-01,9.617640376091003418e-01,9.617170691490173340e-01,9.616700410842895508e-01,9.616229534149169922e-01,9.615759849548339844e-01,9.615288972854614258e-01,9.614818692207336426e-01,9.614349007606506348e-01,9.613878726959228516e-01,9.613408446311950684e-01,9.612938761711120605e-01,9.612468481063842773e-01,9.611998200416564941e-01,9.611529111862182617e-01,9.611058831214904785e-01,9.610588550567626953e-01,9.610120058059692383e-01,9.609649777412414551e-01,9.609179496765136719e-01,9.608711004257202148e-01,9.608240723609924316e-01,9.607771039009094238e-01,9.607301950454711914e-01,9.606832265853881836e-01,9.606362581253051758e-01,9.605894088745117188e-01,9.605424404144287109e-01,9.604954719543457031e-01,9.604486227035522461e-01,9.604016542434692383e-01,9.603547453880310059e-01,9.603078961372375488e-01,9.602609276771545410e-01,9.602140188217163086e-01,9.601671695709228516e-01,9.601202607154846191e-01,9.600733518600463867e-01,9.600265622138977051e-01,9.599796533584594727e-01,9.599326848983764648e-01,9.598858952522277832e-01,9.598390460014343262e-01,9.597921371459960938e-01,9.597453474998474121e-01,9.596984386444091797e-01,9.596515893936157227e-01,9.596047997474670410e-01,9.595579504966735840e-01,9.595111012458801270e-01,9.594643115997314453e-01,9.594174623489379883e-01,9.593706130981445312e-01,9.593238830566406250e-01,9.592770338058471680e-01,9.592301845550537109e-01,9.591834545135498047e-01,9.591366648674011230e-01,9.590898156166076660e-01,9.590430855751037598e-01,9.589962959289550781e-01,9.589495062828063965e-01,9.589027762413024902e-01,9.588559865951538086e-01,9.588091969490051270e-01,9.587625265121459961e-01,9.587157368659973145e-01
9.102523326873779297e-01,9.102102518081665039e-01,9.101681113243103027e-01,9.101259112358093262e-01,9.100838899612426758e-01,9.100416898727416992e-01,9.099995493888854980e-01,9.099575281143188477e-01,9.099153876304626465e-01,9.098732471466064453e-01,9.098311662673950195e-01,9.097890257835388184e-01,9.097468852996826172e-01,9.097048640251159668e-01,9.096627831459045410e-01,9.096206426620483398e-01,9.095786213874816895e-01,9.095365405082702637e-01,9.094944000244140625e-01,9.094523787498474121e-01,9.094102978706359863e-01,9.093682169914245605e-01,9.093261957168579102e-01,9.092841148376464844e-01,9.092420339584350586e-01,9.092000722885131836e-01,9.091579914093017578e-01,9.091159105300903320e-01,9.090739488601684570e-01,9.090318679809570312e-01,9.089898467063903809e-01,9.089478850364685059e-01,9.089058041572570801e-01,9.088637828826904297e-01,9.088218212127685547e-01,9.087797999382019043e-01,9.087377190589904785e-01,9.086958169937133789e-01,9.086537957191467285e-01,9.086117148399353027e-01,9.085698127746582031e-01,9.085277915000915527e-01,9.084857702255249023e-01,9.084438681602478027e-01,9.084018468856811523e-01,9.083598852157592773e-01,9.083179831504821777e-01,9.082759618759155273e-01,9.082340002059936523e-01,9.081920981407165527e-01,9.081501364707946777e-01,9.081081151962280273e-01,9.080662727355957031e-01,9.080243110656738281e-01,9.079823493957519531e-01,9.079404473304748535e-01,9.078984856605529785e-01,9.078565239906311035e-01,9.078146815299987793e-01,9.077727198600769043e-01,9.077308177947998047e-01,9.076889753341674805e-01,9.076470136642456055e-01,9.076051115989685059e-01,9.075632691383361816e-01,9.075213074684143066e-01,9.074794054031372070e-01,9.074375629425048828e-01,9.073956608772277832e-01,9.073537588119506836e-01,9.073119759559631348e-01,9.072700738906860352e-01,9.072281718254089355e-01,9.071863889694213867e-01,9.071444869041442871e-01,9.071025848388671875e-01,9.070608019828796387e-01,9.070189595222473145e-01,9.069770574569702148e-01,9.069352746009826660e-01
8.634468317031860352e-01,8.634089827537536621e-01,8.633710145950317383e-01,8.633331060409545898e-01,8.632952570915222168e-01,8.632572889328002930e-01,8.632193803787231445e-01,8.631815314292907715e-01,8.631436228752136230e-01,8.631057143211364746e-01,8.630678653717041016e-01,8.630299568176269531e-01,8.629920482635498047e-01,8.629541993141174316e-01,8.629162907600402832e-01,8.628784418106079102e-01,8.628405928611755371e-01,8.628026843070983887e-01,8.627648353576660156e-01,8.627270460128784180e-01,8.626891374588012695e-01,8.626512289047241211e-01,8.626134395599365234e-01,8.625755906105041504e-01,8.625377416610717773e-01,8.624999523162841797e-01,8.624620437622070312e-01,8.624241948127746582e-01,8.623864650726318359e-01,8.623485565185546875e-01,8.623107075691223145e-01,8.622729778289794922e-01,8.622351288795471191e-01,8.621972799301147461e-01,8.621595501899719238e-01,8.621217012405395508e-01,8.620838522911071777e-01,8.620461225509643555e-01,8.620082736015319824e-01,8.619704842567443848e-01,8.619327545166015625e-01,8.618949651718139648e-01,8.618571162223815918e-01,8.618193864822387695e-01,8.617815971374511719e-01,8.617438077926635742e-01,8.617060780525207520e-01,8.616682887077331543e-01,8.616304993629455566e-01,8.615927696228027344e-01,8.615550398826599121e-01,8.615172505378723145e-01,8.614795207977294922e-01,8.614417910575866699e-01,8.614040017127990723e-01,8.613663315773010254e-01,8.613285422325134277e-01,8.612908124923706055e-01,8.612531423568725586e-01,8.612153530120849609e-01,8.611776232719421387e-01,8.611399531364440918e-01,8.611022233963012695e-01,8.610644340515136719e-01,8.610268235206604004e-01,8.609890937805175781e-01,8.609513640403747559e-01,8.609136939048767090e-01,8.608759641647338867e-01,8.608382344245910645e-01,8.608006238937377930e-01,8.607628941535949707e-01,8.607251644134521484e-01,8.606875538825988770e-01,8.606498837471008301e-01,8.606121540069580078e-01,8.605745434761047363e-01,8.605368733406066895e-01,8.604991436004638672e-01,8.604615330696105957e-01
8.212194442749023438e-01,8.211851119995117188e-01,8.211508989334106445e-01,8.211165666580200195e-01,8.210822343826293945e-01,8.210480213165283203e-01,8.210136890411376953e-01,8.209793567657470703e-01,8.209451436996459961e-01,8.209108710289001465e-01,8.208765387535095215e-01,8.208423256874084473e-01,8.208080530166625977e-01,8.207737207412719727e-01,8.207395076751708984e-01,8.207052350044250488e-01,8.206709623336791992e-01,8.206367492675781250e-01,8.206024765968322754e-01,8.205682039260864258e-01,8.205339908599853516e-01,8.204997777938842773e-01,8.204655051231384277e-01,8.204312920570373535e-01,8.203970193862915039e-01,8.203628063201904297e-01,8.203285932540893555e-01,8.202943801879882812e-01,8.202601075172424316e-01,8.202259540557861328e-01,8.201916813850402832e-01,8.201574683189392090e-01,8.201233148574829102e-01,8.200890421867370605e-01,8.200548291206359863e-01,8.200206756591796875e-01,8.199864625930786133e-01,8.199522495269775391e-01,8.199180960655212402e-01,8.198838829994201660e-01,8.198496699333190918e-01,8.198155164718627930e-01,8.197813034057617188e-01,8.197470903396606445e-01,8.197129964828491211e-01,8.196787834167480469e-01,8.196445703506469727e-01,8.196104764938354492e-01,8.195762634277343750e-01,8.195420503616333008e-01,8.195079565048217773e-01,8.194738030433654785e-01,8.194395899772644043e-01,8.194054961204528809e-01,8.193713426589965820e-01,8.193371295928955078e-01,8.193030953407287598e-01,8.192688822746276855e-01,8.192347288131713867e-01,8.192006349563598633e-01,8.191664814949035645e-01,8.191323280334472656e-01,8.190982937812805176e-01,8.190641403198242188e-01,8.190299868583679199e-01,8.189958930015563965e-01,8.189617395401000977e-01,8.189276456832885742e-01,8.188935518264770508e-01,8.188594579696655273e-01,8.188253045082092285e-01,8.187912702560424805e-01,8.187571167945861816e-01,8.187230229377746582e-01,8.186889886856079102e-01,8.186548352241516113e-01,8.186207413673400879e-01,8.185867071151733398e-01,8.185526132583618164e-01,8.185185194015502930e-01
7.829297780990600586e-01,7.828986048698425293e-01,7.828673720359802246e-01,7.828362584114074707e-01,7.828050851821899414e-01,7.827739119529724121e-01,7.827427983283996582e-01,7.827115654945373535e-01,7.826803922653198242e-01,7.826492786407470703e-01,7.826181054115295410e-01,7.825869321823120117e-01,7.825558185577392578e-01,7.825246453285217285e-01,7.824934720993041992e-01,7.824624180793762207e-01,7.824312448501586914e-01,7.824000716209411621e-01,7.823690176010131836e-01,7.823378443717956543e-01,7.823066711425781250e-01,7.822756171226501465e-01,7.822444438934326172e-01,7.822133302688598633e-01,7.821822166442871094e-01,7.821511030197143555e-01,7.821199297904968262e-01,7.820888757705688477e-01,7.820577621459960938e-01,7.820266485214233398e-01,7.819955945014953613e-01,7.819644212722778320e-01,7.819333076477050781e-01,7.819022536277770996e-01,7.818711400032043457e-01,7.818400263786315918e-01,7.818089723587036133e-01,7.817778587341308594e-01,7.817467451095581055e-01,7.817157506942749023e-01,7.816846370697021484e-01,7.816535234451293945e-01,7.816225290298461914e-01,7.815914154052734375e-01,7.815603017807006836e-01,7.815293073654174805e-01,7.814981937408447266e-01,7.814671397209167480e-01,7.814360857009887695e-01,7.814050316810607910e-01,7.813739180564880371e-01,7.813429236412048340e-01,7.813118696212768555e-01,7.812808156013488770e-01,7.812497615814208984e-01,7.812187075614929199e-01,7.811876535415649414e-01,7.811566591262817383e-01,7.811256051063537598e-01,7.810945510864257812e-01,7.810635566711425781e-01,7.810325026512145996e-01,7.810014486312866211e-01,7.809705138206481934e-01,7.809394598007202148e-01,7.809084057807922363e-01,7.808774113655090332e-01,7.808464169502258301e-01,7.808153629302978516e-01,7.807844281196594238e-01,7.807533740997314453e-01,7.807223200798034668e-01,7.806913852691650391e-01,7.806603908538818359e-01,7.806293368339538574e-01,7.805984020233154297e-01,7.805674076080322266e-01,7.805363535881042480e-01,7.805054187774658203e-01,7.804744243621826172e-01
7.480515241622924805e-01,7.480231523513793945e-01,7.479946613311767578e-01,7.479661703109741211e-01,7.479377388954162598e-01,7.479093074798583984e-01,7.478808164596557617e-01,7.478523850440979004e-01,7.478239536285400391e-01,7.477954626083374023e-01,7.477670907974243164e-01,7.477385997772216797e-01,7.477101683616638184e-01,7.476817965507507324e-01,7.476533055305480957e-01,7.476248741149902344e-01,7.475965023040771484e-01,7.475680112838745117e-01,7.475395798683166504e-01,7.475112080574035645e-01,7.474827766418457031e-01,7.474543452262878418e-01,7.474259734153747559e-01,7.473975419998168945e-01,7.473691105842590332e-01,7.473407387733459473e-01,7.473123073577880859e-01,7.472838759422302246e-01,7.472555041313171387e-01,7.472270727157592773e-01,7.471986413002014160e-01,7.471703290939331055e-01,7.471418976783752441e-01,7.471134662628173828e-01,7.470851540565490723e-01,7.470567226409912109e-01,7.470282912254333496e-01,7.469999790191650391e-01,7.469715476036071777e-01,7.469431757926940918e-01,7.469148635864257812e-01,7.468864321708679199e-01,7.468580603599548340e-01,7.468297481536865234e-01,7.468013167381286621e-01,7.467729449272155762e-01,7.467446327209472656e-01,7.467162609100341797e-01,7.466878890991210938e-01,7.466595768928527832e-01,7.466311454772949219e-01,7.466027736663818359e-01,7.465744614601135254e-01,7.465460896492004395e-01,7.465177774429321289e-01,7.464894652366638184e-01,7.464610934257507324e-01,7.464327216148376465e-01,7.464044094085693359e-01,7.463760972023010254e-01,7.463477253913879395e-01,7.463194131851196289e-01,7.462911009788513184e-01,7.462627291679382324e-01,7.462344765663146973e-01,7.462061047554016113e-01,7.461777329444885254e-01,7.461494803428649902e-01,7.461211681365966797e-01,7.460927963256835938e-01,7.460645437240600586e-01,7.460362315177917480e-01,7.460078597068786621e-01,7.459796071052551270e-01,7.459512948989868164e-01,7.459229826927185059e-01,7.458947300910949707e-01,7.458664178848266602e-01,7.458381056785583496e-01,7.458098530769348145e-01
7.161483764648437500e-01,7.161223292350769043e-01,7.160962224006652832e-01,7.160701155662536621e-01,7.160440683364868164e-01,7.160179615020751953e-01,7.159918546676635742e-01,7.159658670425415039e-01,7.159397602081298828e-01,7.159136533737182617e-01,7.158876061439514160e-01,7.158615589141845703e-01,7.158354520797729492e-01,7.158094644546508789e-01,7.157833576202392578e-01,7.157573103904724121e-01,7.157312631607055664e-01,7.157052159309387207e-01,7.156791090965270996e-01,7.156531214714050293e-01,7.156270146369934082e-01,7.156009674072265625e-01,7.155749797821044922e-01,7.155489325523376465e-01,7.155228257179260254e-01,7.154968380928039551e-01,7.154707908630371094e-01,7.154447436332702637e-01,7.154187560081481934e-01,7.153927087783813477e-01,7.153666615486145020e-01,7.153406739234924316e-01,7.153146266937255859e-01,7.152885794639587402e-01,7.152625918388366699e-01,7.152365446090698242e-01,7.152104973793029785e-01,7.151845097541809082e-01,7.151584625244140625e-01,7.151324748992919922e-01,7.151064872741699219e-01,7.150804400444030762e-01,7.150544524192810059e-01,7.150284647941589355e-01,7.150024175643920898e-01,7.149764299392700195e-01,7.149504423141479492e-01,7.149244546890258789e-01,7.148984074592590332e-01,7.148724794387817383e-01,7.148464918136596680e-01,7.148204445838928223e-01,7.147945165634155273e-01,7.147685289382934570e-01,7.147424817085266113e-01,7.147165536880493164e-01,7.146905660629272461e-01,7.146645784378051758e-01,7.146385908126831055e-01,7.146126031875610352e-01,7.145866155624389648e-01,7.145606875419616699e-01,7.145346999168395996e-01,7.145087122917175293e-01,7.144827842712402344e-01,7.144567966461181641e-01,7.144308090209960938e-01,7.144048810005187988e-01,7.143789529800415039e-01,7.143529653549194336e-01,7.143270373344421387e-01,7.143010497093200684e-01,7.142751216888427734e-01,7.142491936683654785e-01,7.142232060432434082e-01,7.141972780227661133e-01,7.141713500022888184e-01,7.141454219818115234e-01,7.141194343566894531e-01,7.140935659408569336e-01
6.868550777435302734e-01,6.868311166763305664e-01,6.868071556091308594e-01,6.867831349372863770e-01,6.867591142654418945e-01,6.867351531982421875e-01,6.867111921310424805e-01,6.866871714591979980e-01,6.866632103919982910e-01,6.866391897201538086e-01,6.866152286529541016e-01,6.865912675857543945e-01,6.865673065185546875e-01,6.865432858467102051e-01,6.865193247795104980e-01,6.864953637123107910e-01,6.864714026451110840e-01,6.864474415779113770e-01,6.864234805107116699e-01,6.863994598388671875e-01,6.863755583763122559e-01,6.863515973091125488e-01,6.863275766372680664e-01,6.863036751747131348e-01,6.862797141075134277e-01,6.862557530403137207e-01,6.862317919731140137e-01,6.862078309059143066e-01,6.861838698387145996e-01,6.861599683761596680e-01,6.861360073089599609e-01,6.861120462417602539e-01,6.860881447792053223e-01,6.860641837120056152e-01,6.860402226448059082e-01,6.860163211822509766e-01,6.859923601150512695e-01,6.859683990478515625e-01,6.859444975852966309e-01,6.859205365180969238e-01,6.858966350555419922e-01,6.858727335929870605e-01,6.858487725257873535e-01,6.858248114585876465e-01,6.858009696006774902e-01,6.857770085334777832e-01,6.857530474662780762e-01,6.857292056083679199e-01,6.857052445411682129e-01,6.856813430786132812e-01,6.856574416160583496e-01,6.856335401535034180e-01,6.856095790863037109e-01,6.855857372283935547e-01,6.855617761611938477e-01,6.855378746986389160e-01,6.855139732360839844e-01,6.854900717735290527e-01,6.854661703109741211e-01,6.854423284530639648e-01,6.854183673858642578e-01,6.853944659233093262e-01,6.853706240653991699e-01,6.853467226028442383e-01,6.853228211402893066e-01,6.852989792823791504e-01,6.852750778198242188e-01,6.852511167526245117e-01,6.852272748947143555e-01,6.852033734321594238e-01,6.851794719696044922e-01,6.851556897163391113e-01,6.851317882537841797e-01,6.851078867912292480e-01,6.850840449333190918e-01,6.850601434707641602e-01,6.850362420082092285e-01,6.850124597549438477e-01,6.849885582923889160e-01,6.849646568298339844e-01
6.598641276359558105e-01,6.598419547080993652e-01,6.598197817802429199e-01,6.597976684570312500e-01,6.597754955291748047e-01,6.597533822059631348e-01,6.597312688827514648e-01,6.597090959548950195e-01,6.596869230270385742e-01,6.596648693084716797e-01,6.596426963806152344e-01,6.596205234527587891e-01,6.595984697341918945e-01,6.595762968063354492e-01,6.595541834831237793e-01,6.595320701599121094e-01,6.595099568367004395e-01,6.594877839088439941e-01,6.594657301902770996e-01,6.594435572624206543e-01,6.594214439392089844e-01,6.593993306159973145e-01,6.593772172927856445e-01,6.593551039695739746e-01,6.593329906463623047e-01,6.593108773231506348e-01,6.592887639999389648e-01,6.592667102813720703e-01,6.592445969581604004e-01,6.592224240303039551e-01,6.592003703117370605e-01,6.591782569885253906e-01,6.591561436653137207e-01,6.591340899467468262e-01,6.591119766235351562e-01,6.590898633003234863e-01,6.590678095817565918e-01,6.590456962585449219e-01,6.590235829353332520e-01,6.590015292167663574e-01,6.589794158935546875e-01,6.589573025703430176e-01,6.589352488517761230e-01,6.589131355285644531e-01,6.588910818099975586e-01,6.588690280914306641e-01,6.588469147682189941e-01,6.588248014450073242e-01,6.588028073310852051e-01,6.587806940078735352e-01,6.587585806846618652e-01,6.587365865707397461e-01,6.587144732475280762e-01,6.586923599243164062e-01,6.586703658103942871e-01,6.586482524871826172e-01,6.586261987686157227e-01,6.586041450500488281e-01,6.585820913314819336e-01,6.585599780082702637e-01,6.585379838943481445e-01,6.585159301757812500e-01,6.584938168525695801e-01,6.584718227386474609e-01,6.584497690200805664e-01,6.584276556968688965e-01,6.584056615829467773e-01,6.583836078643798828e-01,6.583615541458129883e-01,6.583395004272460938e-01,6.583174467086791992e-01,6.582953929901123047e-01,6.582733988761901855e-01,6.582513451576232910e-01,6.582292914390563965e-01,6.582072973251342773e-01,6.581852436065673828e-01,6.581631898880004883e-01,6.581411957740783691e-01,6.581191420555114746e-01
