5.000000000000000000e+00,5.000000000000000000e+00,5.000000000000000000e+00,5.000000000000000000e+00,5.000000000000000000e+00,5.000000000000000000e+00,5.000000000000000000e+00,5.000000000000000000e+00,5.000000000000000000e+00,5.000000000000000000e+00,5.000000000000000000e+00,5.000000000000000000e+00,5.000000000000000000e+00,5.000000000000000000e+00,5.000000000000000000e+00,5.000000000000000000e+00,5.000000000000000000e+00,5.000000000000000000e+00,5.000000000000000000e+00,5.000000000000000000e+00,5.000000000000000000e+00,5.000000000000000000e+00,5.000000000000000000e+00,5.000000000000000000e+00,5.000000000000000000e+00,5.000000000000000000e+00,5.000000000000000000e+00,5.000000000000000000e+00,5.000000000000000000e+00,5.000000000000000000e+00,5.000000000000000000e+00,5.000000000000000000e+00,5.000000000000000000e+00,5.000000000000000000e+00,5.000000000000000000e+00,5.000000000000000000e+00,5.000000000000000000e+00,5.000000000000000000e+00,5.000000000000000000e+00,5.000000000000000000e+00,5.000000000000000000e+00,5.000000000000000000e+00,4.332445144653320312e+00,4.180148601531982422e+00,4.038195610046386719e+00,3.905567407608032227e+00,3.781373739242553711e+00,3.664835453033447266e+00,3.555265426635742188e+00,3.452057361602783203e+00,3.354671955108642578e+00,3.262630939483642578e+00,3.175505161285400391e+00,3.092911720275878906e+00,3.014505863189697266e+00,2.939976930618286133e+00,2.869044303894042969e+00,2.801453828811645508e+00,2.736974716186523438e+00,2.675396919250488281e+00,2.616529226303100586e+00,2.560195922851562500e+00,2.506237268447875977e+00,2.454506397247314453e+00,2.404867649078369141e+00,2.357197046279907227e+00,2.311379194259643555e+00,2.267308950424194336e+00,2.224887609481811523e+00,2.184024572372436523e+00,2.144635677337646484e+00,2.106642007827758789e+00,2.069971323013305664e+00,2.034555435180664062e+00,2.000330924987792969e+00,1.967239022254943848e+00,1.935224056243896484e+00,1.904234170913696289e+00,1.874221444129943848e+00,1.845140099525451660e+00
5.000000000000000000e+00,5.000000000000000000e+00,5.000000000000000000e+00,5.000000000000000000e+00,5.000000000000000000e+00,5.000000000000000000e+00,5.000000000000000000e+00,5.000000000000000000e+00,5.000000000000000000e+00,5.000000000000000000e+00,5.000000000000000000e+00,5.000000000000000000e+00,5.000000000000000000e+00,5.000000000000000000e+00,5.000000000000000000e+00,5.000000000000000000e+00,5.000000000000000000e+00,5.000000000000000000e+00,5.000000000000000000e+00,5.000000000000000000e+00,5.000000000000000000e+00,5.000000000000000000e+00,5.000000000000000000e+00,5.000000000000000000e+00,5.000000000000000000e+00,5.000000000000000000e+00,5.000000000000000000e+00,5.000000000000000000e+00,5.000000000000000000e+00,5.000000000000000000e+00,5.000000000000000000e+00,5.000000000000000000e+00,5.000000000000000000e+00,5.000000000000000000e+00,5.000000000000000000e+00,5.000000000000000000e+00,5.000000000000000000e+00,5.000000000000000000e+00,5.000000000000000000e+00,5.000000000000000000e+00,5.000000000000000000e+00,4.496376514434814453e+00,4.332554340362548828e+00,4.180250644683837891e+00,4.038290977478027344e+00,3.905656576156616211e+00,3.781457662582397461e+00,3.664914131164550781e+00,3.555339336395263672e+00,3.452126979827880859e+00,3.354737758636474609e+00,3.262692928314208984e+00,3.175564050674438477e+00,3.092967748641967773e+00,3.014559030532836914e+00,2.940027713775634766e+00,2.869092464447021484e+00,2.801499605178833008e+00,2.737018585205078125e+00,2.675438880920410156e+00,2.616569042205810547e+00,2.560234308242797852e+00,2.506274223327636719e+00,2.454541444778442383e+00,2.404901266098022461e+00,2.357229471206665039e+00,2.311410427093505859e+00,2.267338991165161133e+00,2.224916696548461914e+00,2.184052705764770508e+00,2.144662380218505859e+00,2.106668233871459961e+00,2.069996356964111328e+00,2.034579515457153320e+00,2.000354290008544922e+00,1.967261672019958496e+00,1.935245990753173828e+00,1.904255509376525879e+00,1.874241948127746582e+00,1.845159888267517090e+00
5.000000000000000000e+00,5.000000000000000000e+00,5.000000000000000000e+00,5.000000000000000000e+00,5.000000000000000000e+00,5.000000000000000000e+00,5.000000000000000000e+00,5.000000000000000000e+00,5.000000000000000000e+00,5.000000000000000000e+00,5.000000000000000000e+00,5.000000000000000000e+00,5.000000000000000000e+00,5.000000000000000000e+00,5.000000000000000000e+00,5.000000000000000000e+00,5.000000000000000000e+00,5.000000000000000000e+00,5.000000000000000000e+00,5.000000000000000000e+00,5.000000000000000000e+00,5.000000000000000000e+00,5.000000000000000000e+00,5.000000000000000000e+00,5.000000000000000000e+00,5.000000000000000000e+00,5.000000000000000000e+00,5.000000000000000000e+00,5.000000000000000000e+00,5.000000000000000000e+00,5.000000000000000000e+00,5.000000000000000000e+00,5.000000000000000000e+00,5.000000000000000000e+00,5.000000000000000000e+00,5.000000000000000000e+00,5.000000000000000000e+00,5.000000000000000000e+00,5.000000000000000000e+00,5.000000000000000000e+00,4.673201560974121094e+00,4.496494770050048828e+00,4.332664489746093750e+00,4.180352687835693359e+00,4.038386344909667969e+00,3.905745506286621094e+00,3.781541347503662109e+00,3.664992570877075195e+00,3.555413484573364258e+00,3.452196598052978516e+00,3.354803800582885742e+00,3.262755155563354492e+00,3.175622940063476562e+00,3.093023538589477539e+00,3.014611959457397461e+00,2.940078020095825195e+00,2.869140625000000000e+00,2.801545619964599609e+00,2.737062215805053711e+00,2.675480604171752930e+00,2.616609096527099609e+00,2.560272455215454102e+00,2.506310939788818359e+00,2.454576730728149414e+00,2.404935359954833984e+00,2.357261896133422852e+00,2.311441898345947266e+00,2.267369031906127930e+00,2.224945545196533203e+00,2.184080600738525391e+00,2.144689321517944336e+00,2.106693983078002930e+00,2.070021390914916992e+00,2.034603834152221680e+00,2.000377893447875977e+00,1.967284202575683594e+00,1.935267806053161621e+00,1.904276609420776367e+00,1.874262452125549316e+00,1.845179796218872070e+00
5.000000000000000000e+00,5.000000000000000000e+00,5.000000000000000000e+00,5.000000000000000000e+00,5.000000000000000000e+00,5.000000000000000000e+00,5.000000000000000000e+00,5.000000000000000000e+00,5.000000000000000000e+00,5.000000000000000000e+00,5.000000000000000000e+00,5.000000000000000000e+00,5.000000000000000000e+00,5.000000000000000000e+00,5.000000000000000000e+00,5.000000000000000000e+00,5.000000000000000000e+00,5.000000000000000000e+00,5.000000000000000000e+00,5.000000000000000000e+00,5.000000000000000000e+00,5.000000000000000000e+00,5.000000000000000000e+00,5.000000000000000000e+00,5.000000000000000000e+00,5.000000000000000000e+00,5.000000000000000000e+00,5.000000000000000000e+00,5.000000000000000000e+00,5.000000000000000000e+00,5.000000000000000000e+00,5.000000000000000000e+00,5.000000000000000000e+00,5.000000000000000000e+00,5.000000000000000000e+00,5.000000000000000000e+00,5.000000000000000000e+00,5.000000000000000000e+00,5.000000000000000000e+00,4.864503383636474609e+00,4.673328876495361328e+00,4.496613025665283203e+00,4.332774162292480469e+00,4.180455207824707031e+00,4.038481712341308594e+00,3.905835151672363281e+00,3.781624794006347656e+00,3.665071010589599609e+00,3.555487394332885742e+00,3.452266216278076172e+00,3.354869604110717773e+00,3.262817382812500000e+00,3.175682067871093750e+00,3.093079566955566406e+00,3.014665365219116211e+00,2.940128564834594727e+00,2.869188547134399414e+00,2.801591634750366211e+00,2.737106084823608398e+00,2.675522565841674805e+00,2.616649150848388672e+00,2.560311079025268555e+00,2.506347656250000000e+00,2.454612016677856445e+00,2.404969215393066406e+00,2.357294321060180664e+00,2.311473131179809570e+00,2.267399072647094727e+00,2.224974632263183594e+00,2.184108257293701172e+00,2.144716262817382812e+00,2.106719970703125000e+00,2.070046424865722656e+00,2.034628152847290039e+00,2.000401258468627930e+00,1.967306852340698242e+00,1.935289740562438965e+00,1.904298067092895508e+00,1.874283075332641602e+00,1.845199823379516602e+00
5.000000000000000000e+00,5.000000000000000000e+00,5.000000000000000000e+00,5.000000000000000000e+00,5.000000000000000000e+00,5.000000000000000000e+00,5.000000000000000000e+00,5.000000000000000000e+00,5.000000000000000000e+00,5.000000000000000000e+00,5.000000000000000000e+00,5.000000000000000000e+00,5.000000000000000000e+00,5.000000000000000000e+00,5.000000000000000000e+00,5.000000000000000000e+00,5.000000000000000000e+00,5.000000000000000000e+00,5.000000000000000000e+00,5.000000000000000000e+00,5.000000000000000000e+00,5.000000000000000000e+00,5.000000000000000000e+00,5.000000000000000000e+00,5.000000000000000000e+00,5.000000000000000000e+00,5.000000000000000000e+00,5.000000000000000000e+00,5.000000000000000000e+00,5.000000000000000000e+00,5.000000000000000000e+00,5.000000000000000000e+00,5.000000000000000000e+00,5.000000000000000000e+00,5.000000000000000000e+00,5.000000000000000000e+00,5.000000000000000000e+00,5.000000000000000000e+00,5.000000000000000000e+00,4.864642143249511719e+00,4.673457145690917969e+00,4.496731281280517578e+00,4.332883834838867188e+00,4.180557250976562500e+00,4.038577079772949219e+00,3.905924320220947266e+00,3.781708240509033203e+00,3.665149688720703125e+00,3.555561304092407227e+00,3.452336072921752930e+00,3.354935169219970703e+00,3.262879610061645508e+00,3.175740957260131836e+00,3.093135356903076172e+00,3.014718532562255859e+00,2.940179109573364258e+00,2.869236946105957031e+00,2.801637411117553711e+00,2.737149715423583984e+00,2.675564527511596680e+00,2.616689205169677734e+00,2.560349225997924805e+00,2.506384372711181641e+00,2.454647302627563477e+00,2.405002832412719727e+00,2.357326984405517578e+00,2.311504364013671875e+00,2.267429113388061523e+00,2.225003480911254883e+00,2.184136152267456055e+00,2.144743204116821289e+00,2.106745958328247070e+00,2.070071458816528320e+00,2.034652233123779297e+00,2.000424623489379883e+00,1.967329502105712891e+00,1.935311555862426758e+00,1.904319286346435547e+00,1.874303579330444336e+00,1.845219731330871582e+00
5.000000000000000000e+00,5.000000000000000000e+00,5.000000000000000000e+00,5.000000000000000000e+00,5.000000000000000000e+00,5.000000000000000000e+00,5.000000000000000000e+00,5.000000000000000000e+00,5.000000000000000000e+00,5.000000000000000000e+00,5.000000000000000000e+00,5.000000000000000000e+00,5.000000000000000000e+00,5.000000000000000000e+00,5.000000000000000000e+00,5.000000000000000000e+00,5.000000000000000000e+00,5.000000000000000000e+00,5.000000000000000000e+00,5.000000000000000000e+00,5.000000000000000000e+00,5.000000000000000000e+00,5.000000000000000000e+00,5.000000000000000000e+00,5.000000000000000000e+00,5.000000000000000000e+00,5.000000000000000000e+00,5.000000000000000000e+00,5.000000000000000000e+00,5.000000000000000000e+00,5.000000000000000000e+00,5.000000000000000000e+00,5.000000000000000000e+00,5.000000000000000000e+00,5.000000000000000000e+00,5.000000000000000000e+00,5.000000000000000000e+00,5.000000000000000000e+00,5.000000000000000000e+00,4.864779949188232422e+00,4.673584461212158203e+00,4.496849536895751953e+00,4.332993984222412109e+00,4.180659294128417969e+00,4.038672447204589844e+00,3.906013250350952148e+00,3.781791925430297852e+00,3.665228366851806641e+00,3.555634975433349609e+00,3.452405691146850586e+00,3.355000972747802734e+00,3.262942075729370117e+00,3.175800085067749023e+00,3.093191385269165039e+00,3.014771461486816406e+00,2.940229654312133789e+00,2.869285106658935547e+00,2.801683187484741211e+00,2.737193822860717773e+00,2.675606250762939453e+00,2.616729259490966797e+00,2.560387611389160156e+00,2.506420850753784180e+00,2.454682588577270508e+00,2.405036687850952148e+00,2.357359409332275391e+00,2.311535596847534180e+00,2.267459392547607422e+00,2.225032329559326172e+00,2.184164047241210938e+00,2.144770145416259766e+00,2.106771945953369141e+00,2.070096492767333984e+00,2.034676313400268555e+00,2.000447988510131836e+00,1.967352032661437988e+00,1.935333490371704102e+00,1.904340386390686035e+00,1.874324083328247070e+00,1.845239639282226562e+00
5.000000000000000000e+00,5.000000000000000000e+00,5.000000000000000000e+00,5.000000000000000000e+00,5.000000000000000000e+00,5.000000000000000000e+00,5.000000000000000000e+00,5.000000000000000000e+00,5.000000000000000000e+00,5.000000000000000000e+00,5.000000000000000000e+00,5.000000000000000000e+00,5.000000000000000000e+00,5.000000000000000000e+00,5.000000000000000000e+00,5.000000000000000000e+00,5.000000000000000000e+00,5.000000000000000000e+00,5.000000000000000000e+00,5.000000000000000000e+00,5.000000000000000000e+00,5.000000000000000000e+00,5.000000000000000000e+00,5.000000000000000000e+00,5.000000000000000000e+00,5.000000000000000000e+00,5.000000000000000000e+00,5.000000000000000000e+00,5.000000000000000000e+00,5.000000000000000000e+00,5.000000000000000000e+00,5.000000000000000000e+00,5.000000000000000000e+00,5.000000000000000000e+00,5.000000000000000000e+00,5.000000000000000000e+00,5.000000000000000000e+00,5.000000000000000000e+00,5.000000000000000000e+00,4.864918708801269531e+00,4.673712253570556641e+00,4.496967315673828125e+00,4.333103656768798828e+00,4.180761337280273438e+00,4.038767814636230469e+00,3.906102418899536133e+00,3.781875848770141602e+00,3.665306806564331055e+00,3.555708885192871094e+00,3.452475309371948242e+00,3.355066776275634766e+00,3.263004302978515625e+00,3.175858974456787109e+00,3.093247413635253906e+00,3.014824628829956055e+00,2.940280437469482422e+00,2.869333028793334961e+00,2.801729202270507812e+00,2.737237453460693359e+00,2.675647974014282227e+00,2.616769313812255859e+00,2.560425758361816406e+00,2.506457805633544922e+00,2.454717636108398438e+00,2.405070543289184570e+00,2.357391834259033203e+00,2.311566829681396484e+00,2.267489433288574219e+00,2.225061416625976562e+00,2.184192180633544922e+00,2.144796848297119141e+00,2.106797933578491211e+00,2.070121526718139648e+00,2.034700632095336914e+00,2.000471353530883789e+00,1.967374682426452637e+00,1.935355305671691895e+00,1.904361605644226074e+00,1.874344825744628906e+00,1.845259547233581543e+00
5.000000000000000000e+00,5.000000000000000000e+00,5.000000000000000000e+00,5.000000000000000000e+00,5.000000000000000000e+00,5.000000000000000000e+00,5.000000000000000000e+00,5.000000000000000000e+00,5.000000000000000000e+00,5.000000000000000000e+00,5.000000000000000000e+00,5.000000000000000000e+00,5.000000000000000000e+00,5.000000000000000000e+00,5.000000000000000000e+00,5.000000000000000000e+00,5.000000000000000000e+00,5.000000000000000000e+00,5.000000000000000000e+00,5.000000000000000000e+00,5.000000000000000000e+00,5.000000000000000000e+00,5.000000000000000000e+00,5.000000000000000000e+00,5.000000000000000000e+00,5.000000000000000000e+00,5.000000000000000000e+00,5.000000000000000000e+00,5.000000000000000000e+00,5.000000000000000000e+00,5.000000000000000000e+00,5.000000000000000000e+00,5.000000000000000000e+00,5.000000000000000000e+00,5.000000000000000000e+00,5.000000000000000000e+00,5.000000000000000000e+00,5.000000000000000000e+00,5.000000000000000000e+00,4.865056991577148438e+00,4.673840045928955078e+00,4.497086048126220703e+00,4.333213329315185547e+00,4.180863857269287109e+00,4.038863182067871094e+00,3.906191587448120117e+00,3.781959295272827148e+00,3.665385246276855469e+00,3.555783271789550781e+00,3.452544927597045898e+00,3.355132818222045898e+00,3.263066530227661133e+00,3.175917863845825195e+00,3.093303442001342773e+00,3.014877796173095703e+00,2.940330982208251953e+00,2.869381189346313477e+00,2.801775217056274414e+00,2.737281322479248047e+00,2.675690174102783203e+00,2.616809368133544922e+00,2.560464143753051758e+00,2.506494522094726562e+00,2.454752922058105469e+00,2.405104398727416992e+00,2.357424497604370117e+00,2.311598062515258789e+00,2.267519474029541016e+00,2.225090265274047852e+00,2.184220075607299805e+00,2.144823789596557617e+00,2.106823921203613281e+00,2.070146560668945312e+00,2.034724950790405273e+00,2.000494718551635742e+00,1.967397451400756836e+00,1.935377240180969238e+00,1.904382824897766113e+00,1.874365329742431641e+00,1.845279335975646973e+00
5.000000000000000000e+00,5.000000000000000000e+00,5.000000000000000000e+00,5.000000000000000000e+00,5.000000000000000000e+00,5.000000000000000000e+00,5.000000000000000000e+00,5.000000000000000000e+00,5.000000000000000000e+00,5.000000000000000000e+00,5.000000000000000000e+00,5.000000000000000000e+00,5.000000000000000000e+00,5.000000000000000000e+00,5.000000000000000000e+00,5.000000000000000000e+00,5.000000000000000000e+00,5.000000000000000000e+00,5.000000000000000000e+00,5.000000000000000000e+00,5.000000000000000000e+00,5.000000000000000000e+00,5.000000000000000000e+00,5.000000000000000000e+00,5.000000000000000000e+00,5.000000000000000000e+00,5.000000000000000000e+00,5.000000000000000000e+00,5.000000000000000000e+00,5.000000000000000000e+00,5.000000000000000000e+00,5.000000000000000000e+00,5.000000000000000000e+00,5.000000000000000000e+00,5.000000000000000000e+00,5.000000000000000000e+00,5.000000000000000000e+00,5.000000000000000000e+00,5.000000000000000000e+00,4.865195274353027344e+00,4.673967838287353516e+00,4.497203826904296875e+00,4.333323001861572266e+00,4.180965900421142578e+00,4.038958549499511719e+00,3.906281232833862305e+00,3.782042980194091797e+00,3.665463685989379883e+00,3.555856943130493164e+00,3.452614545822143555e+00,3.355198621749877930e+00,3.263128757476806641e+00,3.175976991653442383e+00,3.093359231948852539e+00,3.014931201934814453e+00,2.940381288528442383e+00,2.869429349899291992e+00,2.801820993423461914e+00,2.737324953079223633e+00,2.675731897354125977e+00,2.616849422454833984e+00,2.560502529144287109e+00,2.506531238555908203e+00,2.454787969589233398e+00,2.405138254165649414e+00,2.357456922531127930e+00,2.311629295349121094e+00,2.267549514770507812e+00,2.225119352340698242e+00,2.184247732162475586e+00,2.144850730895996094e+00,2.106849670410156250e+00,2.070171594619750977e+00,2.034749031066894531e+00,2.000518083572387695e+00,1.967420101165771484e+00,1.935399055480957031e+00,1.904403924942016602e+00,1.874385833740234375e+00,1.845299243927001953e+00
5.000000000000000000e+00,5.000000000000000000e+00,5.000000000000000000e+00,5.000000000000000000e+00,5.000000000000000000e+00,5.000000000000000000e+00,5.000000000000000000e+00,5.000000000000000000e+00,5.000000000000000000e+00,5.000000000000000000e+00,5.000000000000000000e+00,5.000000000000000000e+00,5.000000000000000000e+00,5.000000000000000000e+00,5.000000000000000000e+00,5.000000000000000000e+00,5.000000000000000000e+00,5.000000000000000000e+00,5.000000000000000000e+00,5.000000000000000000e+00,5.000000000000000000e+00,5.000000000000000000e+00,5.000000000000000000e+00,5.000000000000000000e+00,5.000000000000000000e+00,5.000000000000000000e+00,5.000000000000000000e+00,5.000000000000000000e+00,5.000000000000000000e+00,5.000000000000000000e+00,5.000000000000000000e+00,5.000000000000000000e+00,5.000000000000000000e+00,5.000000000000000000e+00,5.000000000000000000e+00,5.000000000000000000e+00,5.000000000000000000e+00,5.000000000000000000e+00,5.000000000000000000e+00,4.865334033966064453e+00,4.674095630645751953e+00,4.497322559356689453e+00,4.333432674407958984e+00,4.181067943572998047e+00,4.039053916931152344e+00,3.906370401382446289e+00,3.782126426696777344e+00,3.665542602539062500e+00,3.555930852890014648e+00,3.452684640884399414e+00,3.355264425277709961e+00,3.263190746307373047e+00,3.176035881042480469e+00,3.093415260314941406e+00,3.014984130859375000e+00,2.940431833267211914e+00,2.869477748870849609e+00,2.801867008209228516e+00,2.737368822097778320e+00,2.675773620605468750e+00,2.616889238357543945e+00,2.560540914535522461e+00,2.506567955017089844e+00,2.454823493957519531e+00,2.405172109603881836e+00,2.357489585876464844e+00,2.311660528182983398e+00,2.267579555511474609e+00,2.225148200988769531e+00,2.184275627136230469e+00,2.144877672195434570e+00,2.106875658035278320e+00,2.070196866989135742e+00,2.034773349761962891e+00,2.000541448593139648e+00,1.967442750930786133e+00,1.935420989990234375e+00,1.904425144195556641e+00,1.874406456947326660e+00,1.845319390296936035e+00
5.000000000000000000e+00,5.000000000000000000e+00,5.000000000000000000e+00,5.000000000000000000e+00,5.000000000000000000e+00,5.000000000000000000e+00,5.000000000000000000e+00,5.000000000000000000e+00,5.000000000000000000e+00,5.000000000000000000e+00,5.000000000000000000e+00,5.000000000000000000e+00,5.000000000000000000e+00,5.000000000000000000e+00,5.000000000000000000e+00,5.000000000000000000e+00,5.000000000000000000e+00,5.000000000000000000e+00,5.000000000000000000e+00,5.000000000000000000e+00,5.000000000000000000e+00,5.000000000000000000e+00,5.000000000000000000e+00,5.000000000000000000e+00,5.000000000000000000e+00,4.065316200256347656e+00,5.000000000000000000e+00,5.000000000000000000e+00,5.000000000000000000e+00,5.000000000000000000e+00,5.000000000000000000e+00,5.000000000000000000e+00,5.000000000000000000e+00,5.000000000000000000e+00,5.000000000000000000e+00,5.000000000000000000e+00,5.000000000000000000e+00,5.000000000000000000e+00,5.000000000000000000e+00,4.865472316741943359e+00,4.674223423004150391e+00,4.497440814971923828e+00,4.333542823791503906e+00,4.181170463562011719e+00,4.039149284362792969e+00,3.906459569931030273e+00,3.782210111618041992e+00,3.665621042251586914e+00,3.556004762649536133e+00,3.452754259109497070e+00,3.355329990386962891e+00,3.263253450393676758e+00,3.176094770431518555e+00,3.093471050262451172e+00,3.015037298202514648e+00,2.940482378005981445e+00,2.869525671005249023e+00,2.801912784576416016e+00,2.737412691116333008e+00,2.675815582275390625e+00,2.616929531097412109e+00,2.560579299926757812e+00,2.506604671478271484e+00,2.454858779907226562e+00,2.405205726623535156e+00,2.357522010803222656e+00,2.311691761016845703e+00,2.267609596252441406e+00,2.225177049636840820e+00,2.184303522109985352e+00,2.144904613494873047e+00,2.106901645660400391e+00,2.070221900939941406e+00,2.034797430038452148e+00,2.000565052032470703e+00,1.967465281486511230e+00,1.935443043708801270e+00,1.904446363449096680e+00,1.874426960945129395e+00,1.845339298248291016e+00
5.000000000000000000e+00,5.000000000000000000e+00,5.000000000000000000e+00,5.000000000000000000e+00,5.000000000000000000e+00,5.000000000000000000e+00,5.000000000000000000e+00,5.000000000000000000e+00,5.000000000000000000e+00,5.000000000000000000e+00,5.000000000000000000e+00,5.000000000000000000e+00,5.000000000000000000e+00,5.000000000000000000e+00,5.000000000000000000e+00,5.000000000000000000e+00,5.000000000000000000e+00,5.000000000000000000e+00,5.000000000000000000e+00,5.000000000000000000e+00,5.000000000000000000e+00,5.000000000000000000e+00,5.000000000000000000e+00,5.000000000000000000e+00,5.000000000000000000e+00,4.062459945678710938e+00,4.137627601623535156e+00,5.000000000000000000e+00,5.000000000000000000e+00,5.000000000000000000e+00,5.000000000000000000e+00,5.000000000000000000e+00,5.000000000000000000e+00,5.000000000000000000e+00,5.000000000000000000e+00,5.000000000000000000e+00,5.000000000000000000e+00,5.000000000000000000e+00,5.000000000000000000e+00,4.865610599517822266e+00,4.674351215362548828e+00,4.497558593750000000e+00,4.333652496337890625e+00,4.181272506713867188e+00,4.039244651794433594e+00,3.906548500061035156e+00,3.782294034957885742e+00,3.665699481964111328e+00,3.556078910827636719e+00,3.452823877334594727e+00,3.355395793914794922e+00,3.263315677642822266e+00,3.176153898239135742e+00,3.093527317047119141e+00,3.015090465545654297e+00,2.940533161163330078e+00,2.869573831558227539e+00,2.801958560943603516e+00,2.737456560134887695e+00,2.675857305526733398e+00,2.616969585418701172e+00,2.560617446899414062e+00,2.506641626358032227e+00,2.454893827438354492e+00,2.405239820480346680e+00,2.357554435729980469e+00,2.311722993850708008e+00,2.267639636993408203e+00,2.225206136703491211e+00,2.184331655502319336e+00,2.144931316375732422e+00,2.106927633285522461e+00,2.070246934890747070e+00,2.034821748733520508e+00,2.000588417053222656e+00,1.967487931251525879e+00,1.935464978218078613e+00,1.904467463493347168e+00,1.874447464942932129e+00,1.845359206199645996e+00
5.000000000000000000e+00,5.000000000000000000e+00,5.000000000000000000e+00,5.000000000000000000e+00,5.000000000000000000e+00,5.000000000000000000e+00,5.000000000000000000e+00,5.000000000000000000e+00,5.000000000000000000e+00,5.000000000000000000e+00,5.000000000000000000e+00,5.000000000000000000e+00,5.000000000000000000e+00,5.000000000000000000e+00,5.000000000000000000e+00,5.000000000000000000e+00,5.000000000000000000e+00,5.000000000000000000e+00,5.000000000000000000e+00,5.000000000000000000e+00,5.000000000000000000e+00,5.000000000000000000e+00,5.000000000000000000e+00,5.000000000000000000e+00,5.000000000000000000e+00,4.069591045379638672e+00,4.141152858734130859e+00,5.000000000000000000e+00,5.000000000000000000e+00,5.000000000000000000e+00,5.000000000000000000e+00,5.000000000000000000e+00,5.000000000000000000e+00,5.000000000000000000e+00,5.000000000000000000e+00,5.000000000000000000e+00,5.000000000000000000e+00,5.000000000000000000e+00,5.000000000000000000e+00,4.865748882293701172e+00,4.674479007720947266e+00,4.497677326202392578e+00,4.333762645721435547e+00,4.181375026702880859e+00,4.039340019226074219e+00,3.906637668609619141e+00,3.782377481460571289e+00,3.665778160095214844e+00,3.556152820587158203e+00,3.452893495559692383e+00,3.355462074279785156e+00,3.263377666473388672e+00,3.176212787628173828e+00,3.093583106994628906e+00,3.015143394470214844e+00,2.940583705902099609e+00,2.869621992111206055e+00,2.802004814147949219e+00,2.737500429153442383e+00,2.675899505615234375e+00,2.617009639739990234e+00,2.560655832290649414e+00,2.506678342819213867e+00,2.454929113388061523e+00,2.405273437500000000e+00,2.357586860656738281e+00,2.311754226684570312e+00,2.267669677734375000e+00,2.225234985351562500e+00,2.184359550476074219e+00,2.144958257675170898e+00,2.106953620910644531e+00,2.070271968841552734e+00,2.034846067428588867e+00,2.000611782073974609e+00,1.967510581016540527e+00,1.935486793518066406e+00,1.904488682746887207e+00,1.874467968940734863e+00,1.845378994941711426e+00
5.000000000000000000e+00,5.000000000000000000e+00,5.000000000000000000e+00,5.000000000000000000e+00,5.000000000000000000e+00,5.000000000000000000e+00,5.000000000000000000e+00,5.000000000000000000e+00,5.000000000000000000e+00,5.000000000000000000e+00,5.000000000000000000e+00,5.000000000000000000e+00,5.000000000000000000e+00,5.000000000000000000e+00,5.000000000000000000e+00,5.000000000000000000e+00,5.000000000000000000e+00,5.000000000000000000e+00,5.000000000000000000e+00,5.000000000000000000e+00,5.000000000000000000e+00,5.000000000000000000e+00,5.000000000000000000e+00,5.000000000000000000e+00,5.000000000000000000e+00,4.154261589050292969e+00,4.185393810272216797e+00,5.000000000000000000e+00,5.000000000000000000e+00,5.000000000000000000e+00,5.000000000000000000e+00,5.000000000000000000e+00,5.000000000000000000e+00,5.000000000000000000e+00,5.000000000000000000e+00,5.000000000000000000e+00,5.000000000000000000e+00,5.000000000000000000e+00,5.000000000000000000e+00,4.865887165069580078e+00,4.674606323242187500e+00,4.497795581817626953e+00,4.333872318267822266e+00,4.181477069854736328e+00,4.039435386657714844e+00,3.906727313995361328e+00,3.782461166381835938e+00,3.665856599807739258e+00,3.556226730346679688e+00,3.452963113784790039e+00,3.355527639389038086e+00,3.263439893722534180e+00,3.176271915435791016e+00,3.093639135360717773e+00,3.015196800231933594e+00,2.940634250640869141e+00,2.869670152664184570e+00,2.802050590515136719e+00,2.737544059753417969e+00,2.675941228866577148e+00,2.617049455642700195e+00,2.560694217681884766e+00,2.506715059280395508e+00,2.454964160919189453e+00,2.405307292938232422e+00,2.357619285583496094e+00,2.311785459518432617e+00,2.267699718475341797e+00,2.225264072418212891e+00,2.184387445449829102e+00,2.144985198974609375e+00,2.106979608535766602e+00,2.070297002792358398e+00,2.034870147705078125e+00,2.000635147094726562e+00,1.967533111572265625e+00,1.935508728027343750e+00,1.904510140419006348e+00,1.874488472938537598e+00,1.845398902893066406e+00
5.000000000000000000e+00,5.000000000000000000e+00,5.000000000000000000e+00,5.000000000000000000e+00,5.000000000000000000e+00,5.000000000000000000e+00,5.000000000000000000e+00,5.000000000000000000e+00,5.000000000000000000e+00,5.000000000000000000e+00,5.000000000000000000e+00,5.000000000000000000e+00,5.000000000000000000e+00,5.000000000000000000e+00,5.000000000000000000e+00,5.000000000000000000e+00,5.000000000000000000e+00,5.000000000000000000e+00,5.000000000000000000e+00,5.000000000000000000e+00,5.000000000000000000e+00,5.000000000000000000e+00,4.120008468627929688e+00,4.114042282104492188e+00,4.089967727661132812e+00,4.094992637634277344e+00,4.095106124877929688e+00,4.114285945892333984e+00,4.148591041564941406e+00,5.000000000000000000e+00,5.000000000000000000e+00,5.000000000000000000e+00,5.000000000000000000e+00,5.000000000000000000e+00,5.000000000000000000e+00,5.000000000000000000e+00,5.000000000000000000e+00,5.000000000000000000e+00,5.000000000000000000e+00,4.866025924682617188e+00,4.674734592437744141e+00,4.497913837432861328e+00,4.333981990814208984e+00,4.181579113006591797e+00,4.039530754089355469e+00,3.906816482543945312e+00,3.782544612884521484e+00,3.665935516357421875e+00,3.556300640106201172e+00,3.453033208847045898e+00,3.355593442916870117e+00,3.263502120971679688e+00,3.176330804824829102e+00,3.093694925308227539e+00,3.015249967575073242e+00,2.940684556961059570e+00,2.869718313217163086e+00,2.802096366882324219e+00,2.737587928771972656e+00,2.675982952117919922e+00,2.617089509963989258e+00,2.560732603073120117e+00,2.506751537322998047e+00,2.454999685287475586e+00,2.405341148376464844e+00,2.357651948928833008e+00,2.311816692352294922e+00,2.267729759216308594e+00,2.225292921066284180e+00,2.184415102005004883e+00,2.145012140274047852e+00,2.107005357742309570e+00,2.070322036743164062e+00,2.034894227981567383e+00,2.000658512115478516e+00,1.967555761337280273e+00,1.935530662536621094e+00,1.904531359672546387e+00,1.874508976936340332e+00,1.845418810844421387e+00
5.000000000000000000e+00,5.000000000000000000e+00,5.000000000000000000e+00,5.000000000000000000e+00,5.000000000000000000e+00,5.000000000000000000e+00,5.000000000000000000e+00,5.000000000000000000e+00,5.000000000000000000e+00,5.000000000000000000e+00,5.000000000000000000e+00,5.000000000000000000e+00,5.000000000000000000e+00,5.000000000000000000e+00,5.000000000000000000e+00,5.000000000000000000e+00,5.000000000000000000e+00,5.000000000000000000e+00,5.000000000000000000e+00,5.000000000000000000e+00,5.000000000000000000e+00,5.000000000000000000e+00,4.110676765441894531e+00,4.089245796203613281e+00,4.044379234313964844e+00,4.047886371612548828e+00,4.058214664459228516e+00,4.105195045471191406e+00,4.155784130096435547e+00,4.212642669677734375e+00,5.000000000000000000e+00,5.000000000000000000e+00,5.000000000000000000e+00,5.000000000000000000e+00,5.000000000000000000e+00,5.000000000000000000e+00,5.000000000000000000e+00,5.000000000000000000e+00,5.000000000000000000e+00,4.866164207458496094e+00,4.674861907958984375e+00,4.498032093048095703e+00,4.334091663360595703e+00,4.181681632995605469e+00,4.039626598358154297e+00,3.906905651092529297e+00,3.782628297805786133e+00,3.666013956069946289e+00,3.556374549865722656e+00,3.453102827072143555e+00,3.355659246444702148e+00,3.263564825057983398e+00,3.176389932632446289e+00,3.093751192092895508e+00,3.015303134918212891e+00,2.940735101699829102e+00,2.869766473770141602e+00,2.802142381668090820e+00,2.737631797790527344e+00,2.676024913787841797e+00,2.617129802703857422e+00,2.560770988464355469e+00,2.506788253784179688e+00,2.455034971237182617e+00,2.405375003814697266e+00,2.357684373855590820e+00,2.311847925186157227e+00,2.267760038375854492e+00,2.225322008132934570e+00,2.184443235397338867e+00,2.145039081573486328e+00,2.107031345367431641e+00,2.070347070693969727e+00,2.034918546676635742e+00,2.000682115554809570e+00,1.967578411102294922e+00,1.935552477836608887e+00,1.904552459716796875e+00,1.874529600143432617e+00,1.845438718795776367e+00
5.000000000000000000e+00,5.000000000000000000e+00,5.000000000000000000e+00,5.000000000000000000e+00,5.000000000000000000e+00,5.000000000000000000e+00,5.000000000000000000e+00,5.000000000000000000e+00,5.000000000000000000e+00,5.000000000000000000e+00,5.000000000000000000e+00,5.000000000000000000e+00,5.000000000000000000e+00,5.000000000000000000e+00,5.000000000000000000e+00,5.000000000000000000e+00,5.000000000000000000e+00,5.000000000000000000e+00,5.000000000000000000e+00,5.000000000000000000e+00,5.000000000000000000e+00,5.000000000000000000e+00,5.000000000000000000e+00,4.143582820892333984e+00,4.052255630493164062e+00,4.043917179107666016e+00,4.065288066864013672e+00,4.110277652740478516e+00,4.150555133819580078e+00,4.184155941009521484e+00,5.000000000000000000e+00,5.000000000000000000e+00,5.000000000000000000e+00,5.000000000000000000e+00,5.000000000000000000e+00,5.000000000000000000e+00,5.000000000000000000e+00,5.000000000000000000e+00,5.000000000000000000e+00,4.866302967071533203e+00,4.674990177154541016e+00,4.498150348663330078e+00,4.334201812744140625e+00,4.181783676147460938e+00,4.039721965789794922e+00,3.906994819641113281e+00,3.782712221145629883e+00,3.666092395782470703e+00,3.556448698043823242e+00,3.453172445297241211e+00,3.355725049972534180e+00,3.263627052307128906e+00,3.176448822021484375e+00,3.093806982040405273e+00,3.015356302261352539e+00,2.940785884857177734e+00,2.869814634323120117e+00,2.802188158035278320e+00,2.737675666809082031e+00,2.676066637039184570e+00,2.617169857025146484e+00,2.560809135437011719e+00,2.506825208663940430e+00,2.455070018768310547e+00,2.405408859252929688e+00,2.357717037200927734e+00,2.311879158020019531e+00,2.267790079116821289e+00,2.225350856781005859e+00,2.184471130371093750e+00,2.145066022872924805e+00,2.107057332992553711e+00,2.070372104644775391e+00,2.034942626953125000e+00,2.000705480575561523e+00,1.967601060867309570e+00,1.935574412345886230e+00,1.904573678970336914e+00,1.874550342559814453e+00,1.845458626747131348e+00
5.000000000000000000e+00,5.000000000000000000e+00,5.000000000000000000e+00,5.000000000000000000e+00,5.000000000000000000e+00,5.000000000000000000e+00,5.000000000000000000e+00,5.000000000000000000e+00,5.000000000000000000e+00,5.000000000000000000e+00,5.000000000000000000e+00,5.000000000000000000e+00,5.000000000000000000e+00,5.000000000000000000e+00,5.000000000000000000e+00,5.000000000000000000e+00,5.000000000000000000e+00,5.000000000000000000e+00,5.000000000000000000e+00,5.000000000000000000e+00,5.000000000000000000e+00,5.000000000000000000e+00,5.000000000000000000e+00,4.143864631652832031e+00,4.047743320465087891e+00,4.041831493377685547e+00,4.061959743499755859e+00,4.125887870788574219e+00,4.151971340179443359e+00,4.176976680755615234e+00,5.000000000000000000e+00,5.000000000000000000e+00,5.000000000000000000e+00,5.000000000000000000e+00,5.000000000000000000e+00,5.000000000000000000e+00,5.000000000000000000e+00,5.000000000000000000e+00,5.000000000000000000e+00,4.866441249847412109e+00,4.675117492675781250e+00,4.498268604278564453e+00,4.334311485290527344e+00,4.181886196136474609e+00,4.039816856384277344e+00,3.907083988189697266e+00,3.782795906066894531e+00,3.666171073913574219e+00,3.556522607803344727e+00,3.453242063522338867e+00,3.355791091918945312e+00,3.263689041137695312e+00,3.176507711410522461e+00,3.093863010406494141e+00,3.015409231185913086e+00,2.940836429595947266e+00,2.869862794876098633e+00,2.802234172821044922e+00,2.737719535827636719e+00,2.676108837127685547e+00,2.617209672927856445e+00,2.560847520828247070e+00,2.506861925125122070e+00,2.455105304718017578e+00,2.405442714691162109e+00,2.357749462127685547e+00,2.311910629272460938e+00,2.267820119857788086e+00,2.225379705429077148e+00,2.184499025344848633e+00,2.145092725753784180e+00,2.107083320617675781e+00,2.070397138595581055e+00,2.034966945648193359e+00,2.000728845596313477e+00,1.967623829841613770e+00,1.935596227645874023e+00,1.904594898223876953e+00,1.874570846557617188e+00,1.845478534698486328e+00
5.000000000000000000e+00,5.000000000000000000e+00,5.000000000000000000e+00,5.000000000000000000e+00,5.000000000000000000e+00,5.000000000000000000e+00,5.000000000000000000e+00,5.000000000000000000e+00,5.000000000000000000e+00,5.000000000000000000e+00,5.000000000000000000e+00,5.000000000000000000e+00,5.000000000000000000e+00,5.000000000000000000e+00,5.000000000000000000e+00,5.000000000000000000e+00,5.000000000000000000e+00,5.000000000000000000e+00,5.000000000000000000e+00,5.000000000000000000e+00,5.000000000000000000e+00,5.000000000000000000e+00,5.000000000000000000e+00,4.157655239105224609e+00,4.034880638122558594e+00,4.044228553771972656e+00,4.058643817901611328e+00,4.136022567749023438e+00,4.184849262237548828e+00,4.171874523162841797e+00,5.000000000000000000e+00,5.000000000000000000e+00,5.000000000000000000e+00,5.000000000000000000e+00,5.000000000000000000e+00,5.000000000000000000e+00,5.000000000000000000e+00,5.000000000000000000e+00,5.000000000000000000e+00,4.866579532623291016e+00,4.675245285034179688e+00,4.498386859893798828e+00,4.334421157836914062e+00,4.181988239288330078e+00,4.039912700653076172e+00,3.907173633575439453e+00,3.782879590988159180e+00,3.666249513626098633e+00,3.556596517562866211e+00,3.453311681747436523e+00,3.355856895446777344e+00,3.263751268386840820e+00,3.176566839218139648e+00,3.093918800354003906e+00,3.015462636947631836e+00,2.940886974334716797e+00,2.869910955429077148e+00,2.802280187606811523e+00,2.737763166427612305e+00,2.676150560379028320e+00,2.617249727249145508e+00,2.560886144638061523e+00,2.506898641586303711e+00,2.455140590667724609e+00,2.405476570129394531e+00,2.357781887054443359e+00,2.311941862106323242e+00,2.267850160598754883e+00,2.225408792495727539e+00,2.184526920318603516e+00,2.145119905471801758e+00,2.107109308242797852e+00,2.070422172546386719e+00,2.034991264343261719e+00,2.000752210617065430e+00,1.967646479606628418e+00,1.935618162155151367e+00,1.904616117477416992e+00,1.874591350555419922e+00,1.845498442649841309e+00
5.000000000000000000e+00,5.000000000000000000e+00,5.000000000000000000e+00,5.000000000000000000e+00,5.000000000000000000e+00,5.000000000000000000e+00,5.000000000000000000e+00,5.000000000000000000e+00,5.000000000000000000e+00,5.000000000000000000e+00,5.000000000000000000e+00,5.000000000000000000e+00,5.000000000000000000e+00,5.000000000000000000e+00,5.000000000000000000e+00,5.000000000000000000e+00,5.000000000000000000e+00,5.000000000000000000e+00,5.000000000000000000e+00,5.000000000000000000e+00,5.000000000000000000e+00,5.000000000000000000e+00,5.000000000000000000e+00,4.128841400146484375e+00,4.047266960144042969e+00,4.041363239288330078e+00,4.065123081207275391e+00,4.124045848846435547e+00,5.000000000000000000e+00,4.112855434417724609e+00,5.000000000000000000e+00,5.000000000000000000e+00,5.000000000000000000e+00,5.000000000000000000e+00,5.000000000000000000e+00,5.000000000000000000e+00,5.000000000000000000e+00,5.000000000000000000e+00,5.000000000000000000e+00,4.866718292236328125e+00,4.675373554229736328e+00,4.498505592346191406e+00,4.334531307220458984e+00,4.182090759277343750e+00,4.040008068084716797e+00,3.907262802124023438e+00,3.782963037490844727e+00,3.666328430175781250e+00,3.556670427322387695e+00,3.453381776809692383e+00,3.355922698974609375e+00,3.263813495635986328e+00,3.176625967025756836e+00,3.093974828720092773e+00,3.015515804290771484e+00,2.940937519073486328e+00,2.869959115982055664e+00,2.802325963973999023e+00,2.737807273864746094e+00,2.676192522048950195e+00,2.617289781570434570e+00,2.560924291610717773e+00,2.506935358047485352e+00,2.455175876617431641e+00,2.405510187149047852e+00,2.357814550399780273e+00,2.311973094940185547e+00,2.267880201339721680e+00,2.225437879562377930e+00,2.184554815292358398e+00,2.145146608352661133e+00,2.107135295867919922e+00,2.070447444915771484e+00,2.035015344619750977e+00,2.000775575637817383e+00,1.967669129371643066e+00,1.935639977455139160e+00,1.904637217521667480e+00,1.874611854553222656e+00,1.845518469810485840e+00
5.000000000000000000e+00,5.000000000000000000e+00,5.000000000000000000e+00,5.000000000000000000e+00,5.000000000000000000e+00,5.000000000000000000e+00,5.000000000000000000e+00,5.000000000000000000e+00,5.000000000000000000e+00,5.000000000000000000e+00,5.000000000000000000e+00,5.000000000000000000e+00,5.000000000000000000e+00,5.000000000000000000e+00,5.000000000000000000e+00,5.000000000000000000e+00,5.000000000000000000e+00,5.000000000000000000e+00,5.000000000000000000e+00,5.000000000000000000e+00,5.000000000000000000e+00,5.000000000000000000e+00,5.000000000000000000e+00,4.123434543609619141e+00,4.040748596191406250e+00,4.064335346221923828e+00,4.076231002807617188e+00,4.118403911590576172e+00,5.000000000000000000e+00,4.057943344116210938e+00,5.000000000000000000e+00,5.000000000000000000e+00,5.000000000000000000e+00,5.000000000000000000e+00,5.000000000000000000e+00,5.000000000000000000e+00,5.000000000000000000e+00,5.000000000000000000e+00,5.000000000000000000e+00,4.866856575012207031e+00,4.675500869750976562e+00,4.498623847961425781e+00,4.334640979766845703e+00,4.182192802429199219e+00,4.040103435516357422e+00,3.907351970672607422e+00,3.783046722412109375e+00,3.666406869888305664e+00,3.556744337081909180e+00,3.453451395034790039e+00,3.355988502502441406e+00,3.263876199722290039e+00,3.176684856414794922e+00,3.094031095504760742e+00,3.015568971633911133e+00,2.940988063812255859e+00,2.870007276535034180e+00,2.802371978759765625e+00,2.737851142883300781e+00,2.676234245300292969e+00,2.617330074310302734e+00,2.560962677001953125e+00,2.506972074508666992e+00,2.455211162567138672e+00,2.405544042587280273e+00,2.357846975326538086e+00,2.312004327774047852e+00,2.267910242080688477e+00,2.225466728210449219e+00,2.184582710266113281e+00,2.145173549652099609e+00,2.107161045074462891e+00,2.070472478866577148e+00,2.035039663314819336e+00,2.000798940658569336e+00,1.967691659927368164e+00,1.935662150382995605e+00,1.904658436775207520e+00,1.874632358551025391e+00,1.845538377761840820e+00
5.000000000000000000e+00,5.000000000000000000e+00,5.000000000000000000e+00,5.000000000000000000e+00,5.000000000000000000e+00,5.000000000000000000e+00,5.000000000000000000e+00,5.000000000000000000e+00,5.000000000000000000e+00,5.000000000000000000e+00,5.000000000000000000e+00,5.000000000000000000e+00,5.000000000000000000e+00,5.000000000000000000e+00,5.000000000000000000e+00,5.000000000000000000e+00,5.000000000000000000e+00,5.000000000000000000e+00,5.000000000000000000e+00,5.000000000000000000e+00,5.000000000000000000e+00,5.000000000000000000e+00,5.000000000000000000e+00,4.006137847900390625e+00,3.979152679443359375e+00,4.044254779815673828e+00,4.097532749176025391e+00,4.122019290924072266e+00,5.000000000000000000e+00,4.004031658172607422e+00,5.000000000000000000e+00,5.000000000000000000e+00,5.000000000000000000e+00,5.000000000000000000e+00,5.000000000000000000e+00,5.000000000000000000e+00,5.000000000000000000e+00,5.000000000000000000e+00,5.000000000000000000e+00,4.866995334625244141e+00,4.675629138946533203e+00,4.498741626739501953e+00,4.334750652313232422e+00,4.182295322418212891e+00,4.040198802947998047e+00,3.907441139221191406e+00,3.783130645751953125e+00,3.666485548019409180e+00,3.556818485260009766e+00,3.453521013259887695e+00,3.356054306030273438e+00,3.263938426971435547e+00,3.176743745803833008e+00,3.094086885452270508e+00,3.015622138977050781e+00,2.941038846969604492e+00,2.870055437088012695e+00,2.802417755126953125e+00,2.737894773483276367e+00,2.676276206970214844e+00,2.617370128631591797e+00,2.561001062393188477e+00,2.507009029388427734e+00,2.455246210098266602e+00,2.405578136444091797e+00,2.357879400253295898e+00,2.312035560607910156e+00,2.267940282821655273e+00,2.225495576858520508e+00,2.184610605239868164e+00,2.145200490951538086e+00,2.107187271118164062e+00,2.070497512817382812e+00,2.035063743591308594e+00,2.000822544097900391e+00,1.967714309692382812e+00,1.935684084892272949e+00,1.904679656028747559e+00,1.874652981758117676e+00,1.845558285713195801e+00
5.000000000000000000e+00,5.000000000000000000e+00,5.000000000000000000e+00,5.000000000000000000e+00,5.000000000000000000e+00,5.000000000000000000e+00,5.000000000000000000e+00,5.000000000000000000e+00,5.000000000000000000e+00,5.000000000000000000e+00,5.000000000000000000e+00,5.000000000000000000e+00,5.000000000000000000e+00,5.000000000000000000e+00,5.000000000000000000e+00,5.000000000000000000e+00,5.000000000000000000e+00,5.000000000000000000e+00,5.000000000000000000e+00,5.000000000000000000e+00,5.000000000000000000e+00,5.000000000000000000e+00,5.000000000000000000e+00,3.980459690093994141e+00,3.955436468124389648e+00,4.024996280670166016e+00,4.099252700805664062e+00,4.129455566406250000e+00,5.000000000000000000e+00,3.947034120559692383e+00,5.000000000000000000e+00,5.000000000000000000e+00,5.000000000000000000e+00,5.000000000000000000e+00,5.000000000000000000e+00,5.000000000000000000e+00,5.000000000000000000e+00,5.000000000000000000e+00,5.000000000000000000e+00,4.867134094238281250e+00,4.675756931304931641e+00,4.498860359191894531e+00,4.334860801696777344e+00,4.182397365570068359e+00,4.040294170379638672e+00,3.907530307769775391e+00,3.783214330673217773e+00,3.666563987731933594e+00,3.556892395019531250e+00,3.453590869903564453e+00,3.356120347976684570e+00,3.264000654220581055e+00,3.176802635192871094e+00,3.094142913818359375e+00,3.015675306320190430e+00,2.941089391708374023e+00,2.870103597640991211e+00,2.802463769912719727e+00,2.737938642501831055e+00,2.676318168640136719e+00,2.617409944534301758e+00,2.561039209365844727e+00,2.507045745849609375e+00,2.455281496047973633e+00,2.405611991882324219e+00,2.357911825180053711e+00,2.312066793441772461e+00,2.267970323562622070e+00,2.225524663925170898e+00,2.184638500213623047e+00,2.145227432250976562e+00,2.107213258743286133e+00,2.070522546768188477e+00,2.035088062286376953e+00,2.000845909118652344e+00,1.967736959457397461e+00,1.935705900192260742e+00,1.904700875282287598e+00,1.874673485755920410e+00,1.845578193664550781e+00
5.000000000000000000e+00,5.000000000000000000e+00,5.000000000000000000e+00,5.000000000000000000e+00,5.000000000000000000e+00,5.000000000000000000e+00,5.000000000000000000e+00,5.000000000000000000e+00,5.000000000000000000e+00,5.000000000000000000e+00,5.000000000000000000e+00,5.000000000000000000e+00,5.000000000000000000e+00,5.000000000000000000e+00,5.000000000000000000e+00,5.000000000000000000e+00,5.000000000000000000e+00,5.000000000000000000e+00,5.000000000000000000e+00,5.000000000000000000e+00,5.000000000000000000e+00,5.000000000000000000e+00,5.000000000000000000e+00,4.123689651489257812e+00,3.931305170059204102e+00,4.005512714385986328e+00,4.118654251098632812e+00,4.150634288787841797e+00,5.000000000000000000e+00,5.000000000000000000e+00,5.000000000000000000e+00,5.000000000000000000e+00,5.000000000000000000e+00,5.000000000000000000e+00,5.000000000000000000e+00,5.000000000000000000e+00,5.000000000000000000e+00,5.000000000000000000e+00,5.000000000000000000e+00,4.867272377014160156e+00,4.675884246826171875e+00,4.498978614807128906e+00,4.334970474243164062e+00,4.182499885559082031e+00,4.040390014648437500e+00,3.907619953155517578e+00,3.783298015594482422e+00,3.666642904281616211e+00,3.556966304779052734e+00,3.453660488128662109e+00,3.356186151504516602e+00,3.264062881469726562e+00,3.176862001419067383e+00,3.094198703765869141e+00,3.015728473663330078e+00,2.941139936447143555e+00,2.870151758193969727e+00,2.802509784698486328e+00,2.737982511520385742e+00,2.676359891891479492e+00,2.617449998855590820e+00,2.561077833175659180e+00,2.507082462310791016e+00,2.455317020416259766e+00,2.405645608901977539e+00,2.357944488525390625e+00,2.312098026275634766e+00,2.268000364303588867e+00,2.225553750991821289e+00,2.184666395187377930e+00,2.145254373550415039e+00,2.107239007949829102e+00,2.070547580718994141e+00,2.035112380981445312e+00,2.000869274139404297e+00,1.967759609222412109e+00,1.935727834701538086e+00,1.904722213745117188e+00,1.874693989753723145e+00,1.845598101615905762e+00
5.000000000000000000e+00,5.000000000000000000e+00,5.000000000000000000e+00,5.000000000000000000e+00,5.000000000000000000e+00,5.000000000000000000e+00,5.000000000000000000e+00,5.000000000000000000e+00,5.000000000000000000e+00,5.000000000000000000e+00,5.000000000000000000e+00,5.000000000000000000e+00,5.000000000000000000e+00,5.000000000000000000e+00,5.000000000000000000e+00,5.000000000000000000e+00,5.000000000000000000e+00,5.000000000000000000e+00,5.000000000000000000e+00,5.000000000000000000e+00,5.000000000000000000e+00,5.000000000000000000e+00,5.000000000000000000e+00,5.000000000000000000e+00,3.905587911605834961e+00,3.974365949630737305e+00,4.142971515655517578e+00,4.177134037017822266e+00,5.000000000000000000e+00,5.000000000000000000e+00,5.000000000000000000e+00,5.000000000000000000e+00,5.000000000000000000e+00,5.000000000000000000e+00,5.000000000000000000e+00,5.000000000000000000e+00,5.000000000000000000e+00,5.000000000000000000e+00,5.000000000000000000e+00,4.867411136627197266e+00,4.676012516021728516e+00,4.499097347259521484e+00,4.335080623626708984e+00,4.182601928710937500e+00,4.040485382080078125e+00,3.907709121704101562e+00,3.783381462097167969e+00,3.666721343994140625e+00,3.557040214538574219e+00,3.453730583190917969e+00,3.356251955032348633e+00,3.264125108718872070e+00,3.176920890808105469e+00,3.094254732131958008e+00,3.015781641006469727e+00,2.941190481185913086e+00,2.870199918746948242e+00,2.802555561065673828e+00,2.738026618957519531e+00,2.676401853561401367e+00,2.617490053176879883e+00,2.561116218566894531e+00,2.507119178771972656e+00,2.455352067947387695e+00,2.405679464340209961e+00,2.357977151870727539e+00,2.312129259109497070e+00,2.268030643463134766e+00,2.225582599639892578e+00,2.184694290161132812e+00,2.145281314849853516e+00,2.107264995574951172e+00,2.070572853088378906e+00,2.035136461257934570e+00,2.000892639160156250e+00,1.967782139778137207e+00,1.935749650001525879e+00,1.904743432998657227e+00,1.874714493751525879e+00,1.845618009567260742e+00
5.000000000000000000e+00,5.000000000000000000e+00,5.000000000000000000e+00,5.000000000000000000e+00,5.000000000000000000e+00,5.000000000000000000e+00,5.000000000000000000e+00,5.000000000000000000e+00,5.000000000000000000e+00,5.000000000000000000e+00,5.000000000000000000e+00,5.000000000000000000e+00,5.000000000000000000e+00,5.000000000000000000e+00,5.000000000000000000e+00,5.000000000000000000e+00,5.000000000000000000e+00,5.000000000000000000e+00,5.000000000000000000e+00,5.000000000000000000e+00,5.000000000000000000e+00,5.000000000000000000e+00,5.000000000000000000e+00,5.000000000000000000e+00,3.884173154830932617e+00,3.952260494232177734e+00,4.165757656097412109e+00,4.235414028167724609e+00,5.000000000000000000e+00,5.000000000000000000e+00,5.000000000000000000e+00,5.000000000000000000e+00,5.000000000000000000e+00,5.000000000000000000e+00,5.000000000000000000e+00,5.000000000000000000e+00,5.000000000000000000e+00,5.000000000000000000e+00,5.000000000000000000e+00,4.867549419403076172e+00,4.676140308380126953e+00,4.499215602874755859e+00,4.335190296173095703e+00,4.182704448699951172e+00,4.040580749511718750e+00,3.907798290252685547e+00,3.783465147018432617e+00,3.666800022125244141e+00,3.557114124298095703e+00,3.453800201416015625e+00,3.356317758560180664e+00,3.264187574386596680e+00,3.176979780197143555e+00,3.094310998916625977e+00,3.015834808349609375e+00,2.941241025924682617e+00,2.870248079299926758e+00,2.802601575851440430e+00,2.738070249557495117e+00,2.676443576812744141e+00,2.617530345916748047e+00,2.561154365539550781e+00,2.507155895233154297e+00,2.455387353897094727e+00,2.405713319778442383e+00,2.358009576797485352e+00,2.312160491943359375e+00,2.268060684204101562e+00,2.225611448287963867e+00,2.184722185134887695e+00,2.145308256149291992e+00,2.107290983200073242e+00,2.070597887039184570e+00,2.035160779953002930e+00,2.000916004180908203e+00,1.967804789543151855e+00,1.935771584510803223e+00,1.904764652252197266e+00,1.874734997749328613e+00,1.845637917518615723e+00
5.000000000000000000e+00,5.000000000000000000e+00,5.000000000000000000e+00,5.000000000000000000e+00,5.000000000000000000e+00,5.000000000000000000e+00,5.000000000000000000e+00,5.000000000000000000e+00,5.000000000000000000e+00,5.000000000000000000e+00,5.000000000000000000e+00,5.000000000000000000e+00,5.000000000000000000e+00,5.000000000000000000e+00,5.000000000000000000e+00,5.000000000000000000e+00,5.000000000000000000e+00,5.000000000000000000e+00,5.000000000000000000e+00,5.000000000000000000e+00,5.000000000000000000e+00,5.000000000000000000e+00,5.000000000000000000e+00,5.000000000000000000e+00,3.897073745727539062e+00,3.969513416290283203e+00,4.185760974884033203e+00,5.000000000000000000e+00,5.000000000000000000e+00,5.000000000000000000e+00,5.000000000000000000e+00,5.000000000000000000e+00,5.000000000000000000e+00,5.000000000000000000e+00,5.000000000000000000e+00,5.000000000000000000e+00,5.000000000000000000e+00,5.000000000000000000e+00,5.000000000000000000e+00,4.867688179016113281e+00,4.676268100738525391e+00,4.499333858489990234e+00,4.335300445556640625e+00,4.182806491851806641e+00,4.040676116943359375e+00,3.907887458801269531e+00,3.783549070358276367e+00,3.666878461837768555e+00,3.557188510894775391e+00,3.453869819641113281e+00,3.356383562088012695e+00,3.264249801635742188e+00,3.177038908004760742e+00,3.094366788864135742e+00,3.015887975692749023e+00,2.941291809082031250e+00,2.870296239852905273e+00,2.802647352218627930e+00,2.738114118576049805e+00,2.676485538482666016e+00,2.617570400238037109e+00,2.561192750930786133e+00,2.507192850112915039e+00,2.455422639846801758e+00,2.405747175216674805e+00,2.358042001724243164e+00,2.312191724777221680e+00,2.268090724945068359e+00,2.225640535354614258e+00,2.184750080108642578e+00,2.145334959030151367e+00,2.107316970825195312e+00,2.070622920989990234e+00,2.035184860229492188e+00,2.000939369201660156e+00,1.967827439308166504e+00,1.935793399810791016e+00,1.904785752296447754e+00,1.874755740165710449e+00,1.845657825469970703e+00
5.000000000000000000e+00,5.000000000000000000e+00,5.000000000000000000e+00,5.000000000000000000e+00,5.000000000000000000e+00,5.000000000000000000e+00,5.000000000000000000e+00,5.000000000000000000e+00,5.000000000000000000e+00,5.000000000000000000e+00,5.000000000000000000e+00,5.000000000000000000e+00,5.000000000000000000e+00,5.000000000000000000e+00,5.000000000000000000e+00,5.000000000000000000e+00,5.000000000000000000e+00,5.000000000000000000e+00,5.000000000000000000e+00,5.000000000000000000e+00,5.000000000000000000e+00,5.000000000000000000e+00,5.000000000000000000e+00,5.000000000000000000e+00,3.911973476409912109e+00,3.989896535873413086e+00,4.255402088165283203e+00,4.341756820678710938e+00,5.000000000000000000e+00,5.000000000000000000e+00,5.000000000000000000e+00,5.000000000000000000e+00,5.000000000000000000e+00,5.000000000000000000e+00,5.000000000000000000e+00,5.000000000000000000e+00,5.000000000000000000e+00,5.000000000000000000e+00,5.000000000000000000e+00,4.867827415466308594e+00,4.676395893096923828e+00,4.499452114105224609e+00,4.335410118103027344e+00,4.182909011840820312e+00,4.040771961212158203e+00,3.907976865768432617e+00,3.783632755279541016e+00,3.666957139968872070e+00,3.557262420654296875e+00,3.453939437866210938e+00,3.356449842453002930e+00,3.264312028884887695e+00,3.177098035812377930e+00,3.094422817230224609e+00,3.015941143035888672e+00,2.941342353820800781e+00,2.870344400405883789e+00,2.802693605422973633e+00,2.738157987594604492e+00,2.676527500152587891e+00,2.617610454559326172e+00,2.561231136322021484e+00,2.507229566574096680e+00,2.455457687377929688e+00,2.405781030654907227e+00,2.358074426651000977e+00,2.312223196029663086e+00,2.268120765686035156e+00,2.225669622421264648e+00,2.184777975082397461e+00,2.145361900329589844e+00,2.107342958450317383e+00,2.070647954940795898e+00,2.035209178924560547e+00,2.000962972640991211e+00,1.967850208282470703e+00,1.935815334320068359e+00,1.904806971549987793e+00,1.874776363372802734e+00,1.845677733421325684e+00
5.000000000000000000e+00,5.000000000000000000e+00,5.000000000000000000e+00,5.000000000000000000e+00,5.000000000000000000e+00,5.000000000000000000e+00,5.000000000000000000e+00,5.000000000000000000e+00,5.000000000000000000e+00,5.000000000000000000e+00,5.000000000000000000e+00,5.000000000000000000e+00,5.000000000000000000e+00,5.000000000000000000e+00,5.000000000000000000e+00,5.000000000000000000e+00,5.000000000000000000e+00,5.000000000000000000e+00,5.000000000000000000e+00,5.000000000000000000e+00,5.000000000000000000e+00,5.000000000000000000e+00,5.000000000000000000e+00,5.000000000000000000e+00,3.908257246017456055e+00,3.973191022872924805e+00,4.351595401763916016e+00,4.420931816101074219e+00,5.000000000000000000e+00,5.000000000000000000e+00,5.000000000000000000e+00,5.000000000000000000e+00,5.000000000000000000e+00,5.000000000000000000e+00,5.000000000000000000e+00,5.000000000000000000e+00,5.000000000000000000e+00,5.000000000000000000e+00,5.000000000000000000e+00,4.867967128753662109e+00,4.676524639129638672e+00,4.499570369720458984e+00,4.335520267486572266e+00,4.183011054992675781e+00,4.040867328643798828e+00,3.908066511154174805e+00,3.783716440200805664e+00,3.667036056518554688e+00,3.557336330413818359e+00,3.454009294509887695e+00,3.356515645980834961e+00,3.264374256134033203e+00,3.177157163619995117e+00,3.094478607177734375e+00,3.015994548797607422e+00,2.941392898559570312e+00,2.870392560958862305e+00,2.802739381790161133e+00,2.738201618194580078e+00,2.676569461822509766e+00,2.617650508880615234e+00,2.561269521713256836e+00,2.507266283035278320e+00,2.455493211746215820e+00,2.405814886093139648e+00,2.358107089996337891e+00,2.312254428863525391e+00,2.268150806427001953e+00,2.225698471069335938e+00,2.184805870056152344e+00,2.145388841629028320e+00,2.107368946075439453e+00,2.070672988891601562e+00,2.035233259201049805e+00,2.000986337661743164e+00,1.967872858047485352e+00,1.935837268829345703e+00,1.904828190803527832e+00,1.874796867370605469e+00,1.845697760581970215e+00
5.000000000000000000e+00,5.000000000000000000e+00,5.000000000000000000e+00,5.000000000000000000e+00,5.000000000000000000e+00,5.000000000000000000e+00,5.000000000000000000e+00,5.000000000000000000e+00,5.000000000000000000e+00,5.000000000000000000e+00,5.000000000000000000e+00,5.000000000000000000e+00,5.000000000000000000e+00,5.000000000000000000e+00,5.000000000000000000e+00,5.000000000000000000e+00,5.000000000000000000e+00,5.000000000000000000e+00,5.000000000000000000e+00,5.000000000000000000e+00,5.000000000000000000e+00,5.000000000000000000e+00,5.000000000000000000e+00,5.000000000000000000e+00,3.908116579055786133e+00,3.965089559555053711e+00,4.409891605377197266e+00,5.000000000000000000e+00,5.000000000000000000e+00,5.000000000000000000e+00,5.000000000000000000e+00,5.000000000000000000e+00,5.000000000000000000e+00,5.000000000000000000e+00,5.000000000000000000e+00,5.000000000000000000e+00,5.000000000000000000e+00,5.000000000000000000e+00,5.000000000000000000e+00,4.868106365203857422e+00,4.676652908325195312e+00,4.499689102172851562e+00,4.335630416870117188e+00,4.183113574981689453e+00,4.040962696075439453e+00,3.908155679702758789e+00,3.783800125122070312e+00,3.667114496231079102e+00,3.557410240173339844e+00,3.454079151153564453e+00,3.356581449508666992e+00,3.264436483383178711e+00,3.177216053009033203e+00,3.094534635543823242e+00,3.016047716140747070e+00,2.941443443298339844e+00,2.870440959930419922e+00,2.802785158157348633e+00,2.738245725631713867e+00,2.676611185073852539e+00,2.617690324783325195e+00,2.561307907104492188e+00,2.507302999496459961e+00,2.455528497695922852e+00,2.405848741531372070e+00,2.358139514923095703e+00,2.312285661697387695e+00,2.268180847167968750e+00,2.225727319717407227e+00,2.184833765029907227e+00,2.145415782928466797e+00,2.107394933700561523e+00,2.070698022842407227e+00,2.035257577896118164e+00,2.001009702682495117e+00,1.967895507812500000e+00,1.935859084129333496e+00,1.904849410057067871e+00,1.874817371368408203e+00,1.845717668533325195e+00
5.000000000000000000e+00,5.000000000000000000e+00,5.000000000000000000e+00,5.000000000000000000e+00,5.000000000000000000e+00,5.000000000000000000e+00,5.000000000000000000e+00,5.000000000000000000e+00,5.000000000000000000e+00,5.000000000000000000e+00,5.000000000000000000e+00,5.000000000000000000e+00,5.000000000000000000e+00,5.000000000000000000e+00,5.000000000000000000e+00,5.000000000000000000e+00,5.000000000000000000e+00,5.000000000000000000e+00,5.000000000000000000e+00,5.000000000000000000e+00,5.000000000000000000e+00,5.000000000000000000e+00,5.000000000000000000e+00,5.000000000000000000e+00,3.917738437652587891e+00,3.965837240219116211e+00,4.472854614257812500e+00,5.000000000000000000e+00,5.000000000000000000e+00,5.000000000000000000e+00,5.000000000000000000e+00,5.000000000000000000e+00,5.000000000000000000e+00,5.000000000000000000e+00,5.000000000000000000e+00,5.000000000000000000e+00,5.000000000000000000e+00,5.000000000000000000e+00,5.000000000000000000e+00,4.868245601654052734e+00,4.676781654357910156e+00,4.499808311462402344e+00,4.335740089416503906e+00,4.183216094970703125e+00,4.041058063507080078e+00,3.908244848251342773e+00,3.783883571624755859e+00,3.667193174362182617e+00,3.557484149932861328e+00,3.454149007797241211e+00,3.356647253036499023e+00,3.264499187469482422e+00,3.177274942398071289e+00,3.094590902328491211e+00,3.016100883483886719e+00,2.941493749618530273e+00,2.870489120483398438e+00,2.802831172943115234e+00,2.738289594650268555e+00,2.676653146743774414e+00,2.617730617523193359e+00,2.561346292495727539e+00,2.507339715957641602e+00,2.455563545227050781e+00,2.405882596969604492e+00,2.358172178268432617e+00,2.312316894531250000e+00,2.268211126327514648e+00,2.225756406784057617e+00,2.184861898422241211e+00,2.145442724227905273e+00,2.107420921325683594e+00,2.070723056793212891e+00,2.035281658172607422e+00,2.001033067703247070e+00,1.967918157577514648e+00,1.935881257057189941e+00,1.904870629310607910e+00,1.874837875366210938e+00,1.845737576484680176e+00
5.000000000000000000e+00,5.000000000000000000e+00,5.000000000000000000e+00,5.000000000000000000e+00,5.000000000000000000e+00,5.000000000000000000e+00,5.000000000000000000e+00,5.000000000000000000e+00,5.000000000000000000e+00,5.000000000000000000e+00,5.000000000000000000e+00,5.000000000000000000e+00,5.000000000000000000e+00,5.000000000000000000e+00,5.000000000000000000e+00,5.000000000000000000e+00,5.000000000000000000e+00,5.000000000000000000e+00,5.000000000000000000e+00,5.000000000000000000e+00,5.000000000000000000e+00,5.000000000000000000e+00,5.000000000000000000e+00,5.000000000000000000e+00,3.955272674560546875e+00,5.000000000000000000e+00,4.493437290191650391e+00,5.000000000000000000e+00,5.000000000000000000e+00,5.000000000000000000e+00,5.000000000000000000e+00,5.000000000000000000e+00,5.000000000000000000e+00,5.000000000000000000e+00,5.000000000000000000e+00,5.000000000000000000e+00,5.000000000000000000e+00,5.000000000000000000e+00,5.000000000000000000e+00,4.868385314941406250e+00,4.676910400390625000e+00,4.499927520751953125e+00,4.335850715637207031e+00,4.183318138122558594e+00,4.041153430938720703e+00,3.908334016799926758e+00,3.783967733383178711e+00,3.667271614074707031e+00,3.557558298110961914e+00,3.454218626022338867e+00,3.356713056564331055e+00,3.264561414718627930e+00,3.177334070205688477e+00,3.094646692276000977e+00,3.016153812408447266e+00,2.941544771194458008e+00,2.870537042617797852e+00,2.802877187728881836e+00,2.738333225250244141e+00,2.676694869995117188e+00,2.617770671844482422e+00,2.561384439468383789e+00,2.507376432418823242e+00,2.455598831176757812e+00,2.405916452407836914e+00,2.358204603195190430e+00,2.312348127365112305e+00,2.268241167068481445e+00,2.225785255432128906e+00,2.184889793395996094e+00,2.145469665527343750e+00,2.107446908950805664e+00,2.070748090744018555e+00,2.035305976867675781e+00,2.001056432723999023e+00,1.967940688133239746e+00,1.935903072357177734e+00,1.904891729354858398e+00,1.874858498573303223e+00,1.845757484436035156e+00
4.875761508941650391e+00,4.874550342559814453e+00,4.873339653015136719e+00,4.872129917144775391e+00,4.870920658111572266e+00,4.869711875915527344e+00,4.868503570556640625e+00,4.867295742034912109e+00,4.866088867187500000e+00,4.864882469177246094e+00,4.863676548004150391e+00,4.862471580505371094e+00,4.861266613006591797e+00,4.860063076019287109e+00,4.858859539031982422e+00,4.857656955718994141e+00,4.856454372406005859e+00,4.855252742767333984e+00,4.854052066802978516e+00,4.852851390838623047e+00,4.851651668548583984e+00,4.850452423095703125e+00,4.849254131317138672e+00,4.848055839538574219e+00,3.931758642196655273e+00,3.925509691238403320e+00,4.441398620605468750e+00,4.843269348144531250e+00,4.842074394226074219e+00,4.840879917144775391e+00,4.839685916900634766e+00,4.838492870330810547e+00,4.837300300598144531e+00,4.836107730865478516e+00,4.834916114807128906e+00,4.833724975585937500e+00,4.832534790039062500e+00,4.831345081329345703e+00,4.830155849456787109e+00,4.828967094421386719e+00,4.677039146423339844e+00,4.500046730041503906e+00,4.335961341857910156e+00,4.183421134948730469e+00,4.041249275207519531e+00,3.908423423767089844e+00,3.784051418304443359e+00,3.667350292205810547e+00,3.557632207870483398e+00,3.454288244247436523e+00,3.356779098510742188e+00,3.264623641967773438e+00,3.177393198013305664e+00,3.094702720642089844e+00,3.016206979751586914e+00,2.941595315933227539e+00,2.870585203170776367e+00,2.802923202514648438e+00,2.738377094268798828e+00,2.676737070083618164e+00,2.617810726165771484e+00,2.561422824859619141e+00,2.507413387298583984e+00,2.455634117126464844e+00,2.405950307846069336e+00,2.358237028121948242e+00,2.312379360198974609e+00,2.268271207809448242e+00,2.225814342498779297e+00,2.184917688369750977e+00,2.145496368408203125e+00,2.107472896575927734e+00,2.070773363113403320e+00,2.035330295562744141e+00,2.001080036163330078e+00,1.967963337898254395e+00,1.935925006866455078e+00,1.904912948608398438e+00,1.874879002571105957e+00,1.845777392387390137e+00
3.778573513031005859e+00,3.777846574783325195e+00,3.777119159698486328e+00,3.776392459869384766e+00,3.775665760040283203e+00,3.774939298629760742e+00,3.774213314056396484e+00,3.773487329483032227e+00,3.772761821746826172e+00,3.772036790847778320e+00,3.771311759948730469e+00,3.770586967468261719e+00,3.769862651824951172e+00,3.769138574600219727e+00,3.768414735794067383e+00,3.767691135406494141e+00,3.766967773437500000e+00,3.766244888305664062e+00,3.765522003173828125e+00,3.764800071716308594e+00,3.764077901840209961e+00,3.763355970382690430e+00,3.762634277343750000e+00,3.761913061141967773e+00,3.761191844940185547e+00,3.760471105575561523e+00,3.759750604629516602e+00,3.759030342102050781e+00,3.758310317993164062e+00,3.757590770721435547e+00,3.756871223449707031e+00,3.756152153015136719e+00,3.755433320999145508e+00,3.754714727401733398e+00,3.753996372222900391e+00,3.753278255462646484e+00,3.752560615539550781e+00,3.751842975616455078e+00,3.751126289367675781e+00,3.750409364700317383e+00,3.749692678451538086e+00,3.748976230621337891e+00,3.748260021209716797e+00,3.747544288635253906e+00,3.746828556060791016e+00,3.746113300323486328e+00,3.745398283004760742e+00,3.667429208755493164e+00,3.557706356048583984e+00,3.454358100891113281e+00,3.356845140457153320e+00,3.264685869216918945e+00,3.177452325820922852e+00,3.094758749008178711e+00,3.016260385513305664e+00,2.941645860671997070e+00,2.870633363723754883e+00,2.802968978881835938e+00,2.738420963287353516e+00,2.676778793334960938e+00,2.617850780487060547e+00,2.561461448669433594e+00,2.507450103759765625e+00,2.455669403076171875e+00,2.405984163284301758e+00,2.358269453048706055e+00,2.312410593032836914e+00,2.268301248550415039e+00,2.225843191146850586e+00,2.184945583343505859e+00,2.145523548126220703e+00,2.107498884201049805e+00,2.070798397064208984e+00,2.035354375839233398e+00,2.001103401184082031e+00,1.967985987663269043e+00,1.935946941375732422e+00,1.904934406280517578e+00,1.874899506568908691e+00,1.845797300338745117e+00
3.084476947784423828e+00,3.083992004394531250e+00,3.083507537841796875e+00,3.083023071289062500e+00,3.082538604736328125e+00,3.082054615020751953e+00,3.081570625305175781e+00,3.081086635589599609e+00,3.080603122711181641e+00,3.080119609832763672e+00,3.079636335372924805e+00,3.079153060913085938e+00,3.078669786453247070e+00,3.078186988830566406e+00,3.077704191207885742e+00,3.077221393585205078e+00,3.076739072799682617e+00,3.076256752014160156e+00,3.075774431228637695e+00,3.075292348861694336e+00,3.074810504913330078e+00,3.074328660964965820e+00,3.073847055435180664e+00,3.073365688323974609e+00,3.072884321212768555e+00,3.072403192520141602e+00,3.071922302246093750e+00,3.071441650390625000e+00,3.070960998535156250e+00,3.070480585098266602e+00,3.070000171661376953e+00,3.069519758224487305e+00,3.069039821624755859e+00,3.068559885025024414e+00,3.068079948425292969e+00,3.067600488662719727e+00,3.067121028900146484e+00,3.066641569137573242e+00,3.066162347793579102e+00,3.065683364868164062e+00,3.065204620361328125e+00,3.064725875854492188e+00,3.064247369766235352e+00,3.063768863677978516e+00,3.063290596008300781e+00,3.062812566757202148e+00,3.062334775924682617e+00,3.061856746673583984e+00,3.061379194259643555e+00,3.060901641845703125e+00,3.060424089431762695e+00,3.059947013854980469e+00,3.059469938278198242e+00,3.058992862701416016e+00,3.016313552856445312e+00,2.941696405410766602e+00,2.870681762695312500e+00,2.803014993667602539e+00,2.738464832305908203e+00,2.676820755004882812e+00,2.617890834808349609e+00,2.561499595642089844e+00,2.507486820220947266e+00,2.455704689025878906e+00,2.406018018722534180e+00,2.358302116394042969e+00,2.312442064285278320e+00,2.268331289291381836e+00,2.225872278213500977e+00,2.184973478317260742e+00,2.145550489425659180e+00,2.107524633407592773e+00,2.070823431015014648e+00,2.035378694534301758e+00,2.001126766204833984e+00,1.968008637428283691e+00,1.935968756675720215e+00,1.904955625534057617e+00,1.874920010566711426e+00,1.845817208290100098e+00
2.605808734893798828e+00,2.605462551116943359e+00,2.605116605758666992e+00,2.604770898818969727e+00,2.604425191879272461e+00,2.604079484939575195e+00,2.603734016418457031e+00,2.603388547897338867e+00,2.603043079376220703e+00,2.602697849273681641e+00,2.602352857589721680e+00,2.602007627487182617e+00,2.601662635803222656e+00,2.601317882537841797e+00,2.600972890853881836e+00,2.600628376007080078e+00,2.600283861160278320e+00,2.599939346313476562e+00,2.599594831466674805e+00,2.599250555038452148e+00,2.598906278610229492e+00,2.598562002182006836e+00,2.598217964172363281e+00,2.597873926162719727e+00,2.597530126571655273e+00,2.597186326980590820e+00,2.596842527389526367e+00,2.596498966217041016e+00,2.596155405044555664e+00,2.595812082290649414e+00,2.595468759536743164e+00,2.595125436782836914e+00,2.594782352447509766e+00,2.594439268112182617e+00,2.594096422195434570e+00,2.593753576278686523e+00,2.593410730361938477e+00,2.593067884445190430e+00,2.592725276947021484e+00,2.592382907867431641e+00,2.592040300369262695e+00,2.591697931289672852e+00,2.591355800628662109e+00,2.591013669967651367e+00,2.590671539306640625e+00,2.590329408645629883e+00,2.589987516403198242e+00,2.589645862579345703e+00,2.589303970336914062e+00,2.588962554931640625e+00,2.588620901107788086e+00,2.588279485702514648e+00,2.587938308715820312e+00,2.587597131729125977e+00,2.587255954742431641e+00,2.586914777755737305e+00,2.586573839187622070e+00,2.586232900619506836e+00,2.585891962051391602e+00,2.585551261901855469e+00,2.585210800170898438e+00,2.561537981033325195e+00,2.507523536682128906e+00,2.455739974975585938e+00,2.406051635742187500e+00,2.358334779739379883e+00,2.312473297119140625e+00,2.268361568450927734e+00,2.225901126861572266e+00,2.185001373291015625e+00,2.145577192306518555e+00,2.107550621032714844e+00,2.070848464965820312e+00,2.035402774810791016e+00,2.001150131225585938e+00,1.968031287193298340e+00,1.935990691184997559e+00,1.904976844787597656e+00,1.874940752983093262e+00,1.845837116241455078e+00
2.255749940872192383e+00,2.255490541458129883e+00,2.255231380462646484e+00,2.254971981048583984e+00,2.254712820053100586e+00,2.254453659057617188e+00,2.254194498062133789e+00,2.253935575485229492e+00,2.253676652908325195e+00,2.253417730331420898e+00,2.253158807754516602e+00,2.252900123596191406e+00,2.252641439437866211e+00,2.252382755279541016e+00,2.252124309539794922e+00,2.251865625381469727e+00,2.251607179641723633e+00,2.251348733901977539e+00,2.251090526580810547e+00,2.250832080841064453e+00,2.250573873519897461e+00,2.250315666198730469e+00,2.250057458877563477e+00,2.249799489974975586e+00,2.249541521072387695e+00,2.249283552169799805e+00,2.249025821685791016e+00,2.248768091201782227e+00,2.248510360717773438e+00,2.248252868652343750e+00,2.247995138168334961e+00,2.247737646102905273e+00,2.247480154037475586e+00,2.247222900390625000e+00,2.246965646743774414e+00,2.246708393096923828e+00,2.246451139450073242e+00,2.246193885803222656e+00,2.245936870574951172e+00,2.245679855346679688e+00,2.245422840118408203e+00,2.245166063308715820e+00,2.244909048080444336e+00,2.244652271270751953e+00,2.244395494461059570e+00,2.244138956069946289e+00,2.243882417678833008e+00,2.243625640869140625e+00,2.243369340896606445e+00,2.243112802505493164e+00,2.242856502532958984e+00,2.242599964141845703e+00,2.242343902587890625e+00,2.242087602615356445e+00,2.241831541061401367e+00,2.241575241088867188e+00,2.241319179534912109e+00,2.241063356399536133e+00,2.240807294845581055e+00,2.240551710128784180e+00,2.240295886993408203e+00,2.240040063858032227e+00,2.239784479141235352e+00,2.239528894424438477e+00,2.239273309707641602e+00,2.239017724990844727e+00,2.238762378692626953e+00,2.238506793975830078e+00,2.225930213928222656e+00,2.185029268264770508e+00,2.145604133605957031e+00,2.107576847076416016e+00,2.070873498916625977e+00,2.035427093505859375e+00,2.001173496246337891e+00,1.968053817749023438e+00,1.936012625694274902e+00,1.904997944831848145e+00,1.874961376190185547e+00,1.845857024192810059e+00
1.988608956336975098e+00,1.988407492637634277e+00,1.988206028938293457e+00,1.988004565238952637e+00,1.987802982330322266e+00,1.987601518630981445e+00,1.987400293350219727e+00,1.987198829650878906e+00,1.986997604370117188e+00,1.986796379089355469e+00,1.986595273017883301e+00,1.986393928527832031e+00,1.986192822456359863e+00,1.985991835594177246e+00,1.985790610313415527e+00,1.985589623451232910e+00,1.985388755798339844e+00,1.985187888145446777e+00,1.984986901283264160e+00,1.984786152839660645e+00,1.984585404396057129e+00,1.984384417533874512e+00,1.984183788299560547e+00,1.983983159065246582e+00,1.983782529830932617e+00,1.983581781387329102e+00,1.983381271362304688e+00,1.983180880546569824e+00,1.982980489730834961e+00,1.982779860496520996e+00,1.982579469680786133e+00,1.982379198074340820e+00,1.982178688049316406e+00,1.981978535652160645e+00,1.981778383255004883e+00,1.981578230857849121e+00,1.981377840042114258e+00,1.981177806854248047e+00,1.980977892875671387e+00,1.980777621269226074e+00,1.980577707290649414e+00,1.980377793312072754e+00,1.980177998542785645e+00,1.979977965354919434e+00,1.979778170585632324e+00,1.979578375816345215e+00,1.979378461837768555e+00,1.979178905487060547e+00,1.978979229927062988e+00,1.978779673576354980e+00,1.978579878807067871e+00,1.978380441665649414e+00,1.978181004524230957e+00,1.977981567382812500e+00,1.977782011032104492e+00,1.977582693099975586e+00,1.977383375167846680e+00,1.977183938026428223e+00,1.976984739303588867e+00,1.976785540580749512e+00,1.976586341857910156e+00,1.976387023925781250e+00,1.976188063621520996e+00,1.975988984107971191e+00,1.975789785385131836e+00,1.975590944290161133e+00,1.975391983985900879e+00,1.975193142890930176e+00,1.974994182586669922e+00,1.974795341491699219e+00,1.974596619606018066e+00,1.974398016929626465e+00,1.974199056625366211e+00,1.974000453948974609e+00,1.973801970481872559e+00,1.968076705932617188e+00,1.936034440994262695e+00,1.905019164085388184e+00,1.874981880187988281e+00,1.845876932144165039e+00
1.778041601181030273e+00,1.777880430221557617e+00,1.777719378471374512e+00,1.777558207511901855e+00,1.777397155761718750e+00,1.777236104011535645e+00,1.777075052261352539e+00,1.776914119720458984e+00,1.776753187179565430e+00,1.776592373847961426e+00,1.776431322097778320e+00,1.776270508766174316e+00,1.776109695434570312e+00,1.775948762893676758e+00,1.775788068771362305e+00,1.775627374649047852e+00,1.775466680526733398e+00,1.775305986404418945e+00,1.775145292282104492e+00,1.774984717369079590e+00,1.774824261665344238e+00,1.774663567543029785e+00,1.774502992630004883e+00,1.774342536926269531e+00,1.774181962013244629e+00,1.774021506309509277e+00,1.773861169815063477e+00,1.773700833320617676e+00,1.773540377616882324e+00,1.773380041122436523e+00,1.773219823837280273e+00,1.773059368133544922e+00,1.772899150848388672e+00,1.772739052772521973e+00,1.772578835487365723e+00,1.772418498992919922e+00,1.772258520126342773e+00,1.772098422050476074e+00,1.771938204765319824e+00,1.771778225898742676e+00,1.771618247032165527e+00,1.771458268165588379e+00,1.771298170089721680e+00,1.771138310432434082e+00,1.770978450775146484e+00,1.770818710327148438e+00,1.770658731460571289e+00,1.770498871803283691e+00,1.770339131355285645e+00,1.770179271697998047e+00,1.770019650459289551e+00,1.769859910011291504e+00,1.769700288772583008e+00,1.769540548324584961e+00,1.769381046295166016e+00,1.769221425056457520e+00,1.769061803817749023e+00,1.768902301788330078e+00,1.768742799758911133e+00,1.768583416938781738e+00,1.768423795700073242e+00,1.768264532089233398e+00,1.768105149269104004e+00,1.767945647239685059e+00,1.767786383628845215e+00,1.767627120018005371e+00,1.767467975616455078e+00,1.767308592796325684e+00,1.767149329185485840e+00,1.766990303993225098e+00,1.766831159591674805e+00,1.766671895980834961e+00,1.766512870788574219e+00,1.766353845596313477e+00,1.766194701194763184e+00,1.766035676002502441e+00,1.765876770019531250e+00,1.765717864036560059e+00,1.765558838844299316e+00,1.765400052070617676e+00
1.607797026634216309e+00,1.607665300369262695e+00,1.607533454895019531e+00,1.607401847839355469e+00,1.607270121574401855e+00,1.607138395309448242e+00,1.607006788253784180e+00,1.606875181198120117e+00,1.606743574142456055e+00,1.606611847877502441e+00,1.606480360031127930e+00,1.606348872184753418e+00,1.606217145919799805e+00,1.606085658073425293e+00,1.605954289436340332e+00,1.605822801589965820e+00,1.605691313743591309e+00,1.605559945106506348e+00,1.605428576469421387e+00,1.605297207832336426e+00,1.605165719985961914e+00,1.605034470558166504e+00,1.604903101921081543e+00,1.604771733283996582e+00,1.604640483856201172e+00,1.604509353637695312e+00,1.604378104209899902e+00,1.604246854782104492e+00,1.604115605354309082e+00,1.603984475135803223e+00,1.603853225708007812e+00,1.603722214698791504e+00,1.603591084480285645e+00,1.603460073471069336e+00,1.603328943252563477e+00,1.603197932243347168e+00,1.603066921234130859e+00,1.602936029434204102e+00,1.602804899215698242e+00,1.602674007415771484e+00,1.602543115615844727e+00,1.602412104606628418e+00,1.602281212806701660e+00,1.602150440216064453e+00,1.602019667625427246e+00,1.601888656616210938e+00,1.601757884025573730e+00,1.601627230644226074e+00,1.601496338844299316e+00,1.601365685462951660e+00,1.601234912872314453e+00,1.601104259490966797e+00,1.600973486900329590e+00,1.600842952728271484e+00,1.600712299346923828e+00,1.600581645965576172e+00,1.600451111793518066e+00,1.600320577621459961e+00,1.600190043449401855e+00,1.600059390068054199e+00,1.599928855895996094e+00,1.599798440933227539e+00,1.599668025970458984e+00,1.599537491798400879e+00,1.599407076835632324e+00,1.599276781082153320e+00,1.599146246910095215e+00,1.599015951156616211e+00,1.598885655403137207e+00,1.598755359649658203e+00,1.598625063896179199e+00,1.598494768142700195e+00,1.598364591598510742e+00,1.598234295845031738e+00,1.598104119300842285e+00,1.597973942756652832e+00,1.597843766212463379e+00,1.597713589668273926e+00,1.597583532333374023e+00,1.597453474998474121e+00
1.467305064201354980e+00,1.467195272445678711e+00,1.467085599899291992e+00,1.466975927352905273e+00,1.466866135597229004e+00,1.466756463050842285e+00,1.466646790504455566e+00,1.466537237167358398e+00,1.466427445411682129e+00,1.466317892074584961e+00,1.466208338737487793e+00,1.466098785400390625e+00,1.465989112854003906e+00,1.465879559516906738e+00,1.465770125389099121e+00,1.465660452842712402e+00,1.465551018714904785e+00,1.465441584587097168e+00,1.465332150459289551e+00,1.465222597122192383e+00,1.465113162994384766e+00,1.465003728866577148e+00,1.464894294738769531e+00,1.464784979820251465e+00,1.464675545692443848e+00,1.464566230773925781e+00,1.464456796646118164e+00,1.464347600936889648e+00,1.464238286018371582e+00,1.464129090309143066e+00,1.464019656181335449e+00,1.463910460472106934e+00,1.463801264762878418e+00,1.463691949844360352e+00,1.463582754135131836e+00,1.463473558425903320e+00,1.463364481925964355e+00,1.463255167007446289e+00,1.463146090507507324e+00,1.463037014007568359e+00,1.462927818298339844e+00,1.462818741798400879e+00,1.462709665298461914e+00,1.462600708007812500e+00,1.462491512298583984e+00,1.462382555007934570e+00,1.462273597717285156e+00,1.462164521217346191e+00,1.462055563926696777e+00,1.461946606636047363e+00,1.461837649345397949e+00,1.461728692054748535e+00,1.461619853973388672e+00,1.461510896682739258e+00,1.461402058601379395e+00,1.461293101310729980e+00,1.461184382438659668e+00,1.461075544357299805e+00,1.460966587066650391e+00,1.460857868194580078e+00,1.460749149322509766e+00,1.460640430450439453e+00,1.460531592369079590e+00,1.460422873497009277e+00,1.460314154624938965e+00,1.460205316543579102e+00,1.460096716880798340e+00,1.459988117218017578e+00,1.459879398345947266e+00,1.459770679473876953e+00,1.459662079811096191e+00,1.459553599357604980e+00,1.459444880485534668e+00,1.459336280822753906e+00,1.459227800369262695e+00,1.459119319915771484e+00,1.459010720252990723e+00,1.458902239799499512e+00,1.458793759346008301e+00,1.458685278892517090e+00
1.349392771720886230e+00,1.349299907684326172e+00,1.349207162857055664e+00,1.349114418029785156e+00,1.349021553993225098e+00,1.348928809165954590e+00,1.348836064338684082e+00,1.348743319511413574e+00,1.348650574684143066e+00,1.348557949066162109e+00,1.348465204238891602e+00,1.348372459411621094e+00,1.348279833793640137e+00,1.348187208175659180e+00,1.348094463348388672e+00,1.348001837730407715e+00,1.347909212112426758e+00,1.347816586494445801e+00,1.347723960876464844e+00,1.347631454467773438e+00,1.347538828849792480e+00,1.347446203231811523e+00,1.347353696823120117e+00,1.347261190414428711e+00,1.347168684005737305e+00,1.347076177597045898e+00,1.346983671188354492e+00,1.346891164779663086e+00,1.346798777580261230e+00,1.346706271171569824e+00,1.346613764762878418e+00,1.346521377563476562e+00,1.346428871154785156e+00,1.346336483955383301e+00,1.346244215965270996e+00,1.346151828765869141e+00,1.346059322357177734e+00,1.345967054367065430e+00,1.345874667167663574e+00,1.345782279968261719e+00,1.345690011978149414e+00,1.345597743988037109e+00,1.345505475997924805e+00,1.345413088798522949e+00,1.345320820808410645e+00,1.345228672027587891e+00,1.345136284828186035e+00,1.345044136047363281e+00,1.344951868057250977e+00,1.344859719276428223e+00,1.344767451286315918e+00,1.344675302505493164e+00,1.344583153724670410e+00,1.344491004943847656e+00,1.344398856163024902e+00,1.344306707382202148e+00,1.344214558601379395e+00,1.344122409820556641e+00,1.344030380249023438e+00,1.343938350677490234e+00,1.343846201896667480e+00,1.343754172325134277e+00,1.343662142753601074e+00,1.343570113182067871e+00,1.343477964401245117e+00,1.343386054039001465e+00,1.343294024467468262e+00,1.343202114105224609e+00,1.343110084533691406e+00,1.343018174171447754e+00,1.342926263809204102e+00,1.342834353446960449e+00,1.342742323875427246e+00,1.342650413513183594e+00,1.342558622360229492e+00,1.342466592788696289e+00,1.342374801635742188e+00,1.342283010482788086e+00,1.342191100120544434e+00,1.342099189758300781e+00
1.249021768569946289e+00,1.248942255973815918e+00,1.248862743377685547e+00,1.248783111572265625e+00,1.248703718185424805e+00,1.248624324798583984e+00,1.248544692993164062e+00,1.248465299606323242e+00,1.248385906219482422e+00,1.248306393623352051e+00,1.248227000236511230e+00,1.248147487640380859e+00,1.248068213462829590e+00,1.247988700866699219e+00,1.247909307479858398e+00,1.247829914093017578e+00,1.247750639915466309e+00,1.247671127319335938e+00,1.247591853141784668e+00,1.247512578964233398e+00,1.247433185577392578e+00,1.247353792190551758e+00,1.247274518013000488e+00,1.247195243835449219e+00,1.247115969657897949e+00,1.247036695480346680e+00,1.246957421302795410e+00,1.246878147125244141e+00,1.246798872947692871e+00,1.246719598770141602e+00,1.246640443801879883e+00,1.246561169624328613e+00,1.246482014656066895e+00,1.246402740478515625e+00,1.246323585510253906e+00,1.246244430541992188e+00,1.246165275573730469e+00,1.246086120605468750e+00,1.246006846427917480e+00,1.245927810668945312e+00,1.245848655700683594e+00,1.245769500732421875e+00,1.245690345764160156e+00,1.245611310005187988e+00,1.245532274246215820e+00,1.245453238487243652e+00,1.245374083518981934e+00,1.245295047760009766e+00,1.245216012001037598e+00,1.245136857032775879e+00,1.245057821273803711e+00,1.244978904724121094e+00,1.244899868965148926e+00,1.244820833206176758e+00,1.244741916656494141e+00,1.244662880897521973e+00,1.244583845138549805e+00,1.244504928588867188e+00,1.244426012039184570e+00,1.244347095489501953e+00,1.244268059730529785e+00,1.244189262390136719e+00,1.244110345840454102e+00,1.244031310081481934e+00,1.243952512741088867e+00,1.243873596191406250e+00,1.243794798851013184e+00,1.243715882301330566e+00,1.243637084960937500e+00,1.243558287620544434e+00,1.243479490280151367e+00,1.243400573730468750e+00,1.243321776390075684e+00,1.243242979049682617e+00,1.243164181709289551e+00,1.243085384368896484e+00,1.243006587028503418e+00,1.242927908897399902e+00,1.242849111557006836e+00,1.242770433425903320e+00
1.162548661231994629e+00,1.162479758262634277e+00,1.162410855293273926e+00,1.162341952323913574e+00,1.162273168563842773e+00,1.162204265594482422e+00,1.162135362625122070e+00,1.162066578865051270e+00,1.161997795104980469e+00,1.161928892135620117e+00,1.161860108375549316e+00,1.161791324615478516e+00,1.161722421646118164e+00,1.161653637886047363e+00,1.161584854125976562e+00,1.161516070365905762e+00,1.161447286605834961e+00,1.161378502845764160e+00,1.161309838294982910e+00,1.161241054534912109e+00,1.161172270774841309e+00,1.161103606224060059e+00,1.161034822463989258e+00,1.160966157913208008e+00,1.160897374153137207e+00,1.160828709602355957e+00,1.160760045051574707e+00,1.160691380500793457e+00,1.160622715950012207e+00,1.160554051399230957e+00,1.160485267639160156e+00,1.160416722297668457e+00,1.160348057746887207e+00,1.160279393196105957e+00,1.160210728645324707e+00,1.160142183303833008e+00,1.160073518753051758e+00,1.160004973411560059e+00,1.159936308860778809e+00,1.159867763519287109e+00,1.159799218177795410e+00,1.159730553627014160e+00,1.159662008285522461e+00,1.159593582153320312e+00,1.159525036811828613e+00,1.159456372261047363e+00,1.159387946128845215e+00,1.159319400787353516e+00,1.159250855445861816e+00,1.159182310104370117e+00,1.159113883972167969e+00,1.159045457839965820e+00,1.158976912498474121e+00,1.158908367156982422e+00,1.158839941024780273e+00,1.158771395683288574e+00,1.158702969551086426e+00,1.158634662628173828e+00,1.158566236495971680e+00,1.158497691154479980e+00,1.158429265022277832e+00,1.158360958099365234e+00,1.158292531967163086e+00,1.158224105834960938e+00,1.158155798912048340e+00,1.158087372779846191e+00,1.158018946647644043e+00,1.157950639724731445e+00,1.157882332801818848e+00,1.157814025878906250e+00,1.157745599746704102e+00,1.157677292823791504e+00,1.157608985900878906e+00,1.157540678977966309e+00,1.157472372055053711e+00,1.157404065132141113e+00,1.157335877418518066e+00,1.157267570495605469e+00,1.157199263572692871e+00,1.157131075859069824e+00
1.087273716926574707e+00,1.087213516235351562e+00,1.087153196334838867e+00,1.087092995643615723e+00,1.087032675743103027e+00,1.086972475051879883e+00,1.086912274360656738e+00,1.086852073669433594e+00,1.086791872978210449e+00,1.086731672286987305e+00,1.086671471595764160e+00,1.086611270904541016e+00,1.086551070213317871e+00,1.086490869522094727e+00,1.086430668830871582e+00,1.086370468139648438e+00,1.086310386657714844e+00,1.086250185966491699e+00,1.086190104484558105e+00,1.086129903793334961e+00,1.086069822311401367e+00,1.086009621620178223e+00,1.085949540138244629e+00,1.085889458656311035e+00,1.085829377174377441e+00,1.085769295692443848e+00,1.085709095001220703e+00,1.085649013519287109e+00,1.085588932037353516e+00,1.085528969764709473e+00,1.085468769073486328e+00,1.085408806800842285e+00,1.085348725318908691e+00,1.085288643836975098e+00,1.085228562355041504e+00,1.085168600082397461e+00,1.085108637809753418e+00,1.085048556327819824e+00,1.084988474845886230e+00,1.084928512573242188e+00,1.084868431091308594e+00,1.084808468818664551e+00,1.084748506546020508e+00,1.084688544273376465e+00,1.084628462791442871e+00,1.084568619728088379e+00,1.084508657455444336e+00,1.084448575973510742e+00,1.084388732910156250e+00,1.084328770637512207e+00,1.084268808364868164e+00,1.084208846092224121e+00,1.084149003028869629e+00,1.084089040756225586e+00,1.084029197692871094e+00,1.083969235420227051e+00,1.083909392356872559e+00,1.083849549293518066e+00,1.083789587020874023e+00,1.083729743957519531e+00,1.083669900894165039e+00,1.083610057830810547e+00,1.083550095558166504e+00,1.083490252494812012e+00,1.083430409431457520e+00,1.083370566368103027e+00,1.083310723304748535e+00,1.083250999450683594e+00,1.083191156387329102e+00,1.083131313323974609e+00,1.083071470260620117e+00,1.083011746406555176e+00,1.082951903343200684e+00,1.082892179489135742e+00,1.082832336425781250e+00,1.082772612571716309e+00,1.082712769508361816e+00,1.082653045654296875e+00,1.082593321800231934e+00,1.082533597946166992e+00
1.021154165267944336e+00,1.021100997924804688e+00,1.021047830581665039e+00,1.020994663238525391e+00,1.020941495895385742e+00,1.020888447761535645e+00,1.020835280418395996e+00,1.020782113075256348e+00,1.020729064941406250e+00,1.020675897598266602e+00,1.020622849464416504e+00,1.020569682121276855e+00,1.020516633987426758e+00,1.020463585853576660e+00,1.020410418510437012e+00,1.020357370376586914e+00,1.020304322242736816e+00,1.020251274108886719e+00,1.020198225975036621e+00,1.020145177841186523e+00,1.020092129707336426e+00,1.020038962364196777e+00,1.019986033439636230e+00,1.019932985305786133e+00,1.019879937171936035e+00,1.019826889038085938e+00,1.019773840904235840e+00,1.019720911979675293e+00,1.019667863845825195e+00,1.019614815711975098e+00,1.019561886787414551e+00,1.019508957862854004e+00,1.019455909729003906e+00,1.019402980804443359e+00,1.019349932670593262e+00,1.019297003746032715e+00,1.019244074821472168e+00,1.019191026687622070e+00,1.019138097763061523e+00,1.019085168838500977e+00,1.019032239913940430e+00,1.018979310989379883e+00,1.018926382064819336e+00,1.018873453140258789e+00,1.018820524215698242e+00,1.018767595291137695e+00,1.018714666366577148e+00,1.018661856651306152e+00,1.018608927726745605e+00,1.018555998802185059e+00,1.018503069877624512e+00,1.018450260162353516e+00,1.018397450447082520e+00,1.018344521522521973e+00,1.018291592597961426e+00,1.018238782882690430e+00,1.018185973167419434e+00,1.018133044242858887e+00,1.018080234527587891e+00,1.018027424812316895e+00,1.017974615097045898e+00,1.017921805381774902e+00,1.017868995666503906e+00,1.017816185951232910e+00,1.017763257026672363e+00,1.017710566520690918e+00,1.017657756805419922e+00,1.017604947090148926e+00,1.017552137374877930e+00,1.017499327659606934e+00,1.017446637153625488e+00,1.017393827438354492e+00,1.017341017723083496e+00,1.017288327217102051e+00,1.017235517501831055e+00,1.017182826995849609e+00,1.017130017280578613e+00,1.017077326774597168e+00,1.017024636268615723e+00,1.016971826553344727e+00
9.626153111457824707e-01,9.625681638717651367e-01,9.625208973884582520e-01,9.624736309051513672e-01,9.624264836311340332e-01,9.623791575431823730e-01,9.623319506645202637e-01,9.622848033905029297e-01,9.622375369071960449e-01,9.621904492378234863e-01,9.621431827545166016e-01,9.620959758758544922e-01,9.620488286018371582e-01,9.620016217231750488e-01,9.619544148445129395e-01,9.619073271751403809e-01,9.618601202964782715e-01,9.618129134178161621e-01,9.617658257484436035e-01,9.617186188697814941e-01,9.616715908050537109e-01,9.616243839263916016e-01,9.615771770477294922e-01,9.615301489830017090e-01,9.614829421043395996e-01,9.614357948303222656e-01,9.613887667655944824e-01,9.613416194915771484e-01,9.612944722175598145e-01,9.612474441528320312e-01,9.612002968788146973e-01,9.611531496047973633e-01,9.611061215400695801e-01,9.610589742660522461e-01,9.610120058059692383e-01,9.609648585319519043e-01,9.609177708625793457e-01,9.608707427978515625e-01,9.608236551284790039e-01,9.607765674591064453e-01,9.607295393943786621e-01,9.606824517250061035e-01,9.606353640556335449e-01,9.605883955955505371e-01,9.605413079261779785e-01,9.604943990707397461e-01,9.604473114013671875e-01,9.604002237319946289e-01,9.603533148765563965e-01,9.603062272071838379e-01,9.602591991424560547e-01,9.602122306823730469e-01,9.601652026176452637e-01,9.601181745529174805e-01,9.600712656974792480e-01,9.600242376327514648e-01,9.599772095680236816e-01,9.599303007125854492e-01,9.598832726478576660e-01,9.598363637924194336e-01,9.597893953323364258e-01,9.597423672676086426e-01,9.596955180168151855e-01,9.596484899520874023e-01,9.596015214920043945e-01,9.595546722412109375e-01,9.595077037811279297e-01,9.594607353210449219e-01,9.594138264656066895e-01,9.593668580055236816e-01,9.593200683593750000e-01,9.592730998992919922e-01,9.592261314392089844e-01,9.591792821884155273e-01,9.591323733329772949e-01,9.590854048728942871e-01,9.590386152267456055e-01,9.589917063713073730e-01,9.589447379112243652e-01,9.588979482650756836e-01
