5.000000000000000000e+00,5.000000000000000000e+00,5.000000000000000000e+00,5.000000000000000000e+00,5.000000000000000000e+00,5.000000000000000000e+00,5.000000000000000000e+00,5.000000000000000000e+00,5.000000000000000000e+00,5.000000000000000000e+00,5.000000000000000000e+00,5.000000000000000000e+00,5.000000000000000000e+00,5.000000000000000000e+00,5.000000000000000000e+00,5.000000000000000000e+00,5.000000000000000000e+00,5.000000000000000000e+00,5.000000000000000000e+00,5.000000000000000000e+00,5.000000000000000000e+00,5.000000000000000000e+00,5.000000000000000000e+00,5.000000000000000000e+00,5.000000000000000000e+00,5.000000000000000000e+00,5.000000000000000000e+00,5.000000000000000000e+00,5.000000000000000000e+00,5.000000000000000000e+00,5.000000000000000000e+00,5.000000000000000000e+00,5.000000000000000000e+00,5.000000000000000000e+00,5.000000000000000000e+00,5.000000000000000000e+00,5.000000000000000000e+00,5.000000000000000000e+00,5.000000000000000000e+00,4.863063812255859375e+00,4.672010898590087891e+00,4.495401859283447266e+00,4.331659317016601562e+00,4.179425239562988281e+00,4.037528514862060547e+00,3.904950618743896484e+00,3.780802726745605469e+00,3.664305686950683594e+00,3.554772853851318359e+00,3.451598405838012695e+00,3.354244470596313477e+00,3.262231111526489258e+00,3.175131559371948242e+00,3.092561721801757812e+00,3.014178037643432617e+00,2.939669370651245117e+00,2.868755102157592773e+00,2.801182031631469727e+00,2.736718893051147461e+00,2.675155878067016602e+00,2.616301774978637695e+00,2.559981346130371094e+00,2.506034851074218750e+00,2.454315185546875000e+00,2.404686689376831055e+00,2.357025861740112305e+00,2.311217546463012695e+00,2.267155647277832031e+00,2.224742412567138672e+00,2.183887004852294922e+00,2.144505023956298828e+00,2.106518507003784180e+00,2.069853782653808594e+00,2.034444093704223633e+00,2.000225305557250977e+00,1.967138409614562988e+00,1.935128569602966309e+00,1.904143691062927246e+00,1.874135494232177734e+00,1.845058441162109375e+00
5.000000000000000000e+00,5.000000000000000000e+00,5.000000000000000000e+00,5.000000000000000000e+00,5.000000000000000000e+00,5.000000000000000000e+00,5.000000000000000000e+00,5.000000000000000000e+00,5.000000000000000000e+00,5.000000000000000000e+00,5.000000000000000000e+00,5.000000000000000000e+00,5.000000000000000000e+00,5.000000000000000000e+00,5.000000000000000000e+00,5.000000000000000000e+00,5.000000000000000000e+00,5.000000000000000000e+00,5.000000000000000000e+00,5.000000000000000000e+00,5.000000000000000000e+00,5.000000000000000000e+00,5.000000000000000000e+00,5.000000000000000000e+00,5.000000000000000000e+00,5.000000000000000000e+00,5.000000000000000000e+00,5.000000000000000000e+00,5.000000000000000000e+00,5.000000000000000000e+00,5.000000000000000000e+00,5.000000000000000000e+00,5.000000000000000000e+00,5.000000000000000000e+00,5.000000000000000000e+00,5.000000000000000000e+00,5.000000000000000000e+00,5.000000000000000000e+00,5.000000000000000000e+00,4.863202571868896484e+00,4.672139167785644531e+00,4.495521068572998047e+00,4.331769466400146484e+00,4.179527759552001953e+00,4.037624359130859375e+00,3.905040502548217773e+00,3.780886650085449219e+00,3.664384603500366211e+00,3.554847478866577148e+00,3.451668500900268555e+00,3.354310512542724609e+00,3.262293577194213867e+00,3.175190925598144531e+00,3.092618227005004883e+00,3.014231204986572266e+00,2.939720153808593750e+00,2.868803739547729492e+00,2.801228046417236328e+00,2.736762762069702148e+00,2.675197839736938477e+00,2.616342067718505859e+00,2.560020208358764648e+00,2.506071805953979492e+00,2.454350471496582031e+00,2.404721021652221680e+00,2.357058525085449219e+00,2.311249017715454102e+00,2.267185926437377930e+00,2.224771499633789062e+00,2.183915138244628906e+00,2.144532203674316406e+00,2.106544494628906250e+00,2.069879055023193359e+00,2.034468412399291992e+00,2.000248670578002930e+00,1.967161297798156738e+00,1.935150623321533203e+00,1.904165148735046387e+00,1.874155998229980469e+00,1.845078229904174805e+00
5.000000000000000000e+00,5.000000000000000000e+00,5.000000000000000000e+00,5.000000000000000000e+00,5.000000000000000000e+00,5.000000000000000000e+00,5.000000000000000000e+00,5.000000000000000000e+00,5.000000000000000000e+00,5.000000000000000000e+00,5.000000000000000000e+00,5.000000000000000000e+00,5.000000000000000000e+00,5.000000000000000000e+00,5.000000000000000000e+00,5.000000000000000000e+00,5.000000000000000000e+00,5.000000000000000000e+00,5.000000000000000000e+00,5.000000000000000000e+00,5.000000000000000000e+00,5.000000000000000000e+00,5.000000000000000000e+00,5.000000000000000000e+00,5.000000000000000000e+00,5.000000000000000000e+00,5.000000000000000000e+00,5.000000000000000000e+00,5.000000000000000000e+00,5.000000000000000000e+00,5.000000000000000000e+00,5.000000000000000000e+00,5.000000000000000000e+00,5.000000000000000000e+00,5.000000000000000000e+00,5.000000000000000000e+00,5.000000000000000000e+00,5.000000000000000000e+00,5.000000000000000000e+00,4.863341808319091797e+00,4.672267436981201172e+00,4.495639324188232422e+00,4.331879615783691406e+00,4.179630756378173828e+00,4.037720203399658203e+00,3.905130147933959961e+00,3.780971050262451172e+00,3.664463281631469727e+00,3.554921627044677734e+00,3.451738357543945312e+00,3.354376554489135742e+00,3.262356519699096680e+00,3.175250053405761719e+00,3.092674493789672852e+00,3.014284849166870117e+00,2.939770936965942383e+00,2.868852138519287109e+00,2.801274061203002930e+00,2.736806869506835938e+00,2.675240278244018555e+00,2.616382360458374023e+00,2.560058593750000000e+00,2.506108999252319336e+00,2.454385757446289062e+00,2.404754877090454102e+00,2.357091188430786133e+00,2.311280250549316406e+00,2.267216205596923828e+00,2.224800586700439453e+00,2.183943271636962891e+00,2.144559144973754883e+00,2.106570482254028320e+00,2.069904327392578125e+00,2.034492492675781250e+00,2.000272274017333984e+00,1.967184185981750488e+00,1.935172557830810547e+00,1.904186248779296875e+00,1.874176740646362305e+00,1.845098376274108887e+00
5.000000000000000000e+00,5.000000000000000000e+00,5.000000000000000000e+00,5.000000000000000000e+00,5.000000000000000000e+00,5.000000000000000000e+00,5.000000000000000000e+00,5.000000000000000000e+00,5.000000000000000000e+00,5.000000000000000000e+00,5.000000000000000000e+00,5.000000000000000000e+00,5.000000000000000000e+00,5.000000000000000000e+00,5.000000000000000000e+00,5.000000000000000000e+00,5.000000000000000000e+00,5.000000000000000000e+00,5.000000000000000000e+00,5.000000000000000000e+00,5.000000000000000000e+00,5.000000000000000000e+00,5.000000000000000000e+00,5.000000000000000000e+00,5.000000000000000000e+00,5.000000000000000000e+00,5.000000000000000000e+00,5.000000000000000000e+00,5.000000000000000000e+00,5.000000000000000000e+00,5.000000000000000000e+00,5.000000000000000000e+00,5.000000000000000000e+00,5.000000000000000000e+00,5.000000000000000000e+00,5.000000000000000000e+00,5.000000000000000000e+00,5.000000000000000000e+00,5.000000000000000000e+00,4.863480567932128906e+00,4.672395706176757812e+00,4.495758533477783203e+00,4.331989765167236328e+00,4.179733276367187500e+00,4.037816047668457031e+00,3.905219554901123047e+00,3.781054973602294922e+00,3.664542198181152344e+00,3.554995775222778320e+00,3.451808691024780273e+00,3.354442596435546875e+00,3.262418985366821289e+00,3.175309419631958008e+00,3.092730522155761719e+00,3.014338254928588867e+00,2.939821481704711914e+00,2.868900299072265625e+00,2.801320552825927734e+00,2.736850738525390625e+00,2.675282239913940430e+00,2.616422653198242188e+00,2.560096979141235352e+00,2.506145715713500977e+00,2.454421281814575195e+00,2.404788732528686523e+00,2.357124090194702148e+00,2.311311721801757812e+00,2.267246246337890625e+00,2.224829912185668945e+00,2.183971166610717773e+00,2.144586324691772461e+00,2.106596708297729492e+00,2.069929361343383789e+00,2.034517049789428711e+00,2.000295639038085938e+00,1.967206716537475586e+00,1.935194611549377441e+00,1.904207706451416016e+00,1.874197483062744141e+00,1.845118284225463867e+00
5.000000000000000000e+00,5.000000000000000000e+00,5.000000000000000000e+00,5.000000000000000000e+00,5.000000000000000000e+00,5.000000000000000000e+00,5.000000000000000000e+00,5.000000000000000000e+00,5.000000000000000000e+00,5.000000000000000000e+00,5.000000000000000000e+00,5.000000000000000000e+00,5.000000000000000000e+00,5.000000000000000000e+00,5.000000000000000000e+00,5.000000000000000000e+00,5.000000000000000000e+00,5.000000000000000000e+00,5.000000000000000000e+00,5.000000000000000000e+00,5.000000000000000000e+00,5.000000000000000000e+00,5.000000000000000000e+00,5.000000000000000000e+00,5.000000000000000000e+00,5.000000000000000000e+00,5.000000000000000000e+00,5.000000000000000000e+00,5.000000000000000000e+00,5.000000000000000000e+00,5.000000000000000000e+00,5.000000000000000000e+00,5.000000000000000000e+00,5.000000000000000000e+00,5.000000000000000000e+00,5.000000000000000000e+00,5.000000000000000000e+00,5.000000000000000000e+00,5.000000000000000000e+00,4.863619804382324219e+00,4.672523975372314453e+00,4.495877265930175781e+00,4.332100391387939453e+00,4.179836273193359375e+00,4.037911891937255859e+00,3.905309200286865234e+00,3.781138896942138672e+00,3.664621353149414062e+00,3.555069923400878906e+00,3.451878786087036133e+00,3.354508876800537109e+00,3.262481451034545898e+00,3.175368785858154297e+00,3.092786788940429688e+00,3.014391660690307617e+00,2.939872503280639648e+00,2.868948698043823242e+00,2.801366567611694336e+00,2.736895084381103516e+00,2.675324201583862305e+00,2.616462945938110352e+00,2.560135602951049805e+00,2.506182670593261719e+00,2.454456806182861328e+00,2.404822826385498047e+00,2.357156515121459961e+00,2.311343193054199219e+00,2.267276525497436523e+00,2.224858999252319336e+00,2.183999300003051758e+00,2.144613265991210938e+00,2.106622695922851562e+00,2.069954633712768555e+00,2.034541368484497070e+00,2.000319242477416992e+00,1.967229604721069336e+00,1.935216665267944336e+00,1.904228925704956055e+00,1.874217987060546875e+00,1.845138311386108398e+00
5.000000000000000000e+00,5.000000000000000000e+00,5.000000000000000000e+00,5.000000000000000000e+00,5.000000000000000000e+00,5.000000000000000000e+00,5.000000000000000000e+00,5.000000000000000000e+00,5.000000000000000000e+00,5.000000000000000000e+00,5.000000000000000000e+00,5.000000000000000000e+00,5.000000000000000000e+00,5.000000000000000000e+00,5.000000000000000000e+00,5.000000000000000000e+00,5.000000000000000000e+00,5.000000000000000000e+00,5.000000000000000000e+00,5.000000000000000000e+00,5.000000000000000000e+00,5.000000000000000000e+00,5.000000000000000000e+00,5.000000000000000000e+00,5.000000000000000000e+00,5.000000000000000000e+00,5.000000000000000000e+00,5.000000000000000000e+00,5.000000000000000000e+00,5.000000000000000000e+00,5.000000000000000000e+00,5.000000000000000000e+00,5.000000000000000000e+00,5.000000000000000000e+00,5.000000000000000000e+00,5.000000000000000000e+00,5.000000000000000000e+00,5.000000000000000000e+00,5.000000000000000000e+00,4.863758563995361328e+00,4.672652721405029297e+00,4.495995998382568359e+00,4.332210540771484375e+00,4.179938793182373047e+00,4.038007736206054688e+00,3.905399084091186523e+00,3.781222820281982422e+00,3.664700269699096680e+00,3.555144548416137695e+00,3.451948642730712891e+00,3.354574918746948242e+00,3.262543916702270508e+00,3.175427913665771484e+00,3.092843294143676758e+00,3.014444828033447266e+00,2.939923286437988281e+00,2.868997335433959961e+00,2.801412582397460938e+00,2.736938953399658203e+00,2.675366163253784180e+00,2.616503000259399414e+00,2.560174226760864258e+00,2.506219625473022461e+00,2.454492092132568359e+00,2.404856920242309570e+00,2.357189178466796875e+00,2.311374425888061523e+00,2.267306804656982422e+00,2.224887847900390625e+00,2.184027433395385742e+00,2.144640207290649414e+00,2.106648921966552734e+00,2.069979906082153320e+00,2.034565687179565430e+00,2.000342845916748047e+00,1.967252135276794434e+00,1.935238599777221680e+00,1.904250264167785645e+00,1.874238729476928711e+00,1.845158457756042480e+00
5.000000000000000000e+00,5.000000000000000000e+00,5.000000000000000000e+00,5.000000000000000000e+00,5.000000000000000000e+00,5.000000000000000000e+00,5.000000000000000000e+00,5.000000000000000000e+00,5.000000000000000000e+00,5.000000000000000000e+00,5.000000000000000000e+00,5.000000000000000000e+00,5.000000000000000000e+00,5.000000000000000000e+00,5.000000000000000000e+00,5.000000000000000000e+00,5.000000000000000000e+00,5.000000000000000000e+00,5.000000000000000000e+00,5.000000000000000000e+00,5.000000000000000000e+00,5.000000000000000000e+00,5.000000000000000000e+00,5.000000000000000000e+00,5.000000000000000000e+00,5.000000000000000000e+00,5.000000000000000000e+00,5.000000000000000000e+00,5.000000000000000000e+00,5.000000000000000000e+00,5.000000000000000000e+00,5.000000000000000000e+00,5.000000000000000000e+00,5.000000000000000000e+00,5.000000000000000000e+00,5.000000000000000000e+00,5.000000000000000000e+00,5.000000000000000000e+00,5.000000000000000000e+00,4.863897800445556641e+00,4.672780513763427734e+00,4.496114730834960938e+00,4.332321166992187500e+00,4.180041313171386719e+00,4.038103580474853516e+00,3.905488729476928711e+00,3.781307220458984375e+00,3.664779186248779297e+00,3.555218696594238281e+00,3.452018499374389648e+00,3.354640960693359375e+00,3.262606620788574219e+00,3.175487041473388672e+00,3.092899322509765625e+00,3.014498472213745117e+00,2.939974069595336914e+00,2.869045495986938477e+00,2.801458597183227539e+00,2.736983060836791992e+00,2.675408363342285156e+00,2.616543292999267578e+00,2.560212612152099609e+00,2.506256580352783203e+00,2.454527616500854492e+00,2.404890775680541992e+00,2.357221841812133789e+00,2.311405897140502930e+00,2.267337083816528320e+00,2.224916934967041016e+00,2.184055328369140625e+00,2.144667387008666992e+00,2.106674909591674805e+00,2.070004940032958984e+00,2.034590005874633789e+00,2.000366449356079102e+00,1.967275023460388184e+00,1.935260653495788574e+00,1.904271721839904785e+00,1.874259471893310547e+00,1.845178365707397461e+00
5.000000000000000000e+00,5.000000000000000000e+00,5.000000000000000000e+00,5.000000000000000000e+00,5.000000000000000000e+00,5.000000000000000000e+00,5.000000000000000000e+00,5.000000000000000000e+00,5.000000000000000000e+00,5.000000000000000000e+00,5.000000000000000000e+00,5.000000000000000000e+00,5.000000000000000000e+00,5.000000000000000000e+00,5.000000000000000000e+00,5.000000000000000000e+00,5.000000000000000000e+00,5.000000000000000000e+00,5.000000000000000000e+00,5.000000000000000000e+00,5.000000000000000000e+00,5.000000000000000000e+00,5.000000000000000000e+00,5.000000000000000000e+00,5.000000000000000000e+00,5.000000000000000000e+00,5.000000000000000000e+00,5.000000000000000000e+00,5.000000000000000000e+00,5.000000000000000000e+00,5.000000000000000000e+00,5.000000000000000000e+00,5.000000000000000000e+00,5.000000000000000000e+00,5.000000000000000000e+00,5.000000000000000000e+00,5.000000000000000000e+00,5.000000000000000000e+00,5.000000000000000000e+00,4.864037036895751953e+00,4.672909259796142578e+00,4.496233940124511719e+00,4.332431316375732422e+00,4.180144309997558594e+00,4.038199424743652344e+00,3.905578374862670898e+00,3.781391143798828125e+00,3.664857864379882812e+00,3.555292844772338867e+00,3.452088832855224609e+00,3.354707241058349609e+00,3.262669324874877930e+00,3.175546646118164062e+00,3.092955589294433594e+00,3.014551877975463867e+00,2.940024852752685547e+00,2.869093894958496094e+00,2.801505088806152344e+00,2.737026929855346680e+00,2.675450563430786133e+00,2.616583585739135742e+00,2.560251235961914062e+00,2.506293535232543945e+00,2.454562902450561523e+00,2.404924869537353516e+00,2.357254743576049805e+00,2.311437368392944336e+00,2.267367124557495117e+00,2.224946260452270508e+00,2.184083461761474609e+00,2.144694328308105469e+00,2.106700897216796875e+00,2.070030212402343750e+00,2.034614324569702148e+00,2.000389814376831055e+00,1.967297792434692383e+00,1.935282826423645020e+00,1.904292821884155273e+00,1.874279975891113281e+00,1.845198392868041992e+00
5.000000000000000000e+00,5.000000000000000000e+00,5.000000000000000000e+00,5.000000000000000000e+00,5.000000000000000000e+00,5.000000000000000000e+00,5.000000000000000000e+00,5.000000000000000000e+00,5.000000000000000000e+00,5.000000000000000000e+00,5.000000000000000000e+00,5.000000000000000000e+00,5.000000000000000000e+00,5.000000000000000000e+00,5.000000000000000000e+00,5.000000000000000000e+00,5.000000000000000000e+00,5.000000000000000000e+00,5.000000000000000000e+00,5.000000000000000000e+00,5.000000000000000000e+00,5.000000000000000000e+00,5.000000000000000000e+00,5.000000000000000000e+00,5.000000000000000000e+00,5.000000000000000000e+00,5.000000000000000000e+00,5.000000000000000000e+00,5.000000000000000000e+00,5.000000000000000000e+00,5.000000000000000000e+00,5.000000000000000000e+00,5.000000000000000000e+00,5.000000000000000000e+00,5.000000000000000000e+00,5.000000000000000000e+00,5.000000000000000000e+00,5.000000000000000000e+00,5.000000000000000000e+00,4.864176273345947266e+00,4.673037528991699219e+00,4.496352672576904297e+00,4.332541465759277344e+00,4.180246829986572266e+00,4.038295269012451172e+00,3.905667781829833984e+00,3.781475067138671875e+00,3.664937257766723633e+00,3.555367231369018555e+00,3.452158927917480469e+00,3.354773283004760742e+00,3.262731790542602539e+00,3.175605773925781250e+00,3.093011617660522461e+00,3.014605283737182617e+00,2.940075874328613281e+00,2.869142293930053711e+00,2.801551103591918945e+00,2.737071037292480469e+00,2.675492525100708008e+00,2.616623878479003906e+00,2.560289621353149414e+00,2.506330251693725586e+00,2.454598426818847656e+00,2.404958724975585938e+00,2.357287168502807617e+00,2.311468601226806641e+00,2.267397403717041016e+00,2.224975347518920898e+00,2.184111356735229492e+00,2.144721508026123047e+00,2.106727123260498047e+00,2.070055246353149414e+00,2.034638643264770508e+00,2.000413417816162109e+00,1.967320442199707031e+00,1.935304641723632812e+00,1.904314279556274414e+00,1.874300718307495117e+00,1.845218539237976074e+00
5.000000000000000000e+00,5.000000000000000000e+00,5.000000000000000000e+00,5.000000000000000000e+00,5.000000000000000000e+00,5.000000000000000000e+00,5.000000000000000000e+00,5.000000000000000000e+00,5.000000000000000000e+00,5.000000000000000000e+00,5.000000000000000000e+00,5.000000000000000000e+00,5.000000000000000000e+00,5.000000000000000000e+00,5.000000000000000000e+00,5.000000000000000000e+00,5.000000000000000000e+00,5.000000000000000000e+00,5.000000000000000000e+00,5.000000000000000000e+00,5.000000000000000000e+00,5.000000000000000000e+00,5.000000000000000000e+00,5.000000000000000000e+00,5.000000000000000000e+00,5.000000000000000000e+00,5.000000000000000000e+00,5.000000000000000000e+00,5.000000000000000000e+00,5.000000000000000000e+00,5.000000000000000000e+00,5.000000000000000000e+00,5.000000000000000000e+00,5.000000000000000000e+00,5.000000000000000000e+00,5.000000000000000000e+00,5.000000000000000000e+00,5.000000000000000000e+00,5.000000000000000000e+00,4.864315032958984375e+00,4.673165798187255859e+00,4.496471405029296875e+00,4.332652091979980469e+00,4.180349349975585938e+00,4.038391113281250000e+00,3.905757904052734375e+00,3.781559228897094727e+00,3.665016174316406250e+00,3.555441379547119141e+00,3.452228784561157227e+00,3.354839563369750977e+00,3.262794256210327148e+00,3.175665140151977539e+00,3.093068122863769531e+00,3.014658689498901367e+00,2.940126657485961914e+00,2.869190692901611328e+00,2.801597118377685547e+00,2.737115144729614258e+00,2.675534486770629883e+00,2.616663932800292969e+00,2.560328245162963867e+00,2.506367206573486328e+00,2.454633712768554688e+00,2.404992818832397461e+00,2.357319831848144531e+00,2.311500072479248047e+00,2.267427682876586914e+00,2.225004434585571289e+00,2.184139490127563477e+00,2.144748449325561523e+00,2.106753110885620117e+00,2.070080518722534180e+00,2.034662961959838867e+00,2.000437021255493164e+00,1.967343330383300781e+00,1.935326814651489258e+00,1.904335618019104004e+00,1.874321222305297852e+00,1.845238447189331055e+00
5.000000000000000000e+00,5.000000000000000000e+00,5.000000000000000000e+00,5.000000000000000000e+00,5.000000000000000000e+00,5.000000000000000000e+00,5.000000000000000000e+00,5.000000000000000000e+00,5.000000000000000000e+00,5.000000000000000000e+00,5.000000000000000000e+00,5.000000000000000000e+00,5.000000000000000000e+00,5.000000000000000000e+00,5.000000000000000000e+00,5.000000000000000000e+00,5.000000000000000000e+00,5.000000000000000000e+00,5.000000000000000000e+00,5.000000000000000000e+00,5.000000000000000000e+00,5.000000000000000000e+00,5.000000000000000000e+00,5.000000000000000000e+00,5.000000000000000000e+00,5.000000000000000000e+00,5.000000000000000000e+00,5.000000000000000000e+00,5.000000000000000000e+00,5.000000000000000000e+00,5.000000000000000000e+00,5.000000000000000000e+00,5.000000000000000000e+00,5.000000000000000000e+00,5.000000000000000000e+00,5.000000000000000000e+00,5.000000000000000000e+00,5.000000000000000000e+00,5.000000000000000000e+00,4.864454269409179688e+00,4.673294067382812500e+00,4.496590137481689453e+00,4.332762241363525391e+00,4.180452346801757812e+00,4.038486957550048828e+00,3.905847311019897461e+00,3.781643152236938477e+00,3.665094852447509766e+00,3.555516004562377930e+00,3.452298879623413086e+00,3.354905843734741211e+00,3.262856960296630859e+00,3.175724267959594727e+00,3.093124389648437500e+00,3.014712095260620117e+00,2.940177202224731445e+00,2.869239091873168945e+00,2.801643133163452148e+00,2.737159252166748047e+00,2.675576686859130859e+00,2.616704225540161133e+00,2.560366868972778320e+00,2.506404161453247070e+00,2.454669237136840820e+00,2.405026912689208984e+00,2.357352495193481445e+00,2.311531543731689453e+00,2.267457962036132812e+00,2.225033521652221680e+00,2.184167623519897461e+00,2.144775390625000000e+00,2.106779336929321289e+00,2.070105791091918945e+00,2.034687280654907227e+00,2.000460386276245117e+00,1.967366099357604980e+00,1.935348629951477051e+00,1.904356837272644043e+00,1.874341964721679688e+00,1.845258474349975586e+00
5.000000000000000000e+00,5.000000000000000000e+00,5.000000000000000000e+00,5.000000000000000000e+00,5.000000000000000000e+00,5.000000000000000000e+00,5.000000000000000000e+00,5.000000000000000000e+00,5.000000000000000000e+00,5.000000000000000000e+00,5.000000000000000000e+00,5.000000000000000000e+00,5.000000000000000000e+00,5.000000000000000000e+00,5.000000000000000000e+00,5.000000000000000000e+00,5.000000000000000000e+00,5.000000000000000000e+00,5.000000000000000000e+00,5.000000000000000000e+00,5.000000000000000000e+00,5.000000000000000000e+00,5.000000000000000000e+00,5.000000000000000000e+00,5.000000000000000000e+00,5.000000000000000000e+00,5.000000000000000000e+00,5.000000000000000000e+00,5.000000000000000000e+00,5.000000000000000000e+00,5.000000000000000000e+00,5.000000000000000000e+00,5.000000000000000000e+00,5.000000000000000000e+00,5.000000000000000000e+00,5.000000000000000000e+00,5.000000000000000000e+00,5.000000000000000000e+00,5.000000000000000000e+00,4.864593505859375000e+00,4.673422336578369141e+00,4.496709346771240234e+00,4.332872390747070312e+00,4.180554866790771484e+00,4.038582801818847656e+00,3.905936956405639648e+00,3.781727552413940430e+00,3.665173768997192383e+00,3.555590152740478516e+00,3.452369213104248047e+00,3.354971885681152344e+00,3.262919425964355469e+00,3.175783395767211914e+00,3.093180418014526367e+00,3.014765501022338867e+00,2.940227985382080078e+00,2.869287490844726562e+00,2.801689624786376953e+00,2.737203121185302734e+00,2.675618886947631836e+00,2.616744518280029297e+00,2.560405254364013672e+00,2.506441116333007812e+00,2.454704523086547852e+00,2.405060768127441406e+00,2.357385396957397461e+00,2.311563014984130859e+00,2.267488002777099609e+00,2.225062608718872070e+00,2.184195518493652344e+00,2.144802570343017578e+00,2.106805324554443359e+00,2.070130825042724609e+00,2.034711599349975586e+00,2.000483989715576172e+00,1.967388749122619629e+00,1.935370683670043945e+00,1.904378294944763184e+00,1.874362707138061523e+00,1.845278382301330566e+00
5.000000000000000000e+00,5.000000000000000000e+00,5.000000000000000000e+00,5.000000000000000000e+00,5.000000000000000000e+00,5.000000000000000000e+00,5.000000000000000000e+00,5.000000000000000000e+00,5.000000000000000000e+00,5.000000000000000000e+00,5.000000000000000000e+00,5.000000000000000000e+00,5.000000000000000000e+00,5.000000000000000000e+00,5.000000000000000000e+00,5.000000000000000000e+00,5.000000000000000000e+00,5.000000000000000000e+00,5.000000000000000000e+00,5.000000000000000000e+00,5.000000000000000000e+00,5.000000000000000000e+00,5.000000000000000000e+00,5.000000000000000000e+00,5.000000000000000000e+00,5.000000000000000000e+00,5.000000000000000000e+00,5.000000000000000000e+00,5.000000000000000000e+00,5.000000000000000000e+00,5.000000000000000000e+00,5.000000000000000000e+00,5.000000000000000000e+00,5.000000000000000000e+00,5.000000000000000000e+00,5.000000000000000000e+00,5.000000000000000000e+00,5.000000000000000000e+00,5.000000000000000000e+00,4.864732742309570312e+00,4.673551082611083984e+00,4.496828079223632812e+00,4.332983016967773438e+00,4.180657863616943359e+00,4.038678646087646484e+00,3.906026601791381836e+00,3.781811475753784180e+00,3.665253162384033203e+00,3.555664539337158203e+00,3.452439069747924805e+00,3.355037927627563477e+00,3.262982130050659180e+00,3.175843000411987305e+00,3.093236684799194336e+00,3.014818906784057617e+00,2.940279006958007812e+00,2.869335889816284180e+00,2.801735639572143555e+00,2.737247228622436523e+00,2.675660848617553711e+00,2.616784811019897461e+00,2.560443878173828125e+00,2.506478071212768555e+00,2.454740047454833984e+00,2.405094861984252930e+00,2.357418060302734375e+00,2.311594247817993164e+00,2.267518281936645508e+00,2.225091695785522461e+00,2.184223651885986328e+00,2.144829511642456055e+00,2.106831550598144531e+00,2.070156097412109375e+00,2.034735918045043945e+00,2.000507354736328125e+00,1.967411637306213379e+00,1.935392856597900391e+00,1.904399394989013672e+00,1.874383211135864258e+00,1.845298409461975098e+00
5.000000000000000000e+00,5.000000000000000000e+00,5.000000000000000000e+00,5.000000000000000000e+00,5.000000000000000000e+00,5.000000000000000000e+00,5.000000000000000000e+00,5.000000000000000000e+00,5.000000000000000000e+00,5.000000000000000000e+00,5.000000000000000000e+00,5.000000000000000000e+00,5.000000000000000000e+00,5.000000000000000000e+00,5.000000000000000000e+00,5.000000000000000000e+00,5.000000000000000000e+00,5.000000000000000000e+00,5.000000000000000000e+00,5.000000000000000000e+00,5.000000000000000000e+00,5.000000000000000000e+00,5.000000000000000000e+00,5.000000000000000000e+00,5.000000000000000000e+00,5.000000000000000000e+00,5.000000000000000000e+00,5.000000000000000000e+00,5.000000000000000000e+00,5.000000000000000000e+00,5.000000000000000000e+00,5.000000000000000000e+00,5.000000000000000000e+00,5.000000000000000000e+00,5.000000000000000000e+00,5.000000000000000000e+00,5.000000000000000000e+00,5.000000000000000000e+00,5.000000000000000000e+00,4.864871501922607422e+00,4.673679351806640625e+00,4.496946811676025391e+00,4.333093166351318359e+00,4.180760383605957031e+00,4.038774490356445312e+00,3.906116485595703125e+00,3.781895399093627930e+00,3.665331840515136719e+00,3.555738687515258789e+00,3.452509164810180664e+00,3.355104207992553711e+00,3.263044595718383789e+00,3.175902128219604492e+00,3.093293190002441406e+00,3.014872312545776367e+00,2.940329790115356445e+00,2.869384050369262695e+00,2.801781654357910156e+00,2.737291336059570312e+00,2.675702810287475586e+00,2.616825103759765625e+00,2.560482501983642578e+00,2.506515026092529297e+00,2.454775571823120117e+00,2.405128717422485352e+00,2.357450485229492188e+00,2.311625719070434570e+00,2.267548561096191406e+00,2.225120782852172852e+00,2.184251785278320312e+00,2.144856452941894531e+00,2.106857538223266602e+00,2.070181131362915039e+00,2.034760236740112305e+00,2.000530958175659180e+00,1.967434167861938477e+00,1.935414671897888184e+00,1.904420852661132812e+00,1.874403953552246094e+00,1.845318555831909180e+00
5.000000000000000000e+00,5.000000000000000000e+00,5.000000000000000000e+00,5.000000000000000000e+00,5.000000000000000000e+00,5.000000000000000000e+00,5.000000000000000000e+00,5.000000000000000000e+00,5.000000000000000000e+00,5.000000000000000000e+00,5.000000000000000000e+00,5.000000000000000000e+00,5.000000000000000000e+00,5.000000000000000000e+00,5.000000000000000000e+00,5.000000000000000000e+00,5.000000000000000000e+00,5.000000000000000000e+00,5.000000000000000000e+00,5.000000000000000000e+00,5.000000000000000000e+00,5.000000000000000000e+00,5.000000000000000000e+00,5.000000000000000000e+00,5.000000000000000000e+00,5.000000000000000000e+00,5.000000000000000000e+00,5.000000000000000000e+00,5.000000000000000000e+00,5.000000000000000000e+00,5.000000000000000000e+00,5.000000000000000000e+00,5.000000000000000000e+00,5.000000000000000000e+00,5.000000000000000000e+00,5.000000000000000000e+00,5.000000000000000000e+00,5.000000000000000000e+00,5.000000000000000000e+00,4.865010738372802734e+00,4.673807621002197266e+00,4.497065544128417969e+00,4.333203792572021484e+00,4.180863380432128906e+00,4.038870334625244141e+00,3.906206130981445312e+00,3.781979322433471680e+00,3.665410757064819336e+00,3.555813312530517578e+00,3.452579021453857422e+00,3.355170488357543945e+00,3.263107299804687500e+00,3.175961494445800781e+00,3.093349218368530273e+00,3.014925718307495117e+00,2.940380573272705078e+00,2.869432687759399414e+00,2.801827907562255859e+00,2.737335205078125000e+00,2.675745248794555664e+00,2.616865158081054688e+00,2.560520887374877930e+00,2.506551742553710938e+00,2.454810857772827148e+00,2.405162811279296875e+00,2.357483148574829102e+00,2.311657190322875977e+00,2.267578840255737305e+00,2.225149869918823242e+00,2.184279680252075195e+00,2.144883632659912109e+00,2.106883525848388672e+00,2.070206403732299805e+00,2.034784555435180664e+00,2.000554561614990234e+00,1.967457056045532227e+00,1.935436844825744629e+00,1.904442191123962402e+00,1.874424457550048828e+00,1.845338463783264160e+00
5.000000000000000000e+00,5.000000000000000000e+00,5.000000000000000000e+00,5.000000000000000000e+00,5.000000000000000000e+00,5.000000000000000000e+00,5.000000000000000000e+00,5.000000000000000000e+00,5.000000000000000000e+00,5.000000000000000000e+00,5.000000000000000000e+00,5.000000000000000000e+00,5.000000000000000000e+00,5.000000000000000000e+00,5.000000000000000000e+00,5.000000000000000000e+00,5.000000000000000000e+00,5.000000000000000000e+00,5.000000000000000000e+00,5.000000000000000000e+00,5.000000000000000000e+00,5.000000000000000000e+00,5.000000000000000000e+00,5.000000000000000000e+00,5.000000000000000000e+00,5.000000000000000000e+00,5.000000000000000000e+00,5.000000000000000000e+00,5.000000000000000000e+00,5.000000000000000000e+00,5.000000000000000000e+00,5.000000000000000000e+00,5.000000000000000000e+00,5.000000000000000000e+00,5.000000000000000000e+00,5.000000000000000000e+00,5.000000000000000000e+00,5.000000000000000000e+00,5.000000000000000000e+00,4.865149974822998047e+00,4.673935890197753906e+00,4.497184753417968750e+00,4.333313941955566406e+00,4.180965900421142578e+00,4.038966178894042969e+00,3.906295776367187500e+00,3.782063722610473633e+00,3.665489673614501953e+00,3.555887460708618164e+00,3.452649354934692383e+00,3.355236530303955078e+00,3.263170003890991211e+00,3.176020622253417969e+00,3.093405485153198242e+00,3.014979362487792969e+00,2.940431356430053711e+00,2.869481086730957031e+00,2.801874160766601562e+00,2.737379312515258789e+00,2.675787210464477539e+00,2.616905450820922852e+00,2.560559511184692383e+00,2.506588935852050781e+00,2.454846382141113281e+00,2.405196905136108398e+00,2.357516050338745117e+00,2.311688661575317383e+00,2.267609119415283203e+00,2.225178956985473633e+00,2.184307813644409180e+00,2.144910812377929688e+00,2.106909751892089844e+00,2.070231676101684570e+00,2.034809112548828125e+00,2.000577926635742188e+00,1.967479825019836426e+00,1.935458660125732422e+00,1.904463410377502441e+00,1.874445199966430664e+00,1.845358490943908691e+00
5.000000000000000000e+00,5.000000000000000000e+00,5.000000000000000000e+00,5.000000000000000000e+00,5.000000000000000000e+00,5.000000000000000000e+00,5.000000000000000000e+00,5.000000000000000000e+00,5.000000000000000000e+00,5.000000000000000000e+00,5.000000000000000000e+00,5.000000000000000000e+00,5.000000000000000000e+00,5.000000000000000000e+00,5.000000000000000000e+00,5.000000000000000000e+00,5.000000000000000000e+00,5.000000000000000000e+00,5.000000000000000000e+00,5.000000000000000000e+00,5.000000000000000000e+00,5.000000000000000000e+00,5.000000000000000000e+00,5.000000000000000000e+00,5.000000000000000000e+00,5.000000000000000000e+00,5.000000000000000000e+00,5.000000000000000000e+00,5.000000000000000000e+00,5.000000000000000000e+00,5.000000000000000000e+00,5.000000000000000000e+00,5.000000000000000000e+00,5.000000000000000000e+00,5.000000000000000000e+00,5.000000000000000000e+00,5.000000000000000000e+00,5.000000000000000000e+00,5.000000000000000000e+00,4.865288734436035156e+00,4.674064636230468750e+00,4.497303485870361328e+00,4.333424568176269531e+00,4.181068420410156250e+00,4.039062500000000000e+00,3.906385421752929688e+00,3.782147884368896484e+00,3.665568590164184570e+00,3.555961847305297852e+00,3.452719449996948242e+00,3.355302572250366211e+00,3.263232469558715820e+00,3.176080226898193359e+00,3.093461751937866211e+00,3.015032768249511719e+00,2.940482139587402344e+00,2.869529485702514648e+00,2.801920175552368164e+00,2.737423181533813477e+00,2.675829172134399414e+00,2.616945743560791016e+00,2.560597896575927734e+00,2.506625890731811523e+00,2.454881668090820312e+00,2.405230760574340820e+00,2.357548713684082031e+00,2.311719894409179688e+00,2.267639160156250000e+00,2.225208044052124023e+00,2.184335708618164062e+00,2.144937753677368164e+00,2.106935739517211914e+00,2.070256710052490234e+00,2.034833431243896484e+00,2.000601530075073242e+00,1.967502474784851074e+00,1.935480833053588867e+00,1.904484868049621582e+00,1.874465942382812500e+00,1.845378398895263672e+00
5.000000000000000000e+00,5.000000000000000000e+00,5.000000000000000000e+00,5.000000000000000000e+00,5.000000000000000000e+00,5.000000000000000000e+00,5.000000000000000000e+00,5.000000000000000000e+00,5.000000000000000000e+00,5.000000000000000000e+00,5.000000000000000000e+00,5.000000000000000000e+00,5.000000000000000000e+00,5.000000000000000000e+00,5.000000000000000000e+00,5.000000000000000000e+00,5.000000000000000000e+00,5.000000000000000000e+00,5.000000000000000000e+00,5.000000000000000000e+00,5.000000000000000000e+00,5.000000000000000000e+00,5.000000000000000000e+00,5.000000000000000000e+00,5.000000000000000000e+00,5.000000000000000000e+00,5.000000000000000000e+00,5.000000000000000000e+00,5.000000000000000000e+00,5.000000000000000000e+00,5.000000000000000000e+00,5.000000000000000000e+00,5.000000000000000000e+00,5.000000000000000000e+00,5.000000000000000000e+00,5.000000000000000000e+00,5.000000000000000000e+00,5.000000000000000000e+00,5.000000000000000000e+00,4.865427970886230469e+00,4.674192905426025391e+00,4.497422218322753906e+00,4.333534717559814453e+00,4.181171417236328125e+00,4.039158344268798828e+00,3.906474828720092773e+00,3.782231807708740234e+00,3.665647983551025391e+00,3.556035995483398438e+00,3.452789306640625000e+00,3.355369091033935547e+00,3.263294935226440430e+00,3.176139354705810547e+00,3.093517780303955078e+00,3.015086174011230469e+00,2.940533161163330078e+00,2.869577884674072266e+00,2.801966428756713867e+00,2.737467527389526367e+00,2.675871133804321289e+00,2.616986036300659180e+00,2.560636520385742188e+00,2.506662607192993164e+00,2.454917192459106445e+00,2.405264854431152344e+00,2.357581138610839844e+00,2.311751365661621094e+00,2.267669439315795898e+00,2.225237131118774414e+00,2.184363842010498047e+00,2.144964694976806641e+00,2.106961965560913086e+00,2.070281982421875000e+00,2.034857749938964844e+00,2.000625133514404297e+00,1.967525362968444824e+00,1.935502886772155762e+00,1.904505968093872070e+00,1.874486446380615234e+00,1.845398545265197754e+00
5.000000000000000000e+00,5.000000000000000000e+00,5.000000000000000000e+00,5.000000000000000000e+00,5.000000000000000000e+00,5.000000000000000000e+00,5.000000000000000000e+00,5.000000000000000000e+00,5.000000000000000000e+00,5.000000000000000000e+00,5.000000000000000000e+00,5.000000000000000000e+00,5.000000000000000000e+00,5.000000000000000000e+00,5.000000000000000000e+00,5.000000000000000000e+00,5.000000000000000000e+00,5.000000000000000000e+00,5.000000000000000000e+00,5.000000000000000000e+00,5.000000000000000000e+00,5.000000000000000000e+00,5.000000000000000000e+00,5.000000000000000000e+00,5.000000000000000000e+00,5.000000000000000000e+00,5.000000000000000000e+00,5.000000000000000000e+00,5.000000000000000000e+00,5.000000000000000000e+00,5.000000000000000000e+00,5.000000000000000000e+00,5.000000000000000000e+00,5.000000000000000000e+00,5.000000000000000000e+00,5.000000000000000000e+00,5.000000000000000000e+00,5.000000000000000000e+00,5.000000000000000000e+00,4.865567207336425781e+00,4.674321651458740234e+00,4.497541427612304688e+00,4.333645343780517578e+00,4.181273937225341797e+00,4.039254188537597656e+00,3.906564950942993164e+00,3.782315731048583984e+00,3.665726900100708008e+00,3.556110620498657227e+00,3.452859401702880859e+00,3.355435132980346680e+00,3.263357400894165039e+00,3.176198482513427734e+00,3.093574285507202148e+00,3.015139341354370117e+00,2.940583944320678711e+00,2.869626283645629883e+00,2.802012443542480469e+00,2.737511396408081055e+00,2.675913333892822266e+00,2.617026329040527344e+00,2.560675144195556641e+00,2.506699562072753906e+00,2.454952716827392578e+00,2.405298948287963867e+00,2.357613801956176758e+00,2.311782836914062500e+00,2.267699480056762695e+00,2.225266218185424805e+00,2.184391975402832031e+00,2.144991874694824219e+00,2.106987953186035156e+00,2.070307254791259766e+00,2.034882068634033203e+00,2.000648736953735352e+00,1.967547893524169922e+00,1.935524821281433105e+00,1.904527425765991211e+00,1.874507188796997070e+00,1.845418572425842285e+00
5.000000000000000000e+00,5.000000000000000000e+00,5.000000000000000000e+00,5.000000000000000000e+00,5.000000000000000000e+00,5.000000000000000000e+00,5.000000000000000000e+00,5.000000000000000000e+00,5.000000000000000000e+00,5.000000000000000000e+00,5.000000000000000000e+00,5.000000000000000000e+00,5.000000000000000000e+00,5.000000000000000000e+00,5.000000000000000000e+00,5.000000000000000000e+00,5.000000000000000000e+00,5.000000000000000000e+00,5.000000000000000000e+00,5.000000000000000000e+00,5.000000000000000000e+00,5.000000000000000000e+00,5.000000000000000000e+00,5.000000000000000000e+00,5.000000000000000000e+00,5.000000000000000000e+00,5.000000000000000000e+00,5.000000000000000000e+00,5.000000000000000000e+00,5.000000000000000000e+00,5.000000000000000000e+00,5.000000000000000000e+00,5.000000000000000000e+00,5.000000000000000000e+00,5.000000000000000000e+00,5.000000000000000000e+00,5.000000000000000000e+00,5.000000000000000000e+00,5.000000000000000000e+00,4.865706443786621094e+00,4.674449920654296875e+00,4.497660160064697266e+00,4.333755493164062500e+00,4.181376934051513672e+00,4.039350032806396484e+00,3.906654596328735352e+00,3.782400131225585938e+00,3.665805578231811523e+00,3.556184768676757812e+00,3.452929496765136719e+00,3.355501174926757812e+00,3.263420343399047852e+00,3.176257848739624023e+00,3.093630552291870117e+00,3.015193223953247070e+00,2.940634727478027344e+00,2.869674682617187500e+00,2.802058458328247070e+00,2.737555503845214844e+00,2.675955533981323242e+00,2.617066383361816406e+00,2.560713768005371094e+00,2.506736755371093750e+00,2.454988002777099609e+00,2.405332803726196289e+00,2.357646465301513672e+00,2.311814308166503906e+00,2.267729997634887695e+00,2.225295305252075195e+00,2.184419870376586914e+00,2.145018815994262695e+00,2.107013940811157227e+00,2.070332527160644531e+00,2.034906387329101562e+00,2.000672101974487305e+00,1.967570781707763672e+00,1.935546875000000000e+00,1.904548764228820801e+00,1.874527931213378906e+00,1.845438480377197266e+00
5.000000000000000000e+00,5.000000000000000000e+00,5.000000000000000000e+00,5.000000000000000000e+00,5.000000000000000000e+00,5.000000000000000000e+00,5.000000000000000000e+00,5.000000000000000000e+00,5.000000000000000000e+00,5.000000000000000000e+00,5.000000000000000000e+00,5.000000000000000000e+00,5.000000000000000000e+00,5.000000000000000000e+00,5.000000000000000000e+00,5.000000000000000000e+00,5.000000000000000000e+00,5.000000000000000000e+00,5.000000000000000000e+00,5.000000000000000000e+00,5.000000000000000000e+00,5.000000000000000000e+00,5.000000000000000000e+00,5.000000000000000000e+00,5.000000000000000000e+00,5.000000000000000000e+00,5.000000000000000000e+00,5.000000000000000000e+00,5.000000000000000000e+00,5.000000000000000000e+00,5.000000000000000000e+00,5.000000000000000000e+00,5.000000000000000000e+00,5.000000000000000000e+00,5.000000000000000000e+00,5.000000000000000000e+00,5.000000000000000000e+00,5.000000000000000000e+00,5.000000000000000000e+00,4.865845203399658203e+00,4.674578189849853516e+00,4.497778892517089844e+00,4.333866119384765625e+00,4.181479930877685547e+00,4.039445877075195312e+00,3.906744241714477539e+00,3.782484054565429688e+00,3.665884494781494141e+00,3.556259155273437500e+00,3.452999830245971680e+00,3.355567455291748047e+00,3.263482809066772461e+00,3.176317453384399414e+00,3.093686580657958984e+00,3.015246391296386719e+00,2.940685510635375977e+00,2.869723081588745117e+00,2.802104949951171875e+00,2.737599611282348633e+00,2.675997495651245117e+00,2.617106914520263672e+00,2.560752153396606445e+00,2.506773471832275391e+00,2.455023288726806641e+00,2.405366897583007812e+00,2.357679367065429688e+00,2.311845541000366211e+00,2.267760038375854492e+00,2.225324630737304688e+00,2.184448003768920898e+00,2.145045995712280273e+00,2.107040166854858398e+00,2.070357561111450195e+00,2.034930706024169922e+00,2.000695705413818359e+00,1.967593669891357422e+00,1.935569047927856445e+00,1.904569983482360840e+00,1.874548435211181641e+00,1.845458626747131348e+00
5.000000000000000000e+00,5.000000000000000000e+00,5.000000000000000000e+00,5.000000000000000000e+00,5.000000000000000000e+00,5.000000000000000000e+00,5.000000000000000000e+00,5.000000000000000000e+00,5.000000000000000000e+00,5.000000000000000000e+00,5.000000000000000000e+00,5.000000000000000000e+00,5.000000000000000000e+00,5.000000000000000000e+00,5.000000000000000000e+00,5.000000000000000000e+00,5.000000000000000000e+00,5.000000000000000000e+00,5.000000000000000000e+00,5.000000000000000000e+00,5.000000000000000000e+00,5.000000000000000000e+00,5.000000000000000000e+00,5.000000000000000000e+00,5.000000000000000000e+00,5.000000000000000000e+00,5.000000000000000000e+00,5.000000000000000000e+00,5.000000000000000000e+00,5.000000000000000000e+00,5.000000000000000000e+00,5.000000000000000000e+00,5.000000000000000000e+00,5.000000000000000000e+00,5.000000000000000000e+00,5.000000000000000000e+00,5.000000000000000000e+00,5.000000000000000000e+00,5.000000000000000000e+00,4.865984916687011719e+00,4.674706935882568359e+00,4.497898101806640625e+00,4.333976745605468750e+00,4.181582450866699219e+00,4.039541721343994141e+00,3.906833887100219727e+00,3.782568216323852539e+00,3.665963888168334961e+00,3.556333303451538086e+00,3.453069686889648438e+00,3.355633735656738281e+00,3.263545274734497070e+00,3.176376581192016602e+00,3.093742847442626953e+00,3.015299797058105469e+00,2.940736532211303711e+00,2.869771480560302734e+00,2.802150964736938477e+00,2.737643718719482422e+00,2.676039695739746094e+00,2.617147207260131836e+00,2.560790777206420898e+00,2.506810426712036133e+00,2.455059051513671875e+00,2.405400753021240234e+00,2.357712030410766602e+00,2.311877250671386719e+00,2.267790317535400391e+00,2.225353717803955078e+00,2.184475898742675781e+00,2.145072937011718750e+00,2.107066392898559570e+00,2.070382833480834961e+00,2.034955024719238281e+00,2.000719308853149414e+00,1.967616200447082520e+00,1.935590863227844238e+00,1.904591441154479980e+00,1.874569177627563477e+00,1.845478773117065430e+00
5.000000000000000000e+00,5.000000000000000000e+00,5.000000000000000000e+00,5.000000000000000000e+00,5.000000000000000000e+00,5.000000000000000000e+00,5.000000000000000000e+00,5.000000000000000000e+00,5.000000000000000000e+00,5.000000000000000000e+00,5.000000000000000000e+00,5.000000000000000000e+00,5.000000000000000000e+00,5.000000000000000000e+00,5.000000000000000000e+00,5.000000000000000000e+00,5.000000000000000000e+00,5.000000000000000000e+00,5.000000000000000000e+00,5.000000000000000000e+00,5.000000000000000000e+00,5.000000000000000000e+00,5.000000000000000000e+00,5.000000000000000000e+00,5.000000000000000000e+00,5.000000000000000000e+00,5.000000000000000000e+00,5.000000000000000000e+00,5.000000000000000000e+00,5.000000000000000000e+00,5.000000000000000000e+00,5.000000000000000000e+00,5.000000000000000000e+00,5.000000000000000000e+00,5.000000000000000000e+00,5.000000000000000000e+00,5.000000000000000000e+00,5.000000000000000000e+00,5.000000000000000000e+00,4.866123676300048828e+00,4.674835205078125000e+00,4.498016834259033203e+00,4.334086894989013672e+00,4.181685447692871094e+00,4.039638042449951172e+00,3.906923770904541016e+00,3.782652139663696289e+00,3.666042804718017578e+00,3.556407928466796875e+00,3.453139781951904297e+00,3.355700016021728516e+00,3.263607978820800781e+00,3.176435708999633789e+00,3.093799352645874023e+00,3.015353202819824219e+00,2.940787315368652344e+00,2.869820117950439453e+00,2.802196979522705078e+00,2.737687826156616211e+00,2.676081657409667969e+00,2.617187261581420898e+00,2.560829401016235352e+00,2.506847381591796875e+00,2.455094337463378906e+00,2.405434846878051758e+00,2.357744693756103516e+00,2.311908483505249023e+00,2.267820596694946289e+00,2.225382804870605469e+00,2.184504032135009766e+00,2.145099878311157227e+00,2.107092380523681641e+00,2.070408105850219727e+00,2.034979343414306641e+00,2.000742673873901367e+00,1.967639088630676270e+00,1.935613036155700684e+00,1.904612779617309570e+00,1.874589681625366211e+00,1.845498561859130859e+00
5.000000000000000000e+00,5.000000000000000000e+00,5.000000000000000000e+00,5.000000000000000000e+00,5.000000000000000000e+00,5.000000000000000000e+00,5.000000000000000000e+00,5.000000000000000000e+00,5.000000000000000000e+00,5.000000000000000000e+00,5.000000000000000000e+00,5.000000000000000000e+00,5.000000000000000000e+00,5.000000000000000000e+00,5.000000000000000000e+00,5.000000000000000000e+00,5.000000000000000000e+00,5.000000000000000000e+00,5.000000000000000000e+00,5.000000000000000000e+00,5.000000000000000000e+00,5.000000000000000000e+00,5.000000000000000000e+00,5.000000000000000000e+00,5.000000000000000000e+00,5.000000000000000000e+00,5.000000000000000000e+00,5.000000000000000000e+00,5.000000000000000000e+00,5.000000000000000000e+00,5.000000000000000000e+00,5.000000000000000000e+00,5.000000000000000000e+00,5.000000000000000000e+00,5.000000000000000000e+00,5.000000000000000000e+00,5.000000000000000000e+00,5.000000000000000000e+00,5.000000000000000000e+00,4.866262912750244141e+00,4.674963474273681641e+00,4.498135566711425781e+00,4.334197521209716797e+00,4.181788444519042969e+00,4.039733886718750000e+00,3.907013416290283203e+00,3.782736539840698242e+00,3.666121721267700195e+00,3.556482315063476562e+00,3.453209877014160156e+00,3.355766057968139648e+00,3.263670682907104492e+00,3.176495075225830078e+00,3.093855619430541992e+00,3.015406847000122070e+00,2.940838098526000977e+00,2.869868278503417969e+00,2.802243232727050781e+00,2.737731695175170898e+00,2.676123857498168945e+00,2.617227554321289062e+00,2.560867786407470703e+00,2.506884336471557617e+00,2.455129623413085938e+00,2.405468940734863281e+00,2.357777118682861328e+00,2.311939954757690430e+00,2.267850875854492188e+00,2.225411891937255859e+00,2.184532165527343750e+00,2.145127058029174805e+00,2.107118368148803711e+00,2.070433139801025391e+00,2.035003662109375000e+00,2.000766277313232422e+00,1.967661976814270020e+00,1.935634851455688477e+00,1.904633998870849609e+00,1.874610424041748047e+00,1.845518708229064941e+00
5.000000000000000000e+00,5.000000000000000000e+00,5.000000000000000000e+00,5.000000000000000000e+00,5.000000000000000000e+00,5.000000000000000000e+00,5.000000000000000000e+00,5.000000000000000000e+00,5.000000000000000000e+00,5.000000000000000000e+00,5.000000000000000000e+00,5.000000000000000000e+00,5.000000000000000000e+00,5.000000000000000000e+00,5.000000000000000000e+00,5.000000000000000000e+00,5.000000000000000000e+00,5.000000000000000000e+00,5.000000000000000000e+00,5.000000000000000000e+00,5.000000000000000000e+00,5.000000000000000000e+00,5.000000000000000000e+00,5.000000000000000000e+00,5.000000000000000000e+00,5.000000000000000000e+00,5.000000000000000000e+00,5.000000000000000000e+00,5.000000000000000000e+00,5.000000000000000000e+00,5.000000000000000000e+00,5.000000000000000000e+00,5.000000000000000000e+00,5.000000000000000000e+00,5.000000000000000000e+00,5.000000000000000000e+00,5.000000000000000000e+00,5.000000000000000000e+00,5.000000000000000000e+00,4.866401672363281250e+00,4.675091743469238281e+00,4.498254776000976562e+00,4.334307670593261719e+00,4.181890964508056641e+00,4.039829254150390625e+00,3.907103061676025391e+00,3.782820701599121094e+00,3.666200637817382812e+00,3.556556463241577148e+00,3.453280210494995117e+00,3.355832099914550781e+00,3.263733386993408203e+00,3.176554203033447266e+00,3.093911647796630859e+00,3.015460252761840820e+00,2.940888881683349609e+00,2.869916677474975586e+00,2.802289485931396484e+00,2.737775802612304688e+00,2.676166057586669922e+00,2.617267847061157227e+00,2.560906410217285156e+00,2.506921291351318359e+00,2.455165147781372070e+00,2.405502796173095703e+00,2.357810020446777344e+00,2.311971187591552734e+00,2.267881155014038086e+00,2.225440979003906250e+00,2.184560060501098633e+00,2.145154237747192383e+00,2.107144594192504883e+00,2.070458412170410156e+00,2.035028219223022461e+00,2.000789642333984375e+00,1.967684507369995117e+00,1.935657024383544922e+00,1.904655456542968750e+00,1.874631166458129883e+00,1.845538616180419922e+00
5.000000000000000000e+00,5.000000000000000000e+00,5.000000000000000000e+00,5.000000000000000000e+00,5.000000000000000000e+00,5.000000000000000000e+00,5.000000000000000000e+00,5.000000000000000000e+00,5.000000000000000000e+00,5.000000000000000000e+00,5.000000000000000000e+00,5.000000000000000000e+00,5.000000000000000000e+00,5.000000000000000000e+00,5.000000000000000000e+00,5.000000000000000000e+00,5.000000000000000000e+00,5.000000000000000000e+00,5.000000000000000000e+00,5.000000000000000000e+00,5.000000000000000000e+00,5.000000000000000000e+00,5.000000000000000000e+00,5.000000000000000000e+00,5.000000000000000000e+00,5.000000000000000000e+00,5.000000000000000000e+00,5.000000000000000000e+00,5.000000000000000000e+00,5.000000000000000000e+00,5.000000000000000000e+00,5.000000000000000000e+00,5.000000000000000000e+00,5.000000000000000000e+00,5.000000000000000000e+00,5.000000000000000000e+00,5.000000000000000000e+00,5.000000000000000000e+00,5.000000000000000000e+00,4.866541385650634766e+00,4.675220489501953125e+00,4.498373508453369141e+00,4.334417819976806641e+00,4.181993961334228516e+00,4.039925575256347656e+00,3.907192707061767578e+00,3.782904624938964844e+00,3.666280031204223633e+00,3.556630849838256836e+00,3.453350067138671875e+00,3.355898141860961914e+00,3.263795852661132812e+00,3.176613807678222656e+00,3.093967914581298828e+00,3.015513658523559570e+00,2.940939903259277344e+00,2.869965076446533203e+00,2.802335500717163086e+00,2.737819671630859375e+00,2.676208019256591797e+00,2.617308139801025391e+00,2.560944795608520508e+00,2.506958246231079102e+00,2.455200672149658203e+00,2.405536890029907227e+00,2.357842683792114258e+00,2.312002658843994141e+00,2.267911195755004883e+00,2.225470066070556641e+00,2.184588193893432617e+00,2.145181179046630859e+00,2.107170581817626953e+00,2.070483684539794922e+00,2.035052537918090820e+00,2.000813245773315430e+00,1.967707395553588867e+00,1.935679078102111816e+00,1.904676556587219238e+00,1.874651670455932617e+00,1.845558762550354004e+00
5.000000000000000000e+00,5.000000000000000000e+00,5.000000000000000000e+00,5.000000000000000000e+00,5.000000000000000000e+00,5.000000000000000000e+00,5.000000000000000000e+00,5.000000000000000000e+00,5.000000000000000000e+00,5.000000000000000000e+00,5.000000000000000000e+00,5.000000000000000000e+00,5.000000000000000000e+00,5.000000000000000000e+00,5.000000000000000000e+00,5.000000000000000000e+00,5.000000000000000000e+00,5.000000000000000000e+00,5.000000000000000000e+00,5.000000000000000000e+00,5.000000000000000000e+00,5.000000000000000000e+00,5.000000000000000000e+00,5.000000000000000000e+00,5.000000000000000000e+00,5.000000000000000000e+00,5.000000000000000000e+00,5.000000000000000000e+00,5.000000000000000000e+00,5.000000000000000000e+00,5.000000000000000000e+00,5.000000000000000000e+00,5.000000000000000000e+00,5.000000000000000000e+00,5.000000000000000000e+00,5.000000000000000000e+00,5.000000000000000000e+00,5.000000000000000000e+00,5.000000000000000000e+00,4.866680145263671875e+00,4.675348758697509766e+00,4.498492240905761719e+00,4.334528446197509766e+00,4.182096481323242188e+00,4.040021419525146484e+00,3.907282829284667969e+00,3.782988548278808594e+00,3.666358947753906250e+00,3.556704998016357422e+00,3.453420162200927734e+00,3.355964660644531250e+00,3.263858318328857422e+00,3.176673173904418945e+00,3.094024419784545898e+00,3.015567064285278320e+00,2.940990686416625977e+00,2.870013475418090820e+00,2.802381753921508789e+00,2.737864017486572266e+00,2.676249980926513672e+00,2.617348432540893555e+00,2.560983657836914062e+00,2.506995201110839844e+00,2.455235958099365234e+00,2.405570745468139648e+00,2.357875347137451172e+00,2.312034130096435547e+00,2.267941474914550781e+00,2.225499153137207031e+00,2.184616327285766602e+00,2.145208120346069336e+00,2.107196807861328125e+00,2.070508718490600586e+00,2.035076618194580078e+00,2.000836849212646484e+00,1.967730045318603516e+00,1.935701012611389160e+00,1.904698014259338379e+00,1.874672412872314453e+00,1.845578789710998535e+00
5.000000000000000000e+00,5.000000000000000000e+00,5.000000000000000000e+00,5.000000000000000000e+00,5.000000000000000000e+00,5.000000000000000000e+00,5.000000000000000000e+00,5.000000000000000000e+00,5.000000000000000000e+00,5.000000000000000000e+00,5.000000000000000000e+00,5.000000000000000000e+00,5.000000000000000000e+00,5.000000000000000000e+00,5.000000000000000000e+00,5.000000000000000000e+00,5.000000000000000000e+00,5.000000000000000000e+00,5.000000000000000000e+00,5.000000000000000000e+00,5.000000000000000000e+00,5.000000000000000000e+00,5.000000000000000000e+00,5.000000000000000000e+00,5.000000000000000000e+00,5.000000000000000000e+00,5.000000000000000000e+00,5.000000000000000000e+00,5.000000000000000000e+00,5.000000000000000000e+00,5.000000000000000000e+00,5.000000000000000000e+00,5.000000000000000000e+00,5.000000000000000000e+00,5.000000000000000000e+00,5.000000000000000000e+00,5.000000000000000000e+00,5.000000000000000000e+00,5.000000000000000000e+00,4.866819858551025391e+00,4.675477504730224609e+00,4.498611450195312500e+00,4.334638595581054688e+00,4.182199478149414062e+00,4.040117263793945312e+00,3.907372474670410156e+00,3.783072710037231445e+00,3.666437864303588867e+00,3.556779623031616211e+00,3.453490257263183594e+00,3.356030941009521484e+00,3.263921260833740234e+00,3.176732301712036133e+00,3.094080686569213867e+00,3.015620470046997070e+00,2.941041469573974609e+00,2.870062112808227539e+00,2.802427768707275391e+00,2.737907886505126953e+00,2.676292419433593750e+00,2.617388725280761719e+00,2.561022043228149414e+00,2.507031917572021484e+00,2.455271482467651367e+00,2.405605077743530273e+00,2.357908010482788086e+00,2.312065601348876953e+00,2.267971754074096680e+00,2.225528240203857422e+00,2.184644222259521484e+00,2.145235061645507812e+00,2.107222795486450195e+00,2.070533990859985352e+00,2.035100936889648438e+00,2.000860452651977539e+00,1.967752814292907715e+00,1.935723066329956055e+00,1.904719471931457520e+00,1.874692916870117188e+00,1.845598697662353516e+00
5.000000000000000000e+00,5.000000000000000000e+00,5.000000000000000000e+00,5.000000000000000000e+00,5.000000000000000000e+00,5.000000000000000000e+00,5.000000000000000000e+00,5.000000000000000000e+00,5.000000000000000000e+00,5.000000000000000000e+00,5.000000000000000000e+00,5.000000000000000000e+00,5.000000000000000000e+00,5.000000000000000000e+00,5.000000000000000000e+00,5.000000000000000000e+00,5.000000000000000000e+00,5.000000000000000000e+00,5.000000000000000000e+00,5.000000000000000000e+00,5.000000000000000000e+00,5.000000000000000000e+00,5.000000000000000000e+00,5.000000000000000000e+00,5.000000000000000000e+00,5.000000000000000000e+00,5.000000000000000000e+00,5.000000000000000000e+00,5.000000000000000000e+00,5.000000000000000000e+00,5.000000000000000000e+00,5.000000000000000000e+00,5.000000000000000000e+00,5.000000000000000000e+00,5.000000000000000000e+00,5.000000000000000000e+00,5.000000000000000000e+00,5.000000000000000000e+00,5.000000000000000000e+00,4.866958618164062500e+00,4.675605773925781250e+00,4.498730182647705078e+00,4.334749221801757812e+00,4.182301998138427734e+00,4.040213108062744141e+00,3.907462120056152344e+00,3.783157110214233398e+00,3.666516780853271484e+00,3.556854009628295898e+00,3.453560590744018555e+00,3.356096982955932617e+00,3.263983726501464844e+00,3.176791667938232422e+00,3.094136953353881836e+00,3.015674114227294922e+00,2.941092252731323242e+00,2.870110511779785156e+00,2.802474260330200195e+00,2.737951993942260742e+00,2.676334381103515625e+00,2.617428779602050781e+00,2.561060667037963867e+00,2.507069110870361328e+00,2.455306768417358398e+00,2.405638933181762695e+00,2.357940673828125000e+00,2.312097072601318359e+00,2.268002033233642578e+00,2.225557327270507812e+00,2.184672355651855469e+00,2.145262241363525391e+00,2.107248783111572266e+00,2.070559263229370117e+00,2.035125494003295898e+00,2.000883817672729492e+00,1.967775702476501465e+00,1.935745000839233398e+00,1.904740571975708008e+00,1.874713659286499023e+00,1.845618844032287598e+00
4.875330924987792969e+00,4.874119281768798828e+00,4.872909069061279297e+00,4.871698856353759766e+00,4.870489120483398438e+00,4.869280815124511719e+00,4.868072509765625000e+00,4.866864681243896484e+00,4.865657806396484375e+00,4.864450931549072266e+00,4.863245010375976562e+00,4.862040042877197266e+00,4.860835552215576172e+00,4.859631061553955078e+00,4.858428001403808594e+00,4.857224941253662109e+00,4.856022834777832031e+00,4.854821205139160156e+00,4.853620052337646484e+00,4.852419376373291016e+00,4.851220130920410156e+00,4.850020408630371094e+00,4.848821640014648438e+00,4.847623825073242188e+00,4.846426010131835938e+00,4.845229148864746094e+00,4.844033241271972656e+00,4.842837333679199219e+00,4.841641902923583984e+00,4.840447425842285156e+00,4.839253425598144531e+00,4.838059902191162109e+00,4.836867332458496094e+00,4.835675239562988281e+00,4.834483146667480469e+00,4.833292484283447266e+00,4.832101821899414062e+00,4.830912113189697266e+00,4.829722881317138672e+00,4.828534126281738281e+00,4.675734519958496094e+00,4.498849391937255859e+00,4.334859371185302734e+00,4.182404994964599609e+00,4.040309429168701172e+00,3.907551765441894531e+00,3.783241271972656250e+00,3.666595935821533203e+00,3.556928157806396484e+00,3.453630685806274414e+00,3.356163024902343750e+00,3.264046192169189453e+00,3.176851034164428711e+00,3.094192981719970703e+00,3.015727519989013672e+00,2.941143274307250977e+00,2.870158672332763672e+00,2.802520275115966797e+00,2.737996101379394531e+00,2.676376342773437500e+00,2.617469310760498047e+00,2.561099052429199219e+00,2.507106065750122070e+00,2.455342531204223633e+00,2.405673027038574219e+00,2.357973337173461914e+00,2.312128305435180664e+00,2.268032312393188477e+00,2.225586652755737305e+00,2.184700489044189453e+00,2.145289421081542969e+00,2.107275009155273438e+00,2.070584297180175781e+00,2.035149812698364258e+00,2.000907421112060547e+00,1.967798352241516113e+00,1.935767054557800293e+00,1.904762029647827148e+00,1.874734401702880859e+00,1.845638871192932129e+00
3.778120756149291992e+00,3.777393579483032227e+00,3.776666164398193359e+00,3.775939226150512695e+00,3.775212764739990234e+00,3.774486303329467773e+00,3.773760318756103516e+00,3.773034811019897461e+00,3.772308826446533203e+00,3.771583795547485352e+00,3.770859003067016602e+00,3.770134210586547852e+00,3.769409894943237305e+00,3.768686056137084961e+00,3.767961978912353516e+00,3.767238616943359375e+00,3.766515493392944336e+00,3.765792131423950195e+00,3.765069484710693359e+00,3.764347314834594727e+00,3.763624906539916992e+00,3.762902975082397461e+00,3.762181758880615234e+00,3.761460065841674805e+00,3.760739088058471680e+00,3.760018587112426758e+00,3.759297847747802734e+00,3.758577823638916016e+00,3.757857799530029297e+00,3.757138013839721680e+00,3.756418704986572266e+00,3.755699634552001953e+00,3.754980564117431641e+00,3.754262208938598633e+00,3.753544092178344727e+00,3.752826213836669922e+00,3.752108097076416016e+00,3.751390933990478516e+00,3.750673294067382812e+00,3.749956607818603516e+00,3.749240159988403320e+00,3.748523950576782227e+00,3.747807502746582031e+00,3.747091770172119141e+00,3.746376276016235352e+00,3.745660781860351562e+00,3.744946002960205078e+00,3.666674852371215820e+00,3.557002544403076172e+00,3.453700542449951172e+00,3.356229543685913086e+00,3.264108896255493164e+00,3.176910400390625000e+00,3.094249486923217773e+00,3.015780925750732422e+00,2.941194057464599609e+00,2.870207071304321289e+00,2.802566289901733398e+00,2.738040447235107422e+00,2.676418542861938477e+00,2.617509603500366211e+00,2.561137914657592773e+00,2.507143020629882812e+00,2.455377817153930664e+00,2.405706882476806641e+00,2.358006000518798828e+00,2.312160015106201172e+00,2.268062353134155273e+00,2.225615739822387695e+00,2.184728622436523438e+00,2.145316362380981445e+00,2.107301235198974609e+00,2.070609569549560547e+00,2.035174131393432617e+00,2.000931024551391602e+00,1.967821121215820312e+00,1.935789227485656738e+00,1.904783487319946289e+00,1.874754905700683594e+00,1.845658779144287109e+00
3.084045648574829102e+00,3.083560943603515625e+00,3.083076477050781250e+00,3.082592010498046875e+00,3.082107782363891602e+00,3.081623792648315430e+00,3.081139564514160156e+00,3.080655813217163086e+00,3.080172300338745117e+00,3.079688549041748047e+00,3.079205274581909180e+00,3.078722238540649414e+00,3.078238964080810547e+00,3.077756166458129883e+00,3.077273368835449219e+00,3.076790809631347656e+00,3.076308250427246094e+00,3.075825929641723633e+00,3.075343608856201172e+00,3.074861764907836914e+00,3.074379920959472656e+00,3.073898315429687500e+00,3.073416709899902344e+00,3.072935342788696289e+00,3.072454214096069336e+00,3.071972846984863281e+00,3.071491956710815430e+00,3.071011304855346680e+00,3.070530414581298828e+00,3.070050001144409180e+00,3.069569826126098633e+00,3.069089412689208984e+00,3.068609476089477539e+00,3.068129777908325195e+00,3.067649841308593750e+00,3.067170381546020508e+00,3.066690921783447266e+00,3.066211462020874023e+00,3.065732479095458984e+00,3.065253496170043945e+00,3.064774513244628906e+00,3.064296007156372070e+00,3.063817501068115234e+00,3.063338994979858398e+00,3.062860727310180664e+00,3.062382698059082031e+00,3.061904668807983398e+00,3.061426877975463867e+00,3.060949325561523438e+00,3.060471534729003906e+00,3.059994459152221680e+00,3.059517383575439453e+00,3.059040069580078125e+00,3.058563232421875000e+00,3.015834331512451172e+00,2.941244840621948242e+00,2.870255708694458008e+00,2.802612543106079102e+00,2.738084316253662109e+00,2.676460742950439453e+00,2.617549657821655273e+00,2.561176300048828125e+00,2.507179737091064453e+00,2.455413103103637695e+00,2.405740976333618164e+00,2.358038663864135742e+00,2.312191247940063477e+00,2.268092870712280273e+00,2.225644826889038086e+00,2.184756517410278320e+00,2.145343303680419922e+00,2.107327222824096680e+00,2.070634841918945312e+00,2.035198450088500977e+00,2.000954389572143555e+00,1.967844009399414062e+00,1.935811161994934082e+00,1.904804587364196777e+00,1.874775648117065430e+00,1.845678925514221191e+00
2.605408668518066406e+00,2.605062723159790039e+00,2.604716777801513672e+00,2.604371070861816406e+00,2.604025363922119141e+00,2.603679656982421875e+00,2.603334188461303711e+00,2.602988958358764648e+00,2.602643489837646484e+00,2.602298259735107422e+00,2.601953268051147461e+00,2.601608037948608398e+00,2.601263046264648438e+00,2.600918292999267578e+00,2.600573539733886719e+00,2.600228786468505859e+00,2.599884271621704102e+00,2.599539756774902344e+00,2.599195480346679688e+00,2.598850965499877930e+00,2.598506689071655273e+00,2.598162651062011719e+00,2.597818613052368164e+00,2.597474575042724609e+00,2.597130775451660156e+00,2.596787214279174805e+00,2.596443414688110352e+00,2.596099853515625000e+00,2.595756292343139648e+00,2.595412969589233398e+00,2.595069646835327148e+00,2.594726562500000000e+00,2.594383239746093750e+00,2.594040155410766602e+00,2.593697309494018555e+00,2.593354225158691406e+00,2.593011617660522461e+00,2.592669010162353516e+00,2.592326402664184570e+00,2.591983795166015625e+00,2.591641664505004883e+00,2.591299057006835938e+00,2.590956926345825195e+00,2.590614795684814453e+00,2.590272665023803711e+00,2.589930772781372070e+00,2.589589118957519531e+00,2.589247226715087891e+00,2.588905572891235352e+00,2.588563919067382812e+00,2.588222265243530273e+00,2.587881088256835938e+00,2.587539672851562500e+00,2.587198495864868164e+00,2.586857318878173828e+00,2.586516380310058594e+00,2.586175203323364258e+00,2.585834503173828125e+00,2.585493803024291992e+00,2.585152864456176758e+00,2.584812402725219727e+00,2.561214923858642578e+00,2.507216930389404297e+00,2.455448627471923828e+00,2.405775070190429688e+00,2.358071327209472656e+00,2.312222719192504883e+00,2.268122911453247070e+00,2.225673675537109375e+00,2.184784650802612305e+00,2.145370483398437500e+00,2.107353210449218750e+00,2.070660114288330078e+00,2.035222768783569336e+00,2.000977993011474609e+00,1.967866659164428711e+00,1.935833215713500977e+00,1.904826045036315918e+00,1.874796390533447266e+00,1.845698833465576172e+00
2.255401134490966797e+00,2.255141019821166992e+00,2.254880666732788086e+00,2.254620552062988281e+00,2.254360437393188477e+00,2.254100561141967773e+00,2.253840446472167969e+00,2.253580570220947266e+00,2.253320932388305664e+00,2.253061056137084961e+00,2.252801418304443359e+00,2.252541542053222656e+00,2.252282142639160156e+00,2.252022743225097656e+00,2.251763105392456055e+00,2.251503705978393555e+00,2.251244306564331055e+00,2.250985145568847656e+00,2.250725746154785156e+00,2.250466585159301758e+00,2.250207424163818359e+00,2.249948501586914062e+00,2.249689340591430664e+00,2.249431133270263672e+00,2.249173164367675781e+00,2.248915433883666992e+00,2.248657703399658203e+00,2.248399734497070312e+00,2.248142242431640625e+00,2.247884750366210938e+00,2.247627019882202148e+00,2.247369527816772461e+00,2.247112274169921875e+00,2.246854782104492188e+00,2.246597528457641602e+00,2.246340274810791016e+00,2.246083021163940430e+00,2.245826005935668945e+00,2.245568990707397461e+00,2.245311975479125977e+00,2.245054960250854492e+00,2.244798183441162109e+00,2.244541168212890625e+00,2.244284629821777344e+00,2.244027853012084961e+00,2.243771076202392578e+00,2.243514537811279297e+00,2.243257999420166016e+00,2.243001461029052734e+00,2.242745161056518555e+00,2.242488861083984375e+00,2.242232561111450195e+00,2.241976261138916016e+00,2.241720199584960938e+00,2.241463899612426758e+00,2.241207838058471680e+00,2.240952014923095703e+00,2.240695953369140625e+00,2.240440130233764648e+00,2.240184307098388672e+00,2.239928483963012695e+00,2.239672660827636719e+00,2.239417076110839844e+00,2.239161491394042969e+00,2.238905906677246094e+00,2.238650560379028320e+00,2.238394975662231445e+00,2.238139629364013672e+00,2.225703001022338867e+00,2.184812545776367188e+00,2.145397663116455078e+00,2.107379436492919922e+00,2.070685148239135742e+00,2.035247087478637695e+00,2.001001596450805664e+00,1.967889547348022461e+00,1.935855388641357422e+00,1.904847264289855957e+00,1.874817013740539551e+00,1.845718860626220703e+00
1.988340020179748535e+00,1.988137602806091309e+00,1.987935543060302734e+00,1.987733244895935059e+00,1.987531185150146484e+00,1.987328886985778809e+00,1.987126946449279785e+00,1.986925125122070312e+00,1.986722946166992188e+00,1.986521124839782715e+00,1.986319065093994141e+00,1.986117362976074219e+00,1.985915422439575195e+00,1.985713720321655273e+00,1.985511898994445801e+00,1.985310316085815430e+00,1.985108494758605957e+00,1.984907031059265137e+00,1.984705567359924316e+00,1.984503865242004395e+00,1.984302520751953125e+00,1.984100937843322754e+00,1.983899593353271484e+00,1.983698129653930664e+00,1.983496904373168945e+00,1.983295440673828125e+00,1.983094334602355957e+00,1.982892990112304688e+00,1.982692003250122070e+00,1.982490777969360352e+00,1.982289791107177734e+00,1.982088804244995117e+00,1.981887698173522949e+00,1.981686830520629883e+00,1.981485724449157715e+00,1.981284976005554199e+00,1.981083989143371582e+00,1.980883359909057617e+00,1.980682492256164551e+00,1.980481863021850586e+00,1.980280995368957520e+00,1.980080485343933105e+00,1.979879975318908691e+00,1.979679346084594727e+00,1.979478955268859863e+00,1.979278326034545898e+00,1.979078054428100586e+00,1.978877425193786621e+00,1.978677272796630859e+00,1.978476762771606445e+00,1.978276610374450684e+00,1.978076219558715820e+00,1.977876186370849609e+00,1.977675914764404297e+00,1.977475881576538086e+00,1.977275967597961426e+00,1.977075815200805664e+00,1.976875901222229004e+00,1.976675868034362793e+00,1.976476073265075684e+00,1.976276040077209473e+00,1.976076245307922363e+00,1.975876450538635254e+00,1.975676774978637695e+00,1.975476861000061035e+00,1.975277304649353027e+00,1.975077629089355469e+00,1.974878072738647461e+00,1.974678635597229004e+00,1.974479079246520996e+00,1.974279642105102539e+00,1.974080085754394531e+00,1.973880887031555176e+00,1.973681449890136719e+00,1.973482251167297363e+00,1.967912077903747559e+00,1.935877203941345215e+00,1.904868602752685547e+00,1.874837756156921387e+00,1.845739006996154785e+00
1.777828097343444824e+00,1.777666449546813965e+00,1.777504682540893555e+00,1.777343153953552246e+00,1.777181386947631836e+00,1.777019858360290527e+00,1.776858210563659668e+00,1.776696801185607910e+00,1.776535153388977051e+00,1.776373744010925293e+00,1.776212215423583984e+00,1.776050925254821777e+00,1.775889635086059570e+00,1.775728106498718262e+00,1.775566935539245605e+00,1.775405526161193848e+00,1.775244355201721191e+00,1.775082945823669434e+00,1.774921894073486328e+00,1.774760603904724121e+00,1.774599552154541016e+00,1.774438261985778809e+00,1.774277210235595703e+00,1.774116039276123047e+00,1.773955106735229492e+00,1.773794174194335938e+00,1.773633122444152832e+00,1.773472309112548828e+00,1.773311257362365723e+00,1.773150444030761719e+00,1.772989511489868164e+00,1.772828698158264160e+00,1.772667884826660156e+00,1.772507190704345703e+00,1.772346258163452148e+00,1.772185683250427246e+00,1.772025108337402344e+00,1.771864295005798340e+00,1.771703720092773438e+00,1.771543025970458984e+00,1.771382570266723633e+00,1.771221876144409180e+00,1.771061539649963379e+00,1.770900845527648926e+00,1.770740509033203125e+00,1.770580053329467773e+00,1.770419716835021973e+00,1.770259261131286621e+00,1.770098924636840820e+00,1.769938707351684570e+00,1.769778370857238770e+00,1.769618153572082520e+00,1.769457817077636719e+00,1.769297719001770020e+00,1.769137501716613770e+00,1.768977403640747070e+00,1.768817186355590820e+00,1.768657207489013672e+00,1.768497109413146973e+00,1.768337130546569824e+00,1.768177032470703125e+00,1.768017172813415527e+00,1.767857313156127930e+00,1.767697334289550781e+00,1.767537593841552734e+00,1.767377614974975586e+00,1.767217874526977539e+00,1.767058014869689941e+00,1.766898274421691895e+00,1.766738533973693848e+00,1.766578912734985352e+00,1.766419172286987305e+00,1.766259551048278809e+00,1.766100049018859863e+00,1.765940308570861816e+00,1.765780925750732422e+00,1.765621304512023926e+00,1.765461921691894531e+00,1.765302300453186035e+00,1.765142917633056641e+00
1.607623815536499023e+00,1.607491612434387207e+00,1.607359290122985840e+00,1.607227206230163574e+00,1.607095003128051758e+00,1.606962919235229492e+00,1.606830835342407227e+00,1.606698632240295410e+00,1.606566667556762695e+00,1.606434464454650879e+00,1.606302499771118164e+00,1.606170415878295898e+00,1.606038451194763184e+00,1.605906486511230469e+00,1.605774521827697754e+00,1.605642557144165039e+00,1.605510711669921875e+00,1.605378746986389160e+00,1.605247020721435547e+00,1.605115175247192383e+00,1.604983329772949219e+00,1.604851603507995605e+00,1.604719758033752441e+00,1.604588031768798828e+00,1.604456186294555664e+00,1.604324579238891602e+00,1.604192852973937988e+00,1.604061245918273926e+00,1.603929519653320312e+00,1.603797912597656250e+00,1.603666424751281738e+00,1.603534698486328125e+00,1.603403210639953613e+00,1.603271603584289551e+00,1.603140115737915039e+00,1.603008627891540527e+00,1.602877140045166016e+00,1.602745652198791504e+00,1.602614283561706543e+00,1.602482795715332031e+00,1.602351546287536621e+00,1.602220058441162109e+00,1.602088809013366699e+00,1.601957559585571289e+00,1.601826190948486328e+00,1.601694941520690918e+00,1.601563572883605957e+00,1.601432442665100098e+00,1.601301193237304688e+00,1.601170063018798828e+00,1.601038813591003418e+00,1.600907683372497559e+00,1.600776433944702148e+00,1.600645422935485840e+00,1.600514292716979980e+00,1.600383281707763672e+00,1.600252270698547363e+00,1.600121259689331055e+00,1.599990248680114746e+00,1.599859118461608887e+00,1.599728345870971680e+00,1.599597334861755371e+00,1.599466443061828613e+00,1.599335432052612305e+00,1.599204659461975098e+00,1.599073767662048340e+00,1.598942995071411133e+00,1.598812222480773926e+00,1.598681330680847168e+00,1.598550677299499512e+00,1.598419904708862305e+00,1.598289251327514648e+00,1.598158478736877441e+00,1.598027825355529785e+00,1.597897052764892578e+00,1.597766518592834473e+00,1.597635865211486816e+00,1.597505331039428711e+00,1.597374677658081055e+00,1.597244143486022949e+00
1.467161893844604492e+00,1.467051744461059570e+00,1.466941595077514648e+00,1.466831445693969727e+00,1.466721415519714355e+00,1.466611266136169434e+00,1.466501355171203613e+00,1.466391205787658691e+00,1.466281175613403320e+00,1.466171145439147949e+00,1.466061234474182129e+00,1.465951204299926758e+00,1.465841293334960938e+00,1.465731382369995117e+00,1.465621471405029297e+00,1.465511560440063477e+00,1.465401649475097656e+00,1.465291857719421387e+00,1.465181827545166016e+00,1.465072154998779297e+00,1.464962244033813477e+00,1.464852452278137207e+00,1.464742660522460938e+00,1.464632868766784668e+00,1.464523196220397949e+00,1.464413404464721680e+00,1.464303731918334961e+00,1.464193940162658691e+00,1.464084267616271973e+00,1.463974595069885254e+00,1.463864922523498535e+00,1.463755249977111816e+00,1.463645696640014648e+00,1.463536024093627930e+00,1.463426470756530762e+00,1.463316798210144043e+00,1.463207364082336426e+00,1.463097810745239258e+00,1.462988257408142090e+00,1.462878823280334473e+00,1.462769269943237305e+00,1.462659835815429688e+00,1.462550282478332520e+00,1.462440967559814453e+00,1.462331414222717285e+00,1.462222099304199219e+00,1.462112665176391602e+00,1.462003350257873535e+00,1.461893916130065918e+00,1.461784601211547852e+00,1.461675286293029785e+00,1.461565971374511719e+00,1.461456656455993652e+00,1.461347341537475586e+00,1.461238145828247070e+00,1.461128830909729004e+00,1.461019635200500488e+00,1.460910439491271973e+00,1.460801243782043457e+00,1.460692048072814941e+00,1.460582852363586426e+00,1.460473775863647461e+00,1.460364580154418945e+00,1.460255503654479980e+00,1.460146427154541016e+00,1.460037350654602051e+00,1.459928274154663086e+00,1.459819197654724121e+00,1.459710121154785156e+00,1.459601163864135742e+00,1.459492087364196777e+00,1.459383130073547363e+00,1.459274172782897949e+00,1.459165215492248535e+00,1.459056377410888672e+00,1.458947420120239258e+00,1.458838462829589844e+00,1.458729505538940430e+00,1.458620786666870117e+00,1.458511829376220703e+00
1.349272608757019043e+00,1.349179387092590332e+00,1.349086284637451172e+00,1.348993182182312012e+00,1.348900079727172852e+00,1.348806977272033691e+00,1.348713874816894531e+00,1.348620891571044922e+00,1.348527789115905762e+00,1.348434805870056152e+00,1.348341703414916992e+00,1.348248720169067383e+00,1.348155617713928223e+00,1.348062753677368164e+00,1.347969651222229004e+00,1.347876787185668945e+00,1.347783684730529785e+00,1.347690820693969727e+00,1.347597956657409668e+00,1.347504973411560059e+00,1.347412109375000000e+00,1.347319245338439941e+00,1.347226381301879883e+00,1.347133517265319824e+00,1.347040653228759766e+00,1.346947789192199707e+00,1.346855044364929199e+00,1.346762180328369141e+00,1.346669435501098633e+00,1.346576571464538574e+00,1.346483826637268066e+00,1.346391081809997559e+00,1.346298336982727051e+00,1.346205592155456543e+00,1.346112847328186035e+00,1.346020102500915527e+00,1.345927357673645020e+00,1.345834732055664062e+00,1.345741987228393555e+00,1.345649480819702148e+00,1.345556735992431641e+00,1.345464110374450684e+00,1.345371603965759277e+00,1.345278859138488770e+00,1.345186352729797363e+00,1.345093727111816406e+00,1.345001220703125000e+00,1.344908595085144043e+00,1.344816088676452637e+00,1.344723463058471680e+00,1.344630956649780273e+00,1.344538450241088867e+00,1.344445943832397461e+00,1.344353437423706055e+00,1.344261050224304199e+00,1.344168663024902344e+00,1.344076156616210938e+00,1.343983769416809082e+00,1.343891263008117676e+00,1.343798875808715820e+00,1.343706488609313965e+00,1.343614101409912109e+00,1.343521714210510254e+00,1.343429327011108398e+00,1.343336939811706543e+00,1.343244671821594238e+00,1.343152284622192383e+00,1.343060016632080078e+00,1.342967867851257324e+00,1.342875480651855469e+00,1.342783212661743164e+00,1.342690944671630859e+00,1.342598795890808105e+00,1.342506527900695801e+00,1.342414259910583496e+00,1.342321991920471191e+00,1.342229843139648438e+00,1.342137694358825684e+00,1.342045545578002930e+00,1.341953396797180176e+00
1.248919486999511719e+00,1.248839735984802246e+00,1.248759984970092773e+00,1.248680233955383301e+00,1.248600363731384277e+00,1.248520612716674805e+00,1.248440861701965332e+00,1.248361110687255859e+00,1.248281359672546387e+00,1.248201727867126465e+00,1.248121857643127441e+00,1.248042225837707520e+00,1.247962594032287598e+00,1.247882843017578125e+00,1.247803211212158203e+00,1.247723460197448730e+00,1.247643947601318359e+00,1.247564196586608887e+00,1.247484564781188965e+00,1.247404932975769043e+00,1.247325420379638672e+00,1.247245669364929199e+00,1.247166156768798828e+00,1.247086524963378906e+00,1.247007012367248535e+00,1.246927499771118164e+00,1.246847867965698242e+00,1.246768355369567871e+00,1.246688842773437500e+00,1.246609330177307129e+00,1.246529698371887207e+00,1.246450304985046387e+00,1.246370792388916016e+00,1.246291279792785645e+00,1.246211767196655273e+00,1.246132373809814453e+00,1.246052980422973633e+00,1.245973467826843262e+00,1.245894074440002441e+00,1.245814561843872070e+00,1.245735287666320801e+00,1.245655775070190430e+00,1.245576500892639160e+00,1.245496988296508789e+00,1.245417714118957520e+00,1.245338320732116699e+00,1.245258927345275879e+00,1.245179533958435059e+00,1.245100259780883789e+00,1.245020985603332520e+00,1.244941711425781250e+00,1.244862437248229980e+00,1.244783043861389160e+00,1.244703769683837891e+00,1.244624495506286621e+00,1.244545340538024902e+00,1.244465947151184082e+00,1.244386792182922363e+00,1.244307518005371094e+00,1.244228363037109375e+00,1.244149088859558105e+00,1.244069933891296387e+00,1.243990778923034668e+00,1.243911504745483398e+00,1.243832468986511230e+00,1.243753194808959961e+00,1.243674159049987793e+00,1.243594884872436523e+00,1.243515849113464355e+00,1.243436694145202637e+00,1.243357658386230469e+00,1.243278503417968750e+00,1.243199467658996582e+00,1.243120431900024414e+00,1.243041276931762695e+00,1.242962241172790527e+00,1.242883205413818359e+00,1.242804169654846191e+00,1.242725133895874023e+00,1.242646098136901855e+00
1.162460803985595703e+00,1.162391662597656250e+00,1.162322521209716797e+00,1.162253379821777344e+00,1.162184238433837891e+00,1.162115216255187988e+00,1.162046074867248535e+00,1.161976933479309082e+00,1.161907911300659180e+00,1.161838769912719727e+00,1.161769747734069824e+00,1.161700725555419922e+00,1.161631703376770020e+00,1.161562561988830566e+00,1.161493539810180664e+00,1.161424517631530762e+00,1.161355495452880859e+00,1.161286473274230957e+00,1.161217570304870605e+00,1.161148548126220703e+00,1.161079525947570801e+00,1.161010622978210449e+00,1.160941600799560547e+00,1.160872697830200195e+00,1.160803675651550293e+00,1.160734772682189941e+00,1.160665750503540039e+00,1.160596847534179688e+00,1.160527944564819336e+00,1.160459041595458984e+00,1.160390138626098633e+00,1.160321235656738281e+00,1.160252451896667480e+00,1.160183429718017578e+00,1.160114645957946777e+00,1.160045742988586426e+00,1.159976959228515625e+00,1.159908056259155273e+00,1.159839272499084473e+00,1.159770369529724121e+00,1.159701585769653320e+00,1.159632682800292969e+00,1.159563899040222168e+00,1.159495234489440918e+00,1.159426331520080566e+00,1.159357666969299316e+00,1.159288763999938965e+00,1.159220099449157715e+00,1.159151315689086914e+00,1.159082531929016113e+00,1.159013748168945312e+00,1.158945083618164062e+00,1.158876299858093262e+00,1.158807635307312012e+00,1.158738851547241211e+00,1.158670186996459961e+00,1.158601522445678711e+00,1.158532857894897461e+00,1.158464193344116211e+00,1.158395528793334961e+00,1.158326864242553711e+00,1.158258199691772461e+00,1.158189654350280762e+00,1.158120870590209961e+00,1.158052325248718262e+00,1.157983660697937012e+00,1.157915115356445312e+00,1.157846570014953613e+00,1.157777905464172363e+00,1.157709360122680664e+00,1.157640695571899414e+00,1.157572269439697266e+00,1.157503604888916016e+00,1.157435059547424316e+00,1.157366514205932617e+00,1.157297968864440918e+00,1.157229423522949219e+00,1.157160997390747070e+00,1.157092452049255371e+00,1.157023906707763672e+00
1.087197542190551758e+00,1.087136983871459961e+00,1.087076544761657715e+00,1.087016105651855469e+00,1.086955666542053223e+00,1.086895227432250977e+00,1.086834788322448730e+00,1.086774230003356934e+00,1.086713910102844238e+00,1.086653470993041992e+00,1.086593031883239746e+00,1.086532592773437500e+00,1.086472272872924805e+00,1.086411833763122559e+00,1.086351394653320312e+00,1.086291074752807617e+00,1.086230635643005371e+00,1.086170315742492676e+00,1.086109876632690430e+00,1.086049556732177734e+00,1.085989236831665039e+00,1.085928916931152344e+00,1.085868597030639648e+00,1.085808277130126953e+00,1.085747957229614258e+00,1.085687637329101562e+00,1.085627317428588867e+00,1.085566997528076172e+00,1.085506677627563477e+00,1.085446357727050781e+00,1.085386157035827637e+00,1.085325837135314941e+00,1.085265636444091797e+00,1.085205316543579102e+00,1.085145115852355957e+00,1.085084795951843262e+00,1.085024595260620117e+00,1.084964394569396973e+00,1.084904074668884277e+00,1.084843873977661133e+00,1.084783673286437988e+00,1.084723472595214844e+00,1.084663271903991699e+00,1.084603071212768555e+00,1.084542870521545410e+00,1.084482669830322266e+00,1.084422469139099121e+00,1.084362387657165527e+00,1.084302186965942383e+00,1.084241986274719238e+00,1.084181904792785645e+00,1.084121704101562500e+00,1.084061622619628906e+00,1.084001421928405762e+00,1.083941340446472168e+00,1.083881258964538574e+00,1.083821177482604980e+00,1.083760976791381836e+00,1.083700895309448242e+00,1.083640813827514648e+00,1.083580732345581055e+00,1.083520770072937012e+00,1.083460569381713867e+00,1.083400607109069824e+00,1.083340525627136230e+00,1.083280444145202637e+00,1.083220362663269043e+00,1.083160400390625000e+00,1.083100318908691406e+00,1.083040356636047363e+00,1.082980275154113770e+00,1.082920312881469727e+00,1.082860231399536133e+00,1.082800269126892090e+00,1.082740306854248047e+00,1.082680344581604004e+00,1.082620382308959961e+00,1.082560420036315918e+00,1.082500457763671875e+00,1.082440495491027832e+00
1.021087408065795898e+00,1.021034002304077148e+00,1.020980715751647949e+00,1.020927429199218750e+00,1.020874023437500000e+00,1.020820736885070801e+00,1.020767450332641602e+00,1.020714163780212402e+00,1.020660758018493652e+00,1.020607471466064453e+00,1.020554184913635254e+00,1.020500898361206055e+00,1.020447611808776855e+00,1.020394325256347656e+00,1.020341038703918457e+00,1.020287871360778809e+00,1.020234584808349609e+00,1.020181298255920410e+00,1.020128130912780762e+00,1.020074844360351562e+00,1.020021557807922363e+00,1.019968271255493164e+00,1.019915103912353516e+00,1.019861817359924316e+00,1.019808650016784668e+00,1.019755482673645020e+00,1.019702196121215820e+00,1.019649028778076172e+00,1.019595861434936523e+00,1.019542574882507324e+00,1.019489526748657227e+00,1.019436359405517578e+00,1.019383072853088379e+00,1.019330024719238281e+00,1.019276738166809082e+00,1.019223690032958984e+00,1.019170522689819336e+00,1.019117355346679688e+00,1.019064188003540039e+00,1.019011020660400391e+00,1.018957853317260742e+00,1.018904805183410645e+00,1.018851757049560547e+00,1.018798589706420898e+00,1.018745541572570801e+00,1.018692374229431152e+00,1.018639326095581055e+00,1.018586158752441406e+00,1.018533110618591309e+00,1.018479943275451660e+00,1.018426895141601562e+00,1.018373847007751465e+00,1.018320798873901367e+00,1.018267750740051270e+00,1.018214702606201172e+00,1.018161654472351074e+00,1.018108606338500977e+00,1.018055558204650879e+00,1.018002510070800781e+00,1.017949581146240234e+00,1.017896533012390137e+00,1.017843484878540039e+00,1.017790436744689941e+00,1.017737507820129395e+00,1.017684459686279297e+00,1.017631530761718750e+00,1.017578482627868652e+00,1.017525553703308105e+00,1.017472624778747559e+00,1.017419576644897461e+00,1.017366647720336914e+00,1.017313599586486816e+00,1.017260789871215820e+00,1.017207741737365723e+00,1.017154812812805176e+00,1.017101883888244629e+00,1.017048954963684082e+00,1.016996026039123535e+00,1.016943097114562988e+00,1.016890287399291992e+00
9.625565409660339355e-01,9.625091552734375000e-01,9.624617099761962891e-01,9.624143242835998535e-01,9.623669385910034180e-01,9.623195528984069824e-01,9.622721076011657715e-01,9.622247219085693359e-01,9.621773958206176758e-01,9.621300697326660156e-01,9.620826244354248047e-01,9.620352983474731445e-01,9.619879722595214844e-01,9.619406461715698242e-01,9.618933200836181641e-01,9.618458747863769531e-01,9.617986083030700684e-01,9.617512822151184082e-01,9.617039561271667480e-01,9.616565704345703125e-01,9.616093039512634277e-01,9.615619778633117676e-01,9.615147113800048828e-01,9.614673256874084473e-01,9.614200592041015625e-01,9.613727927207946777e-01,9.613255262374877930e-01,9.612782597541809082e-01,9.612308740615844727e-01,9.611836671829223633e-01,9.611364006996154785e-01,9.610891342163085938e-01,9.610418081283569336e-01,9.609946012496948242e-01,9.609473347663879395e-01,9.609001278877258301e-01,9.608529210090637207e-01,9.608055949211120605e-01,9.607583880424499512e-01,9.607111811637878418e-01,9.606639742851257324e-01,9.606166481971740723e-01,9.605695009231567383e-01,9.605222940444946289e-01,9.604751467704772949e-01,9.604278206825256348e-01,9.603806734085083008e-01,9.603335261344909668e-01,9.602863192558288574e-01,9.602391719818115234e-01,9.601919054985046387e-01,9.601447582244873047e-01,9.600976109504699707e-01,9.600504636764526367e-01,9.600032567977905273e-01,9.599561095237731934e-01,9.599089622497558594e-01,9.598618745803833008e-01,9.598146677017211914e-01,9.597675204277038574e-01,9.597204327583312988e-01,9.596733450889587402e-01,9.596262574195861816e-01,9.595790505409240723e-01,9.595319628715515137e-01,9.594848752021789551e-01,9.594377875328063965e-01,9.593905806541442871e-01,9.593434929847717285e-01,9.592964649200439453e-01,9.592493772506713867e-01,9.592022299766540527e-01,9.591552019119262695e-01,9.591081142425537109e-01,9.590610861778259277e-01,9.590140581130981445e-01,9.589669108390808105e-01,9.589198827743530273e-01,9.588728547096252441e-01,9.588258266448974609e-01
9.103719592094421387e-01,9.103295803070068359e-01,9.102872014045715332e-01,9.102448225021362305e-01,9.102023839950561523e-01,9.101600050926208496e-01,9.101176261901855469e-01,9.100753068923950195e-01,9.100329279899597168e-01,9.099904894828796387e-01,9.099481105804443359e-01,9.099057912826538086e-01,9.098634719848632812e-01,9.098210334777832031e-01,9.097786545753479004e-01,9.097363352775573730e-01,9.096940159797668457e-01,9.096516370773315430e-01,9.096093177795410156e-01,9.095669984817504883e-01,9.095246791839599609e-01,9.094823598861694336e-01,9.094399809837341309e-01,9.093976616859436035e-01,9.093554019927978516e-01,9.093130826950073242e-01,9.092707037925720215e-01,9.092284440994262695e-01,9.091861844062805176e-01,9.091438651084899902e-01,9.091016054153442383e-01,9.090592861175537109e-01,9.090170264244079590e-01,9.089747667312622070e-01,9.089325070381164551e-01,9.088901281356811523e-01,9.088479280471801758e-01,9.088056683540344238e-01,9.087634086608886719e-01,9.087210893630981445e-01,9.086788892745971680e-01,9.086366295814514160e-01,9.085944294929504395e-01,9.085522294044494629e-01,9.085099101066589355e-01,9.084677100181579590e-01,9.084255099296569824e-01,9.083833098411560059e-01,9.083409905433654785e-01,9.082987904548645020e-01,9.082565903663635254e-01,9.082143902778625488e-01,9.081721305847167969e-01,9.081299901008605957e-01,9.080877900123596191e-01,9.080456495285034180e-01,9.080034494400024414e-01,9.079611897468566895e-01,9.079190492630004883e-01,9.078769087791442871e-01,9.078347086906433105e-01,9.077925086021423340e-01,9.077503681182861328e-01,9.077082276344299316e-01,9.076660871505737305e-01,9.076238274574279785e-01,9.075816869735717773e-01,9.075396060943603516e-01,9.074974656105041504e-01,9.074553847312927246e-01,9.074131250381469727e-01,9.073710441589355469e-01,9.073289632797241211e-01,9.072868227958679199e-01,9.072446227073669434e-01,9.072025418281555176e-01,9.071604609489440918e-01,9.071183800697326660e-01,9.070762395858764648e-01,9.070341587066650391e-01
8.635548353195190430e-01,8.635166883468627930e-01,8.634786009788513184e-01,8.634403347969055176e-01,8.634022474288940430e-01,8.633641004562377930e-01,8.633260130882263184e-01,8.632878065109252930e-01,8.632496595382690430e-01,8.632115721702575684e-01,8.631734848022460938e-01,8.631352782249450684e-01,8.630971908569335938e-01,8.630591034889221191e-01,8.630209565162658691e-01,8.629828691482543945e-01,8.629447221755981445e-01,8.629066348075866699e-01,8.628685474395751953e-01,8.628304600715637207e-01,8.627923130989074707e-01,8.627542853355407715e-01,8.627161979675292969e-01,8.626781105995178223e-01,8.626400828361511230e-01,8.626019358634948730e-01,8.625639081001281738e-01,8.625258207321166992e-01,8.624877929687500000e-01,8.624496459960937500e-01,8.624116182327270508e-01,8.623735904693603516e-01,8.623355627059936523e-01,8.622974157333374023e-01,8.622593879699707031e-01,8.622214198112487793e-01,8.621833920478820801e-01,8.621453642845153809e-01,8.621072769165039062e-01,8.620692491531372070e-01,8.620312213897705078e-01,8.619932532310485840e-01,8.619551658630371094e-01,8.619171380996704102e-01,8.618791699409484863e-01,8.618412017822265625e-01,8.618031144142150879e-01,8.617651462554931641e-01,8.617271780967712402e-01,8.616892099380493164e-01,8.616511821746826172e-01,8.616131544113159180e-01,8.615751862525939941e-01,8.615372180938720703e-01,8.614992499351501465e-01,8.614612221717834473e-01,8.614232540130615234e-01,8.613853454589843750e-01,8.613473773002624512e-01,8.613093495368957520e-01,8.612714409828186035e-01,8.612334728240966797e-01,8.611955642700195312e-01,8.611576557159423828e-01,8.611196279525756836e-01,8.610817193984985352e-01,8.610437512397766113e-01,8.610058426856994629e-01,8.609678745269775391e-01,8.609299659729003906e-01,8.608920574188232422e-01,8.608541488647460938e-01,8.608161807060241699e-01,8.607782721519470215e-01,8.607403635978698730e-01,8.607025146484375000e-01,8.606646060943603516e-01,8.606266379356384277e-01,8.605887889862060547e-01,8.605508804321289062e-01
8.213174343109130859e-01,8.212828636169433594e-01,8.212483525276184082e-01,8.212139010429382324e-01,8.211793899536132812e-01,8.211448192596435547e-01,8.211103677749633789e-01,8.210758566856384277e-01,8.210414052009582520e-01,8.210069537162780762e-01,8.209723830223083496e-01,8.209379315376281738e-01,8.209034800529479980e-01,8.208689689636230469e-01,8.208344578742980957e-01,8.208000063896179199e-01,8.207655549049377441e-01,8.207311034202575684e-01,8.206966519355773926e-01,8.206621408462524414e-01,8.206276893615722656e-01,8.205932378768920898e-01,8.205588459968566895e-01,8.205243349075317383e-01,8.204898834228515625e-01,8.204554319381713867e-01,8.204210400581359863e-01,8.203865289688110352e-01,8.203521370887756348e-01,8.203176856040954590e-01,8.202832937240600586e-01,8.202489018440246582e-01,8.202143907546997070e-01,8.201799988746643066e-01,8.201456069946289062e-01,8.201112151145935059e-01,8.200767040252685547e-01,8.200423121452331543e-01,8.200079202651977539e-01,8.199735283851623535e-01,8.199390769004821777e-01,8.199046850204467773e-01,8.198703527450561523e-01,8.198359608650207520e-01,8.198015689849853516e-01,8.197671175003051758e-01,8.197327852249145508e-01,8.196983933448791504e-01,8.196640610694885254e-01,8.196296095848083496e-01,8.195952177047729492e-01,8.195608854293823242e-01,8.195265531539916992e-01,8.194921016693115234e-01,8.194577693939208984e-01,8.194234371185302734e-01,8.193891048431396484e-01,8.193547725677490234e-01,8.193203806877136230e-01,8.192860484123229980e-01,8.192517161369323730e-01,8.192173838615417480e-01,8.191829919815063477e-01,8.191486597061157227e-01,8.191143274307250977e-01,8.190800547599792480e-01,8.190456628799438477e-01,8.190113306045532227e-01,8.189770579338073730e-01,8.189427256584167480e-01,8.189084529876708984e-01,8.188740611076354980e-01,8.188397884368896484e-01,8.188054561614990234e-01,8.187711834907531738e-01,8.187368512153625488e-01,8.187025785446166992e-01,8.186682462692260742e-01,8.186339735984802246e-01,8.185997009277343750e-01
