5.000000000000000000e+00,5.000000000000000000e+00,5.000000000000000000e+00,5.000000000000000000e+00,5.000000000000000000e+00,5.000000000000000000e+00,5.000000000000000000e+00,5.000000000000000000e+00,5.000000000000000000e+00,5.000000000000000000e+00,5.000000000000000000e+00,5.000000000000000000e+00,5.000000000000000000e+00,5.000000000000000000e+00,5.000000000000000000e+00,5.000000000000000000e+00,5.000000000000000000e+00,5.000000000000000000e+00,5.000000000000000000e+00,5.000000000000000000e+00,5.000000000000000000e+00,5.000000000000000000e+00,5.000000000000000000e+00,5.000000000000000000e+00,5.000000000000000000e+00,5.000000000000000000e+00,5.000000000000000000e+00,5.000000000000000000e+00,5.000000000000000000e+00,5.000000000000000000e+00,5.000000000000000000e+00,5.000000000000000000e+00,5.000000000000000000e+00,5.000000000000000000e+00,5.000000000000000000e+00,5.000000000000000000e+00,5.000000000000000000e+00,5.000000000000000000e+00,5.000000000000000000e+00,5.000000000000000000e+00,4.670566558837890625e+00,4.494076251983642578e+00,4.330438613891601562e+00,4.178299427032470703e+00,4.036487102508544922e+00,3.903985023498535156e+00,3.779905796051025391e+00,3.663470745086669922e+00,3.553994655609130859e+00,3.450871229171752930e+00,3.353563785552978516e+00,3.261593818664550781e+00,3.174533605575561523e+00,3.092000246047973633e+00,3.013649225234985352e+00,2.939171314239501953e+00,2.868285894393920898e+00,2.800739049911499023e+00,2.736300230026245117e+00,2.674760103225708008e+00,2.615926980972290039e+00,2.559626340866088867e+00,2.505698204040527344e+00,2.453995704650878906e+00,2.404383420944213867e+00,2.356737613677978516e+00,9.491536617279052734e-01,9.268745183944702148e-01,9.078991413116455078e-01,8.938118815422058105e-01,8.795143961906433105e-01,8.654273152351379395e-01,8.625139594078063965e-01,8.596203327178955078e-01,8.568875193595886230e-01,8.546191453933715820e-01,8.523626923561096191e-01,8.545930981636047363e-01,8.916764259338378906e-01,9.400668740272521973e-01
5.000000000000000000e+00,5.000000000000000000e+00,5.000000000000000000e+00,5.000000000000000000e+00,5.000000000000000000e+00,5.000000000000000000e+00,5.000000000000000000e+00,5.000000000000000000e+00,5.000000000000000000e+00,5.000000000000000000e+00,5.000000000000000000e+00,5.000000000000000000e+00,5.000000000000000000e+00,5.000000000000000000e+00,5.000000000000000000e+00,5.000000000000000000e+00,5.000000000000000000e+00,5.000000000000000000e+00,5.000000000000000000e+00,5.000000000000000000e+00,5.000000000000000000e+00,5.000000000000000000e+00,5.000000000000000000e+00,5.000000000000000000e+00,5.000000000000000000e+00,5.000000000000000000e+00,5.000000000000000000e+00,5.000000000000000000e+00,5.000000000000000000e+00,5.000000000000000000e+00,5.000000000000000000e+00,5.000000000000000000e+00,5.000000000000000000e+00,5.000000000000000000e+00,5.000000000000000000e+00,5.000000000000000000e+00,5.000000000000000000e+00,5.000000000000000000e+00,5.000000000000000000e+00,4.861624717712402344e+00,4.670695304870605469e+00,4.494195938110351562e+00,4.330549716949462891e+00,4.178402423858642578e+00,4.036583423614501953e+00,3.904075622558593750e+00,3.779990673065185547e+00,3.663549900054931641e+00,3.554069042205810547e+00,3.450941801071166992e+00,3.353630542755126953e+00,3.261656999588012695e+00,3.174593210220336914e+00,3.092056512832641602e+00,3.013703107833862305e+00,2.939222574234008789e+00,2.868334531784057617e+00,2.800785541534423828e+00,2.736344337463378906e+00,2.674802303314208984e+00,2.615967512130737305e+00,2.559665203094482422e+00,2.505735635757446289e+00,2.454031229019165039e+00,2.404417514801025391e+00,2.356770515441894531e+00,9.540889263153076172e-01,9.316207766532897949e-01,9.120426177978515625e-01,8.978274464607238770e-01,8.831328153610229492e-01,8.688706755638122559e-01,8.655772209167480469e-01,8.626629114151000977e-01,8.597682714462280273e-01,8.572906851768493652e-01,8.550201654434204102e-01,8.638921380043029785e-01,1.873999953269958496e+00,1.844928860664367676e+00
5.000000000000000000e+00,5.000000000000000000e+00,5.000000000000000000e+00,5.000000000000000000e+00,5.000000000000000000e+00,5.000000000000000000e+00,5.000000000000000000e+00,5.000000000000000000e+00,5.000000000000000000e+00,5.000000000000000000e+00,5.000000000000000000e+00,5.000000000000000000e+00,5.000000000000000000e+00,5.000000000000000000e+00,5.000000000000000000e+00,5.000000000000000000e+00,5.000000000000000000e+00,5.000000000000000000e+00,5.000000000000000000e+00,5.000000000000000000e+00,5.000000000000000000e+00,5.000000000000000000e+00,5.000000000000000000e+00,5.000000000000000000e+00,5.000000000000000000e+00,5.000000000000000000e+00,5.000000000000000000e+00,5.000000000000000000e+00,5.000000000000000000e+00,5.000000000000000000e+00,5.000000000000000000e+00,5.000000000000000000e+00,5.000000000000000000e+00,5.000000000000000000e+00,5.000000000000000000e+00,5.000000000000000000e+00,5.000000000000000000e+00,5.000000000000000000e+00,5.000000000000000000e+00,4.861764907836914062e+00,4.670824527740478516e+00,4.494315624237060547e+00,4.330660820007324219e+00,4.178505897521972656e+00,4.036679744720458984e+00,3.904165983200073242e+00,3.780074834823608398e+00,3.663629531860351562e+00,3.554144144058227539e+00,3.451012372970581055e+00,3.353697299957275391e+00,3.261719703674316406e+00,3.174652814865112305e+00,3.092113256454467773e+00,3.013756990432739258e+00,2.939273834228515625e+00,2.868383169174194336e+00,2.800831794738769531e+00,2.736388921737670898e+00,2.674844741821289062e+00,2.616008043289184570e+00,2.559704065322875977e+00,2.505772590637207031e+00,2.454066991806030273e+00,2.404451847076416016e+00,2.356803417205810547e+00,9.586634635925292969e-01,9.364160299301147461e-01,9.162241220474243164e-01,9.016422629356384277e-01,8.867810964584350586e-01,8.724017739295959473e-01,8.686622977256774902e-01,8.657271862030029297e-01,8.628118634223937988e-01,8.599790930747985840e-01,8.576943278312683105e-01,8.731123208999633789e-01,1.874020576477050781e+00,1.844949126243591309e+00
5.000000000000000000e+00,5.000000000000000000e+00,5.000000000000000000e+00,5.000000000000000000e+00,5.000000000000000000e+00,5.000000000000000000e+00,5.000000000000000000e+00,5.000000000000000000e+00,5.000000000000000000e+00,5.000000000000000000e+00,5.000000000000000000e+00,5.000000000000000000e+00,5.000000000000000000e+00,5.000000000000000000e+00,5.000000000000000000e+00,5.000000000000000000e+00,5.000000000000000000e+00,5.000000000000000000e+00,5.000000000000000000e+00,5.000000000000000000e+00,5.000000000000000000e+00,5.000000000000000000e+00,5.000000000000000000e+00,5.000000000000000000e+00,5.000000000000000000e+00,5.000000000000000000e+00,5.000000000000000000e+00,5.000000000000000000e+00,5.000000000000000000e+00,5.000000000000000000e+00,5.000000000000000000e+00,5.000000000000000000e+00,5.000000000000000000e+00,5.000000000000000000e+00,5.000000000000000000e+00,5.000000000000000000e+00,5.000000000000000000e+00,5.000000000000000000e+00,5.000000000000000000e+00,4.861905097961425781e+00,4.670953750610351562e+00,4.494435310363769531e+00,4.330771923065185547e+00,4.178609371185302734e+00,4.036776065826416016e+00,3.904255867004394531e+00,3.780159711837768555e+00,3.663709163665771484e+00,3.554219007492065430e+00,3.451082944869995117e+00,3.353763580322265625e+00,3.261782884597778320e+00,3.174712657928466797e+00,3.092170000076293945e+00,3.013810873031616211e+00,2.939324855804443359e+00,2.868432044982910156e+00,2.800878286361694336e+00,2.736433267593383789e+00,2.674887180328369141e+00,2.616048574447631836e+00,2.559742927551269531e+00,2.505809783935546875e+00,2.454102516174316406e+00,2.404486179351806641e+00,2.356836318969726562e+00,9.632821679115295410e-01,9.412335157394409180e-01,9.204441308975219727e-01,9.054455161094665527e-01,8.904596567153930664e-01,8.759618401527404785e-01,8.717694282531738281e-01,8.688133358955383301e-01,8.658772110939025879e-01,8.629609346389770508e-01,8.603851795196533203e-01,8.789472579956054688e-01,1.874041557312011719e+00,1.844969153404235840e+00
5.000000000000000000e+00,5.000000000000000000e+00,5.000000000000000000e+00,5.000000000000000000e+00,5.000000000000000000e+00,5.000000000000000000e+00,5.000000000000000000e+00,5.000000000000000000e+00,5.000000000000000000e+00,5.000000000000000000e+00,5.000000000000000000e+00,5.000000000000000000e+00,5.000000000000000000e+00,5.000000000000000000e+00,5.000000000000000000e+00,5.000000000000000000e+00,5.000000000000000000e+00,5.000000000000000000e+00,5.000000000000000000e+00,5.000000000000000000e+00,5.000000000000000000e+00,5.000000000000000000e+00,5.000000000000000000e+00,5.000000000000000000e+00,5.000000000000000000e+00,5.000000000000000000e+00,5.000000000000000000e+00,5.000000000000000000e+00,5.000000000000000000e+00,5.000000000000000000e+00,5.000000000000000000e+00,5.000000000000000000e+00,5.000000000000000000e+00,5.000000000000000000e+00,5.000000000000000000e+00,5.000000000000000000e+00,5.000000000000000000e+00,5.000000000000000000e+00,5.000000000000000000e+00,4.862045288085937500e+00,4.671082973480224609e+00,4.494554519653320312e+00,4.330883026123046875e+00,4.178712844848632812e+00,4.036872863769531250e+00,3.904346227645874023e+00,3.780244350433349609e+00,3.663788795471191406e+00,3.554293394088745117e+00,3.451153278350830078e+00,3.353830337524414062e+00,3.261845827102661133e+00,3.174772262573242188e+00,3.092226266860961914e+00,3.013864517211914062e+00,2.939376115798950195e+00,2.868480682373046875e+00,2.800924777984619141e+00,2.736477613449096680e+00,2.674929380416870117e+00,2.616089105606079102e+00,2.559781789779663086e+00,2.505846977233886719e+00,2.454138278961181641e+00,2.404520273208618164e+00,2.356869220733642578e+00,9.679455161094665527e-01,9.456853866577148438e-01,9.247031807899475098e-01,9.092808961868286133e-01,8.941689729690551758e-01,8.795510530471801758e-01,8.748989105224609375e-01,8.719215393066406250e-01,8.689644336700439453e-01,8.660273551940917969e-01,8.631100654602050781e-01,8.848606348037719727e-01,1.874062299728393555e+00,1.844989538192749023e+00
5.000000000000000000e+00,5.000000000000000000e+00,5.000000000000000000e+00,5.000000000000000000e+00,5.000000000000000000e+00,5.000000000000000000e+00,5.000000000000000000e+00,5.000000000000000000e+00,5.000000000000000000e+00,5.000000000000000000e+00,5.000000000000000000e+00,5.000000000000000000e+00,5.000000000000000000e+00,5.000000000000000000e+00,5.000000000000000000e+00,5.000000000000000000e+00,5.000000000000000000e+00,5.000000000000000000e+00,5.000000000000000000e+00,5.000000000000000000e+00,5.000000000000000000e+00,5.000000000000000000e+00,5.000000000000000000e+00,5.000000000000000000e+00,5.000000000000000000e+00,5.000000000000000000e+00,5.000000000000000000e+00,5.000000000000000000e+00,5.000000000000000000e+00,5.000000000000000000e+00,5.000000000000000000e+00,5.000000000000000000e+00,5.000000000000000000e+00,5.000000000000000000e+00,5.000000000000000000e+00,5.000000000000000000e+00,5.000000000000000000e+00,5.000000000000000000e+00,5.000000000000000000e+00,4.862185001373291016e+00,4.671212196350097656e+00,4.494674205780029297e+00,4.330994129180908203e+00,4.178816318511962891e+00,4.036969184875488281e+00,3.904436588287353516e+00,3.780328750610351562e+00,3.663867950439453125e+00,3.554368495941162109e+00,3.451224088668823242e+00,3.353897094726562500e+00,3.261909008026123047e+00,3.174831867218017578e+00,3.092283010482788086e+00,3.013918399810791016e+00,2.939427375793457031e+00,2.868529558181762695e+00,2.800971031188964844e+00,2.736521720886230469e+00,2.674971818923950195e+00,2.616129636764526367e+00,2.559820652008056641e+00,2.505884170532226562e+00,2.454173803329467773e+00,2.404554605484008789e+00,2.356902122497558594e+00,9.726542234420776367e-01,9.501795172691345215e-01,9.289767146110534668e-01,9.133190512657165527e-01,8.981804251670837402e-01,8.834953308105468750e-01,8.768412470817565918e-01,8.739225864410400391e-01,8.710231184959411621e-01,8.681430220603942871e-01,8.652818202972412109e-01,8.908925652503967285e-01,1.874083042144775391e+00,1.845009565353393555e+00
5.000000000000000000e+00,5.000000000000000000e+00,5.000000000000000000e+00,5.000000000000000000e+00,5.000000000000000000e+00,5.000000000000000000e+00,5.000000000000000000e+00,5.000000000000000000e+00,5.000000000000000000e+00,5.000000000000000000e+00,5.000000000000000000e+00,5.000000000000000000e+00,5.000000000000000000e+00,5.000000000000000000e+00,5.000000000000000000e+00,5.000000000000000000e+00,5.000000000000000000e+00,5.000000000000000000e+00,5.000000000000000000e+00,5.000000000000000000e+00,5.000000000000000000e+00,5.000000000000000000e+00,5.000000000000000000e+00,5.000000000000000000e+00,5.000000000000000000e+00,5.000000000000000000e+00,5.000000000000000000e+00,5.000000000000000000e+00,5.000000000000000000e+00,5.000000000000000000e+00,5.000000000000000000e+00,5.000000000000000000e+00,5.000000000000000000e+00,5.000000000000000000e+00,5.000000000000000000e+00,5.000000000000000000e+00,5.000000000000000000e+00,5.000000000000000000e+00,5.000000000000000000e+00,4.862324714660644531e+00,4.671341419219970703e+00,4.494793891906738281e+00,4.331105232238769531e+00,4.178919315338134766e+00,4.037065982818603516e+00,3.904526710510253906e+00,3.780413389205932617e+00,3.663947582244873047e+00,3.554443359375000000e+00,3.451294660568237305e+00,3.353963375091552734e+00,3.261971712112426758e+00,3.174891471862792969e+00,3.092339754104614258e+00,3.013972282409667969e+00,2.939478397369384766e+00,2.868578195571899414e+00,2.801017522811889648e+00,2.736566305160522461e+00,2.675014257431030273e+00,2.616170406341552734e+00,2.559859275817871094e+00,2.505921363830566406e+00,2.454209566116333008e+00,2.404588937759399414e+00,2.356935024261474609e+00,9.777144193649291992e-01,9.554063081741333008e-01,9.340935349464416504e-01,9.176616668701171875e-01,9.023799300193786621e-01,8.873136639595031738e-01,8.787047266960144043e-01,8.757089972496032715e-01,8.727977871894836426e-01,8.699058890342712402e-01,8.672559857368469238e-01,8.973677158355712891e-01,1.874103903770446777e+00,1.845029711723327637e+00
5.000000000000000000e+00,5.000000000000000000e+00,5.000000000000000000e+00,5.000000000000000000e+00,5.000000000000000000e+00,5.000000000000000000e+00,5.000000000000000000e+00,5.000000000000000000e+00,5.000000000000000000e+00,5.000000000000000000e+00,5.000000000000000000e+00,5.000000000000000000e+00,5.000000000000000000e+00,5.000000000000000000e+00,5.000000000000000000e+00,5.000000000000000000e+00,5.000000000000000000e+00,5.000000000000000000e+00,5.000000000000000000e+00,5.000000000000000000e+00,5.000000000000000000e+00,5.000000000000000000e+00,5.000000000000000000e+00,5.000000000000000000e+00,5.000000000000000000e+00,5.000000000000000000e+00,5.000000000000000000e+00,5.000000000000000000e+00,5.000000000000000000e+00,5.000000000000000000e+00,5.000000000000000000e+00,5.000000000000000000e+00,5.000000000000000000e+00,5.000000000000000000e+00,5.000000000000000000e+00,5.000000000000000000e+00,5.000000000000000000e+00,5.000000000000000000e+00,5.000000000000000000e+00,4.862464904785156250e+00,4.671470642089843750e+00,4.494913578033447266e+00,4.331216335296630859e+00,4.179022789001464844e+00,4.037162303924560547e+00,3.904617071151733398e+00,3.780498266220092773e+00,3.664027214050292969e+00,3.554517984390258789e+00,3.451364994049072266e+00,3.354030132293701172e+00,3.262034893035888672e+00,3.174951314926147461e+00,3.092396497726440430e+00,3.014025688171386719e+00,2.939529418945312500e+00,2.868626832962036133e+00,2.801064252853393555e+00,2.736610651016235352e+00,2.675056457519531250e+00,2.616210699081420898e+00,2.559898138046264648e+00,2.505958557128906250e+00,2.454245328903198242e+00,2.404623031616210938e+00,2.356967926025390625e+00,9.825782179832458496e-01,9.609548449516296387e-01,9.393965601921081543e-01,9.220459461212158203e-01,9.066190719604492188e-01,8.911650776863098145e-01,8.819681406021118164e-01,8.775027394294738770e-01,8.745797276496887207e-01,8.716759681701660156e-01,8.733909726142883301e-01,9.031704068183898926e-01,1.874124646186828613e+00,1.845049977302551270e+00
5.000000000000000000e+00,5.000000000000000000e+00,5.000000000000000000e+00,5.000000000000000000e+00,5.000000000000000000e+00,5.000000000000000000e+00,5.000000000000000000e+00,5.000000000000000000e+00,5.000000000000000000e+00,5.000000000000000000e+00,5.000000000000000000e+00,5.000000000000000000e+00,5.000000000000000000e+00,5.000000000000000000e+00,5.000000000000000000e+00,5.000000000000000000e+00,5.000000000000000000e+00,5.000000000000000000e+00,5.000000000000000000e+00,5.000000000000000000e+00,5.000000000000000000e+00,5.000000000000000000e+00,5.000000000000000000e+00,5.000000000000000000e+00,5.000000000000000000e+00,5.000000000000000000e+00,5.000000000000000000e+00,5.000000000000000000e+00,5.000000000000000000e+00,5.000000000000000000e+00,5.000000000000000000e+00,5.000000000000000000e+00,5.000000000000000000e+00,5.000000000000000000e+00,5.000000000000000000e+00,5.000000000000000000e+00,5.000000000000000000e+00,5.000000000000000000e+00,5.000000000000000000e+00,4.862605094909667969e+00,4.671599864959716797e+00,4.495033264160156250e+00,4.331327438354492188e+00,4.179126262664794922e+00,4.037258625030517578e+00,3.904707431793212891e+00,3.780582904815673828e+00,3.664106369018554688e+00,3.554592847824096680e+00,3.451435565948486328e+00,3.354096889495849609e+00,3.262098073959350586e+00,3.175010919570922852e+00,3.092453002929687500e+00,3.014079570770263672e+00,2.939580678939819336e+00,2.868675708770751953e+00,2.801110744476318359e+00,2.736654758453369141e+00,2.675098896026611328e+00,2.616251230239868164e+00,2.559937000274658203e+00,2.505995750427246094e+00,2.454280853271484375e+00,2.404657363891601562e+00,2.357000589370727539e+00,9.869181513786315918e-01,9.665681123733520508e-01,9.447600841522216797e-01,9.264721870422363281e-01,9.108980894088745117e-01,8.950501680374145508e-01,8.852558732032775879e-01,8.793039321899414062e-01,8.763688802719116211e-01,8.734533190727233887e-01,8.796132802963256836e-01,9.059441685676574707e-01,1.874145627021789551e+00,1.845070004463195801e+00
5.000000000000000000e+00,5.000000000000000000e+00,5.000000000000000000e+00,5.000000000000000000e+00,5.000000000000000000e+00,5.000000000000000000e+00,5.000000000000000000e+00,5.000000000000000000e+00,5.000000000000000000e+00,5.000000000000000000e+00,5.000000000000000000e+00,5.000000000000000000e+00,5.000000000000000000e+00,5.000000000000000000e+00,5.000000000000000000e+00,5.000000000000000000e+00,5.000000000000000000e+00,5.000000000000000000e+00,5.000000000000000000e+00,5.000000000000000000e+00,5.000000000000000000e+00,5.000000000000000000e+00,5.000000000000000000e+00,5.000000000000000000e+00,5.000000000000000000e+00,5.000000000000000000e+00,5.000000000000000000e+00,5.000000000000000000e+00,5.000000000000000000e+00,5.000000000000000000e+00,5.000000000000000000e+00,5.000000000000000000e+00,5.000000000000000000e+00,5.000000000000000000e+00,5.000000000000000000e+00,5.000000000000000000e+00,5.000000000000000000e+00,5.000000000000000000e+00,5.000000000000000000e+00,4.862745285034179688e+00,4.671729087829589844e+00,4.495152950286865234e+00,4.331438541412353516e+00,4.179229736328125000e+00,4.037355422973632812e+00,3.904797554016113281e+00,3.780667304992675781e+00,3.664186000823974609e+00,3.554667711257934570e+00,3.451506137847900391e+00,3.354163646697998047e+00,3.262160778045654297e+00,3.175070524215698242e+00,3.092509746551513672e+00,3.014133453369140625e+00,2.939631938934326172e+00,2.868724346160888672e+00,2.801156997680664062e+00,2.736699342727661133e+00,2.675141334533691406e+00,2.616291999816894531e+00,2.559975624084472656e+00,2.506032943725585938e+00,2.454316616058349609e+00,2.404691457748413086e+00,2.357033491134643555e+00,2.311227798461914062e+00,9.715371131896972656e-01,9.501852393150329590e-01,9.309411048889160156e-01,9.152176976203918457e-01,8.989692330360412598e-01,8.885682821273803711e-01,8.823189735412597656e-01,8.781653046607971191e-01,8.752378225326538086e-01,8.859249949455261230e-01,9.087349772453308105e-01,1.874166369438171387e+00,1.845090150833129883e+00
5.000000000000000000e+00,5.000000000000000000e+00,5.000000000000000000e+00,5.000000000000000000e+00,5.000000000000000000e+00,5.000000000000000000e+00,5.000000000000000000e+00,5.000000000000000000e+00,5.000000000000000000e+00,5.000000000000000000e+00,5.000000000000000000e+00,5.000000000000000000e+00,5.000000000000000000e+00,5.000000000000000000e+00,5.000000000000000000e+00,5.000000000000000000e+00,5.000000000000000000e+00,5.000000000000000000e+00,5.000000000000000000e+00,5.000000000000000000e+00,5.000000000000000000e+00,5.000000000000000000e+00,5.000000000000000000e+00,5.000000000000000000e+00,5.000000000000000000e+00,5.000000000000000000e+00,5.000000000000000000e+00,5.000000000000000000e+00,5.000000000000000000e+00,5.000000000000000000e+00,5.000000000000000000e+00,5.000000000000000000e+00,5.000000000000000000e+00,5.000000000000000000e+00,5.000000000000000000e+00,5.000000000000000000e+00,5.000000000000000000e+00,5.000000000000000000e+00,5.000000000000000000e+00,4.862884998321533203e+00,4.671858310699462891e+00,4.495272636413574219e+00,4.331549644470214844e+00,4.179333209991455078e+00,4.037451744079589844e+00,3.904887914657592773e+00,3.780752182006835938e+00,3.664265632629394531e+00,3.554742574691772461e+00,3.451576471328735352e+00,3.354229927062988281e+00,3.262223958969116211e+00,3.175130367279052734e+00,3.092566490173339844e+00,3.014187097549438477e+00,2.939682960510253906e+00,2.868772983551025391e+00,2.801203489303588867e+00,2.736743688583374023e+00,2.675183773040771484e+00,2.616332292556762695e+00,2.560014486312866211e+00,2.506070137023925781e+00,2.454352140426635742e+00,2.404725551605224609e+00,2.357066392898559570e+00,2.311259269714355469e+00,9.757799506187438965e-01,9.556729793548583984e-01,9.354533553123474121e-01,9.195785522460937500e-01,9.029228091239929199e-01,8.919056057929992676e-01,8.856093883514404297e-01,8.799691796302795410e-01,8.770296573638916016e-01,8.919606208801269531e-01,9.115429520606994629e-01,1.874187111854553223e+00,1.845110416412353516e+00
5.000000000000000000e+00,5.000000000000000000e+00,5.000000000000000000e+00,5.000000000000000000e+00,5.000000000000000000e+00,5.000000000000000000e+00,5.000000000000000000e+00,5.000000000000000000e+00,5.000000000000000000e+00,5.000000000000000000e+00,5.000000000000000000e+00,5.000000000000000000e+00,5.000000000000000000e+00,5.000000000000000000e+00,5.000000000000000000e+00,5.000000000000000000e+00,5.000000000000000000e+00,5.000000000000000000e+00,5.000000000000000000e+00,5.000000000000000000e+00,5.000000000000000000e+00,5.000000000000000000e+00,5.000000000000000000e+00,5.000000000000000000e+00,5.000000000000000000e+00,5.000000000000000000e+00,5.000000000000000000e+00,5.000000000000000000e+00,5.000000000000000000e+00,5.000000000000000000e+00,5.000000000000000000e+00,5.000000000000000000e+00,5.000000000000000000e+00,5.000000000000000000e+00,5.000000000000000000e+00,5.000000000000000000e+00,5.000000000000000000e+00,5.000000000000000000e+00,5.000000000000000000e+00,4.863024711608886719e+00,4.671987533569335938e+00,4.495392322540283203e+00,4.331660747528076172e+00,4.179436683654785156e+00,4.037548542022705078e+00,3.904978275299072266e+00,3.780836820602416992e+00,3.664344787597656250e+00,3.554817199707031250e+00,3.451647043228149414e+00,3.354296684265136719e+00,3.262286901473999023e+00,3.175190210342407227e+00,3.092622756958007812e+00,3.014240980148315430e+00,2.939734220504760742e+00,2.868821859359741211e+00,2.801249980926513672e+00,2.736787796020507812e+00,2.675226211547851562e+00,2.616372823715209961e+00,2.560053348541259766e+00,2.506107091903686523e+00,2.454387664794921875e+00,2.404759883880615234e+00,2.357099294662475586e+00,2.311290979385375977e+00,9.800598025321960449e-01,9.607414603233337402e-01,9.400097131729125977e-01,9.237184524536132812e-01,9.069112539291381836e-01,8.952680826187133789e-01,8.889244198799133301e-01,8.826701045036315918e-01,8.788288831710815430e-01,8.946658372879028320e-01,1.904216408729553223e+00,1.874207973480224609e+00,1.845130562782287598e+00
5.000000000000000000e+00,5.000000000000000000e+00,5.000000000000000000e+00,5.000000000000000000e+00,5.000000000000000000e+00,5.000000000000000000e+00,5.000000000000000000e+00,5.000000000000000000e+00,5.000000000000000000e+00,5.000000000000000000e+00,5.000000000000000000e+00,5.000000000000000000e+00,5.000000000000000000e+00,5.000000000000000000e+00,5.000000000000000000e+00,5.000000000000000000e+00,5.000000000000000000e+00,5.000000000000000000e+00,5.000000000000000000e+00,5.000000000000000000e+00,5.000000000000000000e+00,5.000000000000000000e+00,5.000000000000000000e+00,5.000000000000000000e+00,5.000000000000000000e+00,5.000000000000000000e+00,5.000000000000000000e+00,5.000000000000000000e+00,5.000000000000000000e+00,5.000000000000000000e+00,5.000000000000000000e+00,5.000000000000000000e+00,5.000000000000000000e+00,5.000000000000000000e+00,5.000000000000000000e+00,5.000000000000000000e+00,5.000000000000000000e+00,5.000000000000000000e+00,5.000000000000000000e+00,4.863165378570556641e+00,4.672116756439208984e+00,4.495512008666992188e+00,4.331771850585937500e+00,4.179540157318115234e+00,4.037644863128662109e+00,3.905068874359130859e+00,3.780921220779418945e+00,3.664424419403076172e+00,3.554892301559448242e+00,3.451717853546142578e+00,3.354363441467285156e+00,3.262349843978881836e+00,3.175249814987182617e+00,3.092679500579833984e+00,3.014294862747192383e+00,2.939785480499267578e+00,2.868870496749877930e+00,2.801296472549438477e+00,2.736832380294799805e+00,2.675268650054931641e+00,2.616413354873657227e+00,2.560092210769653320e+00,2.506144285202026367e+00,2.454423427581787109e+00,2.404793977737426758e+00,2.357132196426391602e+00,2.311322689056396484e+00,9.843775033950805664e-01,9.648903012275695801e-01,9.450209140777587891e-01,9.278931617736816406e-01,9.109351634979248047e-01,8.986559510231018066e-01,8.922644257545471191e-01,8.859631419181823730e-01,8.806354999542236328e-01,8.973875045776367188e-01,1.904238104820251465e+00,1.874228715896606445e+00,1.845150589942932129e+00
5.000000000000000000e+00,5.000000000000000000e+00,5.000000000000000000e+00,5.000000000000000000e+00,5.000000000000000000e+00,5.000000000000000000e+00,5.000000000000000000e+00,5.000000000000000000e+00,5.000000000000000000e+00,5.000000000000000000e+00,5.000000000000000000e+00,5.000000000000000000e+00,5.000000000000000000e+00,5.000000000000000000e+00,5.000000000000000000e+00,5.000000000000000000e+00,5.000000000000000000e+00,5.000000000000000000e+00,5.000000000000000000e+00,5.000000000000000000e+00,5.000000000000000000e+00,5.000000000000000000e+00,5.000000000000000000e+00,5.000000000000000000e+00,5.000000000000000000e+00,5.000000000000000000e+00,5.000000000000000000e+00,5.000000000000000000e+00,5.000000000000000000e+00,5.000000000000000000e+00,5.000000000000000000e+00,5.000000000000000000e+00,5.000000000000000000e+00,5.000000000000000000e+00,5.000000000000000000e+00,5.000000000000000000e+00,5.000000000000000000e+00,5.000000000000000000e+00,5.000000000000000000e+00,4.863305091857910156e+00,4.672245979309082031e+00,4.495631694793701172e+00,4.331882953643798828e+00,4.179643630981445312e+00,4.037741661071777344e+00,3.905158758163452148e+00,3.781006097793579102e+00,3.664504051208496094e+00,3.554967164993286133e+00,3.451788425445556641e+00,3.354429721832275391e+00,3.262413024902343750e+00,3.175309419631958008e+00,3.092736244201660156e+00,3.014348745346069336e+00,2.939836502075195312e+00,2.868919372558593750e+00,2.801342964172363281e+00,2.736876726150512695e+00,2.675311088562011719e+00,2.616453647613525391e+00,2.560130596160888672e+00,2.506181478500366211e+00,2.454458951950073242e+00,2.404828310012817383e+00,2.357165098190307617e+00,2.311354160308837891e+00,9.887334108352661133e-01,9.690749645233154297e-01,9.501830339431762695e-01,9.321058988571166992e-01,9.149980545043945312e-01,9.018596410751342773e-01,8.954145312309265137e-01,8.890609145164489746e-01,8.827967643737792969e-01,9.010398387908935547e-01,1.904259443283081055e+00,1.874249458312988281e+00,1.845170855522155762e+00
5.000000000000000000e+00,5.000000000000000000e+00,5.000000000000000000e+00,5.000000000000000000e+00,5.000000000000000000e+00,5.000000000000000000e+00,5.000000000000000000e+00,5.000000000000000000e+00,5.000000000000000000e+00,5.000000000000000000e+00,5.000000000000000000e+00,5.000000000000000000e+00,5.000000000000000000e+00,5.000000000000000000e+00,5.000000000000000000e+00,5.000000000000000000e+00,5.000000000000000000e+00,5.000000000000000000e+00,5.000000000000000000e+00,5.000000000000000000e+00,5.000000000000000000e+00,5.000000000000000000e+00,5.000000000000000000e+00,5.000000000000000000e+00,5.000000000000000000e+00,5.000000000000000000e+00,5.000000000000000000e+00,5.000000000000000000e+00,5.000000000000000000e+00,5.000000000000000000e+00,5.000000000000000000e+00,5.000000000000000000e+00,5.000000000000000000e+00,5.000000000000000000e+00,5.000000000000000000e+00,5.000000000000000000e+00,5.000000000000000000e+00,5.000000000000000000e+00,5.000000000000000000e+00,4.863445281982421875e+00,4.672375202178955078e+00,4.495751380920410156e+00,4.331994056701660156e+00,4.179747104644775391e+00,4.037837982177734375e+00,3.905249118804931641e+00,3.781090736389160156e+00,3.664583683013916016e+00,3.555041790008544922e+00,3.451858758926391602e+00,3.354496479034423828e+00,3.262475967407226562e+00,3.175369262695312500e+00,3.092792749404907227e+00,3.014402389526367188e+00,2.939887762069702148e+00,2.868968009948730469e+00,2.801389455795288086e+00,2.736921072006225586e+00,2.675353288650512695e+00,2.616494178771972656e+00,2.560169458389282227e+00,2.506218671798706055e+00,2.454494714736938477e+00,2.404862403869628906e+00,2.357197999954223633e+00,2.311385869979858398e+00,9.938880205154418945e-01,9.738136529922485352e-01,9.546701312065124512e-01,9.366809129714965820e-01,9.196381568908691406e-01,9.065983295440673828e-01,8.982993960380554199e-01,8.913872838020324707e-01,8.894314765930175781e-01,9.075132608413696289e-01,1.904280900955200195e+00,1.874270439147949219e+00,1.845191001892089844e+00
5.000000000000000000e+00,5.000000000000000000e+00,5.000000000000000000e+00,5.000000000000000000e+00,5.000000000000000000e+00,5.000000000000000000e+00,5.000000000000000000e+00,5.000000000000000000e+00,5.000000000000000000e+00,5.000000000000000000e+00,5.000000000000000000e+00,5.000000000000000000e+00,5.000000000000000000e+00,5.000000000000000000e+00,5.000000000000000000e+00,5.000000000000000000e+00,5.000000000000000000e+00,5.000000000000000000e+00,5.000000000000000000e+00,5.000000000000000000e+00,5.000000000000000000e+00,5.000000000000000000e+00,5.000000000000000000e+00,5.000000000000000000e+00,5.000000000000000000e+00,5.000000000000000000e+00,5.000000000000000000e+00,5.000000000000000000e+00,5.000000000000000000e+00,5.000000000000000000e+00,5.000000000000000000e+00,5.000000000000000000e+00,5.000000000000000000e+00,5.000000000000000000e+00,5.000000000000000000e+00,5.000000000000000000e+00,5.000000000000000000e+00,5.000000000000000000e+00,5.000000000000000000e+00,4.863585472106933594e+00,4.672504901885986328e+00,4.495871067047119141e+00,4.332105159759521484e+00,4.179850578308105469e+00,4.037934780120849609e+00,3.905339717864990234e+00,3.781175136566162109e+00,3.664663076400756836e+00,3.555116653442382812e+00,3.451929569244384766e+00,3.354563236236572266e+00,3.262539148330688477e+00,3.175428867340087891e+00,3.092849493026733398e+00,3.014456272125244141e+00,2.939939022064208984e+00,2.869016885757446289e+00,2.801435708999633789e+00,2.736965179443359375e+00,2.675395488739013672e+00,2.616534709930419922e+00,2.560208320617675781e+00,2.506255865097045898e+00,2.454530239105224609e+00,2.404896736145019531e+00,2.357230901718139648e+00,2.311417579650878906e+00,9.978550076484680176e-01,9.785504341125488281e-01,9.596293568611145020e-01,9.415461421012878418e-01,9.243969321250915527e-01,9.115663170814514160e-01,9.031767249107360840e-01,8.949446082115173340e-01,8.967378139495849609e-01,9.147264361381530762e-01,1.904302477836608887e+00,1.874291181564331055e+00,1.845211029052734375e+00
5.000000000000000000e+00,5.000000000000000000e+00,5.000000000000000000e+00,5.000000000000000000e+00,5.000000000000000000e+00,5.000000000000000000e+00,5.000000000000000000e+00,5.000000000000000000e+00,5.000000000000000000e+00,5.000000000000000000e+00,5.000000000000000000e+00,5.000000000000000000e+00,5.000000000000000000e+00,5.000000000000000000e+00,5.000000000000000000e+00,5.000000000000000000e+00,5.000000000000000000e+00,5.000000000000000000e+00,5.000000000000000000e+00,5.000000000000000000e+00,5.000000000000000000e+00,5.000000000000000000e+00,5.000000000000000000e+00,5.000000000000000000e+00,5.000000000000000000e+00,5.000000000000000000e+00,5.000000000000000000e+00,5.000000000000000000e+00,5.000000000000000000e+00,5.000000000000000000e+00,5.000000000000000000e+00,5.000000000000000000e+00,5.000000000000000000e+00,5.000000000000000000e+00,5.000000000000000000e+00,5.000000000000000000e+00,5.000000000000000000e+00,5.000000000000000000e+00,5.000000000000000000e+00,4.863725185394287109e+00,4.672634124755859375e+00,4.495990753173828125e+00,4.332216262817382812e+00,4.179954051971435547e+00,4.038031578063964844e+00,3.905429601669311523e+00,3.781260013580322266e+00,3.664742708206176758e+00,3.555191516876220703e+00,3.452000141143798828e+00,3.354629755020141602e+00,3.262601852416992188e+00,3.175488710403442383e+00,3.092906236648559570e+00,3.014510154724121094e+00,2.939990043640136719e+00,2.869065523147583008e+00,2.801482200622558594e+00,2.737009525299072266e+00,2.675437927246093750e+00,2.616575479507446289e+00,2.560246944427490234e+00,2.506293058395385742e+00,2.454566001892089844e+00,2.404931068420410156e+00,2.357263803482055664e+00,2.311449050903320312e+00,9.981890320777893066e-01,9.770664572715759277e-01,9.584282040596008301e-01,9.419099092483520508e-01,9.275760650634765625e-01,9.175331592559814453e-01,9.083265662193298340e-01,9.000021219253540039e-01,9.155945181846618652e-01,1.935312628746032715e+00,1.904323816299438477e+00,1.874311804771423340e+00,1.845231413841247559e+00
5.000000000000000000e+00,5.000000000000000000e+00,5.000000000000000000e+00,5.000000000000000000e+00,5.000000000000000000e+00,5.000000000000000000e+00,5.000000000000000000e+00,5.000000000000000000e+00,5.000000000000000000e+00,5.000000000000000000e+00,5.000000000000000000e+00,5.000000000000000000e+00,5.000000000000000000e+00,5.000000000000000000e+00,5.000000000000000000e+00,5.000000000000000000e+00,5.000000000000000000e+00,5.000000000000000000e+00,5.000000000000000000e+00,5.000000000000000000e+00,5.000000000000000000e+00,5.000000000000000000e+00,5.000000000000000000e+00,5.000000000000000000e+00,5.000000000000000000e+00,5.000000000000000000e+00,5.000000000000000000e+00,5.000000000000000000e+00,5.000000000000000000e+00,5.000000000000000000e+00,5.000000000000000000e+00,5.000000000000000000e+00,5.000000000000000000e+00,5.000000000000000000e+00,5.000000000000000000e+00,5.000000000000000000e+00,5.000000000000000000e+00,5.000000000000000000e+00,5.000000000000000000e+00,4.863865375518798828e+00,4.672763347625732422e+00,4.496110439300537109e+00,4.332327365875244141e+00,4.180057525634765625e+00,4.038127899169921875e+00,3.905520200729370117e+00,3.781344890594482422e+00,3.664822340011596680e+00,3.555266141891479492e+00,3.452070474624633789e+00,3.354696512222290039e+00,3.262665033340454102e+00,3.175548315048217773e+00,3.092962980270385742e+00,3.014563798904418945e+00,2.940041303634643555e+00,2.869114398956298828e+00,2.801528692245483398e+00,2.737053871154785156e+00,2.675480127334594727e+00,2.616615772247314453e+00,2.560286045074462891e+00,2.506330251693725586e+00,2.454601764678955078e+00,2.404965162277221680e+00,2.357296705245971680e+00,1.018638014793395996e+00,9.970163106918334961e-01,9.762934446334838867e-01,9.598837494850158691e-01,9.449964761734008789e-01,9.347038269042968750e-01,9.248180389404296875e-01,9.151391386985778809e-01,9.172890782356262207e-01,9.389611482620239258e-01,1.935334682464599609e+00,1.904345273971557617e+00,1.874332785606384277e+00,1.845251441001892090e+00
5.000000000000000000e+00,5.000000000000000000e+00,5.000000000000000000e+00,5.000000000000000000e+00,5.000000000000000000e+00,5.000000000000000000e+00,5.000000000000000000e+00,5.000000000000000000e+00,5.000000000000000000e+00,5.000000000000000000e+00,5.000000000000000000e+00,5.000000000000000000e+00,5.000000000000000000e+00,5.000000000000000000e+00,5.000000000000000000e+00,5.000000000000000000e+00,5.000000000000000000e+00,5.000000000000000000e+00,5.000000000000000000e+00,5.000000000000000000e+00,5.000000000000000000e+00,5.000000000000000000e+00,5.000000000000000000e+00,5.000000000000000000e+00,5.000000000000000000e+00,5.000000000000000000e+00,5.000000000000000000e+00,5.000000000000000000e+00,5.000000000000000000e+00,5.000000000000000000e+00,5.000000000000000000e+00,5.000000000000000000e+00,5.000000000000000000e+00,5.000000000000000000e+00,5.000000000000000000e+00,5.000000000000000000e+00,5.000000000000000000e+00,5.000000000000000000e+00,5.000000000000000000e+00,4.864005565643310547e+00,4.672892570495605469e+00,4.496230125427246094e+00,4.332438468933105469e+00,4.180160999298095703e+00,4.038224220275878906e+00,3.905610561370849609e+00,3.781429529190063477e+00,3.664901733398437500e+00,3.555341243743896484e+00,3.452141046524047852e+00,3.354763269424438477e+00,3.262728214263916016e+00,3.175607919692993164e+00,3.093019485473632812e+00,3.014617681503295898e+00,2.940092563629150391e+00,2.869162797927856445e+00,2.801574945449829102e+00,2.737098217010498047e+00,2.675522565841674805e+00,2.616656541824340820e+00,2.560324907302856445e+00,2.506367444992065430e+00,2.454637289047241211e+00,2.404999494552612305e+00,2.357329607009887695e+00,1.017192006111145020e+00,9.956309199333190918e-01,9.769603013992309570e-01,9.615429043769836426e-01,9.490884542465209961e-01,9.432280063629150391e-01,9.331620335578918457e-01,9.233087301254272461e-01,9.411792755126953125e-01,1.967372179031372070e+00,1.935356736183166504e+00,1.904366850852966309e+00,1.874353528022766113e+00,1.845271587371826172e+00
5.000000000000000000e+00,5.000000000000000000e+00,5.000000000000000000e+00,5.000000000000000000e+00,5.000000000000000000e+00,5.000000000000000000e+00,5.000000000000000000e+00,5.000000000000000000e+00,5.000000000000000000e+00,5.000000000000000000e+00,5.000000000000000000e+00,5.000000000000000000e+00,5.000000000000000000e+00,5.000000000000000000e+00,5.000000000000000000e+00,5.000000000000000000e+00,5.000000000000000000e+00,5.000000000000000000e+00,5.000000000000000000e+00,5.000000000000000000e+00,5.000000000000000000e+00,5.000000000000000000e+00,5.000000000000000000e+00,5.000000000000000000e+00,5.000000000000000000e+00,5.000000000000000000e+00,5.000000000000000000e+00,5.000000000000000000e+00,5.000000000000000000e+00,5.000000000000000000e+00,5.000000000000000000e+00,5.000000000000000000e+00,5.000000000000000000e+00,5.000000000000000000e+00,5.000000000000000000e+00,5.000000000000000000e+00,5.000000000000000000e+00,5.000000000000000000e+00,5.000000000000000000e+00,4.864145755767822266e+00,4.673021793365478516e+00,4.496349811553955078e+00,4.332550048828125000e+00,4.180264472961425781e+00,4.038321018218994141e+00,3.905700683593750000e+00,3.781513929367065430e+00,3.664981365203857422e+00,3.555416107177734375e+00,3.452211856842041016e+00,3.354830026626586914e+00,3.262790918350219727e+00,3.175667762756347656e+00,3.093075990676879883e+00,3.014671564102172852e+00,2.940143585205078125e+00,2.869211435317993164e+00,2.801621437072753906e+00,2.737142562866210938e+00,2.675565004348754883e+00,2.616697072982788086e+00,2.560363531112670898e+00,2.506404638290405273e+00,2.454673051834106445e+00,2.405033826828002930e+00,1.048219442367553711e+00,1.015750050544738770e+00,9.946555495262145996e-01,9.786790609359741211e-01,9.660779237747192383e-01,9.567233324050903320e-01,9.519092440605163574e-01,9.416581392288208008e-01,9.434077739715576172e-01,2.000488042831420898e+00,1.967395067214965820e+00,1.935379147529602051e+00,1.904388308525085449e+00,1.874374270439147949e+00,1.845291852951049805e+00
5.000000000000000000e+00,5.000000000000000000e+00,5.000000000000000000e+00,5.000000000000000000e+00,5.000000000000000000e+00,5.000000000000000000e+00,5.000000000000000000e+00,5.000000000000000000e+00,5.000000000000000000e+00,5.000000000000000000e+00,5.000000000000000000e+00,5.000000000000000000e+00,5.000000000000000000e+00,5.000000000000000000e+00,5.000000000000000000e+00,5.000000000000000000e+00,5.000000000000000000e+00,5.000000000000000000e+00,5.000000000000000000e+00,5.000000000000000000e+00,5.000000000000000000e+00,5.000000000000000000e+00,5.000000000000000000e+00,5.000000000000000000e+00,5.000000000000000000e+00,5.000000000000000000e+00,5.000000000000000000e+00,5.000000000000000000e+00,5.000000000000000000e+00,5.000000000000000000e+00,5.000000000000000000e+00,5.000000000000000000e+00,5.000000000000000000e+00,5.000000000000000000e+00,5.000000000000000000e+00,5.000000000000000000e+00,5.000000000000000000e+00,5.000000000000000000e+00,5.000000000000000000e+00,4.864285945892333984e+00,4.673151493072509766e+00,4.496469497680664062e+00,4.332660675048828125e+00,4.180367946624755859e+00,4.038417339324951172e+00,3.905791044235229492e+00,3.781598806381225586e+00,3.665060997009277344e+00,3.555491209030151367e+00,3.452282190322875977e+00,3.354896306991577148e+00,3.262854099273681641e+00,3.175727605819702148e+00,3.093132734298706055e+00,3.014724969863891602e+00,2.940194606781005859e+00,2.869260311126708984e+00,2.801667928695678711e+00,2.737187147140502930e+00,2.675607442855834961e+00,2.616737365722656250e+00,2.560402393341064453e+00,2.506441831588745117e+00,2.454708814620971680e+00,2.405068159103393555e+00,1.043625354766845703e+00,1.014312148094177246e+00,9.964371323585510254e-01,9.836868047714233398e-01,9.713928103446960449e-01,9.655309319496154785e-01,9.607516527175903320e-01,9.503102302551269531e-01,2.034738063812255859e+00,2.000511884689331055e+00,1.967418193817138672e+00,1.935401201248168945e+00,1.904409646987915039e+00,1.874395132064819336e+00,1.845311999320983887e+00
5.000000000000000000e+00,5.000000000000000000e+00,5.000000000000000000e+00,5.000000000000000000e+00,5.000000000000000000e+00,5.000000000000000000e+00,5.000000000000000000e+00,5.000000000000000000e+00,5.000000000000000000e+00,5.000000000000000000e+00,5.000000000000000000e+00,5.000000000000000000e+00,5.000000000000000000e+00,5.000000000000000000e+00,5.000000000000000000e+00,5.000000000000000000e+00,5.000000000000000000e+00,5.000000000000000000e+00,5.000000000000000000e+00,5.000000000000000000e+00,5.000000000000000000e+00,5.000000000000000000e+00,5.000000000000000000e+00,5.000000000000000000e+00,5.000000000000000000e+00,5.000000000000000000e+00,5.000000000000000000e+00,5.000000000000000000e+00,5.000000000000000000e+00,5.000000000000000000e+00,5.000000000000000000e+00,5.000000000000000000e+00,5.000000000000000000e+00,5.000000000000000000e+00,5.000000000000000000e+00,5.000000000000000000e+00,5.000000000000000000e+00,5.000000000000000000e+00,5.000000000000000000e+00,4.864425659179687500e+00,4.673280715942382812e+00,4.496589183807373047e+00,4.332771778106689453e+00,4.180471420288085938e+00,4.038514137268066406e+00,3.905881404876708984e+00,3.781683683395385742e+00,3.665140151977539062e+00,3.555565834045410156e+00,3.452352762222290039e+00,3.354963064193725586e+00,3.262917280197143555e+00,3.175787448883056641e+00,3.093189001083374023e+00,3.014778852462768555e+00,2.940245866775512695e+00,2.869309186935424805e+00,2.801714658737182617e+00,2.737231254577636719e+00,2.675649642944335938e+00,2.616778135299682617e+00,2.560441255569458008e+00,2.506479024887084961e+00,2.454744338989257812e+00,2.405102252960205078e+00,1.039071440696716309e+00,1.015034079551696777e+00,1.001949310302734375e+00,9.891977310180664062e-01,9.792721271514892578e-01,9.745021462440490723e-01,9.697598814964294434e-01,9.710575938224792480e-01,2.034762620925903320e+00,2.000535488128662109e+00,1.967440962791442871e+00,1.935423254966735840e+00,1.904431343078613281e+00,1.874415874481201172e+00,1.845332026481628418e+00
5.000000000000000000e+00,5.000000000000000000e+00,5.000000000000000000e+00,5.000000000000000000e+00,5.000000000000000000e+00,5.000000000000000000e+00,5.000000000000000000e+00,5.000000000000000000e+00,5.000000000000000000e+00,5.000000000000000000e+00,5.000000000000000000e+00,5.000000000000000000e+00,5.000000000000000000e+00,5.000000000000000000e+00,5.000000000000000000e+00,5.000000000000000000e+00,5.000000000000000000e+00,5.000000000000000000e+00,5.000000000000000000e+00,5.000000000000000000e+00,5.000000000000000000e+00,5.000000000000000000e+00,5.000000000000000000e+00,5.000000000000000000e+00,5.000000000000000000e+00,5.000000000000000000e+00,5.000000000000000000e+00,5.000000000000000000e+00,5.000000000000000000e+00,5.000000000000000000e+00,5.000000000000000000e+00,5.000000000000000000e+00,5.000000000000000000e+00,5.000000000000000000e+00,5.000000000000000000e+00,5.000000000000000000e+00,5.000000000000000000e+00,5.000000000000000000e+00,5.000000000000000000e+00,4.864566326141357422e+00,4.673409938812255859e+00,4.496708869934082031e+00,4.332883358001708984e+00,4.180574893951416016e+00,4.038610935211181641e+00,3.905972003936767578e+00,3.781768083572387695e+00,3.665219783782958984e+00,3.555640697479248047e+00,3.452423572540283203e+00,3.355029821395874023e+00,3.262980222702026367e+00,3.175846576690673828e+00,3.093245744705200195e+00,3.014832735061645508e+00,2.940297126770019531e+00,2.869357585906982422e+00,2.801760911941528320e+00,2.737275600433349609e+00,2.675692081451416016e+00,2.616818666458129883e+00,2.560480117797851562e+00,2.506516218185424805e+00,2.454780101776123047e+00,2.405136585235595703e+00,1.036675214767456055e+00,1.020846486091613770e+00,1.007660508155822754e+00,9.947707056999206543e-01,9.885017871856689453e-01,9.836416840553283691e-01,9.788289666175842285e-01,2.070206403732299805e+00,2.034787178039550781e+00,2.000559091567993164e+00,1.967463850975036621e+00,1.935445666313171387e+00,1.904452681541442871e+00,1.874436616897583008e+00,1.845352292060852051e+00
5.000000000000000000e+00,5.000000000000000000e+00,5.000000000000000000e+00,5.000000000000000000e+00,5.000000000000000000e+00,5.000000000000000000e+00,5.000000000000000000e+00,5.000000000000000000e+00,5.000000000000000000e+00,5.000000000000000000e+00,5.000000000000000000e+00,5.000000000000000000e+00,5.000000000000000000e+00,5.000000000000000000e+00,5.000000000000000000e+00,5.000000000000000000e+00,5.000000000000000000e+00,5.000000000000000000e+00,5.000000000000000000e+00,5.000000000000000000e+00,5.000000000000000000e+00,5.000000000000000000e+00,5.000000000000000000e+00,5.000000000000000000e+00,5.000000000000000000e+00,5.000000000000000000e+00,5.000000000000000000e+00,5.000000000000000000e+00,5.000000000000000000e+00,5.000000000000000000e+00,5.000000000000000000e+00,5.000000000000000000e+00,5.000000000000000000e+00,5.000000000000000000e+00,5.000000000000000000e+00,5.000000000000000000e+00,5.000000000000000000e+00,5.000000000000000000e+00,5.000000000000000000e+00,4.864706039428710938e+00,4.673539161682128906e+00,4.496828556060791016e+00,4.332994461059570312e+00,4.180678367614746094e+00,4.038707256317138672e+00,3.906062126159667969e+00,3.781852722167968750e+00,3.665299654006958008e+00,3.555715799331665039e+00,3.452493906021118164e+00,3.355096340179443359e+00,3.263043165206909180e+00,3.175906419754028320e+00,3.093302488327026367e+00,3.014886617660522461e+00,2.940348148345947266e+00,2.869406461715698242e+00,2.801807403564453125e+00,2.737320184707641602e+00,2.675734758377075195e+00,2.616859197616577148e+00,2.560518741607666016e+00,2.506553411483764648e+00,2.454815864562988281e+00,1.085893988609313965e+00,1.039977550506591797e+00,1.026296257972717285e+00,1.012970089912414551e+00,1.000099658966064453e+00,9.942825436592102051e-01,9.896160960197448730e-01,9.944637417793273926e-01,2.070231914520263672e+00,2.034811735153198242e+00,2.000582933425903320e+00,1.967486858367919922e+00,1.935467720031738281e+00,1.904474139213562012e+00,1.874457597732543945e+00,1.845372438430786133e+00
5.000000000000000000e+00,5.000000000000000000e+00,5.000000000000000000e+00,5.000000000000000000e+00,5.000000000000000000e+00,5.000000000000000000e+00,5.000000000000000000e+00,5.000000000000000000e+00,5.000000000000000000e+00,5.000000000000000000e+00,5.000000000000000000e+00,5.000000000000000000e+00,5.000000000000000000e+00,5.000000000000000000e+00,5.000000000000000000e+00,5.000000000000000000e+00,5.000000000000000000e+00,5.000000000000000000e+00,5.000000000000000000e+00,5.000000000000000000e+00,5.000000000000000000e+00,5.000000000000000000e+00,5.000000000000000000e+00,5.000000000000000000e+00,5.000000000000000000e+00,5.000000000000000000e+00,5.000000000000000000e+00,5.000000000000000000e+00,5.000000000000000000e+00,5.000000000000000000e+00,5.000000000000000000e+00,5.000000000000000000e+00,5.000000000000000000e+00,5.000000000000000000e+00,5.000000000000000000e+00,5.000000000000000000e+00,5.000000000000000000e+00,5.000000000000000000e+00,5.000000000000000000e+00,4.864844799041748047e+00,4.673668384552001953e+00,4.496948242187500000e+00,4.333105564117431641e+00,4.180781841278076172e+00,4.038804054260253906e+00,3.906152486801147461e+00,3.781937599182128906e+00,3.665379285812377930e+00,3.555790424346923828e+00,3.452564477920532227e+00,3.355162858963012695e+00,3.263106107711791992e+00,3.175966262817382812e+00,3.093358993530273438e+00,3.014940261840820312e+00,2.940399408340454102e+00,2.869455337524414062e+00,2.801854133605957031e+00,2.737364530563354492e+00,2.675776958465576172e+00,2.616899728775024414e+00,2.560557603836059570e+00,2.506590843200683594e+00,2.454851627349853516e+00,1.088017106056213379e+00,1.045634031295776367e+00,1.031804442405700684e+00,1.018335819244384766e+00,1.005501389503479004e+00,9.994693994522094727e-01,9.947542548179626465e-01,1.015560150146484375e+00,2.070257425308227539e+00,2.034836292266845703e+00,2.000606536865234375e+00,1.967509746551513672e+00,1.935489892959594727e+00,1.904495716094970703e+00,1.874478340148925781e+00,1.845392704010009766e+00
5.000000000000000000e+00,5.000000000000000000e+00,5.000000000000000000e+00,5.000000000000000000e+00,5.000000000000000000e+00,5.000000000000000000e+00,5.000000000000000000e+00,5.000000000000000000e+00,5.000000000000000000e+00,5.000000000000000000e+00,5.000000000000000000e+00,5.000000000000000000e+00,5.000000000000000000e+00,5.000000000000000000e+00,5.000000000000000000e+00,5.000000000000000000e+00,5.000000000000000000e+00,5.000000000000000000e+00,5.000000000000000000e+00,5.000000000000000000e+00,5.000000000000000000e+00,5.000000000000000000e+00,5.000000000000000000e+00,5.000000000000000000e+00,5.000000000000000000e+00,5.000000000000000000e+00,5.000000000000000000e+00,5.000000000000000000e+00,5.000000000000000000e+00,5.000000000000000000e+00,5.000000000000000000e+00,5.000000000000000000e+00,5.000000000000000000e+00,5.000000000000000000e+00,5.000000000000000000e+00,5.000000000000000000e+00,5.000000000000000000e+00,5.000000000000000000e+00,5.000000000000000000e+00,4.864984035491943359e+00,4.673797130584716797e+00,4.497067928314208984e+00,4.333216667175292969e+00,4.180885314941406250e+00,4.038900375366210938e+00,3.906243085861206055e+00,3.782021999359130859e+00,3.665458440780639648e+00,3.555865287780761719e+00,3.452635049819946289e+00,3.355229616165161133e+00,3.263169288635253906e+00,3.176025867462158203e+00,3.093415737152099609e+00,3.014994382858276367e+00,2.940450668334960938e+00,2.869504213333129883e+00,2.801900386810302734e+00,2.737408876419067383e+00,2.675819396972656250e+00,2.616940259933471680e+00,2.560596466064453125e+00,2.506627798080444336e+00,2.454887151718139648e+00,1.090148568153381348e+00,1.051352381706237793e+00,1.037372112274169922e+00,1.023913025856018066e+00,1.011307597160339355e+00,1.004710674285888672e+00,9.999461770057678223e-01,1.033719658851623535e+00,2.070282697677612305e+00,2.034860610961914062e+00,2.000630140304565430e+00,1.967532634735107422e+00,1.935512185096740723e+00,1.904517173767089844e+00,1.874499082565307617e+00,1.845412850379943848e+00
5.000000000000000000e+00,5.000000000000000000e+00,5.000000000000000000e+00,5.000000000000000000e+00,5.000000000000000000e+00,5.000000000000000000e+00,5.000000000000000000e+00,5.000000000000000000e+00,5.000000000000000000e+00,5.000000000000000000e+00,5.000000000000000000e+00,5.000000000000000000e+00,5.000000000000000000e+00,5.000000000000000000e+00,5.000000000000000000e+00,5.000000000000000000e+00,5.000000000000000000e+00,5.000000000000000000e+00,5.000000000000000000e+00,5.000000000000000000e+00,5.000000000000000000e+00,5.000000000000000000e+00,5.000000000000000000e+00,5.000000000000000000e+00,5.000000000000000000e+00,5.000000000000000000e+00,5.000000000000000000e+00,5.000000000000000000e+00,5.000000000000000000e+00,5.000000000000000000e+00,5.000000000000000000e+00,5.000000000000000000e+00,5.000000000000000000e+00,5.000000000000000000e+00,5.000000000000000000e+00,5.000000000000000000e+00,5.000000000000000000e+00,5.000000000000000000e+00,5.000000000000000000e+00,4.865122318267822266e+00,4.673925399780273438e+00,4.497188091278076172e+00,4.333327770233154297e+00,4.180988788604736328e+00,4.038997173309326172e+00,3.906332969665527344e+00,3.782106876373291016e+00,3.665538072586059570e+00,3.555940151214599609e+00,3.452705621719360352e+00,3.355295896530151367e+00,3.263232231140136719e+00,3.176085710525512695e+00,3.093472480773925781e+00,3.015048265457153320e+00,2.940501689910888672e+00,2.869552850723266602e+00,2.801946878433227539e+00,2.737453222274780273e+00,2.675861835479736328e+00,2.616981029510498047e+00,2.560635328292846680e+00,2.506664991378784180e+00,2.454922914505004883e+00,1.092288374900817871e+00,1.057133555412292480e+00,1.043012261390686035e+00,1.029574990272521973e+00,1.017181277275085449e+00,1.010007262229919434e+00,1.005192399024963379e+00,2.106986284255981445e+00,2.070307970046997070e+00,2.034885168075561523e+00,2.000653982162475586e+00,1.967555642127990723e+00,1.935534238815307617e+00,1.904538512229919434e+00,1.874520063400268555e+00,1.845432877540588379e+00
5.000000000000000000e+00,5.000000000000000000e+00,5.000000000000000000e+00,5.000000000000000000e+00,5.000000000000000000e+00,5.000000000000000000e+00,5.000000000000000000e+00,5.000000000000000000e+00,5.000000000000000000e+00,5.000000000000000000e+00,5.000000000000000000e+00,5.000000000000000000e+00,5.000000000000000000e+00,5.000000000000000000e+00,5.000000000000000000e+00,5.000000000000000000e+00,5.000000000000000000e+00,5.000000000000000000e+00,5.000000000000000000e+00,5.000000000000000000e+00,5.000000000000000000e+00,5.000000000000000000e+00,5.000000000000000000e+00,5.000000000000000000e+00,5.000000000000000000e+00,5.000000000000000000e+00,5.000000000000000000e+00,5.000000000000000000e+00,5.000000000000000000e+00,5.000000000000000000e+00,5.000000000000000000e+00,5.000000000000000000e+00,5.000000000000000000e+00,5.000000000000000000e+00,5.000000000000000000e+00,5.000000000000000000e+00,5.000000000000000000e+00,5.000000000000000000e+00,5.000000000000000000e+00,4.865261554718017578e+00,4.674053192138671875e+00,4.497306346893310547e+00,4.333439350128173828e+00,4.181092262268066406e+00,4.039093494415283203e+00,3.906423568725585938e+00,3.782191753387451172e+00,3.665617704391479492e+00,3.556014537811279297e+00,3.452775955200195312e+00,3.355362653732299805e+00,3.263295412063598633e+00,3.176145553588867188e+00,3.093529224395751953e+00,3.015101909637451172e+00,2.940552949905395508e+00,2.869601488113403320e+00,2.801993370056152344e+00,2.737497568130493164e+00,2.675904035568237305e+00,2.617021322250366211e+00,2.560674190521240234e+00,2.506702423095703125e+00,2.454958677291870117e+00,1.094436645507812500e+00,1.062978744506835938e+00,1.048888087272644043e+00,1.035299897193908691e+00,1.023123621940612793e+00,1.015465378761291504e+00,1.010493993759155273e+00,2.107012510299682617e+00,2.070333480834960938e+00,2.034909725189208984e+00,2.000677824020385742e+00,1.967578530311584473e+00,1.935556411743164062e+00,1.904560208320617676e+00,1.874540805816650391e+00,1.845453262329101562e+00
5.000000000000000000e+00,5.000000000000000000e+00,5.000000000000000000e+00,5.000000000000000000e+00,5.000000000000000000e+00,5.000000000000000000e+00,5.000000000000000000e+00,5.000000000000000000e+00,5.000000000000000000e+00,5.000000000000000000e+00,5.000000000000000000e+00,5.000000000000000000e+00,5.000000000000000000e+00,5.000000000000000000e+00,5.000000000000000000e+00,5.000000000000000000e+00,5.000000000000000000e+00,5.000000000000000000e+00,5.000000000000000000e+00,5.000000000000000000e+00,5.000000000000000000e+00,5.000000000000000000e+00,5.000000000000000000e+00,5.000000000000000000e+00,5.000000000000000000e+00,5.000000000000000000e+00,5.000000000000000000e+00,5.000000000000000000e+00,5.000000000000000000e+00,5.000000000000000000e+00,5.000000000000000000e+00,5.000000000000000000e+00,5.000000000000000000e+00,5.000000000000000000e+00,5.000000000000000000e+00,5.000000000000000000e+00,5.000000000000000000e+00,5.000000000000000000e+00,5.000000000000000000e+00,4.865400314331054688e+00,4.674181461334228516e+00,4.497424602508544922e+00,4.333549022674560547e+00,4.181196212768554688e+00,4.039190292358398438e+00,3.906513929367065430e+00,3.782276391983032227e+00,3.665696859359741211e+00,3.556089639663696289e+00,3.452846765518188477e+00,3.355429649353027344e+00,3.263358592987060547e+00,3.176204919815063477e+00,3.093585729598999023e+00,3.015155792236328125e+00,2.940604209899902344e+00,2.869650363922119141e+00,2.802039861679077148e+00,2.737541913986206055e+00,2.675946474075317383e+00,2.617061853408813477e+00,2.560713052749633789e+00,2.506739616394042969e+00,2.454994201660156250e+00,1.096593260765075684e+00,1.068939805030822754e+00,1.054830551147460938e+00,1.041089057922363281e+00,1.029135942459106445e+00,1.021387696266174316e+00,1.029700517654418945e+00,2.107038974761962891e+00,2.070358991622924805e+00,2.034934282302856445e+00,2.000701427459716797e+00,1.967601299285888672e+00,1.935578703880310059e+00,1.904581546783447266e+00,1.874561667442321777e+00,1.845473289489746094e+00
5.000000000000000000e+00,5.000000000000000000e+00,5.000000000000000000e+00,5.000000000000000000e+00,5.000000000000000000e+00,5.000000000000000000e+00,5.000000000000000000e+00,5.000000000000000000e+00,5.000000000000000000e+00,5.000000000000000000e+00,5.000000000000000000e+00,5.000000000000000000e+00,5.000000000000000000e+00,5.000000000000000000e+00,5.000000000000000000e+00,5.000000000000000000e+00,5.000000000000000000e+00,5.000000000000000000e+00,5.000000000000000000e+00,5.000000000000000000e+00,5.000000000000000000e+00,5.000000000000000000e+00,5.000000000000000000e+00,5.000000000000000000e+00,5.000000000000000000e+00,5.000000000000000000e+00,5.000000000000000000e+00,5.000000000000000000e+00,5.000000000000000000e+00,5.000000000000000000e+00,5.000000000000000000e+00,5.000000000000000000e+00,5.000000000000000000e+00,5.000000000000000000e+00,5.000000000000000000e+00,5.000000000000000000e+00,5.000000000000000000e+00,5.000000000000000000e+00,5.000000000000000000e+00,4.865539073944091797e+00,4.674309730529785156e+00,4.497543334960937500e+00,4.333659648895263672e+00,4.181298732757568359e+00,4.039287090301513672e+00,3.906603813171386719e+00,3.782360792160034180e+00,3.665776491165161133e+00,3.556164741516113281e+00,3.452917337417602539e+00,3.355496406555175781e+00,3.263421297073364258e+00,3.176264762878417969e+00,3.093642473220825195e+00,3.015209674835205078e+00,2.940655469894409180e+00,2.869699001312255859e+00,2.802086353302001953e+00,2.737586259841918945e+00,2.675988912582397461e+00,2.617102622985839844e+00,2.560751676559448242e+00,2.506776809692382812e+00,2.455029964447021484e+00,1.100372314453125000e+00,1.075156569480895996e+00,1.060840606689453125e+00,1.046943068504333496e+00,1.035219073295593262e+00,1.027379393577575684e+00,1.047153234481811523e+00,2.107065200805664062e+00,2.070384263992309570e+00,2.034958839416503906e+00,2.000725030899047852e+00,1.967624425888061523e+00,1.935600876808166504e+00,1.904603004455566406e+00,1.874582409858703613e+00,1.845493435859680176e+00
4.874950885772705078e+00,4.873739719390869141e+00,4.872529029846191406e+00,4.871318817138671875e+00,4.870110034942626953e+00,4.868901252746582031e+00,4.867692947387695312e+00,4.866485595703125000e+00,4.865278720855712891e+00,4.864072322845458984e+00,4.862866878509521484e+00,4.861661434173583984e+00,4.860456943511962891e+00,4.859252929687500000e+00,4.858049392700195312e+00,4.856846809387207031e+00,4.855645179748535156e+00,4.854443550109863281e+00,4.853242397308349609e+00,4.852042198181152344e+00,4.850842475891113281e+00,4.849643230438232422e+00,4.848444938659667969e+00,4.847246646881103516e+00,4.846049308776855469e+00,4.844852447509765625e+00,4.843656063079833984e+00,4.842460632324218750e+00,4.841265678405761719e+00,4.840071201324462891e+00,4.838877201080322266e+00,4.837684154510498047e+00,4.836491107940673828e+00,4.835299015045166016e+00,4.834107875823974609e+00,4.832916736602783203e+00,4.831726551055908203e+00,4.830536842346191406e+00,4.829347610473632812e+00,4.828159332275390625e+00,4.674437522888183594e+00,4.497662067413330078e+00,4.333769321441650391e+00,4.181401252746582031e+00,4.039383411407470703e+00,3.906694412231445312e+00,3.782445669174194336e+00,3.665856361389160156e+00,3.556239604949951172e+00,3.452987909317016602e+00,3.355562686920166016e+00,3.263484477996826172e+00,3.176324605941772461e+00,3.093699216842651367e+00,3.015263319015502930e+00,2.940706491470336914e+00,2.869747877120971680e+00,2.802132844924926758e+00,2.737630844116210938e+00,2.676031589508056641e+00,2.617142915725708008e+00,2.560790538787841797e+00,2.506814002990722656e+00,2.455065727233886719e+00,1.105215668678283691e+00,1.082057476043701172e+00,1.067549109458923340e+00,1.053424715995788574e+00,1.043832182884216309e+00,1.035400986671447754e+00,1.068525791168212891e+00,2.107091426849365234e+00,2.070409536361694336e+00,2.034983396530151367e+00,2.000748872756958008e+00,1.967647314071655273e+00,1.935622930526733398e+00,1.904624581336975098e+00,1.874603152275085449e+00,1.845513701438903809e+00
3.777726888656616211e+00,3.776999711990356445e+00,3.776273012161254883e+00,3.775545835494995117e+00,3.774819612503051758e+00,3.774093151092529297e+00,3.773367404937744141e+00,3.772641897201538086e+00,3.771916151046752930e+00,3.771191358566284180e+00,3.770466327667236328e+00,3.769742012023925781e+00,3.769017457962036133e+00,3.768293619155883789e+00,3.767570018768310547e+00,3.766846418380737305e+00,3.766123533248901367e+00,3.765400409698486328e+00,3.764678001403808594e+00,3.763955831527709961e+00,3.763233423233032227e+00,3.762511968612670898e+00,3.761790275573730469e+00,3.761069297790527344e+00,3.760348081588745117e+00,3.759627580642700195e+00,3.758907318115234375e+00,3.758187055587768555e+00,3.757467508316040039e+00,3.756747722625732422e+00,3.756028413772583008e+00,3.755309581756591797e+00,3.754590749740600586e+00,3.753872394561767578e+00,3.753154039382934570e+00,3.752436399459838867e+00,3.751718521118164062e+00,3.751001358032226562e+00,3.750284433364868164e+00,3.749567270278930664e+00,3.748850822448730469e+00,3.748134374618530273e+00,3.747418642044067383e+00,3.746703147888183594e+00,3.745987415313720703e+00,3.745272397994995117e+00,3.744557380676269531e+00,3.665935516357421875e+00,3.556314229965209961e+00,3.453058481216430664e+00,3.355629444122314453e+00,3.263547658920288086e+00,3.176384449005126953e+00,3.093755722045898438e+00,3.015317201614379883e+00,2.940757989883422852e+00,2.869796752929687500e+00,2.802179574966430664e+00,2.737674951553344727e+00,2.676073789596557617e+00,2.617183685302734375e+00,2.560829401016235352e+00,2.506851196289062500e+00,2.455101251602172852e+00,1.110101938247680664e+00,1.089047312736511230e+00,1.074352264404296875e+00,1.060209035873413086e+00,1.053231358528137207e+00,1.044648170471191406e+00,2.145123720169067383e+00,2.107117891311645508e+00,2.070435047149658203e+00,2.035007953643798828e+00,2.000772476196289062e+00,1.967670083045959473e+00,1.935645222663879395e+00,1.904646039009094238e+00,1.874624133110046387e+00,1.845533847808837891e+00
3.083673238754272461e+00,3.083188533782958984e+00,3.082704067230224609e+00,3.082219600677490234e+00,3.081735610961914062e+00,3.081251621246337891e+00,3.080767631530761719e+00,3.080283880233764648e+00,3.079800128936767578e+00,3.079316854476928711e+00,3.078833818435668945e+00,3.078350543975830078e+00,3.077867507934570312e+00,3.077384710311889648e+00,3.076902151107788086e+00,3.076419353485107422e+00,3.075937032699584961e+00,3.075454950332641602e+00,3.074972867965698242e+00,3.074491024017333984e+00,3.074009180068969727e+00,3.073527574539184570e+00,3.073046207427978516e+00,3.072564840316772461e+00,3.072083711624145508e+00,3.071602582931518555e+00,3.071121692657470703e+00,3.070641040802001953e+00,3.070160388946533203e+00,3.069680213928222656e+00,3.069199800491333008e+00,3.068719863891601562e+00,3.068239688873291016e+00,3.067759990692138672e+00,3.067280530929565430e+00,3.066800832748413086e+00,3.066321611404418945e+00,3.065842390060424805e+00,3.065363407135009766e+00,3.064884662628173828e+00,3.064405679702758789e+00,3.063927173614501953e+00,3.063448429107666016e+00,3.062970399856567383e+00,3.062492132186889648e+00,3.062014102935791016e+00,3.061536312103271484e+00,3.061058521270751953e+00,3.060580968856811523e+00,3.060103416442871094e+00,3.059626340866088867e+00,3.059149265289306641e+00,3.058672189712524414e+00,3.058195590972900391e+00,3.015371084213256836e+00,2.940809249877929688e+00,2.869845390319824219e+00,2.802225828170776367e+00,2.737719535827636719e+00,2.676116228103637695e+00,2.617224216461181641e+00,2.560868501663208008e+00,2.506888389587402344e+00,2.455137014389038086e+00,1.115031599998474121e+00,1.096128106117248535e+00,1.081311106681823730e+00,1.067108869552612305e+00,1.062801122665405273e+00,1.054062008857727051e+00,2.145150899887084961e+00,2.107144117355346680e+00,2.070460319519042969e+00,2.035032272338867188e+00,2.000796079635620117e+00,1.967693209648132324e+00,1.935667395591735840e+00,1.904667615890502930e+00,1.874644875526428223e+00,1.845553874969482422e+00
2.605063915252685547e+00,2.604718208312988281e+00,2.604372262954711914e+00,2.604026556015014648e+00,2.603680849075317383e+00,2.603335380554199219e+00,2.602989912033081055e+00,2.602644681930541992e+00,2.602299451828002930e+00,2.601954221725463867e+00,2.601609230041503906e+00,2.601264238357543945e+00,2.600919246673583984e+00,2.600574731826782227e+00,2.600229740142822266e+00,2.599885225296020508e+00,2.599540710449218750e+00,2.599196434020996094e+00,2.598851919174194336e+00,2.598507642745971680e+00,2.598163604736328125e+00,2.597819566726684570e+00,2.597475528717041016e+00,2.597131729125976562e+00,2.596787929534912109e+00,2.596444368362426758e+00,2.596100568771362305e+00,2.595757246017456055e+00,2.595413684844970703e+00,2.595070362091064453e+00,2.594727039337158203e+00,2.594383955001831055e+00,2.594041109085083008e+00,2.593698024749755859e+00,2.593355178833007812e+00,2.593012332916259766e+00,2.592669725418090820e+00,2.592327117919921875e+00,2.591984510421752930e+00,2.591642141342163086e+00,2.591299772262573242e+00,2.590957641601562500e+00,2.590615272521972656e+00,2.590273380279541016e+00,2.589931488037109375e+00,2.589589357376098633e+00,2.589247703552246094e+00,2.588905811309814453e+00,2.588564395904541016e+00,2.588222980499267578e+00,2.587881326675415039e+00,2.587540149688720703e+00,2.587198734283447266e+00,2.586857795715332031e+00,2.586516857147216797e+00,2.586175680160522461e+00,2.585834980010986328e+00,2.585494041442871094e+00,2.585153341293334961e+00,2.584812641143798828e+00,2.584472179412841797e+00,2.560907125473022461e+00,2.506925582885742188e+00,2.455172777175903320e+00,1.120005249977111816e+00,1.103301644325256348e+00,1.088489294052124023e+00,1.074099183082580566e+00,1.071535229682922363e+00,1.071541666984558105e+00,2.145178318023681641e+00,2.107170343399047852e+00,2.070485830307006836e+00,2.035056829452514648e+00,2.000819921493530273e+00,1.967716097831726074e+00,1.935689449310302734e+00,1.904689073562622070e+00,1.874665617942810059e+00,1.845574259757995605e+00
2.255100011825561523e+00,2.254839181900024414e+00,2.254578351974487305e+00,2.254317522048950195e+00,2.254056692123413086e+00,2.253796100616455078e+00,2.253535509109497070e+00,2.253274917602539062e+00,2.253014564514160156e+00,2.252754211425781250e+00,2.252493619918823242e+00,2.252233266830444336e+00,2.251973152160644531e+00,2.251713037490844727e+00,2.251452922821044922e+00,2.251192808151245117e+00,2.250932931900024414e+00,2.250672817230224609e+00,2.250412940979003906e+00,2.250153303146362305e+00,2.249893426895141602e+00,2.249633550643920898e+00,2.249373912811279297e+00,2.249115228652954102e+00,2.248857259750366211e+00,2.248599529266357422e+00,2.248341798782348633e+00,2.248084306716918945e+00,2.247826814651489258e+00,2.247569084167480469e+00,2.247311592102050781e+00,2.247054100036621094e+00,2.246796846389770508e+00,2.246539592742919922e+00,2.246282339096069336e+00,2.246025323867797852e+00,2.245768070220947266e+00,2.245511054992675781e+00,2.245253801345825195e+00,2.244997024536132812e+00,2.244740247726440430e+00,2.244483232498168945e+00,2.244226694107055664e+00,2.243969678878784180e+00,2.243713140487670898e+00,2.243456602096557617e+00,2.243200063705444336e+00,2.242943763732910156e+00,2.242687225341796875e+00,2.242430925369262695e+00,2.242174386978149414e+00,2.241918325424194336e+00,2.241662263870239258e+00,2.241405963897705078e+00,2.241149902343750000e+00,2.240893840789794922e+00,2.240638017654418945e+00,2.240382194519042969e+00,2.240126371383666992e+00,2.239870548248291016e+00,2.239614725112915039e+00,2.239359140396118164e+00,2.239103555679321289e+00,2.238847970962524414e+00,1.126279354095458984e+00,1.110744118690490723e+00,1.095763444900512695e+00,1.081181645393371582e+00,1.080226302146911621e+00,2.184610605239868164e+00,2.145205497741699219e+00,2.107196569442749023e+00,2.070511102676391602e+00,2.035081386566162109e+00,2.000843524932861328e+00,1.967738866806030273e+00,1.935711860656738281e+00,1.904710412025451660e+00,1.874686479568481445e+00,1.845594286918640137e+00
1.988104224205017090e+00,1.987901329994201660e+00,1.987698554992675781e+00,1.987495899200439453e+00,1.987293124198913574e+00,1.987090706825256348e+00,1.986888170242309570e+00,1.986685514450073242e+00,1.986482977867126465e+00,1.986280560493469238e+00,1.986078143119812012e+00,1.985875725746154785e+00,1.985673546791076660e+00,1.985471248626708984e+00,1.985268950462341309e+00,1.985066771507263184e+00,1.984864473342895508e+00,1.984662413597106934e+00,1.984460234642028809e+00,1.984258413314819336e+00,1.984056353569030762e+00,1.983854293823242188e+00,1.983652353286743164e+00,1.983450531959533691e+00,1.983248591423034668e+00,1.983046770095825195e+00,1.982845187187194824e+00,1.982643485069274902e+00,1.982441782951354980e+00,1.982240080833435059e+00,1.982038497924804688e+00,1.981836915016174316e+00,1.981635332107543945e+00,1.981434106826782227e+00,1.981232643127441406e+00,1.981031179428100586e+00,1.980829834938049316e+00,1.980628490447998047e+00,1.980427145957946777e+00,1.980225920677185059e+00,1.980024933815002441e+00,1.979823708534240723e+00,1.979622602462768555e+00,1.979421496391296387e+00,1.979220390319824219e+00,1.979019403457641602e+00,1.978818416595458984e+00,1.978617787361145020e+00,1.978416800498962402e+00,1.978215932846069336e+00,1.978015184402465820e+00,1.977814435958862305e+00,1.977613687515258789e+00,1.977412939071655273e+00,1.977212548255920410e+00,1.977011919021606445e+00,1.976811408996582031e+00,1.976610898971557617e+00,1.976410388946533203e+00,1.976209878921508789e+00,1.976009488105773926e+00,1.975809335708618164e+00,1.975609064102172852e+00,1.975408792495727539e+00,1.159832000732421875e+00,1.118319749832153320e+00,1.103135466575622559e+00,1.088358044624328613e+00,1.089059591293334961e+00,1.974208116531372070e+00,1.974008083343505859e+00,1.973808169364929199e+00,1.973608255386352539e+00,1.973408341407775879e+00,1.973208546638488770e+00,1.967761993408203125e+00,1.935733914375305176e+00,1.904732108116149902e+00,1.874707221984863281e+00,1.845614433288574219e+00
1.777637958526611328e+00,1.777475833892822266e+00,1.777313947677612305e+00,1.777151823043823242e+00,1.776989817619323730e+00,1.776827692985534668e+00,1.776665687561035156e+00,1.776503801345825195e+00,1.776341795921325684e+00,1.776180028915405273e+00,1.776018142700195312e+00,1.775856375694274902e+00,1.775694489479064941e+00,1.775532722473144531e+00,1.775370955467224121e+00,1.775209188461303711e+00,1.775047659873962402e+00,1.774886012077331543e+00,1.774724364280700684e+00,1.774562716484069824e+00,1.774401068687438965e+00,1.774239540100097656e+00,1.774078011512756348e+00,1.773916721343994141e+00,1.773755192756652832e+00,1.773593783378601074e+00,1.773432374000549316e+00,1.773270964622497559e+00,1.773109555244445801e+00,1.772948503494262695e+00,1.772787094116210938e+00,1.772625923156738281e+00,1.772464632987976074e+00,1.772303462028503418e+00,1.772142171859741211e+00,1.771981120109558105e+00,1.771819949150085449e+00,1.771659016609191895e+00,1.771497964859008789e+00,1.771336913108825684e+00,1.771175861358642578e+00,1.771014928817749023e+00,1.770853996276855469e+00,1.770693302154541016e+00,1.770532369613647461e+00,1.770371437072753906e+00,1.770210623741149902e+00,1.770049810409545898e+00,1.769889116287231445e+00,1.769728302955627441e+00,1.769567847251892090e+00,1.769407153129577637e+00,1.769246459007263184e+00,1.769085764884948730e+00,1.768925189971923828e+00,1.768764615058898926e+00,1.768604159355163574e+00,1.768443822860717773e+00,1.768283247947692871e+00,1.768122911453247070e+00,1.767962455749511719e+00,1.767802000045776367e+00,1.767641663551330566e+00,1.767481327056884766e+00,1.160920977592468262e+00,1.133462667465209961e+00,1.121078968048095703e+00,1.111914396286010742e+00,1.766680240631103516e+00,1.766520142555236816e+00,1.766359925270080566e+00,1.766200065612792969e+00,1.766039967536926270e+00,1.765879988670349121e+00,1.765719890594482422e+00,1.765559911727905273e+00,1.765400052070617676e+00,1.765240073204040527e+00,1.765080332756042480e+00,1.764920473098754883e+00
1.607467293739318848e+00,1.607334613800048828e+00,1.607202053070068359e+00,1.607069492340087891e+00,1.606937050819396973e+00,1.606804609298706055e+00,1.606672167778015137e+00,1.606539726257324219e+00,1.606407284736633301e+00,1.606274843215942383e+00,1.606142401695251465e+00,1.606010079383850098e+00,1.605877876281738281e+00,1.605745553970336914e+00,1.605613231658935547e+00,1.605480909347534180e+00,1.605348706245422363e+00,1.605216383934020996e+00,1.605084180831909180e+00,1.604952096939086914e+00,1.604819893836975098e+00,1.604687809944152832e+00,1.604555606842041016e+00,1.604423522949218750e+00,1.604291439056396484e+00,1.604159355163574219e+00,1.604027509689331055e+00,1.603895425796508789e+00,1.603763461112976074e+00,1.603631496429443359e+00,1.603499531745910645e+00,1.603367567062377930e+00,1.603235602378845215e+00,1.603103876113891602e+00,1.602972030639648438e+00,1.602840185165405273e+00,1.602708339691162109e+00,1.602576494216918945e+00,1.602444648742675781e+00,1.602312922477722168e+00,1.602181315422058105e+00,1.602049589157104492e+00,1.601917862892150879e+00,1.601786255836486816e+00,1.601654529571533203e+00,1.601522922515869141e+00,1.601391315460205078e+00,1.601259827613830566e+00,1.601128339767456055e+00,1.600996732711791992e+00,1.600865244865417480e+00,1.600733757019042969e+00,1.600602269172668457e+00,1.600470781326293945e+00,1.600339531898498535e+00,1.600208044052124023e+00,1.600076675415039062e+00,1.599945187568664551e+00,1.599813818931579590e+00,1.599682569503784180e+00,1.599551200866699219e+00,1.599420070648193359e+00,1.599288821220397949e+00,1.599157571792602539e+00,1.163471817970275879e+00,1.136942028999328613e+00,1.124266982078552246e+00,1.114708781242370605e+00,1.117078304290771484e+00,1.598370671272277832e+00,1.598239541053771973e+00,1.598108530044555664e+00,1.597977399826049805e+00,1.597846388816833496e+00,1.597715377807617188e+00,1.597584486007690430e+00,1.597453594207763672e+00,1.597322583198547363e+00,1.597191691398620605e+00,1.597060799598693848e+00
1.467030405998229980e+00,1.466919898986816406e+00,1.466809630393981934e+00,1.466699242591857910e+00,1.466588854789733887e+00,1.466478466987609863e+00,1.466368079185485840e+00,1.466257810592651367e+00,1.466147422790527344e+00,1.466037273406982422e+00,1.465927004814147949e+00,1.465816736221313477e+00,1.465706467628479004e+00,1.465596199035644531e+00,1.465485930442810059e+00,1.465375781059265137e+00,1.465265750885009766e+00,1.465155482292175293e+00,1.465045332908630371e+00,1.464935183525085449e+00,1.464825153350830078e+00,1.464715003967285156e+00,1.464604854583740234e+00,1.464494943618774414e+00,1.464384913444519043e+00,1.464274883270263672e+00,1.464164853096008301e+00,1.464054822921752930e+00,1.463944792747497559e+00,1.463835000991821289e+00,1.463724970817565918e+00,1.463615059852600098e+00,1.463505148887634277e+00,1.463395237922668457e+00,1.463285326957702637e+00,1.463175415992736816e+00,1.463065624237060547e+00,1.462955832481384277e+00,1.462846040725708008e+00,1.462736248970031738e+00,1.462626457214355469e+00,1.462516665458679199e+00,1.462406873703002930e+00,1.462297320365905762e+00,1.462187528610229492e+00,1.462077856063842773e+00,1.461968183517456055e+00,1.461858510971069336e+00,1.461748838424682617e+00,1.461639165878295898e+00,1.461529612541198730e+00,1.461420059204101562e+00,1.461310505867004395e+00,1.461200833320617676e+00,1.461091279983520508e+00,1.460981726646423340e+00,1.460872173309326172e+00,1.460762858390808105e+00,1.460653305053710938e+00,1.460543870925903320e+00,1.460434436798095703e+00,1.460325002670288086e+00,1.460215568542480469e+00,1.460106134414672852e+00,1.167019248008728027e+00,1.134525060653686523e+00,1.116621851921081543e+00,1.102990746498107910e+00,1.095347166061401367e+00,1.097656607627868652e+00,1.459340810775756836e+00,1.459231615066528320e+00,1.459122300148010254e+00,1.459013104438781738e+00,1.458903908729553223e+00,1.458794593811035156e+00,1.458685398101806641e+00,1.458576202392578125e+00,1.458467245101928711e+00,1.458358049392700195e+00
1.349160671234130859e+00,1.349067211151123047e+00,1.348973870277404785e+00,1.348880410194396973e+00,1.348787069320678711e+00,1.348693847656250000e+00,1.348600506782531738e+00,1.348507165908813477e+00,1.348413825035095215e+00,1.348320484161376953e+00,1.348227262496948242e+00,1.348133921623229980e+00,1.348040819168090820e+00,1.347947597503662109e+00,1.347854375839233398e+00,1.347761154174804688e+00,1.347667932510375977e+00,1.347574710845947266e+00,1.347481489181518555e+00,1.347388386726379395e+00,1.347295284271240234e+00,1.347202181816101074e+00,1.347109079360961914e+00,1.347015857696533203e+00,1.346922755241394043e+00,1.346829652786254883e+00,1.346736669540405273e+00,1.346643686294555664e+00,1.346550583839416504e+00,1.346457600593566895e+00,1.346364498138427734e+00,1.346271514892578125e+00,1.346178531646728516e+00,1.346085548400878906e+00,1.345992565155029297e+00,1.345899701118469238e+00,1.345806717872619629e+00,1.345713734626770020e+00,1.345620870590209961e+00,1.345527887344360352e+00,1.345435142517089844e+00,1.345342159271240234e+00,1.345249295234680176e+00,1.345156431198120117e+00,1.345063567161560059e+00,1.344970822334289551e+00,1.344877958297729492e+00,1.344785213470458984e+00,1.344692468643188477e+00,1.344599604606628418e+00,1.344506859779357910e+00,1.344414114952087402e+00,1.344321370124816895e+00,1.344228625297546387e+00,1.344135999679565430e+00,1.344043254852294922e+00,1.343950629234313965e+00,1.343857884407043457e+00,1.343765258789062500e+00,1.343672513961791992e+00,1.343579888343811035e+00,1.343487381935119629e+00,1.343394756317138672e+00,1.343302130699157715e+00,1.166356682777404785e+00,1.130730867385864258e+00,1.109675168991088867e+00,1.094866037368774414e+00,1.084544897079467773e+00,1.078367114067077637e+00,1.079562306404113770e+00,1.342561841011047363e+00,1.342469334602355957e+00,1.342376828193664551e+00,1.342284321784973145e+00,1.342192053794860840e+00,1.342099547386169434e+00,1.342007160186767578e+00,1.341914653778076172e+00,1.341822266578674316e+00
1.248822808265686035e+00,1.248742818832397461e+00,1.248662948608398438e+00,1.248582959175109863e+00,1.248502969741821289e+00,1.248422980308532715e+00,1.248342990875244141e+00,1.248263001441955566e+00,1.248183012008666992e+00,1.248103141784667969e+00,1.248023271560668945e+00,1.247943282127380371e+00,1.247863411903381348e+00,1.247783422470092773e+00,1.247703552246093750e+00,1.247623682022094727e+00,1.247543931007385254e+00,1.247464060783386230e+00,1.247384190559387207e+00,1.247304320335388184e+00,1.247224450111389160e+00,1.247144699096679688e+00,1.247064828872680664e+00,1.246985077857971191e+00,1.246905326843261719e+00,1.246825575828552246e+00,1.246745824813842773e+00,1.246665954589843750e+00,1.246586203575134277e+00,1.246506571769714355e+00,1.246426820755004883e+00,1.246347188949584961e+00,1.246267437934875488e+00,1.246187686920166016e+00,1.246108055114746094e+00,1.246028304100036621e+00,1.245948672294616699e+00,1.245869159698486328e+00,1.245789408683776855e+00,1.245709776878356934e+00,1.245630145072937012e+00,1.245550513267517090e+00,1.245470881462097168e+00,1.245391488075256348e+00,1.245311856269836426e+00,1.245232224464416504e+00,1.245152711868286133e+00,1.245073080062866211e+00,1.244993567466735840e+00,1.244914054870605469e+00,1.244834542274475098e+00,1.244755029678344727e+00,1.244675517082214355e+00,1.244596123695373535e+00,1.244516611099243164e+00,1.244437098503112793e+00,1.244357585906982422e+00,1.244278311729431152e+00,1.244198799133300781e+00,1.244119405746459961e+00,1.244039893150329590e+00,1.243960499763488770e+00,1.243881106376647949e+00,1.243801712989807129e+00,1.243722438812255859e+00,1.132621407508850098e+00,1.099256634712219238e+00,1.083863377571105957e+00,1.073523521423339844e+00,1.065013051033020020e+00,1.060384273529052734e+00,1.058479309082031250e+00,1.243087768554687500e+00,1.243008494377136230e+00,1.242929220199584961e+00,1.242849946022033691e+00,1.242770671844482422e+00,1.242691397666931152e+00,1.242612242698669434e+00,1.242532968521118164e+00
1.162376403808593750e+00,1.162307143211364746e+00,1.162237763404846191e+00,1.162168502807617188e+00,1.162099123001098633e+00,1.162029981613159180e+00,1.161960601806640625e+00,1.161891341209411621e+00,1.161822080612182617e+00,1.161752820014953613e+00,1.161683559417724609e+00,1.161614298820495605e+00,1.161545157432556152e+00,1.161475896835327148e+00,1.161406636238098145e+00,1.161337494850158691e+00,1.161268234252929688e+00,1.161199092864990234e+00,1.161129832267761230e+00,1.161060690879821777e+00,1.160991549491882324e+00,1.160922408103942871e+00,1.160853266716003418e+00,1.160784125328063965e+00,1.160714983940124512e+00,1.160645842552185059e+00,1.160576701164245605e+00,1.160507678985595703e+00,1.160438537597656250e+00,1.160369396209716797e+00,1.160300254821777344e+00,1.160231232643127441e+00,1.160162091255187988e+00,1.160093188285827637e+00,1.160024046897888184e+00,1.159955024719238281e+00,1.159886002540588379e+00,1.159816980361938477e+00,1.159747958183288574e+00,1.159678936004638672e+00,1.159609913825988770e+00,1.159540891647338867e+00,1.159471988677978516e+00,1.159402966499328613e+00,1.159333944320678711e+00,1.159265041351318359e+00,1.159196019172668457e+00,1.159127116203308105e+00,1.159058213233947754e+00,1.158989310264587402e+00,1.158920288085937500e+00,1.158851385116577148e+00,1.158782482147216797e+00,1.158713579177856445e+00,1.158644795417785645e+00,1.158575892448425293e+00,1.158506989479064941e+00,1.158438086509704590e+00,1.158369302749633789e+00,1.158300399780273438e+00,1.158231616020202637e+00,1.158162832260131836e+00,1.158093929290771484e+00,1.158025145530700684e+00,1.157956361770629883e+00,1.157887578010559082e+00,1.098564028739929199e+00,1.069251418113708496e+00,1.058021306991577148e+00,1.050578474998474121e+00,1.044437527656555176e+00,1.040823698043823242e+00,1.040428519248962402e+00,1.157337427139282227e+00,1.157268762588500977e+00,1.157200098037719727e+00,1.157131314277648926e+00,1.157062649726867676e+00,1.156993985176086426e+00,1.156925201416015625e+00
1.087123155593872070e+00,1.087062478065490723e+00,1.087001919746398926e+00,1.086941242218017578e+00,1.086880683898925781e+00,1.086820006370544434e+00,1.086759448051452637e+00,1.086698770523071289e+00,1.086638212203979492e+00,1.086577653884887695e+00,1.086517095565795898e+00,1.086456537246704102e+00,1.086395978927612305e+00,1.086335420608520508e+00,1.086274862289428711e+00,1.086214303970336914e+00,1.086153864860534668e+00,1.086093306541442871e+00,1.086032748222351074e+00,1.085972189903259277e+00,1.085911750793457031e+00,1.085851192474365234e+00,1.085790634155273438e+00,1.085730195045471191e+00,1.085669755935668945e+00,1.085609316825866699e+00,1.085548758506774902e+00,1.085488319396972656e+00,1.085427880287170410e+00,1.085367441177368164e+00,1.085307002067565918e+00,1.085246562957763672e+00,1.085186123847961426e+00,1.085125684738159180e+00,1.085065245628356934e+00,1.085004806518554688e+00,1.084944486618041992e+00,1.084884166717529297e+00,1.084823727607727051e+00,1.084763288497924805e+00,1.084702968597412109e+00,1.084642529487609863e+00,1.084582209587097168e+00,1.084521889686584473e+00,1.084461569786071777e+00,1.084401130676269531e+00,1.084340810775756836e+00,1.084280490875244141e+00,1.084220170974731445e+00,1.084159851074218750e+00,1.084099650382995605e+00,1.084039330482482910e+00,1.083979010581970215e+00,1.083918690681457520e+00,1.083858370780944824e+00,1.083798170089721680e+00,1.083737850189208984e+00,1.083677649497985840e+00,1.083617329597473145e+00,1.083557128906250000e+00,1.083496809005737305e+00,1.083436608314514160e+00,1.083376407623291016e+00,1.083316206932067871e+00,1.083256006240844727e+00,1.083195805549621582e+00,1.083135604858398438e+00,1.067974925041198730e+00,1.047609686851501465e+00,1.032704830169677734e+00,1.024921655654907227e+00,1.018978357315063477e+00,1.016028523445129395e+00,1.017325043678283691e+00,1.016727805137634277e+00,1.082594037055969238e+00,1.082533836364746094e+00,1.082473754882812500e+00,1.082413673400878906e+00,1.082353591918945312e+00
1.021021366119384766e+00,1.020967841148376465e+00,1.020914435386657715e+00,1.020860910415649414e+00,1.020807385444641113e+00,1.020753979682922363e+00,1.020700573921203613e+00,1.020647048950195312e+00,1.020593643188476562e+00,1.020540118217468262e+00,1.020486712455749512e+00,1.020433306694030762e+00,1.020379900932312012e+00,1.020326495170593262e+00,1.020273089408874512e+00,1.020219683647155762e+00,1.020166277885437012e+00,1.020112872123718262e+00,1.020059466361999512e+00,1.020006060600280762e+00,1.019952654838562012e+00,1.019899249076843262e+00,1.019845962524414062e+00,1.019792556762695312e+00,1.019739151000976562e+00,1.019685864448547363e+00,1.019632577896118164e+00,1.019579172134399414e+00,1.019525885581970215e+00,1.019472479820251465e+00,1.019419193267822266e+00,1.019365787506103516e+00,1.019312500953674316e+00,1.019259214401245117e+00,1.019205927848815918e+00,1.019152641296386719e+00,1.019099354743957520e+00,1.019046068191528320e+00,1.018992781639099121e+00,1.018939495086669922e+00,1.018886208534240723e+00,1.018832921981811523e+00,1.018779754638671875e+00,1.018726468086242676e+00,1.018673181533813477e+00,1.018619894981384277e+00,1.018566727638244629e+00,1.018513560295104980e+00,1.018460273742675781e+00,1.018406987190246582e+00,1.018353819847106934e+00,1.018300652503967285e+00,1.018247365951538086e+00,1.018194198608398438e+00,1.018141031265258789e+00,1.018087863922119141e+00,1.018034696578979492e+00,1.017981529235839844e+00,1.017928242683410645e+00,1.017875075340270996e+00,1.017821907997131348e+00,1.017768859863281250e+00,1.017715692520141602e+00,1.017662525177001953e+00,1.017609357833862305e+00,1.017556309700012207e+00,1.017503142356872559e+00,1.017449975013732910e+00,1.017396926879882812e+00,1.017343878746032715e+00,1.017290711402893066e+00,1.017237544059753418e+00,1.005594134330749512e+00,1.002578139305114746e+00,9.983427524566650391e-01,1.017025351524353027e+00,1.016972184181213379e+00,1.016919136047363281e+00,1.016866087913513184e+00,1.016813039779663086e+00
9.624973535537719727e-01,9.624498486518859863e-01,9.624023437500000000e-01,9.623547792434692383e-01,9.623073339462280273e-01,9.622597098350524902e-01,9.622122645378112793e-01,9.621647000312805176e-01,9.621172547340393066e-01,9.620698094367980957e-01,9.620222449302673340e-01,9.619747996330261230e-01,9.619272947311401367e-01,9.618798494338989258e-01,9.618323445320129395e-01,9.617848992347717285e-01,9.617375135421752930e-01,9.616899490356445312e-01,9.616425633430480957e-01,9.615950584411621094e-01,9.615476727485656738e-01,9.615001678466796875e-01,9.614527821540832520e-01,9.614053964614868164e-01,9.613578915596008301e-01,9.613105058670043945e-01,9.612630605697631836e-01,9.612156748771667480e-01,9.611682295799255371e-01,9.611208438873291016e-01,9.610735177993774414e-01,9.610260725021362305e-01,9.609787464141845703e-01,9.609313011169433594e-01,9.608839750289916992e-01,9.608365297317504883e-01,9.607892036437988281e-01,9.607418775558471680e-01,9.606944322586059570e-01,9.606471657752990723e-01,9.605997204780578613e-01,9.605524539947509766e-01,9.605050086975097656e-01,9.604577422142028809e-01,9.604104757308959961e-01,9.603630900382995605e-01,9.603158235549926758e-01,9.602684378623962402e-01,9.602211713790893555e-01,9.601737856864929199e-01,9.601265192031860352e-01,9.600792527198791504e-01,9.600319266319274902e-01,9.599846601486206055e-01,9.599373340606689453e-01,9.598900675773620605e-01,9.598427414894104004e-01,9.597955346107482910e-01,9.597483277320861816e-01,9.597010016441345215e-01,9.596537947654724121e-01,9.596064686775207520e-01,9.595592617988586426e-01,9.595119357109069824e-01,9.594647884368896484e-01,9.594175815582275391e-01,9.593703150749206543e-01,9.593231081962585449e-01,9.592758417129516602e-01,9.592286944389343262e-01,9.591813683509826660e-01,9.591342210769653320e-01,9.590870738029479980e-01,9.590398073196411133e-01,9.589926600456237793e-01,9.589453935623168945e-01,9.588983058929443359e-01,9.588510394096374512e-01,9.588038921356201172e-01,9.587568044662475586e-01
9.103187322616577148e-01,9.102762341499328613e-01,9.102336764335632324e-01,9.101912379264831543e-01,9.101486206054687500e-01,9.101061820983886719e-01,9.100637435913085938e-01,9.100211858749389648e-01,9.099787473678588867e-01,9.099361896514892578e-01,9.098937511444091797e-01,9.098511934280395508e-01,9.098087549209594727e-01,9.097663760185241699e-01,9.097238183021545410e-01,9.096813797950744629e-01,9.096388816833496094e-01,9.095965027809143066e-01,9.095539450645446777e-01,9.095115661621093750e-01,9.094691872596740723e-01,9.094266891479492188e-01,9.093842506408691406e-01,9.093418121337890625e-01,9.092994332313537598e-01,9.092569351196289062e-01,9.092145562171936035e-01,9.091721773147583008e-01,9.091296792030334473e-01,9.090873599052429199e-01,9.090448617935180664e-01,9.090025424957275391e-01,9.089600443840026855e-01,9.089177250862121582e-01,9.088754057884216309e-01,9.088329672813415527e-01,9.087905883789062500e-01,9.087481498718261719e-01,9.087058305740356445e-01,9.086633920669555664e-01,9.086210727691650391e-01,9.085787534713745117e-01,9.085363745689392090e-01,9.084940552711486816e-01,9.084516763687133789e-01,9.084093570709228516e-01,9.083669781684875488e-01,9.083246588706970215e-01,9.082823991775512695e-01,9.082399606704711914e-01,9.081977009773254395e-01,9.081553220748901367e-01,9.081130623817443848e-01,9.080706834793090820e-01,9.080284237861633301e-01,9.079861640930175781e-01,9.079437851905822754e-01,9.079015254974365234e-01,9.078592061996459961e-01,9.078169465065002441e-01,9.077746272087097168e-01,9.077323675155639648e-01,9.076901078224182129e-01,9.076477885246276855e-01,9.076055884361267090e-01,9.075632691383361816e-01,9.075210094451904297e-01,9.074787497520446777e-01,9.074364900588989258e-01,9.073942899703979492e-01,9.073520302772521973e-01,9.073098301887512207e-01,9.072675108909606934e-01,9.072253108024597168e-01,9.071830511093139648e-01,9.071408510208129883e-01,9.070986509323120117e-01,9.070563912391662598e-01,9.070142507553100586e-01,9.069719910621643066e-01
8.635065555572509766e-01,8.634682893753051758e-01,8.634300231933593750e-01,8.633918166160583496e-01,8.633535504341125488e-01,8.633153438568115234e-01,8.632770180702209473e-01,8.632388114929199219e-01,8.632005453109741211e-01,8.631623387336730957e-01,8.631241917610168457e-01,8.630858659744262695e-01,8.630477190017700195e-01,8.630094528198242188e-01,8.629712462425231934e-01,8.629329800605773926e-01,8.628948330879211426e-01,8.628566861152648926e-01,8.628184199333190918e-01,8.627802729606628418e-01,8.627420067787170410e-01,8.627038598060607910e-01,8.626656532287597656e-01,8.626275062561035156e-01,8.625893592834472656e-01,8.625510931015014648e-01,8.625129461288452148e-01,8.624747395515441895e-01,8.624366521835327148e-01,8.623985052108764648e-01,8.623602986335754395e-01,8.623221516609191895e-01,8.622839450836181641e-01,8.622458577156066895e-01,8.622076511383056641e-01,8.621695637702941895e-01,8.621313571929931641e-01,8.620932698249816895e-01,8.620551824569702148e-01,8.620169758796691895e-01,8.619788885116577148e-01,8.619407415390014648e-01,8.619026541709899902e-01,8.618645668029785156e-01,8.618264198303222656e-01,8.617883324623107910e-01,8.617501854896545410e-01,8.617120981216430664e-01,8.616739511489868164e-01,8.616359233856201172e-01,8.615978360176086426e-01,8.615596890449523926e-01,8.615216612815856934e-01,8.614835143089294434e-01,8.614454865455627441e-01,8.614073395729064941e-01,8.613693118095397949e-01,8.613312840461730957e-01,8.612931966781616211e-01,8.612551689147949219e-01,8.612170219421386719e-01,8.611790537834167480e-01,8.611409068107604980e-01,8.611029386520385742e-01,8.610649108886718750e-01,8.610268235206604004e-01,8.609887957572937012e-01,8.609507083892822266e-01,8.609127402305603027e-01,8.608746528625488281e-01,8.608366847038269043e-01,8.607986569404602051e-01,8.607606291770935059e-01,8.607226610183715820e-01,8.606845736503601074e-01,8.606466054916381836e-01,8.606085181236267090e-01,8.605706095695495605e-01,8.605326414108276367e-01,8.604945540428161621e-01
