5.000000000000000000e+00,5.000000000000000000e+00,5.000000000000000000e+00,5.000000000000000000e+00,5.000000000000000000e+00,5.000000000000000000e+00,5.000000000000000000e+00,5.000000000000000000e+00,5.000000000000000000e+00,5.000000000000000000e+00,5.000000000000000000e+00,5.000000000000000000e+00,5.000000000000000000e+00,5.000000000000000000e+00,5.000000000000000000e+00,5.000000000000000000e+00,5.000000000000000000e+00,5.000000000000000000e+00,5.000000000000000000e+00,5.000000000000000000e+00,5.000000000000000000e+00,5.000000000000000000e+00,5.000000000000000000e+00,5.000000000000000000e+00,5.000000000000000000e+00,5.000000000000000000e+00,5.000000000000000000e+00,5.000000000000000000e+00,5.000000000000000000e+00,5.000000000000000000e+00,5.000000000000000000e+00,5.000000000000000000e+00,5.000000000000000000e+00,5.000000000000000000e+00,5.000000000000000000e+00,5.000000000000000000e+00,5.000000000000000000e+00,5.000000000000000000e+00,5.000000000000000000e+00,4.848977088928222656e+00,4.659109115600585938e+00,4.483550071716308594e+00,4.320740699768066406e+00,4.169341564178466797e+00,4.028192996978759766e+00,1.374324440956115723e+00,1.345901012420654297e+00,1.330751419067382812e+00,1.348471641540527344e+00,3.445050954818725586e+00,1.307303071022033691e+00,1.269460678100585938e+00,1.240983128547668457e+00,1.215164065361022949e+00,1.192100048065185547e+00,1.181323051452636719e+00,1.174490213394165039e+00,1.171369552612304688e+00,1.211363792419433594e+00,1.468981266021728516e+00,2.612889528274536133e+00,2.556745290756225586e+00,2.502962589263916016e+00,2.451396465301513672e+00,2.401911497116088867e+00,2.354385614395141602e+00,2.308703660964965820e+00,1.420429348945617676e+00,1.378675937652587891e+00,2.181709051132202148e+00,2.142426490783691406e+00,2.104533433914184570e+00,2.067957401275634766e+00,2.032631158828735352e+00,1.998491525650024414e+00,1.965479731559753418e+00,1.933540701866149902e+00,1.902623414993286133e+00,1.872678995132446289e+00,1.843662500381469727e+00
5.000000000000000000e+00,5.000000000000000000e+00,5.000000000000000000e+00,5.000000000000000000e+00,5.000000000000000000e+00,5.000000000000000000e+00,5.000000000000000000e+00,5.000000000000000000e+00,5.000000000000000000e+00,5.000000000000000000e+00,5.000000000000000000e+00,5.000000000000000000e+00,5.000000000000000000e+00,5.000000000000000000e+00,5.000000000000000000e+00,5.000000000000000000e+00,5.000000000000000000e+00,5.000000000000000000e+00,5.000000000000000000e+00,5.000000000000000000e+00,5.000000000000000000e+00,5.000000000000000000e+00,5.000000000000000000e+00,5.000000000000000000e+00,5.000000000000000000e+00,5.000000000000000000e+00,5.000000000000000000e+00,5.000000000000000000e+00,5.000000000000000000e+00,5.000000000000000000e+00,5.000000000000000000e+00,5.000000000000000000e+00,5.000000000000000000e+00,5.000000000000000000e+00,5.000000000000000000e+00,5.000000000000000000e+00,5.000000000000000000e+00,5.000000000000000000e+00,5.000000000000000000e+00,4.849115848541259766e+00,4.659237384796142578e+00,4.483668804168701172e+00,4.320850849151611328e+00,4.169444561004638672e+00,4.028288841247558594e+00,1.369102716445922852e+00,1.343226432800292969e+00,1.322933316230773926e+00,3.547844648361206055e+00,1.336121678352355957e+00,1.315310239791870117e+00,1.277804732322692871e+00,1.244447231292724609e+00,1.218485474586486816e+00,1.191863775253295898e+00,1.176063179969787598e+00,1.165572881698608398e+00,1.157838702201843262e+00,1.182154655456542969e+00,2.671597480773925781e+00,2.612930059432983398e+00,2.556783676147460938e+00,2.502999782562255859e+00,2.451431751251220703e+00,2.401945829391479492e+00,2.354418516159057617e+00,1.474422335624694824e+00,1.442545413970947266e+00,1.404356837272644043e+00,2.181737422943115234e+00,2.142453670501708984e+00,2.104559659957885742e+00,2.067982673645019531e+00,2.032655477523803711e+00,1.998515129089355469e+00,1.965502738952636719e+00,1.933562994003295898e+00,1.902644753456115723e+00,1.872699618339538574e+00,1.843682765960693359e+00
5.000000000000000000e+00,5.000000000000000000e+00,5.000000000000000000e+00,5.000000000000000000e+00,5.000000000000000000e+00,5.000000000000000000e+00,5.000000000000000000e+00,5.000000000000000000e+00,5.000000000000000000e+00,5.000000000000000000e+00,5.000000000000000000e+00,5.000000000000000000e+00,5.000000000000000000e+00,5.000000000000000000e+00,5.000000000000000000e+00,5.000000000000000000e+00,5.000000000000000000e+00,5.000000000000000000e+00,5.000000000000000000e+00,5.000000000000000000e+00,5.000000000000000000e+00,5.000000000000000000e+00,5.000000000000000000e+00,5.000000000000000000e+00,5.000000000000000000e+00,5.000000000000000000e+00,5.000000000000000000e+00,5.000000000000000000e+00,5.000000000000000000e+00,5.000000000000000000e+00,5.000000000000000000e+00,5.000000000000000000e+00,5.000000000000000000e+00,5.000000000000000000e+00,5.000000000000000000e+00,5.000000000000000000e+00,5.000000000000000000e+00,5.000000000000000000e+00,5.000000000000000000e+00,4.849255084991455078e+00,4.659366130828857422e+00,4.483788013458251953e+00,4.320961952209472656e+00,4.169547080993652344e+00,4.028385162353515625e+00,1.387618422508239746e+00,1.335328221321105957e+00,1.319351315498352051e+00,3.547918796539306641e+00,3.445191860198974609e+00,3.348245859146118164e+00,1.286452293395996094e+00,1.252018094062805176e+00,1.221824884414672852e+00,1.195839524269104004e+00,1.170849800109863281e+00,1.160452008247375488e+00,1.150237321853637695e+00,1.154320955276489258e+00,1.184148311614990234e+00,2.612970352172851562e+00,2.556822538375854492e+00,2.503036737442016602e+00,2.451467275619506836e+00,2.401979923248291016e+00,2.354451179504394531e+00,2.308766603469848633e+00,2.264821529388427734e+00,2.222517728805541992e+00,2.181765556335449219e+00,2.142480850219726562e+00,2.104585886001586914e+00,2.068007946014404297e+00,2.032680034637451172e+00,1.998538970947265625e+00,1.965525627136230469e+00,1.933585047721862793e+00,1.902666091918945312e+00,1.872720599174499512e+00,1.843702793121337891e+00
5.000000000000000000e+00,5.000000000000000000e+00,5.000000000000000000e+00,5.000000000000000000e+00,5.000000000000000000e+00,5.000000000000000000e+00,5.000000000000000000e+00,5.000000000000000000e+00,5.000000000000000000e+00,5.000000000000000000e+00,5.000000000000000000e+00,5.000000000000000000e+00,5.000000000000000000e+00,5.000000000000000000e+00,5.000000000000000000e+00,5.000000000000000000e+00,5.000000000000000000e+00,5.000000000000000000e+00,5.000000000000000000e+00,5.000000000000000000e+00,5.000000000000000000e+00,5.000000000000000000e+00,5.000000000000000000e+00,5.000000000000000000e+00,5.000000000000000000e+00,5.000000000000000000e+00,5.000000000000000000e+00,5.000000000000000000e+00,5.000000000000000000e+00,5.000000000000000000e+00,5.000000000000000000e+00,5.000000000000000000e+00,5.000000000000000000e+00,5.000000000000000000e+00,5.000000000000000000e+00,5.000000000000000000e+00,5.000000000000000000e+00,5.000000000000000000e+00,5.000000000000000000e+00,4.849394798278808594e+00,4.659494400024414062e+00,4.483907222747802734e+00,4.321072101593017578e+00,4.169650077819824219e+00,4.028481483459472656e+00,1.384302973747253418e+00,1.331967234611511230e+00,3.657039642333984375e+00,3.547993659973144531e+00,3.445262193679809570e+00,3.348312139511108398e+00,3.256669759750366211e+00,1.259934067726135254e+00,1.227251648902893066e+00,1.199841976165771484e+00,1.172926306724548340e+00,1.155340313911437988e+00,1.145183086395263672e+00,1.140346169471740723e+00,1.163424015045166016e+00,2.613010883331298828e+00,2.556861400604248047e+00,2.503073692321777344e+00,2.451502799987792969e+00,2.402014017105102539e+00,2.354484081268310547e+00,2.308798313140869141e+00,2.264851808547973633e+00,2.222547054290771484e+00,2.181793689727783203e+00,2.142508029937744141e+00,2.104612112045288086e+00,2.068033218383789062e+00,2.032704591751098633e+00,1.998562455177307129e+00,1.965548396110534668e+00,1.933607339859008789e+00,1.902687668800354004e+00,1.872741222381591797e+00,1.843722939491271973e+00
5.000000000000000000e+00,5.000000000000000000e+00,5.000000000000000000e+00,5.000000000000000000e+00,5.000000000000000000e+00,5.000000000000000000e+00,5.000000000000000000e+00,5.000000000000000000e+00,5.000000000000000000e+00,5.000000000000000000e+00,5.000000000000000000e+00,5.000000000000000000e+00,5.000000000000000000e+00,5.000000000000000000e+00,5.000000000000000000e+00,5.000000000000000000e+00,5.000000000000000000e+00,5.000000000000000000e+00,5.000000000000000000e+00,5.000000000000000000e+00,5.000000000000000000e+00,5.000000000000000000e+00,5.000000000000000000e+00,5.000000000000000000e+00,5.000000000000000000e+00,5.000000000000000000e+00,5.000000000000000000e+00,5.000000000000000000e+00,5.000000000000000000e+00,5.000000000000000000e+00,5.000000000000000000e+00,5.000000000000000000e+00,5.000000000000000000e+00,5.000000000000000000e+00,5.000000000000000000e+00,5.000000000000000000e+00,5.000000000000000000e+00,5.000000000000000000e+00,5.000000000000000000e+00,4.849533557891845703e+00,4.659623146057128906e+00,4.484025955200195312e+00,4.321182727813720703e+00,4.169753074645996094e+00,4.028577327728271484e+00,1.382051348686218262e+00,3.773085594177246094e+00,3.657119035720825195e+00,3.548068284988403320e+00,3.445332288742065430e+00,3.348378658294677734e+00,3.256732463836669922e+00,1.264396905899047852e+00,1.233550906181335449e+00,1.203446149826049805e+00,1.177089452743530273e+00,1.154519081115722656e+00,1.142826199531555176e+00,1.131897568702697754e+00,1.148795843124389648e+00,2.613051176071166992e+00,2.556899547576904297e+00,2.503110885620117188e+00,2.451538562774658203e+00,2.402048349380493164e+00,2.354516983032226562e+00,2.308829784393310547e+00,2.264882326126098633e+00,2.222576379776000977e+00,2.181821823120117188e+00,2.142535209655761719e+00,2.104638338088989258e+00,2.068058729171752930e+00,2.032728910446166992e+00,1.998586058616638184e+00,1.965571403503417969e+00,1.933629393577575684e+00,1.902709007263183594e+00,1.872761964797973633e+00,1.843743205070495605e+00
5.000000000000000000e+00,5.000000000000000000e+00,5.000000000000000000e+00,5.000000000000000000e+00,5.000000000000000000e+00,5.000000000000000000e+00,5.000000000000000000e+00,5.000000000000000000e+00,5.000000000000000000e+00,5.000000000000000000e+00,5.000000000000000000e+00,5.000000000000000000e+00,5.000000000000000000e+00,5.000000000000000000e+00,5.000000000000000000e+00,5.000000000000000000e+00,5.000000000000000000e+00,5.000000000000000000e+00,5.000000000000000000e+00,5.000000000000000000e+00,5.000000000000000000e+00,5.000000000000000000e+00,5.000000000000000000e+00,5.000000000000000000e+00,5.000000000000000000e+00,5.000000000000000000e+00,5.000000000000000000e+00,5.000000000000000000e+00,5.000000000000000000e+00,5.000000000000000000e+00,5.000000000000000000e+00,5.000000000000000000e+00,5.000000000000000000e+00,5.000000000000000000e+00,5.000000000000000000e+00,5.000000000000000000e+00,5.000000000000000000e+00,5.000000000000000000e+00,5.000000000000000000e+00,4.849672794342041016e+00,4.659751892089843750e+00,4.484145164489746094e+00,4.321293354034423828e+00,4.169856071472167969e+00,4.028673171997070312e+00,3.896738290786743164e+00,3.773169994354248047e+00,3.657198429107666016e+00,3.548142433166503906e+00,3.445402622222900391e+00,3.348445177078247070e+00,3.256795167922973633e+00,1.484293103218078613e+00,1.237828373908996582e+00,1.208531618118286133e+00,1.181458353996276855e+00,1.155274033546447754e+00,1.143220663070678711e+00,1.133415222167968750e+00,1.150616765022277832e+00,2.613091468811035156e+00,2.556938409805297852e+00,2.503148078918457031e+00,2.451574087142944336e+00,2.402082443237304688e+00,2.354549646377563477e+00,2.308861255645751953e+00,2.264912605285644531e+00,2.222605466842651367e+00,2.181850194931030273e+00,2.142562389373779297e+00,2.104664564132690430e+00,2.068084001541137695e+00,2.032753467559814453e+00,1.998609900474548340e+00,1.965594172477722168e+00,1.933651447296142578e+00,1.902730584144592285e+00,1.872782826423645020e+00,1.843763232231140137e+00
5.000000000000000000e+00,5.000000000000000000e+00,5.000000000000000000e+00,5.000000000000000000e+00,5.000000000000000000e+00,5.000000000000000000e+00,5.000000000000000000e+00,5.000000000000000000e+00,5.000000000000000000e+00,5.000000000000000000e+00,5.000000000000000000e+00,5.000000000000000000e+00,5.000000000000000000e+00,5.000000000000000000e+00,5.000000000000000000e+00,5.000000000000000000e+00,5.000000000000000000e+00,5.000000000000000000e+00,5.000000000000000000e+00,5.000000000000000000e+00,5.000000000000000000e+00,5.000000000000000000e+00,5.000000000000000000e+00,5.000000000000000000e+00,5.000000000000000000e+00,5.000000000000000000e+00,5.000000000000000000e+00,5.000000000000000000e+00,5.000000000000000000e+00,5.000000000000000000e+00,5.000000000000000000e+00,5.000000000000000000e+00,5.000000000000000000e+00,5.000000000000000000e+00,5.000000000000000000e+00,5.000000000000000000e+00,5.000000000000000000e+00,5.000000000000000000e+00,5.000000000000000000e+00,4.849812507629394531e+00,4.659880161285400391e+00,4.484264373779296875e+00,4.321403980255126953e+00,4.169959068298339844e+00,4.028769493103027344e+00,3.896827936172485352e+00,3.773254394531250000e+00,3.657277345657348633e+00,3.548217058181762695e+00,3.445472955703735352e+00,3.348511457443237305e+00,3.256858110427856445e+00,1.483559131622314453e+00,1.243119478225708008e+00,1.214172482490539551e+00,1.179296255111694336e+00,1.157860994338989258e+00,1.146422982215881348e+00,1.138309597969055176e+00,1.155637025833129883e+00,2.613131999969482422e+00,2.556977272033691406e+00,2.503185033798217773e+00,2.451609611511230469e+00,2.402116775512695312e+00,2.354582548141479492e+00,2.308892965316772461e+00,2.264942884445190430e+00,2.222634792327880859e+00,2.181878328323364258e+00,2.142589569091796875e+00,2.104690790176391602e+00,2.068109273910522461e+00,2.032778024673461914e+00,1.998633503913879395e+00,1.965617060661315918e+00,1.933673739433288574e+00,1.902752041816711426e+00,1.872803568840026855e+00,1.843783259391784668e+00
5.000000000000000000e+00,5.000000000000000000e+00,5.000000000000000000e+00,5.000000000000000000e+00,5.000000000000000000e+00,5.000000000000000000e+00,5.000000000000000000e+00,5.000000000000000000e+00,5.000000000000000000e+00,5.000000000000000000e+00,5.000000000000000000e+00,5.000000000000000000e+00,5.000000000000000000e+00,5.000000000000000000e+00,5.000000000000000000e+00,5.000000000000000000e+00,5.000000000000000000e+00,5.000000000000000000e+00,5.000000000000000000e+00,5.000000000000000000e+00,5.000000000000000000e+00,5.000000000000000000e+00,5.000000000000000000e+00,5.000000000000000000e+00,5.000000000000000000e+00,5.000000000000000000e+00,5.000000000000000000e+00,5.000000000000000000e+00,5.000000000000000000e+00,5.000000000000000000e+00,5.000000000000000000e+00,5.000000000000000000e+00,5.000000000000000000e+00,5.000000000000000000e+00,5.000000000000000000e+00,5.000000000000000000e+00,5.000000000000000000e+00,5.000000000000000000e+00,5.000000000000000000e+00,4.849951267242431641e+00,4.660008430480957031e+00,4.484383583068847656e+00,4.321514606475830078e+00,4.170062065124511719e+00,4.028865814208984375e+00,3.896918058395385742e+00,3.773339033126831055e+00,3.657356500625610352e+00,3.548291921615600586e+00,3.445543050765991211e+00,3.348577976226806641e+00,3.256921052932739258e+00,1.490455508232116699e+00,1.442670464515686035e+00,1.209533095359802246e+00,1.179521799087524414e+00,1.162640333175659180e+00,1.152706146240234375e+00,1.147616505622863770e+00,1.165230631828308105e+00,2.613172292709350586e+00,2.557015895843505859e+00,2.503222227096557617e+00,2.451645374298095703e+00,2.402150869369506836e+00,2.354615449905395508e+00,2.308924436569213867e+00,2.264973402023315430e+00,2.222664117813110352e+00,2.181906461715698242e+00,2.142616748809814453e+00,2.104717016220092773e+00,2.068134546279907227e+00,2.032802343368530273e+00,1.998656988143920898e+00,1.965640068054199219e+00,1.933695793151855469e+00,1.902773380279541016e+00,1.872824430465698242e+00,1.843803524971008301e+00
5.000000000000000000e+00,5.000000000000000000e+00,5.000000000000000000e+00,5.000000000000000000e+00,5.000000000000000000e+00,5.000000000000000000e+00,5.000000000000000000e+00,5.000000000000000000e+00,5.000000000000000000e+00,5.000000000000000000e+00,5.000000000000000000e+00,5.000000000000000000e+00,5.000000000000000000e+00,5.000000000000000000e+00,5.000000000000000000e+00,5.000000000000000000e+00,5.000000000000000000e+00,5.000000000000000000e+00,5.000000000000000000e+00,5.000000000000000000e+00,5.000000000000000000e+00,5.000000000000000000e+00,5.000000000000000000e+00,5.000000000000000000e+00,5.000000000000000000e+00,5.000000000000000000e+00,5.000000000000000000e+00,5.000000000000000000e+00,5.000000000000000000e+00,5.000000000000000000e+00,5.000000000000000000e+00,5.000000000000000000e+00,5.000000000000000000e+00,5.000000000000000000e+00,5.000000000000000000e+00,5.000000000000000000e+00,5.000000000000000000e+00,5.000000000000000000e+00,5.000000000000000000e+00,4.850090980529785156e+00,4.660137653350830078e+00,4.484502315521240234e+00,4.321625232696533203e+00,4.170165061950683594e+00,4.028961658477783203e+00,3.897008180618286133e+00,3.773422956466674805e+00,3.657435894012451172e+00,3.548366069793701172e+00,3.445613622665405273e+00,3.348644495010375977e+00,3.256983757019042969e+00,1.498179793357849121e+00,1.245724439620971680e+00,1.203876733779907227e+00,1.179084062576293945e+00,1.167344212532043457e+00,1.159058451652526855e+00,1.157076954841613770e+00,1.179930329322814941e+00,2.613212823867797852e+00,2.557054519653320312e+00,2.503259420394897461e+00,2.451680898666381836e+00,2.402184963226318359e+00,2.354648351669311523e+00,2.308956146240234375e+00,2.265003681182861328e+00,2.222693204879760742e+00,2.181934833526611328e+00,2.142643928527832031e+00,2.104743242263793945e+00,2.068160057067871094e+00,2.032826900482177734e+00,1.998680830001831055e+00,1.965662837028503418e+00,1.933717966079711914e+00,1.902794957160949707e+00,1.872845172882080078e+00,1.843823552131652832e+00
5.000000000000000000e+00,5.000000000000000000e+00,5.000000000000000000e+00,5.000000000000000000e+00,5.000000000000000000e+00,5.000000000000000000e+00,5.000000000000000000e+00,5.000000000000000000e+00,5.000000000000000000e+00,5.000000000000000000e+00,5.000000000000000000e+00,5.000000000000000000e+00,5.000000000000000000e+00,5.000000000000000000e+00,5.000000000000000000e+00,5.000000000000000000e+00,5.000000000000000000e+00,5.000000000000000000e+00,5.000000000000000000e+00,5.000000000000000000e+00,5.000000000000000000e+00,5.000000000000000000e+00,5.000000000000000000e+00,5.000000000000000000e+00,5.000000000000000000e+00,5.000000000000000000e+00,5.000000000000000000e+00,5.000000000000000000e+00,5.000000000000000000e+00,5.000000000000000000e+00,5.000000000000000000e+00,5.000000000000000000e+00,5.000000000000000000e+00,5.000000000000000000e+00,5.000000000000000000e+00,5.000000000000000000e+00,5.000000000000000000e+00,5.000000000000000000e+00,5.000000000000000000e+00,4.850230216979980469e+00,4.660265922546386719e+00,4.484621524810791016e+00,4.321735858917236328e+00,4.170268058776855469e+00,4.029057979583740234e+00,3.897097587585449219e+00,3.773507356643676758e+00,3.657515287399291992e+00,3.548440694808959961e+00,3.445683956146240234e+00,3.348710536956787109e+00,3.257046699523925781e+00,1.503858923912048340e+00,1.236864805221557617e+00,1.201034426689147949e+00,1.181955456733703613e+00,1.172086358070373535e+00,1.165481328964233398e+00,1.166694641113281250e+00,2.671935319900512695e+00,2.613253116607666016e+00,2.557093381881713867e+00,2.503296375274658203e+00,2.451716423034667969e+00,2.402219295501708984e+00,2.354681015014648438e+00,2.308987617492675781e+00,2.265033960342407227e+00,2.222722530364990234e+00,2.181962966918945312e+00,2.142671108245849609e+00,2.104769468307495117e+00,2.068185091018676758e+00,2.032851219177246094e+00,1.998704433441162109e+00,1.965685606002807617e+00,1.933740258216857910e+00,1.902816295623779297e+00,1.872865796089172363e+00,1.843843817710876465e+00
5.000000000000000000e+00,5.000000000000000000e+00,5.000000000000000000e+00,5.000000000000000000e+00,5.000000000000000000e+00,5.000000000000000000e+00,5.000000000000000000e+00,5.000000000000000000e+00,5.000000000000000000e+00,5.000000000000000000e+00,5.000000000000000000e+00,5.000000000000000000e+00,5.000000000000000000e+00,5.000000000000000000e+00,5.000000000000000000e+00,5.000000000000000000e+00,5.000000000000000000e+00,5.000000000000000000e+00,5.000000000000000000e+00,5.000000000000000000e+00,5.000000000000000000e+00,5.000000000000000000e+00,5.000000000000000000e+00,5.000000000000000000e+00,5.000000000000000000e+00,5.000000000000000000e+00,5.000000000000000000e+00,5.000000000000000000e+00,5.000000000000000000e+00,5.000000000000000000e+00,5.000000000000000000e+00,5.000000000000000000e+00,5.000000000000000000e+00,5.000000000000000000e+00,5.000000000000000000e+00,5.000000000000000000e+00,5.000000000000000000e+00,5.000000000000000000e+00,5.000000000000000000e+00,4.850369453430175781e+00,4.660394668579101562e+00,4.484740734100341797e+00,4.321846485137939453e+00,4.170371055603027344e+00,4.029153823852539062e+00,3.897187709808349609e+00,3.773591756820678711e+00,3.657594203948974609e+00,3.548515558242797852e+00,3.445754051208496094e+00,3.348777055740356445e+00,3.257109403610229492e+00,1.490819454193115234e+00,1.230937480926513672e+00,1.201150059700012207e+00,1.184840917587280273e+00,1.176867246627807617e+00,1.171975612640380859e+00,1.179040431976318359e+00,2.671977519989013672e+00,2.613293647766113281e+00,2.557132005691528320e+00,2.503333568572998047e+00,2.451752185821533203e+00,2.402253150939941406e+00,2.354713916778564453e+00,2.309019327163696289e+00,2.265064477920532227e+00,2.222751855850219727e+00,2.181991100311279297e+00,2.142698287963867188e+00,2.104795694351196289e+00,2.068210601806640625e+00,2.032875776290893555e+00,1.998728036880493164e+00,1.965708732604980469e+00,1.933762311935424805e+00,1.902837634086608887e+00,1.872886776924133301e+00,1.843863964080810547e+00
5.000000000000000000e+00,5.000000000000000000e+00,5.000000000000000000e+00,5.000000000000000000e+00,5.000000000000000000e+00,5.000000000000000000e+00,5.000000000000000000e+00,5.000000000000000000e+00,5.000000000000000000e+00,5.000000000000000000e+00,5.000000000000000000e+00,5.000000000000000000e+00,5.000000000000000000e+00,5.000000000000000000e+00,5.000000000000000000e+00,5.000000000000000000e+00,5.000000000000000000e+00,5.000000000000000000e+00,5.000000000000000000e+00,5.000000000000000000e+00,5.000000000000000000e+00,5.000000000000000000e+00,5.000000000000000000e+00,5.000000000000000000e+00,5.000000000000000000e+00,5.000000000000000000e+00,5.000000000000000000e+00,5.000000000000000000e+00,5.000000000000000000e+00,5.000000000000000000e+00,5.000000000000000000e+00,5.000000000000000000e+00,5.000000000000000000e+00,5.000000000000000000e+00,5.000000000000000000e+00,5.000000000000000000e+00,5.000000000000000000e+00,5.000000000000000000e+00,5.000000000000000000e+00,4.850508689880371094e+00,4.660523414611816406e+00,4.484859466552734375e+00,4.321957111358642578e+00,4.170474052429199219e+00,4.029250144958496094e+00,3.897277832031250000e+00,3.773675918579101562e+00,3.657673597335815430e+00,3.548590183258056641e+00,3.445824384689331055e+00,3.348843574523925781e+00,3.257172107696533203e+00,1.476244449615478516e+00,1.225079536437988281e+00,1.204130172729492188e+00,1.187740564346313477e+00,1.181687116622924805e+00,1.176863431930541992e+00,1.203478336334228516e+00,2.672019958496093750e+00,2.613334178924560547e+00,2.557170629501342773e+00,2.503370523452758789e+00,2.451787471771240234e+00,2.402287483215332031e+00,2.354746818542480469e+00,2.309050798416137695e+00,2.265094995498657227e+00,2.222780942916870117e+00,2.182019233703613281e+00,2.142725706100463867e+00,2.104821920394897461e+00,2.068235874176025391e+00,2.032900333404541016e+00,1.998751759529113770e+00,1.965731501579284668e+00,1.933784365653991699e+00,1.902859210968017578e+00,1.872907400131225586e+00,1.843883991241455078e+00
5.000000000000000000e+00,5.000000000000000000e+00,5.000000000000000000e+00,5.000000000000000000e+00,5.000000000000000000e+00,5.000000000000000000e+00,5.000000000000000000e+00,5.000000000000000000e+00,5.000000000000000000e+00,5.000000000000000000e+00,5.000000000000000000e+00,5.000000000000000000e+00,5.000000000000000000e+00,5.000000000000000000e+00,5.000000000000000000e+00,5.000000000000000000e+00,5.000000000000000000e+00,5.000000000000000000e+00,5.000000000000000000e+00,5.000000000000000000e+00,5.000000000000000000e+00,5.000000000000000000e+00,5.000000000000000000e+00,5.000000000000000000e+00,5.000000000000000000e+00,5.000000000000000000e+00,5.000000000000000000e+00,5.000000000000000000e+00,5.000000000000000000e+00,5.000000000000000000e+00,5.000000000000000000e+00,5.000000000000000000e+00,5.000000000000000000e+00,5.000000000000000000e+00,5.000000000000000000e+00,5.000000000000000000e+00,5.000000000000000000e+00,5.000000000000000000e+00,5.000000000000000000e+00,4.850647926330566406e+00,4.660651683807373047e+00,4.484979152679443359e+00,4.322067737579345703e+00,4.170577049255371094e+00,4.029346466064453125e+00,3.897367477416992188e+00,3.773760318756103516e+00,3.657752990722656250e+00,3.548664569854736328e+00,3.445894718170166016e+00,3.348909854888916016e+00,1.522824525833129883e+00,1.486390113830566406e+00,1.223986744880676270e+00,1.206977605819702148e+00,1.190488457679748535e+00,1.183865189552307129e+00,1.178764700889587402e+00,1.207340955734252930e+00,2.672062158584594727e+00,2.613374471664428711e+00,2.557209491729736328e+00,2.503407716751098633e+00,2.451823234558105469e+00,2.402321815490722656e+00,2.354779481887817383e+00,2.309082269668579102e+00,2.265125274658203125e+00,2.222810268402099609e+00,2.182047605514526367e+00,2.142752647399902344e+00,2.104848146438598633e+00,2.068261146545410156e+00,2.032924652099609375e+00,1.998775362968444824e+00,1.965754270553588867e+00,1.933806657791137695e+00,1.902880668640136719e+00,1.872928142547607422e+00,1.843904256820678711e+00
5.000000000000000000e+00,5.000000000000000000e+00,5.000000000000000000e+00,5.000000000000000000e+00,5.000000000000000000e+00,5.000000000000000000e+00,5.000000000000000000e+00,5.000000000000000000e+00,5.000000000000000000e+00,5.000000000000000000e+00,5.000000000000000000e+00,5.000000000000000000e+00,5.000000000000000000e+00,5.000000000000000000e+00,5.000000000000000000e+00,5.000000000000000000e+00,5.000000000000000000e+00,5.000000000000000000e+00,5.000000000000000000e+00,5.000000000000000000e+00,5.000000000000000000e+00,5.000000000000000000e+00,5.000000000000000000e+00,5.000000000000000000e+00,5.000000000000000000e+00,5.000000000000000000e+00,5.000000000000000000e+00,5.000000000000000000e+00,5.000000000000000000e+00,5.000000000000000000e+00,5.000000000000000000e+00,5.000000000000000000e+00,5.000000000000000000e+00,5.000000000000000000e+00,5.000000000000000000e+00,5.000000000000000000e+00,5.000000000000000000e+00,5.000000000000000000e+00,5.000000000000000000e+00,4.850787639617919922e+00,4.660780429840087891e+00,4.485097885131835938e+00,4.322178363800048828e+00,4.170680046081542969e+00,4.029442310333251953e+00,3.897457599639892578e+00,3.773844718933105469e+00,3.657831907272338867e+00,3.548739194869995117e+00,3.445964813232421875e+00,1.576304197311401367e+00,1.517173767089843750e+00,1.493911862373352051e+00,1.226656913757324219e+00,1.209573984146118164e+00,1.193136572837829590e+00,1.184357404708862305e+00,1.179252743721008301e+00,1.207761406898498535e+00,2.672104358673095703e+00,2.613415002822875977e+00,2.557248353958129883e+00,2.503444671630859375e+00,2.451858758926391602e+00,2.402355670928955078e+00,2.354812383651733398e+00,2.309113979339599609e+00,2.265155553817749023e+00,2.222839593887329102e+00,2.182075738906860352e+00,2.142779827117919922e+00,2.104874372482299805e+00,2.068286657333374023e+00,2.032949209213256836e+00,1.998798966407775879e+00,1.965777277946472168e+00,1.933828711509704590e+00,1.902902007102966309e+00,1.872949004173278809e+00,1.843924283981323242e+00
5.000000000000000000e+00,5.000000000000000000e+00,5.000000000000000000e+00,5.000000000000000000e+00,5.000000000000000000e+00,5.000000000000000000e+00,5.000000000000000000e+00,5.000000000000000000e+00,5.000000000000000000e+00,5.000000000000000000e+00,5.000000000000000000e+00,5.000000000000000000e+00,5.000000000000000000e+00,5.000000000000000000e+00,5.000000000000000000e+00,5.000000000000000000e+00,5.000000000000000000e+00,5.000000000000000000e+00,5.000000000000000000e+00,5.000000000000000000e+00,5.000000000000000000e+00,5.000000000000000000e+00,5.000000000000000000e+00,5.000000000000000000e+00,5.000000000000000000e+00,5.000000000000000000e+00,5.000000000000000000e+00,5.000000000000000000e+00,5.000000000000000000e+00,5.000000000000000000e+00,5.000000000000000000e+00,5.000000000000000000e+00,5.000000000000000000e+00,5.000000000000000000e+00,5.000000000000000000e+00,5.000000000000000000e+00,5.000000000000000000e+00,5.000000000000000000e+00,5.000000000000000000e+00,4.850926876068115234e+00,4.660909175872802734e+00,4.485217094421386719e+00,4.322288990020751953e+00,4.170783042907714844e+00,4.029538631439208984e+00,3.897547721862792969e+00,3.773928880691528320e+00,3.657911062240600586e+00,3.548813819885253906e+00,3.446035385131835938e+00,1.560753583908081055e+00,1.521425843238830566e+00,1.500319361686706543e+00,1.230186462402343750e+00,1.212181568145751953e+00,1.195796608924865723e+00,1.184850096702575684e+00,1.179741144180297852e+00,1.207492589950561523e+00,2.672146797180175781e+00,2.613455533981323242e+00,2.557286977767944336e+00,2.503481864929199219e+00,2.451894521713256836e+00,2.402390003204345703e+00,2.354845285415649414e+00,2.309145450592041016e+00,2.265186071395874023e+00,2.222868680953979492e+00,2.182103872299194336e+00,2.142807245254516602e+00,2.104900598526000977e+00,2.068311929702758789e+00,2.032973527908325195e+00,1.998822808265686035e+00,1.965800166130065918e+00,1.933850765228271484e+00,1.902923583984375000e+00,1.872969746589660645e+00,1.843944430351257324e+00
5.000000000000000000e+00,5.000000000000000000e+00,5.000000000000000000e+00,5.000000000000000000e+00,5.000000000000000000e+00,5.000000000000000000e+00,5.000000000000000000e+00,5.000000000000000000e+00,5.000000000000000000e+00,5.000000000000000000e+00,5.000000000000000000e+00,5.000000000000000000e+00,5.000000000000000000e+00,5.000000000000000000e+00,5.000000000000000000e+00,5.000000000000000000e+00,5.000000000000000000e+00,5.000000000000000000e+00,5.000000000000000000e+00,5.000000000000000000e+00,5.000000000000000000e+00,5.000000000000000000e+00,5.000000000000000000e+00,5.000000000000000000e+00,5.000000000000000000e+00,5.000000000000000000e+00,5.000000000000000000e+00,5.000000000000000000e+00,5.000000000000000000e+00,5.000000000000000000e+00,5.000000000000000000e+00,5.000000000000000000e+00,5.000000000000000000e+00,5.000000000000000000e+00,5.000000000000000000e+00,5.000000000000000000e+00,5.000000000000000000e+00,5.000000000000000000e+00,5.000000000000000000e+00,4.851074695587158203e+00,4.661037921905517578e+00,4.485336303710937500e+00,4.322399616241455078e+00,4.170886039733886719e+00,4.029634475708007812e+00,3.897637844085693359e+00,3.774013280868530273e+00,3.657990455627441406e+00,3.548888206481933594e+00,3.446105718612670898e+00,1.547084808349609375e+00,1.522236466407775879e+00,1.507975339889526367e+00,1.239382505416870117e+00,1.214800357818603516e+00,1.198468327522277832e+00,1.186399340629577637e+00,1.180229902267456055e+00,1.206880092620849609e+00,2.672188997268676758e+00,2.613495826721191406e+00,2.557325601577758789e+00,2.503519058227539062e+00,2.451930046081542969e+00,2.402424097061157227e+00,2.354877948760986328e+00,2.309177160263061523e+00,2.265216350555419922e+00,2.222898006439208984e+00,2.182132005691528320e+00,2.142834186553955078e+00,2.104926824569702148e+00,2.068337202072143555e+00,2.032998085021972656e+00,1.998846292495727539e+00,1.965822935104370117e+00,1.933873057365417480e+00,1.902944922447204590e+00,1.872990489006042480e+00,1.843964695930480957e+00
5.000000000000000000e+00,5.000000000000000000e+00,5.000000000000000000e+00,5.000000000000000000e+00,5.000000000000000000e+00,5.000000000000000000e+00,5.000000000000000000e+00,5.000000000000000000e+00,5.000000000000000000e+00,5.000000000000000000e+00,5.000000000000000000e+00,5.000000000000000000e+00,5.000000000000000000e+00,5.000000000000000000e+00,5.000000000000000000e+00,5.000000000000000000e+00,5.000000000000000000e+00,5.000000000000000000e+00,5.000000000000000000e+00,5.000000000000000000e+00,5.000000000000000000e+00,5.000000000000000000e+00,5.000000000000000000e+00,5.000000000000000000e+00,5.000000000000000000e+00,5.000000000000000000e+00,5.000000000000000000e+00,5.000000000000000000e+00,5.000000000000000000e+00,5.000000000000000000e+00,5.000000000000000000e+00,5.000000000000000000e+00,5.000000000000000000e+00,5.000000000000000000e+00,5.000000000000000000e+00,5.000000000000000000e+00,5.000000000000000000e+00,5.000000000000000000e+00,5.000000000000000000e+00,4.851246356964111328e+00,4.661166191101074219e+00,4.485455036163330078e+00,4.322510242462158203e+00,4.170989036560058594e+00,4.029730796813964844e+00,3.897727489471435547e+00,3.774097681045532227e+00,3.658069372177124023e+00,3.548962831497192383e+00,3.446176052093505859e+00,1.546870350837707520e+00,1.523773550987243652e+00,1.515603423118591309e+00,1.248483538627624512e+00,1.217466115951538086e+00,1.201152086257934570e+00,1.188097476959228516e+00,1.180719137191772461e+00,1.206268191337585449e+00,2.672231435775756836e+00,2.613536357879638672e+00,2.557364463806152344e+00,2.503556013107299805e+00,2.451965570449829102e+00,2.402458190917968750e+00,2.354910850524902344e+00,2.309208631515502930e+00,2.265246629714965820e+00,2.222927331924438477e+00,2.182160139083862305e+00,2.142861366271972656e+00,2.104953050613403320e+00,2.068362474441528320e+00,2.033022642135620117e+00,1.998869895935058594e+00,1.965845942497253418e+00,1.933895111083984375e+00,1.902966260910034180e+00,1.873011350631713867e+00,1.843984723091125488e+00
5.000000000000000000e+00,5.000000000000000000e+00,5.000000000000000000e+00,5.000000000000000000e+00,5.000000000000000000e+00,5.000000000000000000e+00,5.000000000000000000e+00,5.000000000000000000e+00,5.000000000000000000e+00,5.000000000000000000e+00,5.000000000000000000e+00,5.000000000000000000e+00,5.000000000000000000e+00,5.000000000000000000e+00,5.000000000000000000e+00,5.000000000000000000e+00,5.000000000000000000e+00,5.000000000000000000e+00,5.000000000000000000e+00,5.000000000000000000e+00,5.000000000000000000e+00,5.000000000000000000e+00,5.000000000000000000e+00,5.000000000000000000e+00,5.000000000000000000e+00,5.000000000000000000e+00,5.000000000000000000e+00,5.000000000000000000e+00,5.000000000000000000e+00,5.000000000000000000e+00,5.000000000000000000e+00,5.000000000000000000e+00,5.000000000000000000e+00,5.000000000000000000e+00,5.000000000000000000e+00,5.000000000000000000e+00,5.000000000000000000e+00,5.000000000000000000e+00,5.000000000000000000e+00,4.851418495178222656e+00,4.661323070526123047e+00,4.485574722290039062e+00,4.322620868682861328e+00,4.171092033386230469e+00,4.029827117919921875e+00,3.897817611694335938e+00,3.774181842803955078e+00,3.658148765563964844e+00,3.549037218093872070e+00,1.609558463096618652e+00,1.547806382179260254e+00,1.525731801986694336e+00,1.523309230804443359e+00,1.253045201301574707e+00,1.220235705375671387e+00,1.203848004341125488e+00,1.189800381660461426e+00,1.181363463401794434e+00,1.205656886100769043e+00,2.672273635864257812e+00,2.613576889038085938e+00,2.557403087615966797e+00,2.503593206405639648e+00,2.452001333236694336e+00,2.402492523193359375e+00,2.354943752288818359e+00,2.309240102767944336e+00,2.265277147293090820e+00,2.222956657409667969e+00,2.182188510894775391e+00,2.142888784408569336e+00,2.104979276657104492e+00,2.068387985229492188e+00,2.033047199249267578e+00,1.998893737792968750e+00,1.965868711471557617e+00,1.933917164802551270e+00,1.902987837791442871e+00,1.873032093048095703e+00,1.844004750251770020e+00
5.000000000000000000e+00,5.000000000000000000e+00,5.000000000000000000e+00,5.000000000000000000e+00,5.000000000000000000e+00,5.000000000000000000e+00,5.000000000000000000e+00,5.000000000000000000e+00,5.000000000000000000e+00,5.000000000000000000e+00,5.000000000000000000e+00,5.000000000000000000e+00,5.000000000000000000e+00,5.000000000000000000e+00,5.000000000000000000e+00,5.000000000000000000e+00,5.000000000000000000e+00,5.000000000000000000e+00,5.000000000000000000e+00,5.000000000000000000e+00,5.000000000000000000e+00,5.000000000000000000e+00,5.000000000000000000e+00,5.000000000000000000e+00,5.000000000000000000e+00,5.000000000000000000e+00,5.000000000000000000e+00,5.000000000000000000e+00,5.000000000000000000e+00,5.000000000000000000e+00,5.000000000000000000e+00,5.000000000000000000e+00,5.000000000000000000e+00,5.000000000000000000e+00,5.000000000000000000e+00,5.000000000000000000e+00,5.000000000000000000e+00,5.000000000000000000e+00,5.000000000000000000e+00,4.851590633392333984e+00,4.661481380462646484e+00,4.485710144042968750e+00,4.322731494903564453e+00,4.171195030212402344e+00,4.029923439025878906e+00,3.897907495498657227e+00,3.774266242980957031e+00,3.658227920532226562e+00,3.549111604690551758e+00,1.595182299613952637e+00,1.549826979637145996e+00,1.532197117805480957e+00,1.531093716621398926e+00,1.257640123367309570e+00,1.223018050193786621e+00,1.206566810607910156e+00,1.192168116569519043e+00,1.183762788772583008e+00,1.206038832664489746e+00,2.672315835952758789e+00,2.613617420196533203e+00,2.557441711425781250e+00,2.503630399703979492e+00,2.452036857604980469e+00,2.402526617050170898e+00,2.354976415634155273e+00,2.309271812438964844e+00,2.265307664871215820e+00,2.222985744476318359e+00,2.182216644287109375e+00,2.142915725708007812e+00,2.105005502700805664e+00,2.068413257598876953e+00,2.033071517944335938e+00,1.998917341232299805e+00,1.965891599655151367e+00,1.933939456939697266e+00,1.903009295463562012e+00,1.873052716255187988e+00,1.844025015830993652e+00
5.000000000000000000e+00,5.000000000000000000e+00,5.000000000000000000e+00,5.000000000000000000e+00,5.000000000000000000e+00,5.000000000000000000e+00,5.000000000000000000e+00,5.000000000000000000e+00,5.000000000000000000e+00,5.000000000000000000e+00,5.000000000000000000e+00,5.000000000000000000e+00,5.000000000000000000e+00,5.000000000000000000e+00,5.000000000000000000e+00,5.000000000000000000e+00,5.000000000000000000e+00,5.000000000000000000e+00,5.000000000000000000e+00,5.000000000000000000e+00,5.000000000000000000e+00,5.000000000000000000e+00,5.000000000000000000e+00,5.000000000000000000e+00,5.000000000000000000e+00,5.000000000000000000e+00,5.000000000000000000e+00,5.000000000000000000e+00,5.000000000000000000e+00,5.000000000000000000e+00,5.000000000000000000e+00,5.000000000000000000e+00,5.000000000000000000e+00,5.000000000000000000e+00,5.000000000000000000e+00,5.000000000000000000e+00,5.000000000000000000e+00,5.000000000000000000e+00,5.000000000000000000e+00,4.851762294769287109e+00,4.661640167236328125e+00,4.485857009887695312e+00,4.322848320007324219e+00,4.171298027038574219e+00,4.030019283294677734e+00,3.897997379302978516e+00,3.774350643157958984e+00,3.658306837081909180e+00,3.549186468124389648e+00,1.582025051116943359e+00,1.553306698799133301e+00,1.540238738059997559e+00,1.538958072662353516e+00,1.266795396804809570e+00,1.226366758346557617e+00,1.209970593452453613e+00,1.194812655448913574e+00,1.188563942909240723e+00,1.207210779190063477e+00,2.672358274459838867e+00,2.613657712936401367e+00,2.557480573654174805e+00,2.503667354583740234e+00,2.452072381973266602e+00,2.402560949325561523e+00,2.355009317398071289e+00,2.309303522109985352e+00,2.265337944030761719e+00,2.223015069961547852e+00,2.182245016098022461e+00,2.142943143844604492e+00,2.105031967163085938e+00,2.068438529968261719e+00,2.033096075057983398e+00,1.998941063880920410e+00,1.965914607048034668e+00,1.933961510658264160e+00,1.903030633926391602e+00,1.873073697090148926e+00,1.844045162200927734e+00
5.000000000000000000e+00,5.000000000000000000e+00,5.000000000000000000e+00,5.000000000000000000e+00,5.000000000000000000e+00,5.000000000000000000e+00,5.000000000000000000e+00,5.000000000000000000e+00,5.000000000000000000e+00,5.000000000000000000e+00,5.000000000000000000e+00,5.000000000000000000e+00,5.000000000000000000e+00,5.000000000000000000e+00,5.000000000000000000e+00,5.000000000000000000e+00,5.000000000000000000e+00,5.000000000000000000e+00,5.000000000000000000e+00,5.000000000000000000e+00,5.000000000000000000e+00,5.000000000000000000e+00,5.000000000000000000e+00,5.000000000000000000e+00,5.000000000000000000e+00,5.000000000000000000e+00,5.000000000000000000e+00,5.000000000000000000e+00,5.000000000000000000e+00,5.000000000000000000e+00,5.000000000000000000e+00,5.000000000000000000e+00,5.000000000000000000e+00,5.000000000000000000e+00,5.000000000000000000e+00,5.000000000000000000e+00,5.000000000000000000e+00,5.000000000000000000e+00,5.000000000000000000e+00,4.851934432983398438e+00,4.661799430847167969e+00,4.486003875732421875e+00,4.322984695434570312e+00,4.171401023864746094e+00,4.030115604400634766e+00,3.898087263107299805e+00,3.774435043334960938e+00,3.658386230468750000e+00,3.549261093139648438e+00,1.581623554229736328e+00,1.557315707206726074e+00,1.549016475677490234e+00,1.547552347183227539e+00,1.274854421615600586e+00,1.229883313179016113e+00,1.213393568992614746e+00,1.197690367698669434e+00,1.193404078483581543e+00,1.208385229110717773e+00,2.672400474548339844e+00,2.613698244094848633e+00,2.557519197463989258e+00,2.503704547882080078e+00,2.452108144760131836e+00,2.402595043182373047e+00,2.355042219161987305e+00,2.309334993362426758e+00,2.265368223190307617e+00,2.223044395446777344e+00,2.182272911071777344e+00,2.142970323562622070e+00,2.105057954788208008e+00,2.068463802337646484e+00,2.033120632171630859e+00,1.998964667320251465e+00,1.965937376022338867e+00,1.933983564376831055e+00,1.903052210807800293e+00,1.873094439506530762e+00,1.844065189361572266e+00
4.871379375457763672e+00,4.870158672332763672e+00,4.868937969207763672e+00,4.867718219757080078e+00,4.866499423980712891e+00,4.865280628204345703e+00,4.864062786102294922e+00,4.862845420837402344e+00,4.861629009246826172e+00,4.860412597656250000e+00,4.859197616577148438e+00,4.857982635498046875e+00,4.856768131256103516e+00,4.855554580688476562e+00,4.854341506958007812e+00,4.853128910064697266e+00,4.851917743682861328e+00,4.850706100463867188e+00,4.849495410919189453e+00,4.848285675048828125e+00,4.847076416015625000e+00,4.845867156982421875e+00,4.844659328460693359e+00,4.843451499938964844e+00,4.842244625091552734e+00,4.841038227081298828e+00,4.839832305908203125e+00,4.838627338409423828e+00,4.837422847747802734e+00,4.836218833923339844e+00,4.835015296936035156e+00,4.833812713623046875e+00,4.832610130310058594e+00,4.831408500671386719e+00,4.830207824707031250e+00,4.829007148742675781e+00,4.827807426452636719e+00,4.826608657836914062e+00,4.825409889221191406e+00,4.824211597442626953e+00,4.661957740783691406e+00,4.486151218414306641e+00,4.323121547698974609e+00,4.171525955200195312e+00,4.030211925506591797e+00,3.898177146911621094e+00,3.774519205093383789e+00,3.658465623855590820e+00,3.549335479736328125e+00,1.585904002189636230e+00,1.561511993408203125e+00,1.557895064353942871e+00,3.170980930328369141e+00,3.088668823242187500e+00,1.233420133590698242e+00,1.216868638992309570e+00,1.201171278953552246e+00,1.198284029960632324e+00,1.209561824798583984e+00,2.672442674636840820e+00,2.613738775253295898e+00,2.557558059692382812e+00,2.503741741180419922e+00,2.452143669128417969e+00,2.402629375457763672e+00,2.355075120925903320e+00,2.309366464614868164e+00,2.265398740768432617e+00,2.223073720932006836e+00,2.182301282882690430e+00,2.142997503280639648e+00,2.105084180831909180e+00,2.068489313125610352e+00,2.033144950866699219e+00,1.998988270759582520e+00,1.965960144996643066e+00,1.934005856513977051e+00,1.903073549270629883e+00,1.873115062713623047e+00,1.844085454940795898e+00
3.776242256164550781e+00,3.775508403778076172e+00,3.774775028228759766e+00,3.774041652679443359e+00,3.773309230804443359e+00,3.772576570510864258e+00,3.771844148635864258e+00,3.771112203598022461e+00,3.770380258560180664e+00,3.769648790359497070e+00,3.768918037414550781e+00,3.768187046051025391e+00,3.767456293106079102e+00,3.766726016998291016e+00,3.765995979309082031e+00,3.765265941619873047e+00,3.764536857604980469e+00,3.763807535171508789e+00,3.763078689575195312e+00,3.762349843978881836e+00,3.761621475219726562e+00,3.760893344879150391e+00,3.760165929794311523e+00,3.759438514709472656e+00,3.758711099624633789e+00,3.757984161376953125e+00,3.757257461547851562e+00,3.756531000137329102e+00,3.755805253982543945e+00,3.755079507827758789e+00,3.754353761672973633e+00,3.753628492355346680e+00,3.752903461456298828e+00,3.752178668975830078e+00,3.751454591751098633e+00,3.750730276107788086e+00,3.750006437301635742e+00,3.749282836914062500e+00,3.748559474945068359e+00,3.747836351394653320e+00,3.747113943099975586e+00,3.746391534805297852e+00,3.745669126510620117e+00,3.744947195053100586e+00,3.744225502014160156e+00,3.743504524230957031e+00,3.742783546447753906e+00,3.658545017242431641e+00,1.646070480346679688e+00,1.589972853660583496e+00,1.569994330406188965e+00,1.566875815391540527e+00,3.171040534973144531e+00,3.088725328445434570e+00,1.236977338790893555e+00,1.220462203025817871e+00,1.204672574996948242e+00,1.201956868171691895e+00,1.210740804672241211e+00,2.672485113143920898e+00,2.613779067993164062e+00,2.557596683502197266e+00,2.503778696060180664e+00,2.452179193496704102e+00,2.402663469314575195e+00,2.355107784271240234e+00,2.309398174285888672e+00,2.265429019927978516e+00,2.223103046417236328e+00,2.182329416275024414e+00,2.143024682998657227e+00,2.105110645294189453e+00,2.068514585494995117e+00,2.033169507980346680e+00,1.999012112617492676e+00,1.965983271598815918e+00,1.934028029441833496e+00,1.903095006942749023e+00,1.873136043548583984e+00,1.844105482101440430e+00
3.083123922348022461e+00,3.082634687423706055e+00,3.082145690917968750e+00,3.081656932830810547e+00,3.081168413162231445e+00,3.080679893493652344e+00,3.080191612243652344e+00,3.079703330993652344e+00,3.079215288162231445e+00,3.078727245330810547e+00,3.078239679336547852e+00,3.077752113342285156e+00,3.077264785766601562e+00,3.076777458190917969e+00,3.076290130615234375e+00,3.075803279876708984e+00,3.075316667556762695e+00,3.074830055236816406e+00,3.074343442916870117e+00,3.073857069015502930e+00,3.073370695114135742e+00,3.072884798049926758e+00,3.072399139404296875e+00,3.071913242340087891e+00,3.071427583694458008e+00,3.070942163467407227e+00,3.070456981658935547e+00,3.069971799850463867e+00,3.069487094879150391e+00,3.069002151489257812e+00,3.068517446517944336e+00,3.068032979965209961e+00,3.067548513412475586e+00,3.067064285278320312e+00,3.066580533981323242e+00,3.066096544265747070e+00,3.065612792968750000e+00,3.065129280090332031e+00,3.064645767211914062e+00,3.064162492752075195e+00,3.063679695129394531e+00,3.063196659088134766e+00,3.062713623046875000e+00,3.062231063842773438e+00,3.061748504638671875e+00,3.061266422271728516e+00,3.060784101486206055e+00,3.060302019119262695e+00,1.661382913589477539e+00,1.593930482864379883e+00,1.578569173812866211e+00,1.595905661582946777e+00,3.057893991470336914e+00,3.057412862777709961e+00,1.240555167198181152e+00,1.224076986312866211e+00,1.208194255828857422e+00,1.203574657440185547e+00,1.213402867317199707e+00,2.672527313232421875e+00,2.613819599151611328e+00,2.557635545730590820e+00,2.503815889358520508e+00,2.452214956283569336e+00,2.402697563171386719e+00,2.355140686035156250e+00,2.309429883956909180e+00,2.265459537506103516e+00,2.223132371902465820e+00,2.182357549667358398e+00,2.143051862716674805e+00,2.105136871337890625e+00,2.068539857864379883e+00,2.033194065093994141e+00,1.999035716056823730e+00,1.966006040573120117e+00,1.934050083160400391e+00,1.903116583824157715e+00,1.873156666755676270e+00,1.844125628471374512e+00
2.604985952377319336e+00,2.604636907577514648e+00,2.604287624359130859e+00,2.603938579559326172e+00,2.603590011596679688e+00,2.603241205215454102e+00,2.602892398834228516e+00,2.602543592453002930e+00,2.602195262908935547e+00,2.601846694946289062e+00,2.601498603820800781e+00,2.601150274276733398e+00,2.600801944732666016e+00,2.600453853607177734e+00,2.600106000900268555e+00,2.599758148193359375e+00,2.599410295486450195e+00,2.599062681198120117e+00,2.598715066909790039e+00,2.598367452621459961e+00,2.598020076751708984e+00,2.597672700881958008e+00,2.597325563430786133e+00,2.596978425979614258e+00,2.596631288528442383e+00,2.596284389495849609e+00,2.595937490463256836e+00,2.595590829849243164e+00,2.595244169235229492e+00,2.594897508621215820e+00,2.594551086425781250e+00,2.594204664230346680e+00,2.593858242034912109e+00,2.593512058258056641e+00,2.593166112899780273e+00,2.592820167541503906e+00,2.592474222183227539e+00,2.592128276824951172e+00,2.591782569885253906e+00,2.591436862945556641e+00,2.591091394424438477e+00,2.590745925903320312e+00,2.590400457382202148e+00,2.590055227279663086e+00,2.589709997177124023e+00,2.589365005493164062e+00,2.589020013809204102e+00,2.588675022125244141e+00,1.629491329193115234e+00,1.609040856361389160e+00,1.609506249427795410e+00,2.587296247482299805e+00,2.586951971054077148e+00,2.586607456207275391e+00,1.244153618812561035e+00,1.227713108062744141e+00,1.211736679077148438e+00,1.205196619033813477e+00,1.219101428985595703e+00,2.584543228149414062e+00,2.584199428558349609e+00,2.557674169540405273e+00,2.503853082656860352e+00,2.452250480651855469e+00,2.402731895446777344e+00,2.355173587799072266e+00,2.309461355209350586e+00,2.265489816665649414e+00,2.223161458969116211e+00,2.182385921478271484e+00,2.143079042434692383e+00,2.105163097381591797e+00,2.068565368652343750e+00,2.033218383789062500e+00,1.999059200286865234e+00,1.966029047966003418e+00,1.934072375297546387e+00,1.903137922286987305e+00,1.873177409172058105e+00,1.844145894050598145e+00
2.255208492279052734e+00,2.254948139190673828e+00,2.254687547683715820e+00,2.254427433013916016e+00,2.254167079925537109e+00,2.253906965255737305e+00,2.253646850585937500e+00,2.253386735916137695e+00,2.253126621246337891e+00,2.252866744995117188e+00,2.252606868743896484e+00,2.252346992492675781e+00,2.252087354660034180e+00,2.251827478408813477e+00,2.251567840576171875e+00,2.251308202743530273e+00,2.251048803329467773e+00,2.250789403915405273e+00,2.250530004501342773e+00,2.250270605087280273e+00,2.250011205673217773e+00,2.249752044677734375e+00,2.249492883682250977e+00,2.249233722686767578e+00,2.248974084854125977e+00,2.248713731765747070e+00,2.248453617095947266e+00,2.248193502426147461e+00,2.247933387756347656e+00,2.247673511505126953e+00,2.247413396835327148e+00,2.247153520584106445e+00,2.246893644332885742e+00,2.246633768081665039e+00,2.246374130249023438e+00,2.246114492416381836e+00,2.245854854583740234e+00,2.245595216751098633e+00,2.245335817337036133e+00,2.245076417922973633e+00,2.244817018508911133e+00,2.244557857513427734e+00,2.244298458099365234e+00,2.244039297103881836e+00,2.243780136108398438e+00,2.243521213531494141e+00,2.243262052536010742e+00,1.697415232658386230e+00,1.621854186058044434e+00,1.592204928398132324e+00,1.595144033432006836e+00,2.241968154907226562e+00,2.241709470748901367e+00,2.241450786590576172e+00,2.241192102432250977e+00,1.240155696868896484e+00,1.225813627243041992e+00,1.218666315078735352e+00,2.240158796310424805e+00,2.239900588989257812e+00,2.239642381668090820e+00,2.239384174346923828e+00,2.239125967025756836e+00,2.238868236541748047e+00,2.238610267639160156e+00,2.238352298736572266e+00,2.238094568252563477e+00,2.237836599349975586e+00,2.223190784454345703e+00,2.182414054870605469e+00,2.143106222152709961e+00,2.105189323425292969e+00,2.068590641021728516e+00,2.033242940902709961e+00,1.999083042144775391e+00,1.966051936149597168e+00,1.934094429016113281e+00,1.903159260749816895e+00,1.873198390007019043e+00,1.844165921211242676e+00
1.988186836242675781e+00,1.987984299659729004e+00,1.987782001495361328e+00,1.987579703330993652e+00,1.987377405166625977e+00,1.987175226211547852e+00,1.986973047256469727e+00,1.986770749092102051e+00,1.986568689346313477e+00,1.986366629600524902e+00,1.986164569854736328e+00,1.985962629318237305e+00,1.985760569572448730e+00,1.985558629035949707e+00,1.985356807708740234e+00,1.985154986381530762e+00,1.984953284263610840e+00,1.984751343727111816e+00,1.984549641609191895e+00,1.984348058700561523e+00,1.984146475791931152e+00,1.983944892883300781e+00,1.983743190765380859e+00,1.983541727066040039e+00,1.983340263366699219e+00,1.983138918876647949e+00,1.982937574386596680e+00,1.982735991477966309e+00,1.982534766197204590e+00,1.982333540916442871e+00,1.982132315635681152e+00,1.981931209564208984e+00,1.981729865074157715e+00,1.981528878211975098e+00,1.981327772140502930e+00,1.981126904487609863e+00,1.980925917625427246e+00,1.980724811553955078e+00,1.980523943901062012e+00,1.980323076248168945e+00,1.980122327804565430e+00,1.979921579360961914e+00,1.979720711708068848e+00,1.979520082473754883e+00,1.979319453239440918e+00,1.979118824005126953e+00,1.978918313980102539e+00,1.678269386291503906e+00,1.626000642776489258e+00,1.569551587104797363e+00,1.554793834686279297e+00,1.977916002273559570e+00,1.977715730667114258e+00,1.977515339851379395e+00,1.977315068244934082e+00,1.243370413780212402e+00,1.225441217422485352e+00,1.213810920715332031e+00,1.976514458656311035e+00,1.976314425468444824e+00,1.976114511489868164e+00,1.975914597511291504e+00,1.975714683532714844e+00,1.975514650344848633e+00,1.975314736366271973e+00,1.975115060806274414e+00,1.974915266036987305e+00,1.974715590476989746e+00,1.974515795707702637e+00,1.974316120147705078e+00,1.974116563796997070e+00,1.973917126655578613e+00,1.973717689514160156e+00,1.973518013954162598e+00,1.973318576812744141e+00,1.966074705123901367e+00,1.934116721153259277e+00,1.903180837631225586e+00,1.873219013214111328e+00,1.844185948371887207e+00
1.777702808380126953e+00,1.777541041374206543e+00,1.777379274368286133e+00,1.777217507362365723e+00,1.777055859565734863e+00,1.776894211769104004e+00,1.776732325553894043e+00,1.776570677757263184e+00,1.776409149169921875e+00,1.776247620582580566e+00,1.776086091995239258e+00,1.775924324989318848e+00,1.775762915611267090e+00,1.775601506233215332e+00,1.775440096855163574e+00,1.775278687477111816e+00,1.775117158889770508e+00,1.774955868721008301e+00,1.774794578552246094e+00,1.774633288383483887e+00,1.774471998214721680e+00,1.774310708045959473e+00,1.774149537086486816e+00,1.773988366127014160e+00,1.773827195167541504e+00,1.773666143417358398e+00,1.773504853248596191e+00,1.773343920707702637e+00,1.773182868957519531e+00,1.773021936416625977e+00,1.772861003875732422e+00,1.772699832916259766e+00,1.772539019584655762e+00,1.772378087043762207e+00,1.772217273712158203e+00,1.772056460380554199e+00,1.771895527839660645e+00,1.771734833717346191e+00,1.771574139595031738e+00,1.771413445472717285e+00,1.771252751350402832e+00,1.771091938018798828e+00,1.770931363105773926e+00,1.770770788192749023e+00,1.770610332489013672e+00,1.770449757575988770e+00,1.770289301872253418e+00,1.770128607749938965e+00,1.769968271255493164e+00,1.549416899681091309e+00,1.518546581268310547e+00,1.532886385917663574e+00,1.769326686859130859e+00,1.769166469573974609e+00,1.769006133079528809e+00,1.238873481750488281e+00,1.211006641387939453e+00,1.192628622055053711e+00,1.186615228652954102e+00,1.768205165863037109e+00,1.768045186996459961e+00,1.767885088920593262e+00,1.767724871635437012e+00,1.767564892768859863e+00,1.767405033111572266e+00,1.767245054244995117e+00,1.767085194587707520e+00,1.766925096511840820e+00,1.766765236854553223e+00,1.766605496406555176e+00,1.766445755958557129e+00,1.766286015510559082e+00,1.766126036643981934e+00,1.765966415405273438e+00,1.765806674957275391e+00,1.765647053718566895e+00,1.765487551689147949e+00,1.765327811241149902e+00,1.765168190002441406e+00,1.765008687973022461e+00
1.607519149780273438e+00,1.607386827468872070e+00,1.607254624366760254e+00,1.607122302055358887e+00,1.606990098953247070e+00,1.606857776641845703e+00,1.606725573539733887e+00,1.606593370437622070e+00,1.606461286544799805e+00,1.606329083442687988e+00,1.606196880340576172e+00,1.606064796447753906e+00,1.605932712554931641e+00,1.605800747871398926e+00,1.605668663978576660e+00,1.605536580085754395e+00,1.605404615402221680e+00,1.605272650718688965e+00,1.605140686035156250e+00,1.605008840560913086e+00,1.604876756668090820e+00,1.604744911193847656e+00,1.604613065719604492e+00,1.604481220245361328e+00,1.604349374771118164e+00,1.604217529296875000e+00,1.604085803031921387e+00,1.603953957557678223e+00,1.603822350502014160e+00,1.603690624237060547e+00,1.603558778762817383e+00,1.603427171707153320e+00,1.603295564651489258e+00,1.603163957595825195e+00,1.603032350540161133e+00,1.602900624275207520e+00,1.602769136428833008e+00,1.602637529373168945e+00,1.602506041526794434e+00,1.602374553680419922e+00,1.602242946624755859e+00,1.602111577987670898e+00,1.601980209350585938e+00,1.601848840713500977e+00,1.601717472076416016e+00,1.601586103439331055e+00,1.601454615592956543e+00,1.601323246955871582e+00,1.601191997528076172e+00,1.601060748100280762e+00,1.501830577850341797e+00,1.475682497024536133e+00,1.507088899612426758e+00,1.600535750389099121e+00,1.600404620170593262e+00,1.236078739166259766e+00,1.197935700416564941e+00,1.178738355636596680e+00,1.166556358337402344e+00,1.162532210350036621e+00,1.599617958068847656e+00,1.599486827850341797e+00,1.599355936050415039e+00,1.599224925041198730e+00,1.599094033241271973e+00,1.598963141441345215e+00,1.598832011222839355e+00,1.598701238632202148e+00,1.598570346832275391e+00,1.598439455032348633e+00,1.598308682441711426e+00,1.598177790641784668e+00,1.598047018051147461e+00,1.597916245460510254e+00,1.597785592079162598e+00,1.597654819488525391e+00,1.597524046897888184e+00,1.597393393516540527e+00,1.597262740135192871e+00,1.597132086753845215e+00
1.467072844505310059e+00,1.466962695121765137e+00,1.466852545738220215e+00,1.466742277145385742e+00,1.466632008552551270e+00,1.466521978378295898e+00,1.466411828994750977e+00,1.466301679611206055e+00,1.466191649436950684e+00,1.466081500053405762e+00,1.465971469879150391e+00,1.465861439704895020e+00,1.465751409530639648e+00,1.465641379356384277e+00,1.465531349182128906e+00,1.465421319007873535e+00,1.465311408042907715e+00,1.465201497077941895e+00,1.465091586112976074e+00,1.464981555938720703e+00,1.464871644973754883e+00,1.464761734008789062e+00,1.464651942253112793e+00,1.464542150497436523e+00,1.464432120323181152e+00,1.464322328567504883e+00,1.464212656021118164e+00,1.464102864265441895e+00,1.463993072509765625e+00,1.463883280754089355e+00,1.463773488998413086e+00,1.463663816452026367e+00,1.463554143905639648e+00,1.463444471359252930e+00,1.463334679603576660e+00,1.463225126266479492e+00,1.463115453720092773e+00,1.463005900382995605e+00,1.462896347045898438e+00,1.462786674499511719e+00,1.462677001953125000e+00,1.462567567825317383e+00,1.462458014488220215e+00,1.462348461151123047e+00,1.462239027023315430e+00,1.462129473686218262e+00,1.462020039558410645e+00,1.461910605430603027e+00,1.461801171302795410e+00,1.461691737174987793e+00,1.461582303047180176e+00,1.461472868919372559e+00,1.461363554000854492e+00,1.461254239082336426e+00,1.461144924163818359e+00,1.245142459869384766e+00,1.177894353866577148e+00,1.158583045005798340e+00,1.146729230880737305e+00,1.139745950698852539e+00,1.137675762176513672e+00,1.460379838943481445e+00,1.460270643234252930e+00,1.460161566734313965e+00,1.460052371025085449e+00,1.459943056106567383e+00,1.459833979606628418e+00,1.459724903106689453e+00,1.459615826606750488e+00,1.459506750106811523e+00,1.459397554397583008e+00,1.459288477897644043e+00,1.459179401397705078e+00,1.459070444107055664e+00,1.458961486816406250e+00,1.458852291107177734e+00,1.458743333816528320e+00,1.458634495735168457e+00,1.458525538444519043e+00,1.458416581153869629e+00
1.349195837974548340e+00,1.349102616310119629e+00,1.349009394645690918e+00,1.348916172981262207e+00,1.348822951316833496e+00,1.348729848861694336e+00,1.348636746406555176e+00,1.348543524742126465e+00,1.348450422286987305e+00,1.348357319831848145e+00,1.348264217376708984e+00,1.348171114921569824e+00,1.348078131675720215e+00,1.347984910011291504e+00,1.347891926765441895e+00,1.347798943519592285e+00,1.347705841064453125e+00,1.347612857818603516e+00,1.347519874572753906e+00,1.347426891326904297e+00,1.347333908081054688e+00,1.347241044044494629e+00,1.347148060798645020e+00,1.347055077552795410e+00,1.346962213516235352e+00,1.346869230270385742e+00,1.346776366233825684e+00,1.346683502197265625e+00,1.346590638160705566e+00,1.346497774124145508e+00,1.346404910087585449e+00,1.346312165260314941e+00,1.346219301223754883e+00,1.346126437187194824e+00,1.346033692359924316e+00,1.345940947532653809e+00,1.345848202705383301e+00,1.345755457878112793e+00,1.345662713050842285e+00,1.345569849014282227e+00,1.345477223396301270e+00,1.345384478569030762e+00,1.345291852951049805e+00,1.345199227333068848e+00,1.345106482505798340e+00,1.345013737678527832e+00,1.344921231269836426e+00,1.344828605651855469e+00,1.344735980033874512e+00,1.344643235206604004e+00,1.344550728797912598e+00,1.344458222389221191e+00,1.344365596771240234e+00,1.344273090362548828e+00,1.344180464744567871e+00,1.344087958335876465e+00,1.162178754806518555e+00,1.135087132453918457e+00,1.124018073081970215e+00,1.111136078834533691e+00,1.105222582817077637e+00,1.103132128715515137e+00,1.085608482360839844e+00,1.343348264694213867e+00,1.343255758285522461e+00,1.343163371086120605e+00,1.343070983886718750e+00,1.342978715896606445e+00,1.342886328697204590e+00,1.342793941497802734e+00,1.342701554298400879e+00,1.342609286308288574e+00,1.342517018318176270e+00,1.342424750328063965e+00,1.342332363128662109e+00,1.342240095138549805e+00,1.342147827148437500e+00,1.342055678367614746e+00,1.341963410377502441e+00,1.341871261596679688e+00
1.248852372169494629e+00,1.248772621154785156e+00,1.248692631721496582e+00,1.248612880706787109e+00,1.248533010482788086e+00,1.248453259468078613e+00,1.248373389244079590e+00,1.248293519020080566e+00,1.248213768005371094e+00,1.248134016990661621e+00,1.248054265975952148e+00,1.247974514961242676e+00,1.247894644737243652e+00,1.247814893722534180e+00,1.247735261917114258e+00,1.247655510902404785e+00,1.247575759887695312e+00,1.247496008872985840e+00,1.247416377067565918e+00,1.247336745262145996e+00,1.247256994247436523e+00,1.247177362442016602e+00,1.247097611427307129e+00,1.247017979621887207e+00,1.246938467025756836e+00,1.246858835220336914e+00,1.246779203414916992e+00,1.246699571609497070e+00,1.246619939804077148e+00,1.246540427207946777e+00,1.246460795402526855e+00,1.246381282806396484e+00,1.246301651000976562e+00,1.246222138404846191e+00,1.246142625808715820e+00,1.246063113212585449e+00,1.245983600616455078e+00,1.245904207229614258e+00,1.245824575424194336e+00,1.245745182037353516e+00,1.245665669441223145e+00,1.245586276054382324e+00,1.245506763458251953e+00,1.245427250862121582e+00,1.245347857475280762e+00,1.245268464088439941e+00,1.245189070701599121e+00,1.245109677314758301e+00,1.245030283927917480e+00,1.244950890541076660e+00,1.244871497154235840e+00,1.244792222976684570e+00,1.244712829589843750e+00,1.244633436203002930e+00,1.244554162025451660e+00,1.244474887847900391e+00,1.244395613670349121e+00,1.244316339492797852e+00,1.104829192161560059e+00,1.095904469490051270e+00,1.084897160530090332e+00,1.080001831054687500e+00,1.080880999565124512e+00,1.243840575218200684e+00,1.243761420249938965e+00,1.243682265281677246e+00,1.243602991104125977e+00,1.243523836135864258e+00,1.243444561958312988e+00,1.243365406990051270e+00,1.243286252021789551e+00,1.243207097053527832e+00,1.243128061294555664e+00,1.243048906326293945e+00,1.242969751358032227e+00,1.242890596389770508e+00,1.242811560630798340e+00,1.242732405662536621e+00,1.242653369903564453e+00,1.242574214935302734e+00
1.162401556968688965e+00,1.162332296371459961e+00,1.162263035774230957e+00,1.162193894386291504e+00,1.162124752998352051e+00,1.162055611610412598e+00,1.161986351013183594e+00,1.161917328834533691e+00,1.161848187446594238e+00,1.161779046058654785e+00,1.161709904670715332e+00,1.161640763282775879e+00,1.161571741104125977e+00,1.161502599716186523e+00,1.161433577537536621e+00,1.161364436149597168e+00,1.161295294761657715e+00,1.161226272583007812e+00,1.161157250404357910e+00,1.161088228225708008e+00,1.161019206047058105e+00,1.160950064659118652e+00,1.160881161689758301e+00,1.160812139511108398e+00,1.160743117332458496e+00,1.160674095153808594e+00,1.160605072975158691e+00,1.160536170005798340e+00,1.160467147827148438e+00,1.160398244857788086e+00,1.160329341888427734e+00,1.160260319709777832e+00,1.160191297531127930e+00,1.160122394561767578e+00,1.160053491592407227e+00,1.159984588623046875e+00,1.159915685653686523e+00,1.159846782684326172e+00,1.159777879714965820e+00,1.159708976745605469e+00,1.159640192985534668e+00,1.159571290016174316e+00,1.159502387046813965e+00,1.159433603286743164e+00,1.159364700317382812e+00,1.159295916557312012e+00,1.159227132797241211e+00,1.159158229827880859e+00,1.159089446067810059e+00,1.159020662307739258e+00,1.158951878547668457e+00,1.158883094787597656e+00,1.158814311027526855e+00,1.158745527267456055e+00,1.158676743507385254e+00,1.158608078956604004e+00,1.158539295196533203e+00,1.158470511436462402e+00,1.158401846885681152e+00,1.158333182334899902e+00,1.158264398574829102e+00,1.158195734024047852e+00,1.158126950263977051e+00,1.158058285713195801e+00,1.157989621162414551e+00,1.157921075820922852e+00,1.157852411270141602e+00,1.157783627510070801e+00,1.157715082168579102e+00,1.157646417617797852e+00,1.157577753067016602e+00,1.157509207725524902e+00,1.157440543174743652e+00,1.157371878623962402e+00,1.157303333282470703e+00,1.157234787940979004e+00,1.157166242599487305e+00,1.157097697257995605e+00,1.157029032707214355e+00,1.156960487365722656e+00
1.087144613265991211e+00,1.087084054946899414e+00,1.087023496627807617e+00,1.086963057518005371e+00,1.086902618408203125e+00,1.086842060089111328e+00,1.086781501770019531e+00,1.086721062660217285e+00,1.086660623550415039e+00,1.086600184440612793e+00,1.086539626121520996e+00,1.086479187011718750e+00,1.086418747901916504e+00,1.086358308792114258e+00,1.086297869682312012e+00,1.086237430572509766e+00,1.086176991462707520e+00,1.086116552352905273e+00,1.086056232452392578e+00,1.085995793342590332e+00,1.085935354232788086e+00,1.085875034332275391e+00,1.085814595222473145e+00,1.085754275321960449e+00,1.085693955421447754e+00,1.085633516311645508e+00,1.085573196411132812e+00,1.085512876510620117e+00,1.085452556610107422e+00,1.085392236709594727e+00,1.085331916809082031e+00,1.085271477699279785e+00,1.085211157798767090e+00,1.085150957107543945e+00,1.085090637207031250e+00,1.085030317306518555e+00,1.084969997406005859e+00,1.084909677505493164e+00,1.084849476814270020e+00,1.084789156913757324e+00,1.084728956222534180e+00,1.084668636322021484e+00,1.084608435630798340e+00,1.084548115730285645e+00,1.084487915039062500e+00,1.084427714347839355e+00,1.084367513656616211e+00,1.084307312965393066e+00,1.084247112274169922e+00,1.084186911582946777e+00,1.084126710891723633e+00,1.084066510200500488e+00,1.084006309509277344e+00,1.083946108818054199e+00,1.083886027336120605e+00,1.083825826644897461e+00,1.083765625953674316e+00,1.083705544471740723e+00,1.083645343780517578e+00,1.083585262298583984e+00,1.083525180816650391e+00,1.083464980125427246e+00,1.083404898643493652e+00,1.083344817161560059e+00,1.083284616470336914e+00,1.083224534988403320e+00,1.083164453506469727e+00,1.083104372024536133e+00,1.083044290542602539e+00,1.082984209060668945e+00,1.082924246788024902e+00,1.082864165306091309e+00,1.082804083824157715e+00,1.082744002342224121e+00,1.082684040069580078e+00,1.082623958587646484e+00,1.082563996315002441e+00,1.082503914833068848e+00,1.082443952560424805e+00,1.082383990287780762e+00
1.021039843559265137e+00,1.020986437797546387e+00,1.020933032035827637e+00,1.020879745483398438e+00,1.020826339721679688e+00,1.020772933959960938e+00,1.020719647407531738e+00,1.020666241645812988e+00,1.020612955093383789e+00,1.020559549331665039e+00,1.020506262779235840e+00,1.020452857017517090e+00,1.020399570465087891e+00,1.020346283912658691e+00,1.020292878150939941e+00,1.020239591598510742e+00,1.020186305046081543e+00,1.020133018493652344e+00,1.020079731941223145e+00,1.020026445388793945e+00,1.019973158836364746e+00,1.019919872283935547e+00,1.019866585731506348e+00,1.019813418388366699e+00,1.019760131835937500e+00,1.019706845283508301e+00,1.019653558731079102e+00,1.019600391387939453e+00,1.019547104835510254e+00,1.019493937492370605e+00,1.019440650939941406e+00,1.019387483596801758e+00,1.019334197044372559e+00,1.019281029701232910e+00,1.019227862358093262e+00,1.019174575805664062e+00,1.019121408462524414e+00,1.019068241119384766e+00,1.019015073776245117e+00,1.018961906433105469e+00,1.018908739089965820e+00,1.018855571746826172e+00,1.018802404403686523e+00,1.018749237060546875e+00,1.018696188926696777e+00,1.018642902374267578e+00,1.018589854240417480e+00,1.018536686897277832e+00,1.018483638763427734e+00,1.018430471420288086e+00,1.018377304077148438e+00,1.018324255943298340e+00,1.018271088600158691e+00,1.018218040466308594e+00,1.018164992332458496e+00,1.018111824989318848e+00,1.018058776855468750e+00,1.018005728721618652e+00,1.017952680587768555e+00,1.017899632453918457e+00,1.017846465110778809e+00,1.017793416976928711e+00,1.017740368843078613e+00,1.017687320709228516e+00,1.017634391784667969e+00,1.017581343650817871e+00,1.017528295516967773e+00,1.017475247383117676e+00,1.017422199249267578e+00,1.017369270324707031e+00,1.017316222190856934e+00,1.017263174057006836e+00,1.017210245132446289e+00,1.017157196998596191e+00,1.017104268074035645e+00,1.017051339149475098e+00,1.016998291015625000e+00,1.016945362091064453e+00,1.016892433166503906e+00,1.016839504241943359e+00
9.625135064125061035e-01,9.624660015106201172e-01,9.624186158180236816e-01,9.623711109161376953e-01,9.623236656188964844e-01,9.622762799263000488e-01,9.622288346290588379e-01,9.621815085411071777e-01,9.621340632438659668e-01,9.620865583419799805e-01,9.620392322540283203e-01,9.619917869567871094e-01,9.619445204734802246e-01,9.618970751762390137e-01,9.618496298789978027e-01,9.618023037910461426e-01,9.617549180984497070e-01,9.617075920104980469e-01,9.616602063179016113e-01,9.616128206253051758e-01,9.615654945373535156e-01,9.615181088447570801e-01,9.614708423614501953e-01,9.614234566688537598e-01,9.613760709762573242e-01,9.613288044929504395e-01,9.612814784049987793e-01,9.612342119216918945e-01,9.611868262290954590e-01,9.611395001411437988e-01,9.610922336578369141e-01,9.610449075698852539e-01,9.609976410865783691e-01,9.609503149986267090e-01,9.609029889106750488e-01,9.608557820320129395e-01,9.608084559440612793e-01,9.607612490653991699e-01,9.607139229774475098e-01,9.606665968894958496e-01,9.606194496154785156e-01,9.605721235275268555e-01,9.605249166488647461e-01,9.604776501655578613e-01,9.604303836822509766e-01,9.603831768035888672e-01,9.603359103202819824e-01,9.602887630462646484e-01,9.602414965629577637e-01,9.601942300796508789e-01,9.601470828056335449e-01,9.600998163223266602e-01,9.600526690483093262e-01,9.600054621696472168e-01,9.599581956863403320e-01,9.599110484123229980e-01,9.598638415336608887e-01,9.598167538642883301e-01,9.597694873809814453e-01,9.597222805023193359e-01,9.596751928329467773e-01,9.596279859542846680e-01,9.595808982849121094e-01,9.595336914062500000e-01,9.594866037368774414e-01,9.594393968582153320e-01,9.593922495841979980e-01,9.593451619148254395e-01,9.592980146408081055e-01,9.592509269714355469e-01,9.592037796974182129e-01,9.591565728187561035e-01,9.591095447540283203e-01,9.590623974800109863e-01,9.590153694152832031e-01,9.589682221412658691e-01,9.589210748672485352e-01,9.588740468025207520e-01,9.588269591331481934e-01,9.587799310684204102e-01
9.103327393531799316e-01,9.102903604507446289e-01,9.102479219436645508e-01,9.102054238319396973e-01,9.101630449295043945e-01,9.101206064224243164e-01,9.100782275199890137e-01,9.100357890129089355e-01,9.099933505058288574e-01,9.099509716033935547e-01,9.099085330963134766e-01,9.098662137985229492e-01,9.098237752914428711e-01,9.097813367843627930e-01,9.097390174865722656e-01,9.096965789794921875e-01,9.096542596817016602e-01,9.096118807792663574e-01,9.095694422721862793e-01,9.095271229743957520e-01,9.094847440719604492e-01,9.094424247741699219e-01,9.094000458717346191e-01,9.093576669692993164e-01,9.093153476715087891e-01,9.092729687690734863e-01,9.092307090759277344e-01,9.091883301734924316e-01,9.091459512710571289e-01,9.091036915779113770e-01,9.090613126754760742e-01,9.090190529823303223e-01,9.089767336845397949e-01,9.089343547821044922e-01,9.088920950889587402e-01,9.088497757911682129e-01,9.088075160980224609e-01,9.087651968002319336e-01,9.087228775024414062e-01,9.086806178092956543e-01,9.086382985115051270e-01,9.085960984230041504e-01,9.085537791252136230e-01,9.085114598274230957e-01,9.084692597389221191e-01,9.084269404411315918e-01,9.083847403526306152e-01,9.083424806594848633e-01,9.083001613616943359e-01,9.082579612731933594e-01,9.082157015800476074e-01,9.081735014915466309e-01,9.081312417984008789e-01,9.080889821052551270e-01,9.080467820167541504e-01,9.080045223236083984e-01,9.079623818397521973e-01,9.079201221466064453e-01,9.078778624534606934e-01,9.078357219696044922e-01,9.077934622764587402e-01,9.077513217926025391e-01,9.077090620994567871e-01,9.076669812202453613e-01,9.076247215270996094e-01,9.075825214385986328e-01,9.075403809547424316e-01,9.074981808662414551e-01,9.074560403823852539e-01,9.074138402938842773e-01,9.073716402053833008e-01,9.073295593261718750e-01,9.072873592376708984e-01,9.072452187538146973e-01,9.072030186653137207e-01,9.071608781814575195e-01,9.071187973022460938e-01,9.070765972137451172e-01,9.070345163345336914e-01,9.069923758506774902e-01
8.635189533233642578e-01,8.634806871414184570e-01,8.634424805641174316e-01,8.634043931961059570e-01,8.633661270141601562e-01,8.633280396461486816e-01,8.632898330688476562e-01,8.632516264915466309e-01,8.632135391235351562e-01,8.631753325462341309e-01,8.631372451782226562e-01,8.630990386009216309e-01,8.630608320236206055e-01,8.630227446556091309e-01,8.629845976829528809e-01,8.629465103149414062e-01,8.629083037376403809e-01,8.628701567649841309e-01,8.628320693969726562e-01,8.627939224243164062e-01,8.627558350563049316e-01,8.627176880836486816e-01,8.626795411109924316e-01,8.626415133476257324e-01,8.626033663749694824e-01,8.625652790069580078e-01,8.625271916389465332e-01,8.624890446662902832e-01,8.624510169029235840e-01,8.624128699302673340e-01,8.623748421669006348e-01,8.623366951942443848e-01,8.622986078262329102e-01,8.622605800628662109e-01,8.622224330902099609e-01,8.621844649314880371e-01,8.621463179588317871e-01,8.621082305908203125e-01,8.620702028274536133e-01,8.620321154594421387e-01,8.619941473007202148e-01,8.619560599327087402e-01,8.619179725646972656e-01,8.618799448013305664e-01,8.618419170379638672e-01,8.618038892745971680e-01,8.617658615112304688e-01,8.617277741432189941e-01,8.616898059844970703e-01,8.616517186164855957e-01,8.616137504577636719e-01,8.615757226943969727e-01,8.615376949310302734e-01,8.614997267723083496e-01,8.614616990089416504e-01,8.614237308502197266e-01,8.613857030868530273e-01,8.613477349281311035e-01,8.613097071647644043e-01,8.612716794013977051e-01,8.612337708473205566e-01,8.611957430839538574e-01,8.611578345298767090e-01,8.611198067665100098e-01,8.610817790031433105e-01,8.610438704490661621e-01,8.610058426856994629e-01,8.609679341316223145e-01,8.609299659729003906e-01,8.608919382095336914e-01,8.608540892601013184e-01,8.608160614967346191e-01,8.607782125473022461e-01,8.607401847839355469e-01,8.607022166252136230e-01,8.606643676757812500e-01,8.606263995170593262e-01,8.605884909629821777e-01,8.605505228042602539e-01,8.605125546455383301e-01
8.212842941284179688e-01,8.212497234344482422e-01,8.212152719497680664e-01,8.211807012557983398e-01,8.211461901664733887e-01,8.211116194725036621e-01,8.210771083831787109e-01,8.210425972938537598e-01,8.210080862045288086e-01,8.209735751152038574e-01,8.209390640258789062e-01,8.209044933319091797e-01,8.208700418472290039e-01,8.208354711532592773e-01,8.208010196685791016e-01,8.207665085792541504e-01,8.207319974899291992e-01,8.206975460052490234e-01,8.206630349159240723e-01,8.206285834312438965e-01,8.205940723419189453e-01,8.205595612525939941e-01,8.205251097679138184e-01,8.204905986785888672e-01,8.204562067985534668e-01,8.204216957092285156e-01,8.203871846199035645e-01,8.203527331352233887e-01,8.203182816505432129e-01,8.202838301658630371e-01,8.202493786811828613e-01,8.202148675918579102e-01,8.201804757118225098e-01,8.201459646224975586e-01,8.201115727424621582e-01,8.200771212577819824e-01,8.200426697731018066e-01,8.200082778930664062e-01,8.199737668037414551e-01,8.199393749237060547e-01,8.199049234390258789e-01,8.198704719543457031e-01,8.198361396789550781e-01,8.198016881942749023e-01,8.197672963142395020e-01,8.197328448295593262e-01,8.196983933448791504e-01,8.196640610694885254e-01,8.196296095848083496e-01,8.195952177047729492e-01,8.195608258247375488e-01,8.195263743400573730e-01,8.194920420646667480e-01,8.194575905799865723e-01,8.194232583045959473e-01,8.193888664245605469e-01,8.193545341491699219e-01,8.193201422691345215e-01,8.192856907844543457e-01,8.192513585090637207e-01,8.192169666290283203e-01,8.191826343536376953e-01,8.191482424736022949e-01,8.191138505935668945e-01,8.190795779228210449e-01,8.190451860427856445e-01,8.190108537673950195e-01,8.189764618873596191e-01,8.189420700073242188e-01,8.189077973365783691e-01,8.188734054565429688e-01,8.188391327857971191e-01,8.188047409057617188e-01,8.187704086303710938e-01,8.187361359596252441e-01,8.187017440795898438e-01,8.186674714088439941e-01,8.186331391334533691e-01,8.185987472534179688e-01,8.185644745826721191e-01
7.829884886741638184e-01,7.829571366310119629e-01,7.829257249832153320e-01,7.828943729400634766e-01,7.828629612922668457e-01,7.828315496444702148e-01,7.828001976013183594e-01,7.827687859535217285e-01,7.827374339103698730e-01,7.827060222625732422e-01,7.826746106147766113e-01,7.826433181762695312e-01,7.826119065284729004e-01,7.825806140899658203e-01,7.825492024421691895e-01,7.825177907943725586e-01,7.824864983558654785e-01,7.824550867080688477e-01,7.824237942695617676e-01,7.823924422264099121e-01,7.823610305786132812e-01,7.823297381401062012e-01,7.822983860969543457e-01,7.822670936584472656e-01,7.822356820106506348e-01,7.822043299674987793e-01,7.821730375289916992e-01,7.821416854858398438e-01,7.821103930473327637e-01,7.820790410041809082e-01,7.820476889610290527e-01,7.820163965225219727e-01,7.819850444793701172e-01,7.819538116455078125e-01,7.819224596023559570e-01,7.818911075592041016e-01,7.818598747253417969e-01,7.818285226821899414e-01,7.817972302436828613e-01,7.817659378051757812e-01,7.817345857620239258e-01,7.817033529281616211e-01,7.816720008850097656e-01,7.816407680511474609e-01,7.816094756126403809e-01,7.815781235694885254e-01,7.815468907356262207e-01,7.815155982971191406e-01,7.814843654632568359e-01,7.814530730247497559e-01,7.814217805862426758e-01,7.813905477523803711e-01,7.813592553138732910e-01,7.813280224800109863e-01,7.812967300415039062e-01,7.812654972076416016e-01,7.812342047691345215e-01,7.812029123306274414e-01,7.811717391014099121e-01,7.811404466629028320e-01,7.811092138290405273e-01,7.810779809951782227e-01,7.810466885566711426e-01,7.810155153274536133e-01,7.809842228889465332e-01,7.809530496597290039e-01,7.809217572212219238e-01,7.808905243873596191e-01,7.808593511581420898e-01,7.808280587196350098e-01,7.807968854904174805e-01,7.807656526565551758e-01,7.807344198226928711e-01,7.807032465934753418e-01,7.806720137596130371e-01,7.806408405303955078e-01,7.806096076965332031e-01,7.805783748626708984e-01,7.805472016334533691e-01,7.805159687995910645e-01
7.481049895286560059e-01,7.480763196945190430e-01,7.480476498603820801e-01,7.480189800262451172e-01,7.479903101921081543e-01,7.479616999626159668e-01,7.479330301284790039e-01,7.479044198989868164e-01,7.478757500648498535e-01,7.478470802307128906e-01,7.478184700012207031e-01,7.477898001670837402e-01,7.477611899375915527e-01,7.477325797080993652e-01,7.477039098739624023e-01,7.476752996444702148e-01,7.476466298103332520e-01,7.476180791854858398e-01,7.475894093513488770e-01,7.475607395172119141e-01,7.475321888923645020e-01,7.475035190582275391e-01,7.474749684333801270e-01,7.474463582038879395e-01,7.474176883697509766e-01,7.473891377449035645e-01,7.473604679107666016e-01,7.473319172859191895e-01,7.473033070564270020e-01,7.472746968269348145e-01,7.472461462020874023e-01,7.472174763679504395e-01,7.471889257431030273e-01,7.471603155136108398e-01,7.471317052841186523e-01,7.471031546592712402e-01,7.470745444297790527e-01,7.470459938049316406e-01,7.470173835754394531e-01,7.469887733459472656e-01,7.469602823257446289e-01,7.469316720962524414e-01,7.469031214714050293e-01,7.468745708465576172e-01,7.468459606170654297e-01,7.468174099922180176e-01,7.467888593673706055e-01,7.467603087425231934e-01,7.467317581176757812e-01,7.467032074928283691e-01,7.466746568679809570e-01,7.466460466384887695e-01,7.466175556182861328e-01,7.465890049934387207e-01,7.465604543685913086e-01,7.465319037437438965e-01,7.465033531188964844e-01,7.464748620986938477e-01,7.464462518692016602e-01,7.464177608489990234e-01,7.463892102241516113e-01,7.463606595993041992e-01,7.463321685791015625e-01,7.463036179542541504e-01,7.462751269340515137e-01,7.462465763092041016e-01,7.462180256843566895e-01,7.461895942687988281e-01,7.461610436439514160e-01,7.461325526237487793e-01,7.461040019989013672e-01,7.460755109786987305e-01,7.460470199584960938e-01,7.460184693336486816e-01,7.459900379180908203e-01,7.459614872932434082e-01,7.459329962730407715e-01,7.459045052528381348e-01,7.458760142326354980e-01,7.458475828170776367e-01
7.161970734596252441e-01,7.161708474159240723e-01,7.161445617675781250e-01,7.161182761192321777e-01,7.160920500755310059e-01,7.160657644271850586e-01,7.160395383834838867e-01,7.160132527351379395e-01,7.159869670867919922e-01,7.159607410430908203e-01,7.159345149993896484e-01,7.159082889556884766e-01,7.158820033073425293e-01,7.158557176589965820e-01,7.158295512199401855e-01,7.158032655715942383e-01,7.157770395278930664e-01,7.157508134841918945e-01,7.157245278358459473e-01,7.156983613967895508e-01,7.156720757484436035e-01,7.156459093093872070e-01,7.156196236610412598e-01,7.155933976173400879e-01,7.155672311782836914e-01,7.155409455299377441e-01,7.155147790908813477e-01,7.154885530471801758e-01,7.154623270034790039e-01,7.154361009597778320e-01,7.154098749160766602e-01,7.153837084770202637e-01,7.153574824333190918e-01,7.153312563896179199e-01,7.153050899505615234e-01,7.152788639068603516e-01,7.152526974678039551e-01,7.152264714241027832e-01,7.152002453804016113e-01,7.151740789413452148e-01,7.151478528976440430e-01,7.151217460632324219e-01,7.150955200195312500e-01,7.150692939758300781e-01,7.150431275367736816e-01,7.150169610977172852e-01,7.149907946586608887e-01,7.149646282196044922e-01,7.149384617805480957e-01,7.149122357368469238e-01,7.148860692977905273e-01,7.148599028587341309e-01,7.148337364196777344e-01,7.148076295852661133e-01,7.147814035415649414e-01,7.147552371025085449e-01,7.147290706634521484e-01,7.147029042243957520e-01,7.146767973899841309e-01,7.146506309509277344e-01,7.146244049072265625e-01,7.145982980728149414e-01,7.145721316337585449e-01,7.145460247993469238e-01,7.145198583602905273e-01,7.144936919212341309e-01,7.144675850868225098e-01,7.144414186477661133e-01,7.144153118133544922e-01,7.143891453742980957e-01,7.143629789352416992e-01,7.143368721008300781e-01,7.143107652664184570e-01,7.142846584320068359e-01,7.142584919929504395e-01,7.142323255538940430e-01,7.142062783241271973e-01,7.141801118850708008e-01,7.141540050506591797e-01,7.141278982162475586e-01
6.868997812271118164e-01,6.868755817413330078e-01,6.868513822555541992e-01,6.868272423744201660e-01,6.868031024932861328e-01,6.867789626121520996e-01,6.867547631263732910e-01,6.867306232452392578e-01,6.867064833641052246e-01,6.866823434829711914e-01,6.866582036018371582e-01,6.866340637207031250e-01,6.866098642349243164e-01,6.865857839584350586e-01,6.865615844726562500e-01,6.865375041961669922e-01,6.865133643150329590e-01,6.864891648292541504e-01,6.864650845527648926e-01,6.864409446716308594e-01,6.864168047904968262e-01,6.863926649093627930e-01,6.863685250282287598e-01,6.863444447517395020e-01,6.863203048706054688e-01,6.862962245941162109e-01,6.862720847129821777e-01,6.862479448318481445e-01,6.862238645553588867e-01,6.861997246742248535e-01,6.861756443977355957e-01,6.861515045166015625e-01,6.861273646354675293e-01,6.861032843589782715e-01,6.860791444778442383e-01,6.860550642013549805e-01,6.860309243202209473e-01,6.860068440437316895e-01,6.859827637672424316e-01,6.859586238861083984e-01,6.859346032142639160e-01,6.859104633331298828e-01,6.858863234519958496e-01,6.858623027801513672e-01,6.858381628990173340e-01,6.858141422271728516e-01,6.857900023460388184e-01,6.857659816741943359e-01,6.857418417930603027e-01,6.857177615165710449e-01,6.856936812400817871e-01,6.856696009635925293e-01,6.856455802917480469e-01,6.856214404106140137e-01,6.855973601341247559e-01,6.855733394622802734e-01,6.855492591857910156e-01,6.855251789093017578e-01,6.855010986328125000e-01,6.854770183563232422e-01,6.854529976844787598e-01,6.854289174079895020e-01,6.854048967361450195e-01,6.853808164596557617e-01,6.853567361831665039e-01,6.853327155113220215e-01,6.853086352348327637e-01,6.852846145629882812e-01,6.852605342864990234e-01,6.852364540100097656e-01,6.852124929428100586e-01,6.851884126663208008e-01,6.851643919944763184e-01,6.851403117179870605e-01,6.851162910461425781e-01,6.850922703742980957e-01,6.850681900978088379e-01,6.850442290306091309e-01,6.850201487541198730e-01,6.849960684776306152e-01
6.599051356315612793e-01,6.598827838897705078e-01,6.598604917526245117e-01,6.598381996154785156e-01,6.598159074783325195e-01,6.597936153411865234e-01,6.597713232040405273e-01,6.597490310668945312e-01,6.597267389297485352e-01,6.597045063972473145e-01,6.596821546554565430e-01,6.596598625183105469e-01,6.596376299858093262e-01,6.596152782440185547e-01,6.595930457115173340e-01,6.595707535743713379e-01,6.595484614372253418e-01,6.595262289047241211e-01,6.595039367675781250e-01,6.594817042350769043e-01,6.594594120979309082e-01,6.594371199607849121e-01,6.594148278236389160e-01,6.593925356864929199e-01,6.593703031539916992e-01,6.593480706214904785e-01,6.593257784843444824e-01,6.593035459518432617e-01,6.592812538146972656e-01,6.592590212821960449e-01,6.592367291450500488e-01,6.592144966125488281e-01,6.591922640800476074e-01,6.591699719429016113e-01,6.591477394104003906e-01,6.591255068778991699e-01,6.591032147407531738e-01,6.590809822082519531e-01,6.590587496757507324e-01,6.590365171432495117e-01,6.590142846107482910e-01,6.589919924736022949e-01,6.589697599411010742e-01,6.589475274085998535e-01,6.589252948760986328e-01,6.589030623435974121e-01,6.588808894157409668e-01,6.588585972785949707e-01,6.588363647460937500e-01,6.588141918182373047e-01,6.587918996810913086e-01,6.587697267532348633e-01,6.587474942207336426e-01,6.587252616882324219e-01,6.587030291557312012e-01,6.586807966232299805e-01,6.586586236953735352e-01,6.586363911628723145e-01,6.586141586303710938e-01,6.585919857025146484e-01,6.585697531700134277e-01,6.585475206375122070e-01,6.585252881050109863e-01,6.585031151771545410e-01,6.584808826446533203e-01,6.584587097167968750e-01,6.584365367889404297e-01,6.584143042564392090e-01,6.583920717239379883e-01,6.583698987960815430e-01,6.583476662635803223e-01,6.583254933357238770e-01,6.583033204078674316e-01,6.582810878753662109e-01,6.582589149475097656e-01,6.582367420196533203e-01,6.582145690917968750e-01,6.581923365592956543e-01,6.581701636314392090e-01,6.581479907035827637e-01
6.349519491195678711e-01,6.349313259124755859e-01,6.349106431007385254e-01,6.348900794982910156e-01,6.348693966865539551e-01,6.348487138748168945e-01,6.348280906677246094e-01,6.348074674606323242e-01,6.347868442535400391e-01,6.347662210464477539e-01,6.347455382347106934e-01,6.347249150276184082e-01,6.347042918205261230e-01,6.346836686134338379e-01,6.346630454063415527e-01,6.346424221992492676e-01,6.346217989921569824e-01,6.346011757850646973e-01,6.345805525779724121e-01,6.345599293708801270e-01,6.345392465591430664e-01,6.345186829566955566e-01,6.344980597496032715e-01,6.344774365425109863e-01,6.344568133354187012e-01,6.344361901283264160e-01,6.344156265258789062e-01,6.343950033187866211e-01,6.343743801116943359e-01,6.343537569046020508e-01,6.343331336975097656e-01,6.343125700950622559e-01,6.342919468879699707e-01,6.342713832855224609e-01,6.342507600784301758e-01,6.342301368713378906e-01,6.342095732688903809e-01,6.341889500617980957e-01,6.341683864593505859e-01,6.341477632522583008e-01,6.341271400451660156e-01,6.341065764427185059e-01,6.340859532356262207e-01,6.340653896331787109e-01,6.340448260307312012e-01,6.340242624282836914e-01,6.340036392211914062e-01,6.339830160140991211e-01,6.339624524116516113e-01,6.339418888092041016e-01,6.339213252067565918e-01,6.339007019996643066e-01,6.338801383972167969e-01,6.338595747947692871e-01,6.338390111923217773e-01,6.338184475898742676e-01,6.337978839874267578e-01,6.337772607803344727e-01,6.337566971778869629e-01,6.337361335754394531e-01,6.337155699729919434e-01,6.336950063705444336e-01,6.336744427680969238e-01,6.336538791656494141e-01,6.336333155632019043e-01,6.336127519607543945e-01,6.335921883583068848e-01,6.335716247558593750e-01,6.335510611534118652e-01,6.335304975509643555e-01,6.335099935531616211e-01,6.334894299507141113e-01,6.334688663482666016e-01,6.334483027458190918e-01,6.334277391433715820e-01,6.334072351455688477e-01,6.333866715431213379e-01,6.333661079406738281e-01,6.333456039428710938e-01,6.333250403404235840e-01
6.118172407150268555e-01,6.117980480194091797e-01,6.117789149284362793e-01,6.117597222328186035e-01,6.117405295372009277e-01,6.117213964462280273e-01,6.117022037506103516e-01,6.116830706596374512e-01,6.116638779640197754e-01,6.116447448730468750e-01,6.116256117820739746e-01,6.116064190864562988e-01,6.115872859954833984e-01,6.115680932998657227e-01,6.115489602088928223e-01,6.115298271179199219e-01,6.115106344223022461e-01,6.114915013313293457e-01,6.114723682403564453e-01,6.114531755447387695e-01,6.114340424537658691e-01,6.114149093627929688e-01,6.113957762718200684e-01,6.113766431808471680e-01,6.113574504852294922e-01,6.113383769989013672e-01,6.113191843032836914e-01,6.113001108169555664e-01,6.112809181213378906e-01,6.112617850303649902e-01,6.112426519393920898e-01,6.112235188484191895e-01,6.112043857574462891e-01,6.111852526664733887e-01,6.111661195755004883e-01,6.111469864845275879e-01,6.111278533935546875e-01,6.111087799072265625e-01,6.110896468162536621e-01,6.110705137252807617e-01,6.110513806343078613e-01,6.110322475433349609e-01,6.110131740570068359e-01,6.109940409660339355e-01,6.109749078750610352e-01,6.109557747840881348e-01,6.109366416931152344e-01,6.109175682067871094e-01,6.108984351158142090e-01,6.108793616294860840e-01,6.108602285385131836e-01,6.108410954475402832e-01,6.108220219612121582e-01,6.108028888702392578e-01,6.107838153839111328e-01,6.107646822929382324e-01,6.107455492019653320e-01,6.107264757156372070e-01,6.107074022293090820e-01,6.106883287429809570e-01,6.106691956520080566e-01,6.106500625610351562e-01,6.106309890747070312e-01,6.106119155883789062e-01,6.105928421020507812e-01,6.105737090110778809e-01,6.105545759201049805e-01,6.105355620384216309e-01,6.105164289474487305e-01,6.104973554611206055e-01,6.104782819747924805e-01,6.104591488838195801e-01,6.104400753974914551e-01,6.104210019111633301e-01,6.104019284248352051e-01,6.103828549385070801e-01,6.103637218475341797e-01,6.103447079658508301e-01,6.103255748748779297e-01,6.103065609931945801e-01
5.903090238571166992e-01,5.902912020683288574e-01,5.902733206748962402e-01,5.902554392814636230e-01,5.902376770973205566e-01,5.902197957038879395e-01,5.902019739151000977e-01,5.901840925216674805e-01,5.901662707328796387e-01,5.901484489440917969e-01,5.901306271553039551e-01,5.901128053665161133e-01,5.900949239730834961e-01,5.900771021842956543e-01,5.900592803955078125e-01,5.900414586067199707e-01,5.900236368179321289e-01,5.900058150291442871e-01,5.899879336357116699e-01,5.899701714515686035e-01,5.899522900581359863e-01,5.899345278739929199e-01,5.899166464805603027e-01,5.898988246917724609e-01,5.898810625076293945e-01,5.898631811141967773e-01,5.898454189300537109e-01,5.898275971412658691e-01,5.898097753524780273e-01,5.897919535636901855e-01,5.897741317749023438e-01,5.897563695907592773e-01,5.897385478019714355e-01,5.897207260131835938e-01,5.897029042243957520e-01,5.896850824356079102e-01,5.896673202514648438e-01,5.896494984626770020e-01,5.896316766738891602e-01,5.896138548851013184e-01,5.895960927009582520e-01,5.895782709121704102e-01,5.895604491233825684e-01,5.895426869392395020e-01,5.895248651504516602e-01,5.895070433616638184e-01,5.894892811775207520e-01,5.894714593887329102e-01,5.894536972045898438e-01,5.894358754158020020e-01,5.894181132316589355e-01,5.894003510475158691e-01,5.893825292587280273e-01,5.893647670745849609e-01,5.893469452857971191e-01,5.893291234970092773e-01,5.893113613128662109e-01,5.892935991287231445e-01,5.892758369445800781e-01,5.892580151557922363e-01,5.892402529716491699e-01,5.892224907875061035e-01,5.892046689987182617e-01,5.891869068145751953e-01,5.891691446304321289e-01,5.891513228416442871e-01,5.891335606575012207e-01,5.891157984733581543e-01,5.890980362892150879e-01,5.890802741050720215e-01,5.890624523162841797e-01,5.890447497367858887e-01,5.890269279479980469e-01,5.890092253684997559e-01,5.889914035797119141e-01,5.889736413955688477e-01,5.889558792114257812e-01,5.889381170272827148e-01,5.889203548431396484e-01,5.889025926589965820e-01
