5.000000000000000000e+00,5.000000000000000000e+00,5.000000000000000000e+00,5.000000000000000000e+00,5.000000000000000000e+00,5.000000000000000000e+00,5.000000000000000000e+00,5.000000000000000000e+00,5.000000000000000000e+00,5.000000000000000000e+00,5.000000000000000000e+00,5.000000000000000000e+00,5.000000000000000000e+00,5.000000000000000000e+00,5.000000000000000000e+00,5.000000000000000000e+00,5.000000000000000000e+00,5.000000000000000000e+00,5.000000000000000000e+00,5.000000000000000000e+00,5.000000000000000000e+00,5.000000000000000000e+00,5.000000000000000000e+00,5.000000000000000000e+00,5.000000000000000000e+00,5.000000000000000000e+00,5.000000000000000000e+00,5.000000000000000000e+00,5.000000000000000000e+00,5.000000000000000000e+00,5.000000000000000000e+00,5.000000000000000000e+00,5.000000000000000000e+00,5.000000000000000000e+00,5.000000000000000000e+00,5.000000000000000000e+00,5.000000000000000000e+00,5.000000000000000000e+00,5.000000000000000000e+00,4.863943099975585938e+00,4.672819614410400391e+00,4.496148109436035156e+00,4.332348823547363281e+00,4.180065155029296875e+00,4.038123130798339844e+00,3.905505180358886719e+00,3.781320571899414062e+00,3.664789438247680664e+00,1.042909741401672363e+00,1.010496377944946289e+00,9.866909384727478027e-01,9.911454916000366211e-01,9.604262113571166992e-01,9.513076543807983398e-01,9.773920178413391113e-01,1.151241898536682129e+00,1.172644138336181641e+00,1.201814174652099609e+00,1.178797960281372070e+00,1.155762791633605957e+00,1.134596943855285645e+00,1.113523006439208984e+00,1.102978467941284180e+00,1.097516894340515137e+00,1.091499447822570801e+00,1.085547327995300293e+00,1.108304977416992188e+00,2.267326354980468750e+00,2.224906206130981445e+00,2.184044361114501953e+00,2.144655942916870117e+00,2.106663227081298828e+00,2.069993019104003906e+00,2.034578084945678711e+00,2.000354051589965820e+00,1.967262744903564453e+00,1.935248136520385742e+00,1.904259085655212402e+00,1.874246597290039062e+00,1.845165491104125977e+00
5.000000000000000000e+00,5.000000000000000000e+00,5.000000000000000000e+00,5.000000000000000000e+00,5.000000000000000000e+00,5.000000000000000000e+00,5.000000000000000000e+00,5.000000000000000000e+00,5.000000000000000000e+00,5.000000000000000000e+00,5.000000000000000000e+00,5.000000000000000000e+00,5.000000000000000000e+00,5.000000000000000000e+00,5.000000000000000000e+00,5.000000000000000000e+00,5.000000000000000000e+00,5.000000000000000000e+00,5.000000000000000000e+00,5.000000000000000000e+00,5.000000000000000000e+00,5.000000000000000000e+00,5.000000000000000000e+00,5.000000000000000000e+00,5.000000000000000000e+00,5.000000000000000000e+00,5.000000000000000000e+00,5.000000000000000000e+00,5.000000000000000000e+00,5.000000000000000000e+00,5.000000000000000000e+00,5.000000000000000000e+00,5.000000000000000000e+00,5.000000000000000000e+00,5.000000000000000000e+00,5.000000000000000000e+00,5.000000000000000000e+00,5.000000000000000000e+00,5.000000000000000000e+00,4.864081859588623047e+00,4.672947406768798828e+00,4.496266841888427734e+00,4.332458972930908203e+00,4.180167675018310547e+00,4.038218975067138672e+00,3.905594587326049805e+00,3.781404495239257812e+00,3.664868354797363281e+00,1.035797238349914551e+00,1.003965139389038086e+00,9.909968376159667969e-01,9.677474498748779297e-01,1.162228107452392578e+00,9.364853501319885254e-01,1.156885266304016113e+00,1.154398441314697266e+00,1.172208666801452637e+00,1.206924557685852051e+00,1.177498698234558105e+00,1.156121850013732910e+00,1.134395480155944824e+00,1.113166570663452148e+00,1.093981742858886719e+00,1.089146494865417480e+00,1.084353923797607422e+00,1.079105734825134277e+00,1.073287844657897949e+00,1.144138216972351074e+00,2.224935293197631836e+00,2.184072256088256836e+00,2.144683122634887695e+00,2.106689214706420898e+00,2.070018291473388672e+00,2.034602165222167969e+00,2.000377655029296875e+00,1.967285394668579102e+00,1.935270309448242188e+00,1.904280304908752441e+00,1.874267339706420898e+00,1.845185637474060059e+00
5.000000000000000000e+00,5.000000000000000000e+00,5.000000000000000000e+00,5.000000000000000000e+00,5.000000000000000000e+00,5.000000000000000000e+00,5.000000000000000000e+00,5.000000000000000000e+00,5.000000000000000000e+00,5.000000000000000000e+00,5.000000000000000000e+00,5.000000000000000000e+00,5.000000000000000000e+00,5.000000000000000000e+00,5.000000000000000000e+00,5.000000000000000000e+00,5.000000000000000000e+00,5.000000000000000000e+00,5.000000000000000000e+00,5.000000000000000000e+00,5.000000000000000000e+00,5.000000000000000000e+00,5.000000000000000000e+00,5.000000000000000000e+00,5.000000000000000000e+00,5.000000000000000000e+00,5.000000000000000000e+00,5.000000000000000000e+00,5.000000000000000000e+00,5.000000000000000000e+00,5.000000000000000000e+00,5.000000000000000000e+00,5.000000000000000000e+00,5.000000000000000000e+00,5.000000000000000000e+00,5.000000000000000000e+00,5.000000000000000000e+00,5.000000000000000000e+00,5.000000000000000000e+00,4.864221096038818359e+00,4.673075675964355469e+00,4.496385574340820312e+00,4.332569599151611328e+00,4.180270195007324219e+00,4.038314819335937500e+00,3.905684232711791992e+00,3.781488418579101562e+00,3.664947748184204102e+00,1.034774661064147949e+00,1.000481009483337402e+00,9.892100691795349121e-01,9.545223712921142578e-01,1.165989875793457031e+00,1.163238883018493652e+00,1.160500645637512207e+00,1.157879352569580078e+00,1.176038146018981934e+00,1.221653699874877930e+00,1.186914443969726562e+00,1.156018018722534180e+00,1.134046673774719238e+00,1.112810134887695312e+00,1.092151522636413574e+00,1.080373048782348633e+00,1.075657129287719727e+00,1.070982336997985840e+00,1.066347718238830566e+00,1.095453023910522461e+00,2.224964380264282227e+00,2.184100151062011719e+00,2.144710063934326172e+00,2.106715440750122070e+00,2.070043325424194336e+00,2.034626483917236328e+00,2.000401258468627930e+00,1.967308282852172852e+00,1.935292124748229980e+00,1.904301762580871582e+00,1.874287843704223633e+00,1.845205783843994141e+00
5.000000000000000000e+00,5.000000000000000000e+00,5.000000000000000000e+00,5.000000000000000000e+00,5.000000000000000000e+00,5.000000000000000000e+00,5.000000000000000000e+00,5.000000000000000000e+00,5.000000000000000000e+00,5.000000000000000000e+00,5.000000000000000000e+00,5.000000000000000000e+00,5.000000000000000000e+00,5.000000000000000000e+00,5.000000000000000000e+00,5.000000000000000000e+00,5.000000000000000000e+00,5.000000000000000000e+00,5.000000000000000000e+00,5.000000000000000000e+00,5.000000000000000000e+00,5.000000000000000000e+00,5.000000000000000000e+00,5.000000000000000000e+00,5.000000000000000000e+00,5.000000000000000000e+00,5.000000000000000000e+00,5.000000000000000000e+00,5.000000000000000000e+00,5.000000000000000000e+00,5.000000000000000000e+00,5.000000000000000000e+00,5.000000000000000000e+00,5.000000000000000000e+00,5.000000000000000000e+00,5.000000000000000000e+00,5.000000000000000000e+00,5.000000000000000000e+00,5.000000000000000000e+00,4.864360332489013672e+00,4.673203945159912109e+00,4.496503829956054688e+00,4.332679748535156250e+00,4.180373191833496094e+00,4.038410663604736328e+00,3.905773878097534180e+00,3.781572341918945312e+00,3.665026426315307617e+00,1.281438469886779785e+00,1.015449881553649902e+00,9.730555415153503418e-01,9.498537778854370117e-01,1.170760631561279297e+00,1.167775392532348633e+00,1.164805293083190918e+00,1.161850333213806152e+00,1.181933999061584473e+00,1.232905745506286621e+00,1.194902658462524414e+00,1.157344341278076172e+00,1.133698105812072754e+00,1.112454056739807129e+00,1.091808557510375977e+00,1.071915388107299805e+00,1.067098855972290039e+00,1.062788367271423340e+00,1.058527469635009766e+00,1.054300665855407715e+00,2.224993467330932617e+00,2.184128284454345703e+00,2.144737005233764648e+00,2.106741666793823242e+00,2.070068597793579102e+00,2.034650802612304688e+00,2.000424623489379883e+00,1.967330813407897949e+00,1.935314297676086426e+00,1.904322862625122070e+00,1.874308586120605469e+00,1.845225572586059570e+00
3.577488183975219727e+00,3.613345623016357422e+00,5.000000000000000000e+00,5.000000000000000000e+00,5.000000000000000000e+00,5.000000000000000000e+00,5.000000000000000000e+00,5.000000000000000000e+00,5.000000000000000000e+00,5.000000000000000000e+00,5.000000000000000000e+00,5.000000000000000000e+00,5.000000000000000000e+00,5.000000000000000000e+00,5.000000000000000000e+00,5.000000000000000000e+00,5.000000000000000000e+00,5.000000000000000000e+00,5.000000000000000000e+00,5.000000000000000000e+00,5.000000000000000000e+00,5.000000000000000000e+00,5.000000000000000000e+00,5.000000000000000000e+00,5.000000000000000000e+00,5.000000000000000000e+00,5.000000000000000000e+00,5.000000000000000000e+00,5.000000000000000000e+00,5.000000000000000000e+00,5.000000000000000000e+00,5.000000000000000000e+00,5.000000000000000000e+00,5.000000000000000000e+00,5.000000000000000000e+00,5.000000000000000000e+00,5.000000000000000000e+00,5.000000000000000000e+00,5.000000000000000000e+00,4.864499092102050781e+00,4.673332691192626953e+00,4.496622562408447266e+00,4.332789897918701172e+00,4.180475711822509766e+00,4.038506507873535156e+00,3.905863285064697266e+00,3.781656265258789062e+00,3.665105342864990234e+00,1.288627982139587402e+00,1.008279442787170410e+00,9.750711321830749512e-01,1.179643630981445312e+00,1.175825834274291992e+00,1.172814726829528809e+00,1.169818997383117676e+00,1.166838526725769043e+00,1.190522074699401855e+00,1.241604685783386230e+00,1.200826048851013184e+00,1.162989139556884766e+00,1.133349657058715820e+00,1.112098217010498047e+00,1.091465830802917480e+00,1.070957660675048828e+00,1.058670520782470703e+00,1.055229425430297852e+00,1.051028847694396973e+00,1.046861648559570312e+00,1.057924985885620117e+00,2.184156179428100586e+00,2.144763946533203125e+00,2.106767654418945312e+00,2.070093870162963867e+00,2.034675121307373047e+00,2.000448226928710938e+00,1.967353701591491699e+00,1.935336112976074219e+00,1.904344320297241211e+00,1.874329090118408203e+00,1.845245718955993652e+00
3.590482234954833984e+00,3.620146512985229492e+00,3.734497785568237305e+00,5.000000000000000000e+00,5.000000000000000000e+00,5.000000000000000000e+00,5.000000000000000000e+00,5.000000000000000000e+00,5.000000000000000000e+00,5.000000000000000000e+00,5.000000000000000000e+00,5.000000000000000000e+00,5.000000000000000000e+00,5.000000000000000000e+00,5.000000000000000000e+00,5.000000000000000000e+00,5.000000000000000000e+00,5.000000000000000000e+00,5.000000000000000000e+00,5.000000000000000000e+00,5.000000000000000000e+00,5.000000000000000000e+00,5.000000000000000000e+00,5.000000000000000000e+00,5.000000000000000000e+00,5.000000000000000000e+00,5.000000000000000000e+00,5.000000000000000000e+00,5.000000000000000000e+00,5.000000000000000000e+00,5.000000000000000000e+00,5.000000000000000000e+00,5.000000000000000000e+00,5.000000000000000000e+00,5.000000000000000000e+00,5.000000000000000000e+00,5.000000000000000000e+00,5.000000000000000000e+00,5.000000000000000000e+00,4.864637851715087891e+00,4.673460960388183594e+00,4.496741294860839844e+00,4.332900047302246094e+00,4.180578231811523438e+00,4.038602352142333984e+00,3.905952930450439453e+00,3.781740188598632812e+00,3.665184259414672852e+00,3.555598258972167969e+00,1.245128750801086426e+00,1.211726307868957520e+00,1.185333490371704102e+00,1.181272625923156738e+00,1.177897810935974121e+00,1.174876093864440918e+00,1.171869754791259766e+00,1.200019240379333496e+00,2.801684141159057617e+00,1.206993579864501953e+00,1.168689250946044922e+00,1.133001565933227539e+00,1.111742615699768066e+00,1.090450167655944824e+00,1.069344520568847656e+00,1.052837371826171875e+00,1.045428991317749023e+00,1.043461561203002930e+00,1.039526700973510742e+00,1.035449981689453125e+00,2.184184312820434570e+00,2.144791126251220703e+00,2.106793642044067383e+00,2.070118904113769531e+00,2.034699440002441406e+00,2.000471591949462891e+00,1.967376232147216797e+00,1.935358285903930664e+00,1.904365539550781250e+00,1.874349832534790039e+00,1.845265626907348633e+00
3.602185249328613281e+00,3.630329370498657227e+00,5.000000000000000000e+00,5.000000000000000000e+00,5.000000000000000000e+00,5.000000000000000000e+00,5.000000000000000000e+00,5.000000000000000000e+00,5.000000000000000000e+00,5.000000000000000000e+00,5.000000000000000000e+00,5.000000000000000000e+00,5.000000000000000000e+00,5.000000000000000000e+00,5.000000000000000000e+00,5.000000000000000000e+00,5.000000000000000000e+00,5.000000000000000000e+00,5.000000000000000000e+00,5.000000000000000000e+00,5.000000000000000000e+00,5.000000000000000000e+00,5.000000000000000000e+00,5.000000000000000000e+00,5.000000000000000000e+00,5.000000000000000000e+00,5.000000000000000000e+00,5.000000000000000000e+00,5.000000000000000000e+00,5.000000000000000000e+00,5.000000000000000000e+00,5.000000000000000000e+00,5.000000000000000000e+00,5.000000000000000000e+00,5.000000000000000000e+00,5.000000000000000000e+00,5.000000000000000000e+00,5.000000000000000000e+00,5.000000000000000000e+00,4.864777088165283203e+00,4.673589229583740234e+00,4.496860504150390625e+00,4.333010196685791016e+00,4.180680751800537109e+00,4.038698196411132812e+00,3.906042575836181641e+00,3.781824350357055664e+00,3.665263175964355469e+00,3.555672407150268555e+00,1.255977153778076172e+00,1.219924688339233398e+00,1.191078543663024902e+00,1.186978340148925781e+00,1.183025002479553223e+00,1.179976940155029297e+00,1.179265141487121582e+00,1.208979249000549316e+00,2.801730394363403320e+00,2.737241029739379883e+00,1.176835536956787109e+00,1.138811945915222168e+00,1.110665440559387207e+00,1.088777780532836914e+00,1.067736268043518066e+00,1.051422357559204102e+00,1.036042928695678711e+00,1.032514572143554688e+00,1.030595421791076660e+00,1.028273582458496094e+00,1.024284482002258301e+00,2.144818067550659180e+00,2.106819629669189453e+00,2.070144176483154297e+00,2.034723997116088867e+00,2.000495195388793945e+00,1.967399120330810547e+00,1.935380101203918457e+00,1.904386878013610840e+00,1.874370455741882324e+00,1.845285654067993164e+00
3.663625240325927734e+00,3.691725015640258789e+00,3.728016138076782227e+00,5.000000000000000000e+00,5.000000000000000000e+00,5.000000000000000000e+00,5.000000000000000000e+00,5.000000000000000000e+00,5.000000000000000000e+00,5.000000000000000000e+00,5.000000000000000000e+00,5.000000000000000000e+00,5.000000000000000000e+00,5.000000000000000000e+00,5.000000000000000000e+00,5.000000000000000000e+00,5.000000000000000000e+00,5.000000000000000000e+00,5.000000000000000000e+00,5.000000000000000000e+00,5.000000000000000000e+00,5.000000000000000000e+00,5.000000000000000000e+00,5.000000000000000000e+00,5.000000000000000000e+00,5.000000000000000000e+00,5.000000000000000000e+00,5.000000000000000000e+00,5.000000000000000000e+00,5.000000000000000000e+00,5.000000000000000000e+00,5.000000000000000000e+00,5.000000000000000000e+00,5.000000000000000000e+00,5.000000000000000000e+00,5.000000000000000000e+00,5.000000000000000000e+00,5.000000000000000000e+00,5.000000000000000000e+00,4.864915847778320312e+00,4.673717498779296875e+00,4.496979236602783203e+00,4.333120346069335938e+00,4.180783271789550781e+00,4.038793563842773438e+00,3.906131982803344727e+00,3.781908273696899414e+00,3.665341854095458984e+00,3.555746555328369141e+00,1.266960382461547852e+00,1.227826714515686035e+00,1.197612166404724121e+00,1.192739486694335938e+00,1.188627839088439941e+00,1.185122370719909668e+00,1.188582897186279297e+00,1.216337561607360840e+00,2.801776647567749023e+00,2.737285137176513672e+00,1.186807870864868164e+00,1.148147821426391602e+00,1.109984517097473145e+00,1.087110638618469238e+00,1.066132783889770508e+00,1.050011157989501953e+00,1.034672737121582031e+00,1.021794795989990234e+00,1.019915342330932617e+00,1.018042802810668945e+00,1.016177058219909668e+00,2.144845008850097656e+00,2.106845855712890625e+00,2.070169448852539062e+00,2.034748315811157227e+00,2.000518560409545898e+00,1.967421770095825195e+00,1.935402274131774902e+00,1.904408097267150879e+00,1.874391078948974609e+00,1.845305562019348145e+00
3.604012489318847656e+00,3.636823177337646484e+00,3.672715663909912109e+00,3.727720737457275391e+00,3.760353088378906250e+00,5.000000000000000000e+00,5.000000000000000000e+00,5.000000000000000000e+00,5.000000000000000000e+00,5.000000000000000000e+00,5.000000000000000000e+00,5.000000000000000000e+00,5.000000000000000000e+00,5.000000000000000000e+00,5.000000000000000000e+00,5.000000000000000000e+00,5.000000000000000000e+00,5.000000000000000000e+00,5.000000000000000000e+00,5.000000000000000000e+00,5.000000000000000000e+00,5.000000000000000000e+00,5.000000000000000000e+00,5.000000000000000000e+00,5.000000000000000000e+00,5.000000000000000000e+00,5.000000000000000000e+00,5.000000000000000000e+00,5.000000000000000000e+00,5.000000000000000000e+00,5.000000000000000000e+00,5.000000000000000000e+00,5.000000000000000000e+00,5.000000000000000000e+00,5.000000000000000000e+00,5.000000000000000000e+00,5.000000000000000000e+00,5.000000000000000000e+00,5.000000000000000000e+00,4.865055084228515625e+00,4.673845767974853516e+00,4.497097969055175781e+00,4.333230972290039062e+00,4.180886268615722656e+00,4.038889408111572266e+00,3.906221628189086914e+00,3.781992197036743164e+00,3.665420770645141602e+00,3.555820941925048828e+00,1.276857972145080566e+00,1.235780954360961914e+00,1.205178618431091309e+00,1.198556661605834961e+00,1.194404959678649902e+00,1.190312981605529785e+00,1.198049068450927734e+00,1.223786234855651855e+00,2.801822662353515625e+00,2.737329244613647461e+00,2.675738096237182617e+00,1.157282233238220215e+00,1.118171334266662598e+00,1.085448503494262695e+00,1.064534068107604980e+00,1.048603773117065430e+00,1.033306121826171875e+00,1.018448472023010254e+00,1.010097265243530273e+00,1.009151816368103027e+00,1.008208036422729492e+00,1.007266044616699219e+00,2.106871843338012695e+00,2.070194482803344727e+00,2.034772634506225586e+00,2.000542163848876953e+00,1.967444539070129395e+00,1.935424089431762695e+00,1.904429435729980469e+00,1.874411702156066895e+00,1.845325708389282227e+00
3.570162057876586914e+00,3.599391222000122070e+00,3.639865636825561523e+00,3.703820228576660156e+00,3.774364948272705078e+00,3.807175636291503906e+00,5.000000000000000000e+00,5.000000000000000000e+00,5.000000000000000000e+00,5.000000000000000000e+00,5.000000000000000000e+00,5.000000000000000000e+00,5.000000000000000000e+00,5.000000000000000000e+00,5.000000000000000000e+00,5.000000000000000000e+00,5.000000000000000000e+00,5.000000000000000000e+00,5.000000000000000000e+00,5.000000000000000000e+00,5.000000000000000000e+00,5.000000000000000000e+00,5.000000000000000000e+00,5.000000000000000000e+00,5.000000000000000000e+00,5.000000000000000000e+00,5.000000000000000000e+00,5.000000000000000000e+00,5.000000000000000000e+00,5.000000000000000000e+00,5.000000000000000000e+00,5.000000000000000000e+00,5.000000000000000000e+00,5.000000000000000000e+00,5.000000000000000000e+00,5.000000000000000000e+00,5.000000000000000000e+00,5.000000000000000000e+00,5.000000000000000000e+00,4.865193843841552734e+00,4.673974037170410156e+00,4.497216701507568359e+00,4.333341121673583984e+00,4.180988788604736328e+00,4.038985252380371094e+00,3.906311273574829102e+00,3.782076120376586914e+00,3.665499687194824219e+00,3.555895090103149414e+00,1.287101626396179199e+00,1.244094729423522949e+00,1.213156342506408691e+00,1.203880310058593750e+00,1.199950337409973145e+00,1.196045875549316406e+00,1.205290079116821289e+00,1.231326460838317871e+00,2.801868677139282227e+00,2.737373352050781250e+00,2.675780057907104492e+00,2.616897821426391602e+00,1.126945972442626953e+00,1.089389920234680176e+00,1.062940239906311035e+00,1.047200202941894531e+00,1.031746387481689453e+00,1.017073869705200195e+00,1.003416419029235840e+00,1.002079606056213379e+00,1.001610994338989258e+00,1.001142740249633789e+00,2.106897830963134766e+00,2.070219755172729492e+00,2.034796953201293945e+00,2.000565767288208008e+00,1.967467188835144043e+00,1.935446262359619141e+00,1.904450654983520508e+00,1.874432325363159180e+00,1.845345616340637207e+00
3.570355176925659180e+00,3.601593494415283203e+00,3.642866134643554688e+00,3.702035427093505859e+00,3.767311573028564453e+00,3.808753967285156250e+00,5.000000000000000000e+00,5.000000000000000000e+00,5.000000000000000000e+00,5.000000000000000000e+00,5.000000000000000000e+00,5.000000000000000000e+00,5.000000000000000000e+00,5.000000000000000000e+00,5.000000000000000000e+00,5.000000000000000000e+00,5.000000000000000000e+00,5.000000000000000000e+00,5.000000000000000000e+00,5.000000000000000000e+00,5.000000000000000000e+00,5.000000000000000000e+00,5.000000000000000000e+00,5.000000000000000000e+00,5.000000000000000000e+00,5.000000000000000000e+00,5.000000000000000000e+00,5.000000000000000000e+00,5.000000000000000000e+00,5.000000000000000000e+00,5.000000000000000000e+00,5.000000000000000000e+00,5.000000000000000000e+00,5.000000000000000000e+00,5.000000000000000000e+00,5.000000000000000000e+00,5.000000000000000000e+00,5.000000000000000000e+00,5.000000000000000000e+00,4.865333080291748047e+00,4.674102306365966797e+00,4.497335433959960938e+00,4.333451271057128906e+00,4.181091785430908203e+00,4.039081096649169922e+00,3.906400918960571289e+00,3.782160043716430664e+00,3.665578603744506836e+00,3.555969238281250000e+00,1.299632191658020020e+00,1.253176569938659668e+00,1.221790552139282227e+00,1.207744717597961426e+00,1.203789353370666504e+00,1.199859976768493652e+00,1.212962985038757324e+00,1.238830447196960449e+00,2.801914930343627930e+00,2.737417221069335938e+00,2.675822257995605469e+00,2.616938114166259766e+00,1.145651817321777344e+00,1.102759957313537598e+00,1.062654256820678711e+00,1.045176029205322266e+00,1.030093550682067871e+00,1.016086697578430176e+00,1.003335952758789062e+00,9.988781809806823730e-01,9.992619156837463379e-01,9.998693466186523438e-01,2.106924057006835938e+00,2.070244789123535156e+00,2.034821033477783203e+00,2.000589132308959961e+00,1.967490077018737793e+00,1.935468077659606934e+00,1.904472112655639648e+00,1.874452948570251465e+00,1.845365643501281738e+00
3.565973997116088867e+00,3.596343517303466797e+00,3.644884109497070312e+00,3.712316036224365234e+00,3.758027791976928711e+00,3.799763679504394531e+00,5.000000000000000000e+00,5.000000000000000000e+00,5.000000000000000000e+00,5.000000000000000000e+00,5.000000000000000000e+00,5.000000000000000000e+00,5.000000000000000000e+00,5.000000000000000000e+00,5.000000000000000000e+00,5.000000000000000000e+00,5.000000000000000000e+00,5.000000000000000000e+00,5.000000000000000000e+00,5.000000000000000000e+00,5.000000000000000000e+00,5.000000000000000000e+00,5.000000000000000000e+00,5.000000000000000000e+00,5.000000000000000000e+00,5.000000000000000000e+00,5.000000000000000000e+00,5.000000000000000000e+00,5.000000000000000000e+00,5.000000000000000000e+00,5.000000000000000000e+00,5.000000000000000000e+00,5.000000000000000000e+00,5.000000000000000000e+00,5.000000000000000000e+00,5.000000000000000000e+00,5.000000000000000000e+00,5.000000000000000000e+00,5.000000000000000000e+00,4.865472316741943359e+00,4.674230575561523438e+00,4.497454166412353516e+00,4.333561897277832031e+00,4.181194305419921875e+00,4.039176940917968750e+00,3.906490325927734375e+00,3.782244205474853516e+00,3.665657520294189453e+00,3.556043624877929688e+00,1.309600472450256348e+00,1.262391924858093262e+00,1.230230689048767090e+00,1.212311863899230957e+00,1.207653164863586426e+00,1.203698515892028809e+00,1.220801711082458496e+00,1.243820309638977051e+00,2.801960945129394531e+00,2.737461328506469727e+00,2.675864458084106445e+00,2.616978406906127930e+00,2.560628175735473633e+00,1.120665073394775391e+00,1.078254103660583496e+00,1.044205427169799805e+00,1.031152009963989258e+00,1.017973542213439941e+00,1.004587292671203613e+00,1.000473618507385254e+00,1.000466823577880859e+00,1.000459909439086914e+00,2.106950044631958008e+00,2.070270061492919922e+00,2.034845352172851562e+00,2.000612735748291016e+00,1.967512845993041992e+00,1.935490250587463379e+00,1.904493212699890137e+00,1.874473690986633301e+00,1.845385551452636719e+00
3.570554018020629883e+00,3.600361108779907227e+00,3.645592689514160156e+00,3.742604494094848633e+00,3.773614406585693359e+00,3.794310569763183594e+00,5.000000000000000000e+00,5.000000000000000000e+00,5.000000000000000000e+00,5.000000000000000000e+00,5.000000000000000000e+00,5.000000000000000000e+00,5.000000000000000000e+00,5.000000000000000000e+00,5.000000000000000000e+00,5.000000000000000000e+00,5.000000000000000000e+00,5.000000000000000000e+00,5.000000000000000000e+00,5.000000000000000000e+00,5.000000000000000000e+00,5.000000000000000000e+00,5.000000000000000000e+00,5.000000000000000000e+00,5.000000000000000000e+00,5.000000000000000000e+00,5.000000000000000000e+00,5.000000000000000000e+00,5.000000000000000000e+00,5.000000000000000000e+00,5.000000000000000000e+00,5.000000000000000000e+00,5.000000000000000000e+00,5.000000000000000000e+00,5.000000000000000000e+00,5.000000000000000000e+00,5.000000000000000000e+00,5.000000000000000000e+00,5.000000000000000000e+00,4.865611076354980469e+00,4.674358844757080078e+00,4.497572898864746094e+00,4.333672046661376953e+00,4.181296825408935547e+00,4.039272785186767578e+00,3.906579971313476562e+00,3.782328128814697266e+00,3.665736436843872070e+00,3.556117773056030273e+00,1.318488240242004395e+00,1.272765398025512695e+00,1.238745689392089844e+00,1.218670368194580078e+00,1.211541771888732910e+00,1.207561612129211426e+00,1.228742480278015137e+00,2.869621753692626953e+00,2.802006959915161133e+00,2.737505197525024414e+00,2.675906419754028320e+00,2.617018699645996094e+00,2.560666799545288086e+00,2.506690740585327148e+00,1.094310998916625977e+00,1.046877145767211914e+00,1.033044576644897461e+00,1.020206093788146973e+00,1.007472753524780273e+00,1.003834009170532227e+00,1.003983974456787109e+00,1.004134178161621094e+00,2.106976032257080078e+00,2.070295095443725586e+00,2.034869670867919922e+00,2.000636339187622070e+00,1.967535495758056641e+00,1.935512304306030273e+00,1.904514670372009277e+00,1.874494194984436035e+00,1.845405697822570801e+00
3.560604572296142578e+00,3.592205762863159180e+00,3.631204128265380859e+00,3.726197242736816406e+00,3.792988777160644531e+00,3.795575141906738281e+00,5.000000000000000000e+00,5.000000000000000000e+00,5.000000000000000000e+00,5.000000000000000000e+00,5.000000000000000000e+00,5.000000000000000000e+00,5.000000000000000000e+00,5.000000000000000000e+00,5.000000000000000000e+00,5.000000000000000000e+00,5.000000000000000000e+00,5.000000000000000000e+00,5.000000000000000000e+00,5.000000000000000000e+00,5.000000000000000000e+00,5.000000000000000000e+00,5.000000000000000000e+00,5.000000000000000000e+00,5.000000000000000000e+00,5.000000000000000000e+00,5.000000000000000000e+00,5.000000000000000000e+00,5.000000000000000000e+00,5.000000000000000000e+00,5.000000000000000000e+00,5.000000000000000000e+00,5.000000000000000000e+00,5.000000000000000000e+00,5.000000000000000000e+00,5.000000000000000000e+00,5.000000000000000000e+00,5.000000000000000000e+00,5.000000000000000000e+00,4.865750312805175781e+00,4.674487113952636719e+00,4.497692108154296875e+00,4.333782196044921875e+00,4.181399345397949219e+00,4.039368629455566406e+00,3.906670093536376953e+00,3.782412052154541016e+00,3.665815353393554688e+00,3.556191921234130859e+00,3.452934741973876953e+00,1.285017013549804688e+00,1.247379302978515625e+00,1.225096106529235840e+00,1.215455412864685059e+00,1.211449742317199707e+00,1.234189152717590332e+00,2.869670152664184570e+00,2.802053213119506836e+00,2.737549304962158203e+00,2.675948381423950195e+00,2.617058992385864258e+00,2.560705423355102539e+00,2.506727695465087891e+00,1.109581589698791504e+00,1.050750613212585449e+00,1.037606716156005859e+00,1.024787783622741699e+00,1.011753201484680176e+00,1.007759094238281250e+00,1.007910251617431641e+00,1.008061528205871582e+00,2.107002019882202148e+00,2.070320367813110352e+00,2.034893989562988281e+00,2.000659704208374023e+00,1.967558383941650391e+00,1.935534238815307617e+00,1.904536008834838867e+00,1.874514937400817871e+00,1.845425486564636230e+00
3.571908473968505859e+00,3.598616123199462891e+00,3.639669418334960938e+00,3.706591129302978516e+00,5.000000000000000000e+00,3.762502670288085938e+00,5.000000000000000000e+00,5.000000000000000000e+00,5.000000000000000000e+00,5.000000000000000000e+00,5.000000000000000000e+00,5.000000000000000000e+00,5.000000000000000000e+00,5.000000000000000000e+00,5.000000000000000000e+00,5.000000000000000000e+00,5.000000000000000000e+00,5.000000000000000000e+00,5.000000000000000000e+00,5.000000000000000000e+00,5.000000000000000000e+00,5.000000000000000000e+00,5.000000000000000000e+00,5.000000000000000000e+00,5.000000000000000000e+00,5.000000000000000000e+00,5.000000000000000000e+00,5.000000000000000000e+00,5.000000000000000000e+00,5.000000000000000000e+00,5.000000000000000000e+00,5.000000000000000000e+00,5.000000000000000000e+00,5.000000000000000000e+00,5.000000000000000000e+00,5.000000000000000000e+00,5.000000000000000000e+00,5.000000000000000000e+00,5.000000000000000000e+00,4.865889072418212891e+00,4.674615383148193359e+00,4.497810840606689453e+00,4.333892345428466797e+00,4.181502342224121094e+00,4.039464473724365234e+00,3.906759738922119141e+00,3.782496213912963867e+00,3.665894269943237305e+00,3.556266307830810547e+00,3.453004837036132812e+00,1.295234084129333496e+00,1.256134152412414551e+00,1.231590032577514648e+00,1.221477389335632324e+00,1.218424439430236816e+00,1.239141702651977539e+00,2.869718313217163086e+00,2.802099227905273438e+00,2.737593173980712891e+00,2.675990581512451172e+00,2.617099046707153320e+00,2.560744047164916992e+00,2.506764650344848633e+00,1.116416931152343750e+00,1.055611371994018555e+00,1.042346596717834473e+00,1.028632640838623047e+00,1.017295598983764648e+00,1.012447118759155273e+00,1.011867284774780273e+00,1.012019753456115723e+00,2.107028245925903320e+00,2.070345401763916016e+00,2.034918308258056641e+00,2.000683307647705078e+00,1.967580914497375488e+00,1.935556292533874512e+00,1.904557228088378906e+00,1.874535441398620605e+00,1.845445632934570312e+00
3.593302726745605469e+00,3.620023012161254883e+00,3.652187108993530273e+00,3.698451757431030273e+00,5.000000000000000000e+00,3.737521171569824219e+00,3.774516820907592773e+00,5.000000000000000000e+00,5.000000000000000000e+00,5.000000000000000000e+00,5.000000000000000000e+00,5.000000000000000000e+00,5.000000000000000000e+00,5.000000000000000000e+00,5.000000000000000000e+00,5.000000000000000000e+00,5.000000000000000000e+00,5.000000000000000000e+00,5.000000000000000000e+00,5.000000000000000000e+00,5.000000000000000000e+00,5.000000000000000000e+00,5.000000000000000000e+00,5.000000000000000000e+00,5.000000000000000000e+00,5.000000000000000000e+00,5.000000000000000000e+00,5.000000000000000000e+00,5.000000000000000000e+00,5.000000000000000000e+00,5.000000000000000000e+00,5.000000000000000000e+00,5.000000000000000000e+00,5.000000000000000000e+00,5.000000000000000000e+00,5.000000000000000000e+00,5.000000000000000000e+00,5.000000000000000000e+00,5.000000000000000000e+00,4.866028308868408203e+00,4.674743652343750000e+00,4.497929573059082031e+00,4.334002971649169922e+00,4.181604862213134766e+00,4.039560317993164062e+00,3.906849145889282227e+00,3.782580614089965820e+00,3.665973186492919922e+00,3.556340456008911133e+00,3.453074693679809570e+00,1.304071187973022461e+00,1.265012621879577637e+00,1.237920165061950684e+00,1.227846145629882812e+00,1.224708318710327148e+00,1.244385004043579102e+00,2.869766712188720703e+00,2.802145242691040039e+00,2.737637281417846680e+00,2.676032543182373047e+00,2.617139339447021484e+00,2.560782432556152344e+00,2.506801605224609375e+00,1.115055203437805176e+00,1.060517549514770508e+00,1.047129750251770020e+00,1.031240701675415039e+00,1.022899031639099121e+00,1.017997145652770996e+00,1.015855550765991211e+00,1.045782446861267090e+00,2.107054233551025391e+00,2.070370674133300781e+00,2.034942626953125000e+00,2.000706672668457031e+00,1.967603802680969238e+00,1.935578227043151855e+00,1.904578685760498047e+00,1.874556183815002441e+00,1.845465540885925293e+00
3.531961441040039062e+00,3.633209466934204102e+00,3.643866539001464844e+00,3.690656661987304688e+00,5.000000000000000000e+00,5.000000000000000000e+00,3.742431163787841797e+00,5.000000000000000000e+00,5.000000000000000000e+00,5.000000000000000000e+00,5.000000000000000000e+00,5.000000000000000000e+00,5.000000000000000000e+00,5.000000000000000000e+00,5.000000000000000000e+00,5.000000000000000000e+00,5.000000000000000000e+00,5.000000000000000000e+00,5.000000000000000000e+00,5.000000000000000000e+00,5.000000000000000000e+00,5.000000000000000000e+00,5.000000000000000000e+00,5.000000000000000000e+00,5.000000000000000000e+00,5.000000000000000000e+00,5.000000000000000000e+00,5.000000000000000000e+00,5.000000000000000000e+00,5.000000000000000000e+00,5.000000000000000000e+00,5.000000000000000000e+00,5.000000000000000000e+00,5.000000000000000000e+00,5.000000000000000000e+00,5.000000000000000000e+00,5.000000000000000000e+00,5.000000000000000000e+00,5.000000000000000000e+00,4.866167068481445312e+00,4.674871921539306641e+00,4.498048305511474609e+00,4.334113597869873047e+00,4.181707382202148438e+00,4.039656162261962891e+00,3.906938791275024414e+00,3.782664537429809570e+00,3.666052103042602539e+00,3.556414842605590820e+00,3.453144788742065430e+00,1.315074086189270020e+00,1.275197863578796387e+00,1.246375799179077148e+00,1.232449889183044434e+00,1.234242439270019531e+00,1.252119064331054688e+00,2.869815111160278320e+00,2.802191495895385742e+00,2.737681150436401367e+00,2.676074504852294922e+00,2.617179632186889648e+00,2.560821056365966797e+00,2.506838560104370117e+00,1.112535476684570312e+00,1.065469503402709961e+00,1.050700306892395020e+00,1.033862113952636719e+00,1.028564453125000000e+00,1.023608207702636719e+00,1.019875407218933105e+00,1.052717089653015137e+00,2.107080221176147461e+00,2.070395708084106445e+00,2.034966945648193359e+00,2.000730276107788086e+00,1.967626452445983887e+00,1.935600280761718750e+00,1.904599785804748535e+00,1.874576926231384277e+00,1.845485568046569824e+00
3.505216836929321289e+00,3.627000808715820312e+00,3.636701107025146484e+00,3.689144372940063477e+00,5.000000000000000000e+00,3.667194604873657227e+00,3.688240766525268555e+00,5.000000000000000000e+00,5.000000000000000000e+00,5.000000000000000000e+00,5.000000000000000000e+00,5.000000000000000000e+00,5.000000000000000000e+00,5.000000000000000000e+00,5.000000000000000000e+00,5.000000000000000000e+00,5.000000000000000000e+00,5.000000000000000000e+00,5.000000000000000000e+00,5.000000000000000000e+00,5.000000000000000000e+00,5.000000000000000000e+00,5.000000000000000000e+00,5.000000000000000000e+00,5.000000000000000000e+00,5.000000000000000000e+00,5.000000000000000000e+00,5.000000000000000000e+00,5.000000000000000000e+00,5.000000000000000000e+00,5.000000000000000000e+00,5.000000000000000000e+00,5.000000000000000000e+00,5.000000000000000000e+00,5.000000000000000000e+00,5.000000000000000000e+00,5.000000000000000000e+00,5.000000000000000000e+00,5.000000000000000000e+00,4.866306781768798828e+00,4.675000667572021484e+00,4.498167037963867188e+00,4.334223747253417969e+00,4.181810379028320312e+00,4.039752006530761719e+00,3.907028436660766602e+00,3.782748460769653320e+00,3.666131258010864258e+00,3.556488990783691406e+00,1.355625748634338379e+00,1.312586426734924316e+00,1.279225349426269531e+00,1.256698727607727051e+00,1.241551041603088379e+00,1.249503612518310547e+00,1.271346211433410645e+00,2.869863510131835938e+00,2.802237510681152344e+00,2.737725257873535156e+00,2.676116704940795898e+00,2.617219686508178711e+00,2.560859441757202148e+00,2.506875514984130859e+00,1.110027074813842773e+00,1.070467829704284668e+00,1.053421735763549805e+00,1.039353489875793457e+00,1.034292936325073242e+00,1.029281497001647949e+00,1.024318456649780273e+00,2.145115375518798828e+00,2.107106447219848633e+00,2.070420980453491211e+00,2.034991264343261719e+00,2.000753641128540039e+00,1.967649221420288086e+00,1.935622215270996094e+00,1.904621243476867676e+00,1.874597430229187012e+00,1.845505714416503906e+00
3.484177112579345703e+00,3.631673574447631836e+00,3.642253637313842773e+00,3.696990728378295898e+00,5.000000000000000000e+00,5.000000000000000000e+00,5.000000000000000000e+00,5.000000000000000000e+00,5.000000000000000000e+00,5.000000000000000000e+00,5.000000000000000000e+00,5.000000000000000000e+00,5.000000000000000000e+00,5.000000000000000000e+00,5.000000000000000000e+00,5.000000000000000000e+00,5.000000000000000000e+00,5.000000000000000000e+00,5.000000000000000000e+00,5.000000000000000000e+00,5.000000000000000000e+00,5.000000000000000000e+00,5.000000000000000000e+00,5.000000000000000000e+00,5.000000000000000000e+00,5.000000000000000000e+00,5.000000000000000000e+00,5.000000000000000000e+00,5.000000000000000000e+00,5.000000000000000000e+00,5.000000000000000000e+00,5.000000000000000000e+00,5.000000000000000000e+00,5.000000000000000000e+00,5.000000000000000000e+00,5.000000000000000000e+00,5.000000000000000000e+00,5.000000000000000000e+00,5.000000000000000000e+00,4.866445541381835938e+00,4.675128936767578125e+00,4.498285770416259766e+00,4.334333896636962891e+00,4.181912899017333984e+00,4.039847850799560547e+00,3.907118082046508789e+00,3.782832622528076172e+00,3.666210174560546875e+00,3.556563377380371094e+00,1.352707028388977051e+00,1.312611103057861328e+00,1.285245656967163086e+00,1.270540118217468262e+00,1.253193259239196777e+00,1.274445652961730957e+00,2.940885305404663086e+00,2.869911909103393555e+00,2.802283525466918945e+00,2.737769365310668945e+00,2.676158666610717773e+00,2.617259979248046875e+00,2.560898065567016602e+00,2.506912231445312500e+00,1.107529878616333008e+00,1.073735594749450684e+00,1.055795192718505859e+00,1.042661547660827637e+00,1.037547826766967773e+00,1.032484054565429688e+00,1.027469396591186523e+00,2.145142316818237305e+00,2.107132673263549805e+00,2.070446252822875977e+00,2.035015583038330078e+00,2.000777244567871094e+00,1.967671871185302734e+00,1.935644268989562988e+00,1.904642462730407715e+00,1.874618172645568848e+00,1.845525622367858887e+00
3.464746236801147461e+00,3.636198282241821289e+00,3.649947404861450195e+00,3.708992958068847656e+00,5.000000000000000000e+00,5.000000000000000000e+00,5.000000000000000000e+00,5.000000000000000000e+00,5.000000000000000000e+00,5.000000000000000000e+00,5.000000000000000000e+00,5.000000000000000000e+00,5.000000000000000000e+00,5.000000000000000000e+00,5.000000000000000000e+00,5.000000000000000000e+00,5.000000000000000000e+00,5.000000000000000000e+00,5.000000000000000000e+00,5.000000000000000000e+00,5.000000000000000000e+00,5.000000000000000000e+00,5.000000000000000000e+00,5.000000000000000000e+00,5.000000000000000000e+00,5.000000000000000000e+00,5.000000000000000000e+00,5.000000000000000000e+00,5.000000000000000000e+00,5.000000000000000000e+00,5.000000000000000000e+00,5.000000000000000000e+00,5.000000000000000000e+00,5.000000000000000000e+00,5.000000000000000000e+00,5.000000000000000000e+00,5.000000000000000000e+00,5.000000000000000000e+00,5.000000000000000000e+00,4.866584777832031250e+00,4.675257205963134766e+00,4.498404502868652344e+00,4.334444046020507812e+00,4.182015895843505859e+00,4.039943695068359375e+00,3.907207727432250977e+00,3.782916545867919922e+00,3.666289091110229492e+00,3.556638002395629883e+00,1.349800825119018555e+00,1.315859794616699219e+00,1.296085357666015625e+00,1.286010384559631348e+00,1.277405977249145508e+00,1.308886885643005371e+00,2.940936088562011719e+00,2.869960308074951172e+00,2.802329778671264648e+00,2.737813234329223633e+00,2.676200866699218750e+00,2.617300271987915039e+00,2.560936450958251953e+00,2.506949186325073242e+00,1.108386039733886719e+00,1.074662804603576660e+00,1.056085824966430664e+00,1.041409492492675781e+00,1.036741971969604492e+00,1.031686067581176758e+00,1.026679158210754395e+00,2.145169258117675781e+00,2.107158660888671875e+00,2.070471525192260742e+00,2.035039901733398438e+00,2.000800609588623047e+00,1.967694640159606934e+00,1.935666203498840332e+00,1.904663801193237305e+00,1.874638676643371582e+00,1.845545768737792969e+00
3.444946050643920898e+00,3.639452934265136719e+00,3.656363487243652344e+00,5.000000000000000000e+00,5.000000000000000000e+00,5.000000000000000000e+00,5.000000000000000000e+00,5.000000000000000000e+00,5.000000000000000000e+00,5.000000000000000000e+00,5.000000000000000000e+00,5.000000000000000000e+00,5.000000000000000000e+00,5.000000000000000000e+00,5.000000000000000000e+00,5.000000000000000000e+00,5.000000000000000000e+00,5.000000000000000000e+00,5.000000000000000000e+00,5.000000000000000000e+00,5.000000000000000000e+00,5.000000000000000000e+00,5.000000000000000000e+00,5.000000000000000000e+00,5.000000000000000000e+00,5.000000000000000000e+00,5.000000000000000000e+00,5.000000000000000000e+00,5.000000000000000000e+00,5.000000000000000000e+00,5.000000000000000000e+00,5.000000000000000000e+00,5.000000000000000000e+00,5.000000000000000000e+00,5.000000000000000000e+00,5.000000000000000000e+00,5.000000000000000000e+00,5.000000000000000000e+00,5.000000000000000000e+00,4.866723537445068359e+00,4.675385951995849609e+00,4.498523712158203125e+00,4.334554672241210938e+00,4.182118415832519531e+00,4.040039539337158203e+00,3.907297372817993164e+00,3.783000707626342773e+00,3.666368007659912109e+00,3.556712150573730469e+00,1.348999261856079102e+00,1.325446248054504395e+00,1.310127854347229004e+00,1.301861763000488281e+00,1.303606390953063965e+00,3.015564441680908203e+00,2.940986633300781250e+00,2.870008707046508789e+00,2.802375793457031250e+00,2.737857341766357422e+00,2.676242828369140625e+00,2.617340326309204102e+00,2.560975074768066406e+00,2.506986141204833984e+00,1.117110252380371094e+00,1.074963808059692383e+00,1.056376576423645020e+00,1.040014386177062988e+00,1.035805225372314453e+00,1.030889391899108887e+00,1.025890231132507324e+00,1.043479561805725098e+00,2.107184648513793945e+00,2.070496559143066406e+00,2.035064220428466797e+00,2.000824213027954102e+00,1.967717289924621582e+00,1.935688257217407227e+00,1.904685020446777344e+00,1.874659419059753418e+00,1.845565557479858398e+00
3.452574491500854492e+00,3.642606019973754883e+00,3.662509679794311523e+00,5.000000000000000000e+00,5.000000000000000000e+00,5.000000000000000000e+00,5.000000000000000000e+00,5.000000000000000000e+00,5.000000000000000000e+00,5.000000000000000000e+00,5.000000000000000000e+00,5.000000000000000000e+00,5.000000000000000000e+00,5.000000000000000000e+00,5.000000000000000000e+00,5.000000000000000000e+00,5.000000000000000000e+00,5.000000000000000000e+00,5.000000000000000000e+00,5.000000000000000000e+00,5.000000000000000000e+00,5.000000000000000000e+00,5.000000000000000000e+00,5.000000000000000000e+00,5.000000000000000000e+00,5.000000000000000000e+00,5.000000000000000000e+00,5.000000000000000000e+00,5.000000000000000000e+00,5.000000000000000000e+00,5.000000000000000000e+00,5.000000000000000000e+00,5.000000000000000000e+00,5.000000000000000000e+00,5.000000000000000000e+00,5.000000000000000000e+00,5.000000000000000000e+00,5.000000000000000000e+00,5.000000000000000000e+00,4.866862773895263672e+00,4.675514221191406250e+00,4.498642444610595703e+00,4.334664821624755859e+00,4.182220935821533203e+00,4.040135383605957031e+00,3.907387018203735352e+00,3.783084630966186523e+00,3.666446924209594727e+00,3.556786537170410156e+00,1.357745528221130371e+00,1.335448145866394043e+00,1.324478030204772949e+00,1.317469477653503418e+00,1.353769183158874512e+00,3.015617847442626953e+00,2.941037416458129883e+00,2.870057106018066406e+00,2.802422285079956055e+00,2.737901210784912109e+00,2.676284790039062500e+00,2.617380619049072266e+00,2.561013460159301758e+00,2.507023096084594727e+00,1.126057505607604980e+00,1.075265049934387207e+00,1.056667566299438477e+00,1.039906740188598633e+00,1.034425139427185059e+00,1.030093789100646973e+00,1.025102376937866211e+00,1.032393574714660645e+00,2.107210874557495117e+00,2.070521831512451172e+00,2.035088777542114258e+00,2.000847816467285156e+00,1.967740178108215332e+00,1.935710191726684570e+00,1.904706478118896484e+00,1.874679923057556152e+00,1.845585703849792480e+00
3.471670627593994141e+00,3.658442974090576172e+00,3.676684379577636719e+00,5.000000000000000000e+00,5.000000000000000000e+00,5.000000000000000000e+00,5.000000000000000000e+00,5.000000000000000000e+00,5.000000000000000000e+00,5.000000000000000000e+00,5.000000000000000000e+00,5.000000000000000000e+00,5.000000000000000000e+00,5.000000000000000000e+00,5.000000000000000000e+00,5.000000000000000000e+00,5.000000000000000000e+00,5.000000000000000000e+00,5.000000000000000000e+00,5.000000000000000000e+00,5.000000000000000000e+00,5.000000000000000000e+00,5.000000000000000000e+00,5.000000000000000000e+00,5.000000000000000000e+00,5.000000000000000000e+00,5.000000000000000000e+00,5.000000000000000000e+00,5.000000000000000000e+00,5.000000000000000000e+00,5.000000000000000000e+00,5.000000000000000000e+00,5.000000000000000000e+00,5.000000000000000000e+00,5.000000000000000000e+00,5.000000000000000000e+00,5.000000000000000000e+00,5.000000000000000000e+00,5.000000000000000000e+00,4.867001056671142578e+00,4.675642490386962891e+00,4.498761653900146484e+00,4.334774971008300781e+00,4.182323932647705078e+00,4.040231227874755859e+00,3.907476663589477539e+00,3.783168554306030273e+00,3.666525840759277344e+00,3.556860685348510742e+00,1.367454886436462402e+00,1.345052123069763184e+00,1.335176110267639160e+00,1.328621864318847656e+00,1.368105649948120117e+00,3.015671014785766602e+00,2.941088199615478516e+00,2.870105504989624023e+00,2.802468299865722656e+00,2.737945318222045898e+00,2.676326990127563477e+00,2.617420911788940430e+00,2.561052083969116211e+00,2.507060050964355469e+00,2.455297231674194336e+00,1.075566530227661133e+00,1.057058095932006836e+00,1.040385723114013672e+00,1.033048748970031738e+00,1.028895616531372070e+00,1.024315834045410156e+00,1.021540641784667969e+00,2.107236862182617188e+00,2.070546865463256836e+00,2.035113096237182617e+00,2.000871181488037109e+00,1.967762827873229980e+00,1.935732245445251465e+00,1.904727578163146973e+00,1.874700665473937988e+00,1.845605611801147461e+00
3.470334529876708984e+00,3.712544918060302734e+00,3.738032341003417969e+00,5.000000000000000000e+00,5.000000000000000000e+00,5.000000000000000000e+00,5.000000000000000000e+00,5.000000000000000000e+00,5.000000000000000000e+00,5.000000000000000000e+00,5.000000000000000000e+00,5.000000000000000000e+00,5.000000000000000000e+00,5.000000000000000000e+00,5.000000000000000000e+00,5.000000000000000000e+00,5.000000000000000000e+00,5.000000000000000000e+00,5.000000000000000000e+00,5.000000000000000000e+00,5.000000000000000000e+00,5.000000000000000000e+00,5.000000000000000000e+00,5.000000000000000000e+00,5.000000000000000000e+00,5.000000000000000000e+00,5.000000000000000000e+00,5.000000000000000000e+00,5.000000000000000000e+00,5.000000000000000000e+00,5.000000000000000000e+00,5.000000000000000000e+00,5.000000000000000000e+00,5.000000000000000000e+00,5.000000000000000000e+00,5.000000000000000000e+00,5.000000000000000000e+00,5.000000000000000000e+00,5.000000000000000000e+00,4.867139339447021484e+00,4.675770282745361328e+00,4.498880386352539062e+00,4.334885597229003906e+00,4.182426452636718750e+00,4.040327072143554688e+00,3.907566308975219727e+00,3.783252716064453125e+00,3.666604757308959961e+00,3.556935071945190430e+00,1.377197980880737305e+00,1.354706287384033203e+00,1.343360781669616699e+00,1.338919043540954590e+00,1.381218671798706055e+00,3.015724420547485352e+00,2.941138982772827148e+00,2.870153903961181641e+00,2.802514314651489258e+00,2.737989664077758789e+00,2.676368951797485352e+00,2.617461204528808594e+00,2.561090469360351562e+00,2.507096767425537109e+00,2.455332756042480469e+00,1.080185413360595703e+00,1.057553052902221680e+00,1.040865063667297363e+00,1.031675934791564941e+00,1.027533888816833496e+00,1.023424983024597168e+00,1.018602132797241211e+00,2.107262849807739258e+00,2.070572137832641602e+00,2.035137414932250977e+00,2.000894784927368164e+00,1.967785596847534180e+00,1.935754179954528809e+00,1.904749035835266113e+00,1.874721169471740723e+00,1.845625758171081543e+00
3.466336488723754883e+00,3.740594625473022461e+00,3.772844314575195312e+00,5.000000000000000000e+00,5.000000000000000000e+00,5.000000000000000000e+00,5.000000000000000000e+00,5.000000000000000000e+00,5.000000000000000000e+00,5.000000000000000000e+00,5.000000000000000000e+00,5.000000000000000000e+00,5.000000000000000000e+00,5.000000000000000000e+00,5.000000000000000000e+00,5.000000000000000000e+00,5.000000000000000000e+00,5.000000000000000000e+00,5.000000000000000000e+00,5.000000000000000000e+00,5.000000000000000000e+00,5.000000000000000000e+00,5.000000000000000000e+00,5.000000000000000000e+00,5.000000000000000000e+00,5.000000000000000000e+00,5.000000000000000000e+00,5.000000000000000000e+00,5.000000000000000000e+00,5.000000000000000000e+00,5.000000000000000000e+00,5.000000000000000000e+00,5.000000000000000000e+00,5.000000000000000000e+00,5.000000000000000000e+00,5.000000000000000000e+00,5.000000000000000000e+00,5.000000000000000000e+00,5.000000000000000000e+00,4.867278099060058594e+00,4.675898075103759766e+00,4.498999118804931641e+00,4.334996223449707031e+00,4.182528972625732422e+00,4.040422916412353516e+00,3.907655954360961914e+00,3.783336639404296875e+00,3.666683673858642578e+00,1.451061844825744629e+00,1.387081027030944824e+00,1.364500164985656738e+00,1.351646304130554199e+00,1.353403449058532715e+00,3.094247579574584961e+00,3.015777826309204102e+00,2.941189765930175781e+00,2.870202302932739258e+00,2.802560567855834961e+00,2.738033771514892578e+00,2.676410913467407227e+00,2.617501258850097656e+00,2.561129093170166016e+00,2.507133722305297852e+00,2.455368041992187500e+00,1.088536620140075684e+00,1.058048367500305176e+00,1.041344881057739258e+00,1.030306696891784668e+00,1.026175737380981445e+00,1.022077679634094238e+00,1.017825484275817871e+00,2.107289075851440430e+00,2.070597171783447266e+00,2.035161733627319336e+00,2.000918388366699219e+00,1.967808246612548828e+00,1.935776233673095703e+00,1.904770255088806152e+00,1.874741911888122559e+00,1.845645546913146973e+00
3.466850280761718750e+00,3.758698701858520508e+00,3.820942878723144531e+00,5.000000000000000000e+00,5.000000000000000000e+00,5.000000000000000000e+00,5.000000000000000000e+00,5.000000000000000000e+00,5.000000000000000000e+00,5.000000000000000000e+00,5.000000000000000000e+00,5.000000000000000000e+00,5.000000000000000000e+00,5.000000000000000000e+00,5.000000000000000000e+00,5.000000000000000000e+00,5.000000000000000000e+00,5.000000000000000000e+00,5.000000000000000000e+00,5.000000000000000000e+00,5.000000000000000000e+00,5.000000000000000000e+00,5.000000000000000000e+00,5.000000000000000000e+00,5.000000000000000000e+00,5.000000000000000000e+00,5.000000000000000000e+00,5.000000000000000000e+00,5.000000000000000000e+00,5.000000000000000000e+00,5.000000000000000000e+00,5.000000000000000000e+00,5.000000000000000000e+00,5.000000000000000000e+00,5.000000000000000000e+00,5.000000000000000000e+00,5.000000000000000000e+00,5.000000000000000000e+00,5.000000000000000000e+00,4.867416858673095703e+00,4.676025867462158203e+00,4.499116897583007812e+00,4.335106372833251953e+00,4.182631969451904297e+00,4.040518760681152344e+00,3.907745599746704102e+00,3.783420801162719727e+00,3.666762590408325195e+00,1.456376194953918457e+00,1.397247910499572754e+00,1.374436736106872559e+00,1.360305309295654297e+00,1.368204474449157715e+00,3.094303846359252930e+00,3.015831232070922852e+00,2.941240787506103516e+00,2.870250701904296875e+00,2.802606582641601562e+00,2.738077640533447266e+00,2.676453351974487305e+00,2.617541551589965820e+00,2.561167478561401367e+00,2.507170677185058594e+00,2.455403566360473633e+00,1.097077846527099609e+00,1.058650016784667969e+00,1.042016029357910156e+00,1.029027938842773438e+00,1.024880528450012207e+00,1.020766258239746094e+00,1.016685009002685547e+00,2.107315063476562500e+00,2.070622444152832031e+00,2.035186052322387695e+00,2.000941753387451172e+00,1.967831134796142578e+00,1.935798168182373047e+00,1.904791593551635742e+00,1.874762535095214844e+00,1.845665693283081055e+00
3.470688819885253906e+00,3.778501033782958984e+00,5.000000000000000000e+00,5.000000000000000000e+00,5.000000000000000000e+00,5.000000000000000000e+00,5.000000000000000000e+00,5.000000000000000000e+00,5.000000000000000000e+00,5.000000000000000000e+00,5.000000000000000000e+00,5.000000000000000000e+00,5.000000000000000000e+00,5.000000000000000000e+00,5.000000000000000000e+00,5.000000000000000000e+00,5.000000000000000000e+00,5.000000000000000000e+00,5.000000000000000000e+00,5.000000000000000000e+00,5.000000000000000000e+00,5.000000000000000000e+00,5.000000000000000000e+00,5.000000000000000000e+00,5.000000000000000000e+00,5.000000000000000000e+00,5.000000000000000000e+00,5.000000000000000000e+00,5.000000000000000000e+00,5.000000000000000000e+00,5.000000000000000000e+00,5.000000000000000000e+00,5.000000000000000000e+00,5.000000000000000000e+00,5.000000000000000000e+00,5.000000000000000000e+00,5.000000000000000000e+00,5.000000000000000000e+00,5.000000000000000000e+00,4.867555141448974609e+00,4.676153659820556641e+00,4.499235153198242188e+00,4.335216045379638672e+00,4.182734966278076172e+00,4.040614604949951172e+00,3.907835245132446289e+00,3.783504724502563477e+00,3.666841745376586914e+00,1.467076182365417480e+00,1.407668948173522949e+00,1.384518980979919434e+00,1.369940161705017090e+00,1.381485462188720703e+00,3.094359874725341797e+00,3.015884637832641602e+00,2.941291570663452148e+00,2.870298862457275391e+00,2.802652835845947266e+00,2.738121747970581055e+00,2.676495313644409180e+00,2.617581844329833984e+00,2.561206102371215820e+00,2.507207632064819336e+00,2.455438852310180664e+00,1.106173396110534668e+00,1.060507893562316895e+00,1.043815970420837402e+00,1.028468012809753418e+00,1.024021744728088379e+00,1.019914269447326660e+00,1.015839695930480957e+00,2.107341051101684570e+00,2.070647716522216797e+00,2.035210371017456055e+00,2.000965356826782227e+00,1.967853903770446777e+00,1.935820221900939941e+00,1.904812812805175781e+00,1.874783277511596680e+00,1.845685601234436035e+00
5.000000000000000000e+00,3.807111740112304688e+00,5.000000000000000000e+00,5.000000000000000000e+00,5.000000000000000000e+00,5.000000000000000000e+00,5.000000000000000000e+00,5.000000000000000000e+00,5.000000000000000000e+00,5.000000000000000000e+00,5.000000000000000000e+00,5.000000000000000000e+00,5.000000000000000000e+00,5.000000000000000000e+00,5.000000000000000000e+00,5.000000000000000000e+00,5.000000000000000000e+00,5.000000000000000000e+00,5.000000000000000000e+00,5.000000000000000000e+00,5.000000000000000000e+00,5.000000000000000000e+00,5.000000000000000000e+00,5.000000000000000000e+00,5.000000000000000000e+00,5.000000000000000000e+00,5.000000000000000000e+00,5.000000000000000000e+00,5.000000000000000000e+00,5.000000000000000000e+00,5.000000000000000000e+00,5.000000000000000000e+00,5.000000000000000000e+00,5.000000000000000000e+00,5.000000000000000000e+00,5.000000000000000000e+00,5.000000000000000000e+00,5.000000000000000000e+00,5.000000000000000000e+00,4.867693901062011719e+00,4.676281452178955078e+00,4.499353885650634766e+00,4.335326194763183594e+00,4.182837009429931641e+00,4.040710926055908203e+00,3.907924890518188477e+00,3.783588886260986328e+00,3.666920661926269531e+00,1.478721857070922852e+00,1.418938040733337402e+00,1.395280003547668457e+00,1.381263971328735352e+00,1.396352887153625488e+00,3.094416141510009766e+00,3.015938043594360352e+00,2.941342353820800781e+00,2.870347261428833008e+00,2.802698850631713867e+00,2.738165616989135742e+00,2.676537513732910156e+00,2.617622137069702148e+00,2.561244487762451172e+00,2.507244348526000977e+00,2.455474376678466797e+00,2.405798912048339844e+00,1.062372326850891113e+00,1.045622110366821289e+00,1.029208421707153320e+00,1.023164272308349609e+00,1.019063711166381836e+00,1.014996051788330078e+00,2.107367277145385742e+00,2.070672750473022461e+00,2.035234689712524414e+00,2.000988960266113281e+00,1.967876553535461426e+00,1.935842394828796387e+00,1.904834270477294922e+00,1.874803781509399414e+00,1.845705747604370117e+00
3.458983659744262695e+00,3.806694507598876953e+00,4.873068332672119141e+00,4.871858119964599609e+00,4.870648860931396484e+00,4.869440078735351562e+00,4.868231773376464844e+00,4.867023944854736328e+00,4.865817070007324219e+00,4.864610671997070312e+00,4.863404750823974609e+00,4.862199783325195312e+00,4.860994815826416016e+00,4.859790802001953125e+00,4.858587741851806641e+00,4.857384681701660156e+00,4.856182575225830078e+00,4.854980945587158203e+00,4.853779792785644531e+00,4.852579593658447266e+00,4.851379394531250000e+00,4.850180149078369141e+00,4.848981380462646484e+00,4.847783565521240234e+00,4.846586227416992188e+00,4.845388889312744141e+00,4.844192981719970703e+00,4.842997074127197266e+00,4.841802120208740234e+00,4.840607643127441406e+00,4.839413166046142578e+00,4.838220119476318359e+00,4.837027072906494141e+00,4.835834980010986328e+00,4.834643363952636719e+00,4.833452224731445312e+00,4.832262039184570312e+00,4.831071853637695312e+00,4.829882621765136719e+00,4.828694343566894531e+00,4.676409244537353516e+00,4.499472141265869141e+00,4.335435867309570312e+00,4.182939052581787109e+00,4.040806770324707031e+00,3.908014535903930664e+00,3.783672809600830078e+00,3.666999578475952148e+00,1.490020394325256348e+00,1.430825948715209961e+00,1.406996130943298340e+00,1.396129369735717773e+00,1.412418484687805176e+00,3.094472408294677734e+00,3.015991449356079102e+00,2.941393136978149414e+00,2.870395660400390625e+00,2.802745103836059570e+00,2.738209724426269531e+00,2.676579475402832031e+00,2.617662429809570312e+00,2.561283111572265625e+00,2.507281303405761719e+00,2.455509662628173828e+00,2.405832767486572266e+00,1.064243316650390625e+00,1.047434568405151367e+00,1.030929923057556152e+00,1.022308230400085449e+00,1.018214583396911621e+00,1.014153599739074707e+00,2.107393264770507812e+00,2.070698022842407227e+00,2.035259008407592773e+00,2.001012325286865234e+00,1.967899441719055176e+00,1.935864210128784180e+00,1.904855489730834961e+00,1.874824523925781250e+00,1.845725655555725098e+00
3.693956613540649414e+00,3.747970819473266602e+00,3.776842117309570312e+00,3.776115179061889648e+00,3.775388717651367188e+00,3.774662017822265625e+00,3.773936033248901367e+00,3.773210287094116211e+00,3.772485017776489258e+00,3.771759748458862305e+00,3.771034479141235352e+00,3.770309925079345703e+00,3.769585609436035156e+00,3.768861532211303711e+00,3.768137931823730469e+00,3.767414093017578125e+00,3.766690731048583984e+00,3.765967845916748047e+00,3.765245437622070312e+00,3.764522790908813477e+00,3.763800382614135742e+00,3.763078689575195312e+00,3.762357234954833984e+00,3.761635780334472656e+00,3.760915040969848633e+00,3.760193824768066406e+00,3.759473323822021484e+00,3.758753299713134766e+00,3.758033514022827148e+00,3.757313728332519531e+00,3.756594181060791016e+00,3.755875110626220703e+00,3.755156278610229492e+00,3.754437685012817383e+00,3.753719568252563477e+00,3.753001213073730469e+00,3.752283573150634766e+00,3.751566171646118164e+00,3.750849008560180664e+00,3.750132083892822266e+00,3.749415159225463867e+00,3.748698949813842773e+00,3.747982978820800781e+00,3.747267246246337891e+00,3.746551752090454102e+00,3.745836496353149414e+00,3.745121240615844727e+00,3.667078495025634766e+00,1.501492857933044434e+00,1.442914724349975586e+00,1.418956637382507324e+00,1.411318421363830566e+00,1.428858160972595215e+00,3.094528913497924805e+00,3.016044855117797852e+00,2.941443920135498047e+00,2.870444059371948242e+00,2.802791118621826172e+00,2.738253831863403320e+00,2.676621437072753906e+00,2.617702722549438477e+00,2.561321735382080078e+00,2.507318258285522461e+00,2.455545186996459961e+00,2.405866861343383789e+00,1.072827219963073730e+00,1.049253225326538086e+00,1.032657265663146973e+00,1.021891832351684570e+00,1.017366886138916016e+00,1.013312578201293945e+00,2.107419252395629883e+00,2.070723056793212891e+00,2.035283327102661133e+00,2.001035928726196289e+00,1.967922091484069824e+00,1.935886383056640625e+00,1.904876828193664551e+00,1.874845027923583984e+00,1.845745682716369629e+00
3.084216356277465820e+00,3.083731651306152344e+00,3.083247184753417969e+00,3.082762479782104492e+00,3.082278251647949219e+00,3.081794023513793945e+00,3.081310272216796875e+00,3.080826520919799805e+00,3.080342531204223633e+00,3.079859018325805664e+00,3.079375743865966797e+00,3.078892469406127930e+00,3.078409433364868164e+00,3.077926397323608398e+00,3.077443599700927734e+00,3.076961040496826172e+00,3.076478719711303711e+00,3.075996398925781250e+00,3.075513839721679688e+00,3.075031995773315430e+00,3.074550151824951172e+00,3.074068546295166016e+00,3.073586940765380859e+00,3.073105335235595703e+00,3.072624206542968750e+00,3.072143077850341797e+00,3.071662187576293945e+00,3.071181297302246094e+00,3.070700407028198242e+00,3.070219993591308594e+00,3.069739818572998047e+00,3.069259643554687500e+00,3.068779468536376953e+00,3.068299770355224609e+00,3.067819833755493164e+00,3.067340135574340820e+00,3.066860675811767578e+00,3.066381454467773438e+00,3.065902471542358398e+00,3.065423250198364258e+00,3.064944505691528320e+00,3.064465761184692383e+00,3.063987255096435547e+00,3.063508987426757812e+00,3.063030481338500977e+00,3.062552452087402344e+00,3.062074422836303711e+00,3.061596632003784180e+00,3.061119079589843750e+00,1.455377459526062012e+00,1.431122422218322754e+00,1.425856590270996094e+00,3.059209823608398438e+00,3.058732986450195312e+00,3.016098260879516602e+00,2.941494703292846680e+00,2.870492458343505859e+00,2.802837133407592773e+00,2.738297700881958008e+00,2.676663637161254883e+00,2.617743015289306641e+00,2.561360359191894531e+00,2.507355213165283203e+00,2.455580472946166992e+00,2.405900716781616211e+00,1.081852197647094727e+00,1.051078200340270996e+00,1.034390449523925781e+00,1.022016048431396484e+00,1.016520500183105469e+00,1.023450255393981934e+00,2.107445478439331055e+00,2.070748329162597656e+00,2.035307645797729492e+00,2.001059293746948242e+00,1.967944860458374023e+00,1.935908317565917969e+00,1.904898285865783691e+00,1.874865770339965820e+00,1.845765590667724609e+00
2.605568408966064453e+00,2.605222225189208984e+00,2.604876518249511719e+00,2.604530811309814453e+00,2.604185104370117188e+00,2.603839397430419922e+00,2.603493690490722656e+00,2.603148460388183594e+00,2.602803230285644531e+00,2.602458000183105469e+00,2.602112770080566406e+00,2.601767539978027344e+00,2.601422548294067383e+00,2.601077795028686523e+00,2.600733041763305664e+00,2.600388526916503906e+00,2.600043773651123047e+00,2.599699258804321289e+00,2.599354743957519531e+00,2.599010467529296875e+00,2.598666191101074219e+00,2.598322153091430664e+00,2.597977876663208008e+00,2.597634077072143555e+00,2.597290277481079102e+00,2.596946477890014648e+00,2.596602916717529297e+00,2.596259117126464844e+00,2.595915555953979492e+00,2.595572233200073242e+00,2.595228910446166992e+00,2.594885826110839844e+00,2.594542503356933594e+00,2.594199419021606445e+00,2.593856573104858398e+00,2.593513727188110352e+00,2.593170881271362305e+00,2.592828035354614258e+00,2.592485427856445312e+00,2.592143058776855469e+00,2.591800689697265625e+00,2.591458320617675781e+00,2.591115951538085938e+00,2.590773820877075195e+00,2.590431928634643555e+00,2.590090036392211914e+00,2.589748144149780273e+00,2.589406251907348633e+00,2.589064598083496094e+00,1.468178629875183105e+00,1.443498611450195312e+00,1.437992334365844727e+00,2.587698698043823242e+00,2.587357521057128906e+00,2.587016344070434570e+00,2.586675167083740234e+00,2.586334228515625000e+00,2.585993289947509766e+00,2.585652589797973633e+00,2.585311889648437500e+00,2.584971427917480469e+00,2.561398744583129883e+00,2.507392168045043945e+00,2.455615997314453125e+00,2.405934810638427734e+00,1.097610712051391602e+00,1.052909731864929199e+00,1.036129355430603027e+00,1.022140145301818848e+00,1.015675544738769531e+00,1.021410346031188965e+00,2.107471466064453125e+00,2.070773601531982422e+00,2.035331964492797852e+00,2.001082897186279297e+00,1.967967510223388672e+00,1.935930371284484863e+00,1.904919505119323730e+00,1.874886512756347656e+00,1.845785737037658691e+00
2.255540847778320312e+00,2.255280971527099609e+00,2.255021333694458008e+00,2.254761457443237305e+00,2.254501819610595703e+00,2.254242181777954102e+00,2.253982543945312500e+00,2.253723144531250000e+00,2.253463506698608398e+00,2.253204107284545898e+00,2.252944946289062500e+00,2.252685546875000000e+00,2.252426385879516602e+00,2.252167224884033203e+00,2.251908063888549805e+00,2.251649141311645508e+00,2.251389980316162109e+00,2.251131057739257812e+00,2.250872373580932617e+00,2.250613451004028320e+00,2.250354766845703125e+00,2.250096082687377930e+00,2.249837398529052734e+00,2.249578952789306641e+00,2.249321222305297852e+00,2.249063253402709961e+00,2.248805522918701172e+00,2.248547792434692383e+00,2.248290061950683594e+00,2.248032569885253906e+00,2.247774839401245117e+00,2.247517347335815430e+00,2.247260093688964844e+00,2.247002601623535156e+00,2.246745347976684570e+00,2.246488094329833984e+00,2.246230840682983398e+00,2.245973825454711914e+00,2.245716810226440430e+00,2.245459794998168945e+00,2.245202541351318359e+00,2.244945764541625977e+00,2.244688987731933594e+00,2.244432210922241211e+00,2.244175434112548828e+00,2.243918657302856445e+00,2.243662118911743164e+00,2.243405580520629883e+00,2.243149280548095703e+00,1.492981553077697754e+00,1.470044732093811035e+00,1.461950659751892090e+00,2.242123842239379883e+00,2.241867780685424805e+00,2.241611480712890625e+00,2.241355419158935547e+00,2.241099357604980469e+00,2.240843534469604492e+00,2.240587472915649414e+00,2.240331888198852539e+00,2.240075826644897461e+00,2.239820241928100586e+00,2.239564657211303711e+00,2.239309072494506836e+00,2.239053487777709961e+00,1.114738345146179199e+00,1.054743647575378418e+00,1.037874221801757812e+00,1.022264480590820312e+00,1.015399336814880371e+00,1.019378662109375000e+00,2.107497692108154297e+00,2.070798635482788086e+00,2.035356283187866211e+00,2.001106500625610352e+00,1.967990398406982422e+00,1.935952305793762207e+00,1.904940843582153320e+00,1.874907016754150391e+00,1.845805644989013672e+00
1.988447070121765137e+00,1.988245129585266113e+00,1.988043189048767090e+00,1.987841367721557617e+00,1.987639427185058594e+00,1.987437725067138672e+00,1.987235784530639648e+00,1.987034082412719727e+00,1.986832380294799805e+00,1.986630797386169434e+00,1.986429214477539062e+00,1.986227631568908691e+00,1.986026167869567871e+00,1.985824704170227051e+00,1.985623240470886230e+00,1.985421657562255859e+00,1.985220313072204590e+00,1.985019087791442871e+00,1.984817743301391602e+00,1.984616637229919434e+00,1.984415411949157715e+00,1.984214305877685547e+00,1.984013199806213379e+00,1.983811855316162109e+00,1.983610868453979492e+00,1.983409881591796875e+00,1.983209013938903809e+00,1.983008146286010742e+00,1.982807278633117676e+00,1.982606410980224609e+00,1.982405662536621094e+00,1.982204675674438477e+00,1.982004046440124512e+00,1.981803417205810547e+00,1.981602787971496582e+00,1.981402277946472168e+00,1.981201767921447754e+00,1.981001257896423340e+00,1.980800747871398926e+00,1.980600118637084961e+00,1.980399847030639648e+00,1.980199456214904785e+00,1.979999184608459473e+00,1.979798913002014160e+00,1.979598760604858398e+00,1.979398608207702637e+00,1.979198455810546875e+00,1.978998184204101562e+00,1.978798151016235352e+00,1.492757678031921387e+00,1.462604045867919922e+00,1.449432611465454102e+00,1.977998375892639160e+00,1.977798581123352051e+00,1.977598786354064941e+00,1.977398753166198730e+00,1.977199077606201172e+00,1.976999402046203613e+00,1.976799726486206055e+00,1.976600170135498047e+00,1.976400613784790039e+00,1.976201057434082031e+00,1.976001620292663574e+00,1.975802183151245117e+00,1.975602507591247559e+00,1.975403189659118652e+00,1.056551814079284668e+00,1.050133466720581055e+00,1.037602066993713379e+00,1.021697878837585449e+00,1.974407076835632324e+00,1.974207878112792969e+00,1.974008560180664062e+00,1.973809599876403809e+00,1.973610639572143555e+00,1.968013048171997070e+00,1.935974359512329102e+00,1.904962062835693359e+00,1.874927759170532227e+00,1.845825672149658203e+00
1.777912497520446777e+00,1.777750968933105469e+00,1.777589559555053711e+00,1.777428269386291504e+00,1.777266860008239746e+00,1.777105331420898438e+00,1.776944041252136230e+00,1.776782751083374023e+00,1.776621460914611816e+00,1.776460289955139160e+00,1.776299118995666504e+00,1.776137948036193848e+00,1.775976777076721191e+00,1.775815486907958984e+00,1.775654435157775879e+00,1.775493383407592773e+00,1.775332450866699219e+00,1.775171399116516113e+00,1.775010466575622559e+00,1.774849534034729004e+00,1.774688720703125000e+00,1.774527549743652344e+00,1.774366736412048340e+00,1.774205923080444336e+00,1.774045228958129883e+00,1.773884415626525879e+00,1.773723721504211426e+00,1.773563027381896973e+00,1.773402333259582520e+00,1.773241519927978516e+00,1.773080945014953613e+00,1.772920370101928711e+00,1.772759795188903809e+00,1.772599220275878906e+00,1.772438764572143555e+00,1.772278308868408203e+00,1.772117853164672852e+00,1.771957516670227051e+00,1.771796941757202148e+00,1.771636605262756348e+00,1.771476268768310547e+00,1.771315932273864746e+00,1.771155714988708496e+00,1.770995497703552246e+00,1.770835280418395996e+00,1.770675063133239746e+00,1.770514845848083496e+00,1.770354628562927246e+00,1.770194649696350098e+00,1.488853812217712402e+00,1.449010252952575684e+00,1.432049274444580078e+00,1.425778508186340332e+00,1.769394636154174805e+00,1.769234538078308105e+00,1.769074678421020508e+00,1.768914818763732910e+00,1.768754959106445312e+00,1.768595218658447266e+00,1.768435359001159668e+00,1.768275618553161621e+00,1.768115997314453125e+00,1.767956137657165527e+00,1.767796397209167480e+00,1.767636775970458984e+00,1.767477273941040039e+00,1.075960636138916016e+00,1.048337340354919434e+00,1.034672260284423828e+00,1.024323225021362305e+00,1.766679525375366211e+00,1.766520142555236816e+00,1.766360759735107422e+00,1.766201376914978027e+00,1.766041994094848633e+00,1.765882730484008789e+00,1.765723466873168945e+00,1.765564203262329102e+00,1.765404820442199707e+00,1.765245676040649414e+00
1.607691884040832520e+00,1.607559800148010254e+00,1.607427835464477539e+00,1.607295751571655273e+00,1.607163786888122559e+00,1.607031822204589844e+00,1.606899976730346680e+00,1.606768012046813965e+00,1.606636166572570801e+00,1.606504321098327637e+00,1.606372475624084473e+00,1.606240749359130859e+00,1.606108784675598145e+00,1.605977058410644531e+00,1.605845332145690918e+00,1.605713605880737305e+00,1.605581879615783691e+00,1.605450153350830078e+00,1.605318546295166016e+00,1.605186939239501953e+00,1.605055093765258789e+00,1.604923605918884277e+00,1.604791998863220215e+00,1.604660511016845703e+00,1.604528903961181641e+00,1.604397416114807129e+00,1.604265928268432617e+00,1.604134559631347656e+00,1.604002952575683594e+00,1.603871464729309082e+00,1.603740096092224121e+00,1.603608727455139160e+00,1.603477358818054199e+00,1.603346109390258789e+00,1.603214740753173828e+00,1.603083491325378418e+00,1.602952122688293457e+00,1.602820873260498047e+00,1.602689623832702637e+00,1.602558374404907227e+00,1.602427244186401367e+00,1.602296113967895508e+00,1.602164983749389648e+00,1.602033853530883789e+00,1.601902604103088379e+00,1.601771593093872070e+00,1.601640462875366211e+00,1.601509451866149902e+00,1.601378440856933594e+00,1.601247549057006836e+00,1.428078174591064453e+00,1.413255572319030762e+00,1.403594970703125000e+00,1.402274370193481445e+00,1.600592732429504395e+00,1.600461959838867188e+00,1.600331068038940430e+00,1.600200295448303223e+00,1.600069522857666016e+00,1.599938631057739258e+00,1.599807739257812500e+00,1.599677085876464844e+00,1.599546313285827637e+00,1.599415659904479980e+00,1.599285006523132324e+00,1.599154353141784668e+00,1.072808384895324707e+00,1.043851852416992188e+00,1.029345631599426270e+00,1.015620470046997070e+00,1.013738512992858887e+00,1.598370790481567383e+00,1.598240375518798828e+00,1.598109841346740723e+00,1.597979426383972168e+00,1.597849011421203613e+00,1.597718596458435059e+00,1.597588062286376953e+00,1.597457647323608398e+00,1.597327351570129395e+00
1.467217683792114258e+00,1.467107772827148438e+00,1.466997742652893066e+00,1.466887712478637695e+00,1.466777801513671875e+00,1.466668009757995605e+00,1.466558098793029785e+00,1.466448187828063965e+00,1.466338396072387695e+00,1.466228604316711426e+00,1.466118574142456055e+00,1.466008782386779785e+00,1.465899109840393066e+00,1.465789318084716797e+00,1.465679526329040527e+00,1.465569853782653809e+00,1.465460062026977539e+00,1.465350389480590820e+00,1.465240597724914551e+00,1.465130925178527832e+00,1.465021371841430664e+00,1.464911699295043945e+00,1.464802026748657227e+00,1.464692473411560059e+00,1.464582920074462891e+00,1.464473366737365723e+00,1.464363694190979004e+00,1.464254140853881836e+00,1.464144587516784668e+00,1.464035153388977051e+00,1.463925600051879883e+00,1.463816165924072266e+00,1.463706731796264648e+00,1.463597297668457031e+00,1.463487744331359863e+00,1.463378310203552246e+00,1.463268995285034180e+00,1.463159561157226562e+00,1.463050246238708496e+00,1.462940931320190430e+00,1.462831616401672363e+00,1.462722301483154297e+00,1.462612986564636230e+00,1.462503671646118164e+00,1.462394356727600098e+00,1.462285161018371582e+00,1.462175965309143066e+00,1.462066769599914551e+00,1.461957573890686035e+00,1.461848378181457520e+00,1.409758687019348145e+00,1.393544912338256836e+00,1.376798510551452637e+00,1.364537239074707031e+00,1.364199280738830566e+00,1.461193680763244629e+00,1.461084604263305664e+00,1.460975527763366699e+00,1.460866451263427734e+00,1.460757374763488770e+00,1.460648417472839355e+00,1.460539460182189941e+00,1.460430502891540527e+00,1.460321545600891113e+00,1.460212588310241699e+00,1.460103631019592285e+00,1.075961351394653320e+00,1.043659567832946777e+00,1.023376345634460449e+00,1.007836341857910156e+00,9.927378296852111816e-01,9.824773073196411133e-01,9.840129613876342773e-01,1.459232926368713379e+00,1.459124088287353516e+00,1.459015250205993652e+00,1.458906531333923340e+00,1.458797812461853027e+00,1.458689093589782715e+00,1.458580374717712402e+00
1.349319100379943848e+00,1.349226117134094238e+00,1.349133133888244629e+00,1.349040150642395020e+00,1.348947167396545410e+00,1.348854184150695801e+00,1.348761320114135742e+00,1.348668336868286133e+00,1.348575353622436523e+00,1.348482489585876465e+00,1.348389625549316406e+00,1.348296761512756348e+00,1.348203897476196289e+00,1.348111033439636230e+00,1.348018169403076172e+00,1.347925305366516113e+00,1.347832560539245605e+00,1.347739696502685547e+00,1.347646832466125488e+00,1.347554087638854980e+00,1.347461342811584473e+00,1.347368597984313965e+00,1.347275972366333008e+00,1.347183227539062500e+00,1.347090482711791992e+00,1.346997737884521484e+00,1.346905112266540527e+00,1.346812367439270020e+00,1.346719741821289062e+00,1.346627116203308105e+00,1.346534490585327148e+00,1.346441864967346191e+00,1.346349239349365234e+00,1.346256613731384277e+00,1.346163988113403320e+00,1.346071481704711914e+00,1.345978856086730957e+00,1.345886349678039551e+00,1.345793843269348145e+00,1.345701336860656738e+00,1.345608830451965332e+00,1.345516204833984375e+00,1.345423817634582520e+00,1.345331311225891113e+00,1.345238924026489258e+00,1.345146417617797852e+00,1.345054030418395996e+00,1.344961643218994141e+00,1.344869256019592285e+00,1.344776749610900879e+00,1.344684362411499023e+00,1.344591975212097168e+00,1.344499588012695312e+00,1.344407320022583008e+00,1.344314932823181152e+00,1.344222664833068848e+00,1.344130396842956543e+00,1.344038128852844238e+00,1.343945741653442383e+00,1.343853473663330078e+00,1.343761205673217773e+00,1.343668937683105469e+00,1.343576788902282715e+00,1.343484520912170410e+00,1.343392372131347656e+00,1.343300223350524902e+00,1.072757124900817871e+00,1.046034574508666992e+00,1.022180557250976562e+00,1.002640366554260254e+00,9.833352565765380859e-01,9.675098657608032227e-01,9.532803893089294434e-01,9.452096223831176758e-01,1.342470884323120117e+00,1.342378854751586914e+00,1.342286825180053711e+00,1.342194795608520508e+00,1.342102766036987305e+00,1.342010736465454102e+00
1.248958826065063477e+00,1.248879075050354004e+00,1.248799443244934082e+00,1.248719811439514160e+00,1.248640179634094238e+00,1.248560547828674316e+00,1.248480916023254395e+00,1.248401165008544922e+00,1.248321533203125000e+00,1.248242020606994629e+00,1.248162388801574707e+00,1.248082876205444336e+00,1.248003244400024414e+00,1.247923731803894043e+00,1.247844219207763672e+00,1.247764587402343750e+00,1.247684955596923828e+00,1.247605443000793457e+00,1.247526049613952637e+00,1.247446537017822266e+00,1.247367024421691895e+00,1.247287511825561523e+00,1.247208118438720703e+00,1.247128486633300781e+00,1.247049093246459961e+00,1.246969699859619141e+00,1.246890187263488770e+00,1.246810793876647949e+00,1.246731400489807129e+00,1.246652007102966309e+00,1.246572613716125488e+00,1.246493220329284668e+00,1.246413826942443848e+00,1.246334433555603027e+00,1.246255159378051758e+00,1.246175765991210938e+00,1.246096491813659668e+00,1.246017098426818848e+00,1.245937824249267578e+00,1.245858550071716309e+00,1.245779156684875488e+00,1.245699882507324219e+00,1.245620608329772949e+00,1.245541453361511230e+00,1.245462179183959961e+00,1.245382905006408691e+00,1.245303750038146973e+00,1.245224475860595703e+00,1.245145201683044434e+00,1.245066046714782715e+00,1.244986772537231445e+00,1.244907617568969727e+00,1.244828462600708008e+00,1.244749307632446289e+00,1.244670152664184570e+00,1.244591116905212402e+00,1.244511842727661133e+00,1.244432806968688965e+00,1.244353652000427246e+00,1.244274616241455078e+00,1.244195461273193359e+00,1.244116425514221191e+00,1.244037389755249023e+00,1.243958353996276855e+00,1.243879199028015137e+00,1.243800163269042969e+00,1.072617888450622559e+00,1.048326134681701660e+00,1.029234886169433594e+00,1.008565783500671387e+00,9.876422286033630371e-01,9.589526653289794922e-01,9.409582614898681641e-01,9.278181195259094238e-01,9.141653180122375488e-01,8.981938362121582031e-01,8.888501524925231934e-01,8.714051246643066406e-01,1.242773652076721191e+00,1.242694735527038574e+00
1.162494301795959473e+00,1.162425279617309570e+00,1.162356257438659668e+00,1.162287235260009766e+00,1.162218213081359863e+00,1.162149190902709961e+00,1.162080168724060059e+00,1.162011146545410156e+00,1.161942243576049805e+00,1.161873221397399902e+00,1.161804318428039551e+00,1.161735415458679199e+00,1.161666393280029297e+00,1.161597490310668945e+00,1.161528468132019043e+00,1.161459565162658691e+00,1.161390662193298340e+00,1.161321759223937988e+00,1.161252856254577637e+00,1.161184072494506836e+00,1.161115169525146484e+00,1.161046266555786133e+00,1.160977363586425781e+00,1.160908460617065430e+00,1.160839676856994629e+00,1.160770773887634277e+00,1.160701990127563477e+00,1.160633206367492676e+00,1.160564422607421875e+00,1.160495638847351074e+00,1.160426735877990723e+00,1.160357952117919922e+00,1.160289168357849121e+00,1.160220384597778320e+00,1.160151600837707520e+00,1.160082936286926270e+00,1.160014152526855469e+00,1.159945368766784668e+00,1.159876585006713867e+00,1.159807920455932617e+00,1.159739136695861816e+00,1.159670472145080566e+00,1.159601807594299316e+00,1.159533143043518066e+00,1.159464359283447266e+00,1.159395694732666016e+00,1.159327030181884766e+00,1.159258365631103516e+00,1.159189701080322266e+00,1.159121036529541016e+00,1.159052491188049316e+00,1.158983826637268066e+00,1.158915162086486816e+00,1.158846616744995117e+00,1.158777952194213867e+00,1.158709287643432617e+00,1.158640742301940918e+00,1.158572196960449219e+00,1.158503651618957520e+00,1.158435106277465820e+00,1.158366560935974121e+00,1.158298015594482422e+00,1.158229470252990723e+00,1.158160924911499023e+00,1.158092379570007324e+00,1.158023834228515625e+00,1.157955408096313477e+00,1.052537679672241211e+00,1.039535164833068848e+00,1.027186155319213867e+00,1.017868041992187500e+00,1.002192020416259766e+00,9.367795586585998535e-01,9.207342863082885742e-01,9.060333371162414551e-01,8.888172507286071777e-01,8.752232193946838379e-01,8.663512468338012695e-01,8.798819780349731445e-01,1.157065510749816895e+00
1.087226390838623047e+00,1.087165951728820801e+00,1.087105631828308105e+00,1.087045192718505859e+00,1.086984872817993164e+00,1.086924433708190918e+00,1.086864113807678223e+00,1.086803793907165527e+00,1.086743474006652832e+00,1.086683154106140137e+00,1.086622834205627441e+00,1.086562514305114746e+00,1.086502075195312500e+00,1.086441874504089355e+00,1.086381554603576660e+00,1.086321234703063965e+00,1.086261034011840820e+00,1.086200714111328125e+00,1.086140394210815430e+00,1.086080193519592285e+00,1.086019873619079590e+00,1.085959672927856445e+00,1.085899353027343750e+00,1.085839152336120605e+00,1.085778951644897461e+00,1.085718750953674316e+00,1.085658550262451172e+00,1.085598349571228027e+00,1.085538029670715332e+00,1.085477828979492188e+00,1.085417628288269043e+00,1.085357546806335449e+00,1.085297346115112305e+00,1.085237145423889160e+00,1.085177063941955566e+00,1.085116863250732422e+00,1.085056662559509277e+00,1.084996461868286133e+00,1.084936380386352539e+00,1.084876298904418945e+00,1.084816098213195801e+00,1.084756016731262207e+00,1.084695935249328613e+00,1.084635853767395020e+00,1.084575772285461426e+00,1.084515571594238281e+00,1.084455490112304688e+00,1.084395408630371094e+00,1.084335327148437500e+00,1.084275364875793457e+00,1.084215283393859863e+00,1.084155201911926270e+00,1.084095239639282227e+00,1.084035038948059082e+00,1.083975076675415039e+00,1.083914995193481445e+00,1.083855032920837402e+00,1.083795070648193359e+00,1.083734989166259766e+00,1.083675026893615723e+00,1.083615064620971680e+00,1.083554983139038086e+00,1.083495020866394043e+00,1.083435058593750000e+00,1.083375096321105957e+00,1.083315134048461914e+00,1.083255171775817871e+00,1.083195328712463379e+00,1.083135366439819336e+00,1.083075404167175293e+00,1.083015441894531250e+00,1.082955479621887207e+00,1.082895636558532715e+00,9.211843013763427734e-01,9.125868678092956543e-01,9.158918857574462891e-01,1.082656025886535645e+00,1.082596182823181152e+00,1.082536220550537109e+00,1.082476377487182617e+00
1.021112442016601562e+00,1.021059274673461914e+00,1.021005868911743164e+00,1.020952701568603516e+00,1.020899415016174316e+00,1.020846128463745117e+00,1.020792961120605469e+00,1.020739674568176270e+00,1.020686507225036621e+00,1.020633339881896973e+00,1.020580053329467773e+00,1.020526766777038574e+00,1.020473599433898926e+00,1.020420432090759277e+00,1.020367264747619629e+00,1.020314097404479980e+00,1.020260930061340332e+00,1.020207762718200684e+00,1.020154595375061035e+00,1.020101308822631836e+00,1.020048141479492188e+00,1.019995093345642090e+00,1.019941926002502441e+00,1.019888758659362793e+00,1.019835591316223145e+00,1.019782543182373047e+00,1.019729375839233398e+00,1.019676208496093750e+00,1.019623160362243652e+00,1.019569993019104004e+00,1.019516944885253906e+00,1.019463777542114258e+00,1.019410729408264160e+00,1.019357681274414062e+00,1.019304633140563965e+00,1.019251465797424316e+00,1.019198417663574219e+00,1.019145369529724121e+00,1.019092321395874023e+00,1.019039273262023926e+00,1.018986225128173828e+00,1.018933176994323730e+00,1.018880128860473633e+00,1.018827080726623535e+00,1.018774032592773438e+00,1.018720984458923340e+00,1.018667936325073242e+00,1.018615007400512695e+00,1.018561959266662598e+00,1.018509030342102051e+00,1.018455982208251953e+00,1.018402934074401855e+00,1.018350005149841309e+00,1.018297076225280762e+00,1.018244028091430664e+00,1.018191099166870117e+00,1.018138170242309570e+00,1.018085241317749023e+00,1.018032312393188477e+00,1.017979264259338379e+00,1.017926335334777832e+00,1.017873406410217285e+00,1.017820477485656738e+00,1.017767548561096191e+00,1.017714619636535645e+00,1.017661690711975098e+00,1.017608880996704102e+00,1.017555952072143555e+00,1.017503023147583008e+00,1.017450094223022461e+00,1.017397284507751465e+00,1.017344355583190918e+00,1.017291545867919922e+00,1.017238616943359375e+00,1.017185807228088379e+00,1.017132997512817383e+00,1.017080068588256836e+00,1.017027258872985840e+00,1.016974329948425293e+00,1.016921520233154297e+00
9.625784158706665039e-01,9.625310301780700684e-01,9.624837636947631836e-01,9.624363780021667480e-01,9.623891115188598633e-01,9.623417854309082031e-01,9.622945189476013184e-01,9.622471332550048828e-01,9.621999263763427734e-01,9.621526002883911133e-01,9.621052145957946777e-01,9.620580077171325684e-01,9.620106816291809082e-01,9.619634747505187988e-01,9.619161486625671387e-01,9.618689417839050293e-01,9.618216156959533691e-01,9.617742896080017090e-01,9.617271423339843750e-01,9.616798162460327148e-01,9.616326689720153809e-01,9.615853428840637207e-01,9.615381956100463867e-01,9.614909291267395020e-01,9.614437222480773926e-01,9.613964557647705078e-01,9.613491892814636230e-01,9.613020420074462891e-01,9.612547755241394043e-01,9.612076282501220703e-01,9.611604213714599609e-01,9.611132740974426270e-01,9.610660076141357422e-01,9.610189199447631836e-01,9.609717130661010742e-01,9.609244465827941895e-01,9.608773589134216309e-01,9.608301520347595215e-01,9.607830047607421875e-01,9.607358574867248535e-01,9.606887102127075195e-01,9.606415629386901855e-01,9.605943560600280762e-01,9.605472683906555176e-01,9.605000615119934082e-01,9.604530334472656250e-01,9.604058265686035156e-01,9.603587985038757324e-01,9.603116512298583984e-01,9.602645635604858398e-01,9.602174162864685059e-01,9.601702690124511719e-01,9.601232409477233887e-01,9.600760936737060547e-01,9.600290656089782715e-01,9.599819183349609375e-01,9.599348902702331543e-01,9.598878026008605957e-01,9.598406553268432617e-01,9.597936868667602539e-01,9.597465395927429199e-01,9.596995711326599121e-01,9.596524834632873535e-01,9.596054553985595703e-01,9.595583677291870117e-01,9.595113992691040039e-01,9.594643115997314453e-01,9.594172835350036621e-01,9.593703150749206543e-01,9.593232274055480957e-01,9.592762589454650879e-01,9.592292308807373047e-01,9.591822624206542969e-01,9.591352343559265137e-01,9.590881466865539551e-01,9.590412378311157227e-01,9.589942097663879395e-01,9.589473009109497070e-01,9.589002728462219238e-01,9.588533639907836914e-01
9.103912711143493652e-01,9.103489518165588379e-01,9.103065729141235352e-01,9.102643132209777832e-01,9.102219343185424805e-01,9.101796746253967285e-01,9.101372957229614258e-01,9.100949168205261230e-01,9.100526571273803711e-01,9.100103378295898438e-01,9.099680781364440918e-01,9.099256992340087891e-01,9.098834991455078125e-01,9.098411202430725098e-01,9.097989201545715332e-01,9.097566008567810059e-01,9.097142815589904785e-01,9.096720218658447266e-01,9.096297025680541992e-01,9.095875024795532227e-01,9.095451831817626953e-01,9.095029830932617188e-01,9.094606637954711914e-01,9.094184637069702148e-01,9.093762040138244629e-01,9.093338847160339355e-01,9.092917442321777344e-01,9.092494249343872070e-01,9.092072844505310059e-01,9.091649651527404785e-01,9.091228246688842773e-01,9.090805649757385254e-01,9.090383052825927734e-01,9.089961051940917969e-01,9.089538455009460449e-01,9.089117050170898438e-01,9.088694453239440918e-01,9.088273048400878906e-01,9.087851047515869141e-01,9.087429642677307129e-01,9.087007045745849609e-01,9.086585044860839844e-01,9.086163640022277832e-01,9.085741639137268066e-01,9.085320234298706055e-01,9.084898233413696289e-01,9.084477424621582031e-01,9.084054827690124512e-01,9.083633422851562500e-01,9.083212018013000488e-01,9.082790017127990723e-01,9.082369208335876465e-01,9.081947803497314453e-01,9.081526994705200195e-01,9.081104993820190430e-01,9.080684185028076172e-01,9.080262780189514160e-01,9.079840779304504395e-01,9.079420566558837891e-01,9.078998565673828125e-01,9.078578352928161621e-01,9.078156948089599609e-01,9.077736139297485352e-01,9.077314734458923340e-01,9.076894521713256836e-01,9.076473116874694824e-01,9.076051712036132812e-01,9.075631499290466309e-01,9.075210094451904297e-01,9.074790477752685547e-01,9.074369072914123535e-01,9.073948860168457031e-01,9.073528051376342773e-01,9.073106646537780762e-01,9.072687029838562012e-01,9.072266221046447754e-01,9.071846008300781250e-01,9.071425199508666992e-01,9.071005582809448242e-01,9.070584774017333984e-01
8.635718822479248047e-01,8.635337948799133301e-01,8.634957075119018555e-01,8.634576201438903809e-01,8.634195327758789062e-01,8.633814454078674316e-01,8.633432984352111816e-01,8.633052706718444824e-01,8.632671833038330078e-01,8.632291555404663086e-01,8.631910681724548340e-01,8.631530404090881348e-01,8.631149530410766602e-01,8.630769252777099609e-01,8.630388379096984863e-01,8.630007505416870117e-01,8.629627227783203125e-01,8.629246354103088379e-01,8.628866672515869141e-01,8.628485798835754395e-01,8.628106117248535156e-01,8.627725243568420410e-01,8.627344965934753418e-01,8.626964688301086426e-01,8.626584410667419434e-01,8.626204729080200195e-01,8.625824451446533203e-01,8.625444769859313965e-01,8.625063896179199219e-01,8.624684810638427734e-01,8.624303936958312988e-01,8.623923659324645996e-01,8.623544573783874512e-01,8.623164296150207520e-01,8.622784614562988281e-01,8.622404336929321289e-01,8.622025251388549805e-01,8.621644973754882812e-01,8.621265888214111328e-01,8.620885610580444336e-01,8.620505332946777344e-01,8.620126247406005859e-01,8.619746565818786621e-01,8.619367480278015137e-01,8.618987202644348145e-01,8.618608713150024414e-01,8.618228435516357422e-01,8.617848753929138184e-01,8.617469668388366699e-01,8.617089986801147461e-01,8.616711497306823730e-01,8.616331815719604492e-01,8.615952730178833008e-01,8.615573048591613770e-01,8.615194559097290039e-01,8.614814877510070801e-01,8.614435195922851562e-01,8.614056706428527832e-01,8.613677024841308594e-01,8.613298535346984863e-01,8.612919449806213379e-01,8.612540960311889648e-01,8.612161278724670410e-01,8.611782193183898926e-01,8.611403703689575195e-01,8.611024618148803711e-01,8.610646128654479980e-01,8.610267043113708496e-01,8.609889149665832520e-01,8.609510064125061035e-01,8.609131574630737305e-01,8.608752489089965820e-01,8.608373403549194336e-01,8.607995510101318359e-01,8.607616424560546875e-01,8.607238531112670898e-01,8.606860041618347168e-01,8.606482148170471191e-01,8.606103062629699707e-01,8.605725169181823730e-01
8.213325738906860352e-01,8.212981820106506348e-01,8.212636709213256836e-01,8.212292194366455078e-01,8.211947679519653320e-01,8.211602568626403809e-01,8.211258649826049805e-01,8.210914134979248047e-01,8.210570216178894043e-01,8.210225105285644531e-01,8.209881186485290527e-01,8.209536671638488770e-01,8.209192156791687012e-01,8.208848237991333008e-01,8.208503723144531250e-01,8.208159804344177246e-01,8.207815289497375488e-01,8.207471370697021484e-01,8.207126855850219727e-01,8.206783533096313477e-01,8.206439018249511719e-01,8.206094503402709961e-01,8.205751180648803711e-01,8.205406665802001953e-01,8.205063343048095703e-01,8.204718828201293945e-01,8.204375505447387695e-01,8.204031586647033691e-01,8.203688263893127441e-01,8.203343749046325684e-01,8.202999830245971680e-01,8.202656507492065430e-01,8.202312588691711426e-01,8.201969265937805176e-01,8.201625347137451172e-01,8.201282024383544922e-01,8.200938105583190918e-01,8.200594186782836914e-01,8.200250864028930664e-01,8.199906945228576660e-01,8.199564218521118164e-01,8.199220299720764160e-01,8.198876976966857910e-01,8.198533654212951660e-01,8.198190331459045410e-01,8.197847008705139160e-01,8.197503089904785156e-01,8.197160363197326660e-01,8.196816444396972656e-01,8.196473717689514160e-01,8.196130394935607910e-01,8.195787668228149414e-01,8.195443749427795410e-01,8.195100426673889160e-01,8.194757699966430664e-01,8.194414377212524414e-01,8.194071650505065918e-01,8.193728327751159668e-01,8.193386197090148926e-01,8.193042874336242676e-01,8.192700147628784180e-01,8.192356824874877930e-01,8.192013502120971680e-01,8.191671371459960938e-01,8.191328048706054688e-01,8.190985918045043945e-01,8.190642595291137695e-01,8.190300464630126953e-01,8.189957141876220703e-01,8.189615011215209961e-01,8.189272284507751465e-01,8.188929557800292969e-01,8.188587427139282227e-01,8.188244104385375977e-01,8.187901973724365234e-01,8.187559247016906738e-01,8.187217116355895996e-01,8.186874389648437500e-01,8.186531662940979004e-01,8.186189532279968262e-01
7.830327153205871582e-01,7.830013632774353027e-01,7.829700708389282227e-01,7.829387187957763672e-01,7.829073667526245117e-01,7.828760743141174316e-01,7.828447222709655762e-01,7.828134894371032715e-01,7.827821373939514160e-01,7.827509045600891113e-01,7.827195525169372559e-01,7.826882004737854004e-01,7.826569676399230957e-01,7.826256155967712402e-01,7.825943827629089355e-01,7.825630903244018555e-01,7.825317978858947754e-01,7.825005054473876953e-01,7.824692726135253906e-01,7.824379801750183105e-01,7.824066281318664551e-01,7.823753952980041504e-01,7.823441028594970703e-01,7.823128700256347656e-01,7.822815775871276855e-01,7.822503447532653809e-01,7.822190523147583008e-01,7.821877598762512207e-01,7.821565866470336914e-01,7.821252942085266113e-01,7.820940613746643066e-01,7.820627689361572266e-01,7.820315957069396973e-01,7.820003032684326172e-01,7.819691300392150879e-01,7.819378376007080078e-01,7.819065451622009277e-01,7.818753719329833984e-01,7.818441390991210938e-01,7.818129062652587891e-01,7.817816734313964844e-01,7.817505002021789551e-01,7.817192077636718750e-01,7.816880345344543457e-01,7.816568017005920410e-01,7.816255688667297363e-01,7.815943956375122070e-01,7.815631628036499023e-01,7.815319895744323730e-01,7.815007567405700684e-01,7.814695835113525391e-01,7.814383506774902344e-01,7.814071178436279297e-01,7.813760042190551758e-01,7.813447713851928711e-01,7.813135981559753418e-01,7.812823653221130371e-01,7.812512516975402832e-01,7.812200188636779785e-01,7.811889052391052246e-01,7.811576724052429199e-01,7.811264991760253906e-01,7.810953259468078613e-01,7.810641527175903320e-01,7.810330390930175781e-01,7.810018062591552734e-01,7.809706926345825195e-01,7.809395194053649902e-01,7.809083461761474609e-01,7.808772325515747070e-01,7.808460593223571777e-01,7.808149456977844238e-01,7.807837724685668945e-01,7.807526588439941406e-01,7.807214856147766113e-01,7.806903719902038574e-01,7.806591987609863281e-01,7.806280255317687988e-01,7.805969715118408203e-01,7.805657982826232910e-01
