5.000000000000000000e+00,5.000000000000000000e+00,5.000000000000000000e+00,5.000000000000000000e+00,5.000000000000000000e+00,5.000000000000000000e+00,5.000000000000000000e+00,5.000000000000000000e+00,5.000000000000000000e+00,5.000000000000000000e+00,5.000000000000000000e+00,5.000000000000000000e+00,5.000000000000000000e+00,5.000000000000000000e+00,5.000000000000000000e+00,5.000000000000000000e+00,5.000000000000000000e+00,5.000000000000000000e+00,5.000000000000000000e+00,5.000000000000000000e+00,5.000000000000000000e+00,5.000000000000000000e+00,5.000000000000000000e+00,5.000000000000000000e+00,5.000000000000000000e+00,5.000000000000000000e+00,5.000000000000000000e+00,5.000000000000000000e+00,5.000000000000000000e+00,5.000000000000000000e+00,5.000000000000000000e+00,5.000000000000000000e+00,5.000000000000000000e+00,5.000000000000000000e+00,5.000000000000000000e+00,5.000000000000000000e+00,5.000000000000000000e+00,5.000000000000000000e+00,5.000000000000000000e+00,4.862727642059326172e+00,4.671705722808837891e+00,4.495124816894531250e+00,4.331406593322753906e+00,4.179194450378417969e+00,4.037317276000976562e+00,3.904757022857666016e+00,3.780624628067016602e+00,3.664141654968261719e+00,3.554621696472167969e+00,3.451458930969238281e+00,3.354115247726440430e+00,3.262111902236938477e+00,3.175021171569824219e+00,3.092459440231323242e+00,3.014082908630371094e+00,2.939580917358398438e+00,2.868673324584960938e+00,2.801105737686157227e+00,2.736647844314575195e+00,2.675090074539184570e+00,2.616240501403808594e+00,2.559924364089965820e+00,2.505981922149658203e+00,2.454265594482421875e+00,2.404640674591064453e+00,2.356983184814453125e+00,2.311177492141723633e+00,2.267118692398071289e+00,2.224708080291748047e+00,2.183855056762695312e+00,2.144475460052490234e+00,2.106490850448608398e+00,2.069828271865844727e+00,2.034420490264892578e+00,2.000203371047973633e+00,1.967118382453918457e+00,1.935109972953796387e+00,1.904126644134521484e+00,1.874119758605957031e+00,1.845044016838073730e+00
5.000000000000000000e+00,5.000000000000000000e+00,5.000000000000000000e+00,5.000000000000000000e+00,5.000000000000000000e+00,5.000000000000000000e+00,5.000000000000000000e+00,5.000000000000000000e+00,5.000000000000000000e+00,5.000000000000000000e+00,5.000000000000000000e+00,5.000000000000000000e+00,5.000000000000000000e+00,5.000000000000000000e+00,5.000000000000000000e+00,5.000000000000000000e+00,5.000000000000000000e+00,5.000000000000000000e+00,5.000000000000000000e+00,5.000000000000000000e+00,5.000000000000000000e+00,5.000000000000000000e+00,5.000000000000000000e+00,5.000000000000000000e+00,5.000000000000000000e+00,5.000000000000000000e+00,5.000000000000000000e+00,5.000000000000000000e+00,5.000000000000000000e+00,5.000000000000000000e+00,5.000000000000000000e+00,5.000000000000000000e+00,5.000000000000000000e+00,5.000000000000000000e+00,5.000000000000000000e+00,5.000000000000000000e+00,5.000000000000000000e+00,5.000000000000000000e+00,5.000000000000000000e+00,4.862867832183837891e+00,4.671835422515869141e+00,4.495244979858398438e+00,4.331517696380615234e+00,4.179297924041748047e+00,4.037413597106933594e+00,3.904847383499145508e+00,3.780709505081176758e+00,3.664221286773681641e+00,3.554696798324584961e+00,3.451529741287231445e+00,3.354182004928588867e+00,3.262175083160400391e+00,3.175080776214599609e+00,3.092516183853149414e+00,3.014136791229248047e+00,2.939632177352905273e+00,2.868721961975097656e+00,2.801152229309082031e+00,2.736692428588867188e+00,2.675132513046264648e+00,2.616281032562255859e+00,2.559963226318359375e+00,2.506019115447998047e+00,2.454301357269287109e+00,2.404675006866455078e+00,2.357016086578369141e+00,2.311209201812744141e+00,2.267149209976196289e+00,2.224737405776977539e+00,2.183883428573608398e+00,2.144502878189086914e+00,2.106517314910888672e+00,2.069853782653808594e+00,2.034445047378540039e+00,2.000227212905883789e+00,1.967141509056091309e+00,1.935132384300231934e+00,1.904148221015930176e+00,1.874140739440917969e+00,1.845064282417297363e+00
5.000000000000000000e+00,5.000000000000000000e+00,5.000000000000000000e+00,5.000000000000000000e+00,5.000000000000000000e+00,5.000000000000000000e+00,5.000000000000000000e+00,5.000000000000000000e+00,5.000000000000000000e+00,5.000000000000000000e+00,5.000000000000000000e+00,5.000000000000000000e+00,5.000000000000000000e+00,5.000000000000000000e+00,5.000000000000000000e+00,5.000000000000000000e+00,5.000000000000000000e+00,5.000000000000000000e+00,5.000000000000000000e+00,5.000000000000000000e+00,5.000000000000000000e+00,5.000000000000000000e+00,5.000000000000000000e+00,5.000000000000000000e+00,5.000000000000000000e+00,5.000000000000000000e+00,3.718551397323608398e+00,5.000000000000000000e+00,5.000000000000000000e+00,5.000000000000000000e+00,5.000000000000000000e+00,5.000000000000000000e+00,5.000000000000000000e+00,5.000000000000000000e+00,5.000000000000000000e+00,5.000000000000000000e+00,5.000000000000000000e+00,5.000000000000000000e+00,5.000000000000000000e+00,4.863008022308349609e+00,4.671964645385742188e+00,4.495364665985107422e+00,4.331628799438476562e+00,4.179401397705078125e+00,4.037510395050048828e+00,3.904937982559204102e+00,3.780794382095336914e+00,3.664300918579101562e+00,3.554771661758422852e+00,3.451600313186645508e+00,3.354248762130737305e+00,3.262238264083862305e+00,3.175140619277954102e+00,3.092572927474975586e+00,3.014190673828125000e+00,2.939683437347412109e+00,2.868770837783813477e+00,2.801198959350585938e+00,2.736736774444580078e+00,2.675174951553344727e+00,2.616321563720703125e+00,2.560002088546752930e+00,2.506056308746337891e+00,2.454337120056152344e+00,2.404709577560424805e+00,2.357049226760864258e+00,2.311241149902343750e+00,2.267179727554321289e+00,2.224766969680786133e+00,2.183911800384521484e+00,2.144530057907104492e+00,2.106543540954589844e+00,2.069879293441772461e+00,2.034469604492187500e+00,2.000250816345214844e+00,1.967164278030395508e+00,1.935154438018798828e+00,1.904169678688049316e+00,1.874161481857299805e+00,1.845084309577941895e+00
5.000000000000000000e+00,5.000000000000000000e+00,5.000000000000000000e+00,5.000000000000000000e+00,5.000000000000000000e+00,5.000000000000000000e+00,5.000000000000000000e+00,5.000000000000000000e+00,5.000000000000000000e+00,5.000000000000000000e+00,5.000000000000000000e+00,5.000000000000000000e+00,5.000000000000000000e+00,5.000000000000000000e+00,5.000000000000000000e+00,5.000000000000000000e+00,5.000000000000000000e+00,5.000000000000000000e+00,5.000000000000000000e+00,5.000000000000000000e+00,5.000000000000000000e+00,5.000000000000000000e+00,5.000000000000000000e+00,5.000000000000000000e+00,5.000000000000000000e+00,5.000000000000000000e+00,3.693277359008789062e+00,3.717986583709716797e+00,5.000000000000000000e+00,5.000000000000000000e+00,5.000000000000000000e+00,5.000000000000000000e+00,5.000000000000000000e+00,5.000000000000000000e+00,5.000000000000000000e+00,5.000000000000000000e+00,5.000000000000000000e+00,5.000000000000000000e+00,5.000000000000000000e+00,4.863148212432861328e+00,4.672094345092773438e+00,4.495484352111816406e+00,4.331740379333496094e+00,4.179505348205566406e+00,4.037607192993164062e+00,3.905028343200683594e+00,3.780879020690917969e+00,3.664380550384521484e+00,3.554846525192260742e+00,3.451670885086059570e+00,3.354315519332885742e+00,3.262301206588745117e+00,3.175200462341308594e+00,3.092629671096801758e+00,3.014244556427001953e+00,2.939734697341918945e+00,2.868819713592529297e+00,2.801245450973510742e+00,2.736781120300292969e+00,2.675217390060424805e+00,2.616362333297729492e+00,2.560041189193725586e+00,2.506093740463256836e+00,2.454372882843017578e+00,2.404743909835815430e+00,2.357082128524780273e+00,2.311272859573364258e+00,2.267210245132446289e+00,2.224796295166015625e+00,2.183940172195434570e+00,2.144557237625122070e+00,2.106569766998291016e+00,2.069904565811157227e+00,2.034494161605834961e+00,2.000274658203125000e+00,1.967187404632568359e+00,1.935176730155944824e+00,1.904191255569458008e+00,1.874182343482971191e+00,1.845104694366455078e+00
5.000000000000000000e+00,5.000000000000000000e+00,5.000000000000000000e+00,5.000000000000000000e+00,5.000000000000000000e+00,5.000000000000000000e+00,5.000000000000000000e+00,5.000000000000000000e+00,5.000000000000000000e+00,5.000000000000000000e+00,5.000000000000000000e+00,5.000000000000000000e+00,5.000000000000000000e+00,5.000000000000000000e+00,5.000000000000000000e+00,5.000000000000000000e+00,5.000000000000000000e+00,5.000000000000000000e+00,5.000000000000000000e+00,5.000000000000000000e+00,5.000000000000000000e+00,5.000000000000000000e+00,5.000000000000000000e+00,5.000000000000000000e+00,5.000000000000000000e+00,5.000000000000000000e+00,3.709705591201782227e+00,3.732402801513671875e+00,5.000000000000000000e+00,5.000000000000000000e+00,5.000000000000000000e+00,5.000000000000000000e+00,5.000000000000000000e+00,5.000000000000000000e+00,5.000000000000000000e+00,5.000000000000000000e+00,5.000000000000000000e+00,5.000000000000000000e+00,5.000000000000000000e+00,4.863288402557373047e+00,4.672223567962646484e+00,4.495604515075683594e+00,4.331851959228515625e+00,4.179609298706054688e+00,4.037703990936279297e+00,3.905118703842163086e+00,3.780963897705078125e+00,3.664460182189941406e+00,3.554921627044677734e+00,3.451741695404052734e+00,3.354382276535034180e+00,3.262364387512207031e+00,3.175260305404663086e+00,3.092686414718627930e+00,3.014298439025878906e+00,2.939785957336425781e+00,2.868868589401245117e+00,2.801291942596435547e+00,2.736825704574584961e+00,2.675260066986083984e+00,2.616403102874755859e+00,2.560080051422119141e+00,2.506130933761596680e+00,2.454408645629882812e+00,2.404778242111206055e+00,2.357115030288696289e+00,2.311304569244384766e+00,2.267240762710571289e+00,2.224825620651245117e+00,2.183968305587768555e+00,2.144584655761718750e+00,2.106596231460571289e+00,2.069930076599121094e+00,2.034518718719482422e+00,2.000298261642456055e+00,1.967210173606872559e+00,1.935198903083801270e+00,1.904212713241577148e+00,1.874203085899353027e+00,1.845124721527099609e+00
5.000000000000000000e+00,5.000000000000000000e+00,5.000000000000000000e+00,5.000000000000000000e+00,5.000000000000000000e+00,5.000000000000000000e+00,5.000000000000000000e+00,5.000000000000000000e+00,5.000000000000000000e+00,5.000000000000000000e+00,5.000000000000000000e+00,5.000000000000000000e+00,5.000000000000000000e+00,5.000000000000000000e+00,5.000000000000000000e+00,5.000000000000000000e+00,5.000000000000000000e+00,5.000000000000000000e+00,5.000000000000000000e+00,5.000000000000000000e+00,5.000000000000000000e+00,5.000000000000000000e+00,5.000000000000000000e+00,5.000000000000000000e+00,5.000000000000000000e+00,5.000000000000000000e+00,3.744794607162475586e+00,3.753415822982788086e+00,5.000000000000000000e+00,5.000000000000000000e+00,5.000000000000000000e+00,5.000000000000000000e+00,5.000000000000000000e+00,5.000000000000000000e+00,5.000000000000000000e+00,5.000000000000000000e+00,5.000000000000000000e+00,5.000000000000000000e+00,5.000000000000000000e+00,4.863429069519042969e+00,4.672353744506835938e+00,4.495724678039550781e+00,4.331963062286376953e+00,4.179712772369384766e+00,4.037800788879394531e+00,3.905209302902221680e+00,3.781048536300659180e+00,3.664539813995361328e+00,3.554996490478515625e+00,3.451812267303466797e+00,3.354449033737182617e+00,3.262427568435668945e+00,3.175319910049438477e+00,3.092743158340454102e+00,3.014352321624755859e+00,2.939837455749511719e+00,2.868917465209960938e+00,2.801338672637939453e+00,2.736870288848876953e+00,2.675302505493164062e+00,2.616443634033203125e+00,2.560118913650512695e+00,2.506168127059936523e+00,2.454444408416748047e+00,2.404812335968017578e+00,2.357147932052612305e+00,2.311336278915405273e+00,2.267271041870117188e+00,2.224854946136474609e+00,2.183996677398681641e+00,2.144611835479736328e+00,2.106622457504272461e+00,2.069955348968505859e+00,2.034543275833129883e+00,2.000322103500366211e+00,1.967233300209045410e+00,1.935221195220947266e+00,1.904234290122985840e+00,1.874224066734313965e+00,1.845145106315612793e+00
5.000000000000000000e+00,5.000000000000000000e+00,5.000000000000000000e+00,5.000000000000000000e+00,5.000000000000000000e+00,5.000000000000000000e+00,5.000000000000000000e+00,5.000000000000000000e+00,5.000000000000000000e+00,5.000000000000000000e+00,5.000000000000000000e+00,5.000000000000000000e+00,5.000000000000000000e+00,5.000000000000000000e+00,5.000000000000000000e+00,5.000000000000000000e+00,5.000000000000000000e+00,5.000000000000000000e+00,5.000000000000000000e+00,5.000000000000000000e+00,5.000000000000000000e+00,5.000000000000000000e+00,5.000000000000000000e+00,3.710770845413208008e+00,3.715284347534179688e+00,3.708612203598022461e+00,3.784586906433105469e+00,3.783271074295043945e+00,3.853165149688720703e+00,5.000000000000000000e+00,5.000000000000000000e+00,5.000000000000000000e+00,5.000000000000000000e+00,5.000000000000000000e+00,5.000000000000000000e+00,5.000000000000000000e+00,5.000000000000000000e+00,5.000000000000000000e+00,5.000000000000000000e+00,4.863569259643554688e+00,4.672482967376708984e+00,4.495844364166259766e+00,4.332074165344238281e+00,4.179816246032714844e+00,4.037897586822509766e+00,3.905299663543701172e+00,3.781133413314819336e+00,3.664619445800781250e+00,3.555071592330932617e+00,3.451882839202880859e+00,3.354515552520751953e+00,3.262490510940551758e+00,3.175380229949951172e+00,3.092800140380859375e+00,3.014406442642211914e+00,2.939888715744018555e+00,2.868966341018676758e+00,2.801385164260864258e+00,2.736914634704589844e+00,2.675344944000244141e+00,2.616484165191650391e+00,2.560157775878906250e+00,2.506205558776855469e+00,2.454480171203613281e+00,2.404846668243408203e+00,2.357181072235107422e+00,2.311367750167846680e+00,2.267301559448242188e+00,2.224884271621704102e+00,2.184024810791015625e+00,2.144639253616333008e+00,2.106648921966552734e+00,2.069980859756469727e+00,2.034567832946777344e+00,2.000345706939697266e+00,1.967256069183349609e+00,1.935243248939514160e+00,1.904255628585815430e+00,1.874244809150695801e+00,1.845165133476257324e+00
5.000000000000000000e+00,5.000000000000000000e+00,5.000000000000000000e+00,5.000000000000000000e+00,5.000000000000000000e+00,5.000000000000000000e+00,5.000000000000000000e+00,5.000000000000000000e+00,5.000000000000000000e+00,5.000000000000000000e+00,5.000000000000000000e+00,5.000000000000000000e+00,5.000000000000000000e+00,5.000000000000000000e+00,5.000000000000000000e+00,5.000000000000000000e+00,5.000000000000000000e+00,5.000000000000000000e+00,5.000000000000000000e+00,5.000000000000000000e+00,5.000000000000000000e+00,5.000000000000000000e+00,5.000000000000000000e+00,3.659786701202392578e+00,3.674468755722045898e+00,3.683015823364257812e+00,3.704149246215820312e+00,3.733963489532470703e+00,3.779571294784545898e+00,3.850328683853149414e+00,5.000000000000000000e+00,5.000000000000000000e+00,5.000000000000000000e+00,5.000000000000000000e+00,5.000000000000000000e+00,5.000000000000000000e+00,5.000000000000000000e+00,5.000000000000000000e+00,5.000000000000000000e+00,4.863709926605224609e+00,4.672612667083740234e+00,4.495964050292968750e+00,4.332185745239257812e+00,4.179919719696044922e+00,4.037994384765625000e+00,3.905390024185180664e+00,3.781218290328979492e+00,3.664699077606201172e+00,3.555146455764770508e+00,3.451953887939453125e+00,3.354582786560058594e+00,3.262554168701171875e+00,3.175439834594726562e+00,3.092856884002685547e+00,3.014460325241088867e+00,2.939939975738525391e+00,2.869015216827392578e+00,2.801431894302368164e+00,2.736958980560302734e+00,2.675387382507324219e+00,2.616524934768676758e+00,2.560196638107299805e+00,2.506242752075195312e+00,2.454515933990478516e+00,2.404881000518798828e+00,2.357213973999023438e+00,2.311399459838867188e+00,2.267332077026367188e+00,2.224913597106933594e+00,2.184053182601928711e+00,2.144666433334350586e+00,2.106675148010253906e+00,2.070006132125854492e+00,2.034592390060424805e+00,2.000369548797607422e+00,1.967279195785522461e+00,1.935265541076660156e+00,1.904277324676513672e+00,1.874265670776367188e+00,1.845185399055480957e+00
5.000000000000000000e+00,5.000000000000000000e+00,5.000000000000000000e+00,5.000000000000000000e+00,5.000000000000000000e+00,5.000000000000000000e+00,5.000000000000000000e+00,5.000000000000000000e+00,5.000000000000000000e+00,5.000000000000000000e+00,5.000000000000000000e+00,5.000000000000000000e+00,5.000000000000000000e+00,5.000000000000000000e+00,5.000000000000000000e+00,5.000000000000000000e+00,5.000000000000000000e+00,5.000000000000000000e+00,5.000000000000000000e+00,5.000000000000000000e+00,5.000000000000000000e+00,5.000000000000000000e+00,5.000000000000000000e+00,3.689411163330078125e+00,3.688953399658203125e+00,3.663972854614257812e+00,3.672470569610595703e+00,3.706527471542358398e+00,3.750748157501220703e+00,3.884003877639770508e+00,3.918323516845703125e+00,5.000000000000000000e+00,5.000000000000000000e+00,5.000000000000000000e+00,5.000000000000000000e+00,5.000000000000000000e+00,5.000000000000000000e+00,5.000000000000000000e+00,5.000000000000000000e+00,4.863850116729736328e+00,4.672741889953613281e+00,4.496084213256835938e+00,4.332296848297119141e+00,4.180023670196533203e+00,4.038090705871582031e+00,3.905480623245239258e+00,3.781303405761718750e+00,3.664779186248779297e+00,3.555221796035766602e+00,3.452024698257446289e+00,3.354649543762207031e+00,3.262617111206054688e+00,3.175499677658081055e+00,3.092913627624511719e+00,3.014514207839965820e+00,2.939991235733032227e+00,2.869064092636108398e+00,2.801478385925292969e+00,2.737003564834594727e+00,2.675429821014404297e+00,2.616565465927124023e+00,2.560235500335693359e+00,2.506279945373535156e+00,2.454551696777343750e+00,2.404915332794189453e+00,2.357246875762939453e+00,2.311431169509887695e+00,2.267362594604492188e+00,2.224942922592163086e+00,2.184081554412841797e+00,2.144693613052368164e+00,2.106701374053955078e+00,2.070031642913818359e+00,2.034616708755493164e+00,2.000393390655517578e+00,1.967301964759826660e+00,1.935287714004516602e+00,1.904298663139343262e+00,1.874286651611328125e+00,1.845205783843994141e+00
5.000000000000000000e+00,5.000000000000000000e+00,5.000000000000000000e+00,5.000000000000000000e+00,5.000000000000000000e+00,5.000000000000000000e+00,5.000000000000000000e+00,5.000000000000000000e+00,5.000000000000000000e+00,5.000000000000000000e+00,5.000000000000000000e+00,5.000000000000000000e+00,5.000000000000000000e+00,5.000000000000000000e+00,5.000000000000000000e+00,5.000000000000000000e+00,5.000000000000000000e+00,5.000000000000000000e+00,5.000000000000000000e+00,5.000000000000000000e+00,5.000000000000000000e+00,5.000000000000000000e+00,5.000000000000000000e+00,3.713139295578002930e+00,3.722258329391479492e+00,3.678987264633178711e+00,3.678392648696899414e+00,3.702195167541503906e+00,3.765067338943481445e+00,3.873632907867431641e+00,3.908390283584594727e+00,5.000000000000000000e+00,5.000000000000000000e+00,5.000000000000000000e+00,5.000000000000000000e+00,5.000000000000000000e+00,5.000000000000000000e+00,5.000000000000000000e+00,5.000000000000000000e+00,4.863990306854248047e+00,4.672871589660644531e+00,4.496203899383544922e+00,4.332408428192138672e+00,4.180127620697021484e+00,4.038187980651855469e+00,3.905571460723876953e+00,3.781388282775878906e+00,3.664858818054199219e+00,3.555296659469604492e+00,3.452095270156860352e+00,3.354716300964355469e+00,3.262680292129516602e+00,3.175559520721435547e+00,3.092970371246337891e+00,3.014568090438842773e+00,2.940042495727539062e+00,2.869112730026245117e+00,2.801524877548217773e+00,2.737047910690307617e+00,2.675472259521484375e+00,2.616605997085571289e+00,2.560274362564086914e+00,2.506317138671875000e+00,2.454587221145629883e+00,2.404949665069580078e+00,2.357279777526855469e+00,2.311462879180908203e+00,2.267393112182617188e+00,2.224972248077392578e+00,2.184109687805175781e+00,2.144721031188964844e+00,2.106727838516235352e+00,2.070057153701782227e+00,2.034641265869140625e+00,2.000416994094848633e+00,1.967325091361999512e+00,1.935310006141662598e+00,1.904320359230041504e+00,1.874307394027709961e+00,1.845225811004638672e+00
5.000000000000000000e+00,5.000000000000000000e+00,5.000000000000000000e+00,5.000000000000000000e+00,5.000000000000000000e+00,5.000000000000000000e+00,5.000000000000000000e+00,5.000000000000000000e+00,5.000000000000000000e+00,5.000000000000000000e+00,5.000000000000000000e+00,5.000000000000000000e+00,5.000000000000000000e+00,5.000000000000000000e+00,5.000000000000000000e+00,5.000000000000000000e+00,5.000000000000000000e+00,5.000000000000000000e+00,5.000000000000000000e+00,5.000000000000000000e+00,5.000000000000000000e+00,5.000000000000000000e+00,5.000000000000000000e+00,3.729251146316528320e+00,3.727376937866210938e+00,3.680838823318481445e+00,3.675318002700805664e+00,3.701299428939819336e+00,3.754856586456298828e+00,3.877973794937133789e+00,3.899165391921997070e+00,5.000000000000000000e+00,5.000000000000000000e+00,5.000000000000000000e+00,5.000000000000000000e+00,5.000000000000000000e+00,5.000000000000000000e+00,5.000000000000000000e+00,5.000000000000000000e+00,4.864130496978759766e+00,4.673001289367675781e+00,4.496324062347412109e+00,4.332520008087158203e+00,4.180231094360351562e+00,4.038284778594970703e+00,3.905661821365356445e+00,3.781473159790039062e+00,3.664938449859619141e+00,3.555371761322021484e+00,3.452166080474853516e+00,3.354783058166503906e+00,3.262743473052978516e+00,3.175619363784790039e+00,3.093027114868164062e+00,3.014621973037719727e+00,2.940093755722045898e+00,2.869161605834960938e+00,2.801571369171142578e+00,2.737092494964599609e+00,2.675514698028564453e+00,2.616646766662597656e+00,2.560313224792480469e+00,2.506354570388793945e+00,2.454622983932495117e+00,2.404983997344970703e+00,2.357312679290771484e+00,2.311494588851928711e+00,2.267423629760742188e+00,2.225001811981201172e+00,2.184138059616088867e+00,2.144748210906982422e+00,2.106754064559936523e+00,2.070082664489746094e+00,2.034666061401367188e+00,2.000440835952758789e+00,1.967348098754882812e+00,1.935332298278808594e+00,1.904341936111450195e+00,1.874328255653381348e+00,1.845246076583862305e+00
5.000000000000000000e+00,5.000000000000000000e+00,5.000000000000000000e+00,5.000000000000000000e+00,5.000000000000000000e+00,5.000000000000000000e+00,5.000000000000000000e+00,5.000000000000000000e+00,5.000000000000000000e+00,5.000000000000000000e+00,5.000000000000000000e+00,5.000000000000000000e+00,5.000000000000000000e+00,5.000000000000000000e+00,5.000000000000000000e+00,5.000000000000000000e+00,5.000000000000000000e+00,5.000000000000000000e+00,5.000000000000000000e+00,5.000000000000000000e+00,5.000000000000000000e+00,5.000000000000000000e+00,5.000000000000000000e+00,3.749115228652954102e+00,3.719522714614868164e+00,3.666048765182495117e+00,3.664772033691406250e+00,3.706634998321533203e+00,3.751916408538818359e+00,3.899403810501098633e+00,3.901864051818847656e+00,5.000000000000000000e+00,5.000000000000000000e+00,5.000000000000000000e+00,5.000000000000000000e+00,5.000000000000000000e+00,5.000000000000000000e+00,5.000000000000000000e+00,5.000000000000000000e+00,4.864271163940429688e+00,4.673130989074707031e+00,4.496444225311279297e+00,4.332631111145019531e+00,4.180334568023681641e+00,4.038381099700927734e+00,3.905752420425415039e+00,3.781557798385620117e+00,3.665018081665039062e+00,3.555446624755859375e+00,3.452236652374267578e+00,3.354849815368652344e+00,3.262806653976440430e+00,3.175679206848144531e+00,3.093083858489990234e+00,3.014675855636596680e+00,2.940145015716552734e+00,2.869210481643676758e+00,2.801618099212646484e+00,2.737136840820312500e+00,2.675557136535644531e+00,2.616687297821044922e+00,2.560352087020874023e+00,2.506391763687133789e+00,2.454658746719360352e+00,2.405018329620361328e+00,2.357345819473266602e+00,2.311526298522949219e+00,2.267454147338867188e+00,2.225031137466430664e+00,2.184166431427001953e+00,2.144775629043579102e+00,2.106780529022216797e+00,2.070107936859130859e+00,2.034690618515014648e+00,2.000464677810668945e+00,1.967370986938476562e+00,1.935354471206665039e+00,1.904363274574279785e+00,1.874348998069763184e+00,1.845266222953796387e+00
5.000000000000000000e+00,5.000000000000000000e+00,5.000000000000000000e+00,5.000000000000000000e+00,5.000000000000000000e+00,5.000000000000000000e+00,5.000000000000000000e+00,5.000000000000000000e+00,5.000000000000000000e+00,5.000000000000000000e+00,5.000000000000000000e+00,5.000000000000000000e+00,5.000000000000000000e+00,5.000000000000000000e+00,5.000000000000000000e+00,5.000000000000000000e+00,5.000000000000000000e+00,5.000000000000000000e+00,5.000000000000000000e+00,5.000000000000000000e+00,5.000000000000000000e+00,5.000000000000000000e+00,5.000000000000000000e+00,3.761851072311401367e+00,3.708374977111816406e+00,3.671671628952026367e+00,3.674578666687011719e+00,3.699070930480957031e+00,3.768294334411621094e+00,5.000000000000000000e+00,3.868670463562011719e+00,5.000000000000000000e+00,5.000000000000000000e+00,5.000000000000000000e+00,5.000000000000000000e+00,5.000000000000000000e+00,5.000000000000000000e+00,5.000000000000000000e+00,5.000000000000000000e+00,4.864411830902099609e+00,4.673260211944580078e+00,4.496563911437988281e+00,4.332742691040039062e+00,4.180438518524169922e+00,4.038477897644042969e+00,3.905842781066894531e+00,3.781642675399780273e+00,3.665097713470458984e+00,3.555521726608276367e+00,3.452307224273681641e+00,3.354916572570800781e+00,3.262869834899902344e+00,3.175739049911499023e+00,3.093140602111816406e+00,3.014729976654052734e+00,2.940196275711059570e+00,2.869259357452392578e+00,2.801664590835571289e+00,2.737181186676025391e+00,2.675599575042724609e+00,2.616727828979492188e+00,2.560391187667846680e+00,2.506428956985473633e+00,2.454694509506225586e+00,2.405052423477172852e+00,2.357378721237182617e+00,2.311558008193969727e+00,2.267484664916992188e+00,2.225060462951660156e+00,2.184194803237915039e+00,2.144803047180175781e+00,2.106806993484497070e+00,2.070133447647094727e+00,2.034715175628662109e+00,2.000488281250000000e+00,1.967393994331359863e+00,1.935376763343811035e+00,1.904384970664978027e+00,1.874369978904724121e+00,1.845286488533020020e+00
5.000000000000000000e+00,5.000000000000000000e+00,5.000000000000000000e+00,5.000000000000000000e+00,5.000000000000000000e+00,5.000000000000000000e+00,5.000000000000000000e+00,5.000000000000000000e+00,5.000000000000000000e+00,5.000000000000000000e+00,5.000000000000000000e+00,5.000000000000000000e+00,5.000000000000000000e+00,5.000000000000000000e+00,5.000000000000000000e+00,5.000000000000000000e+00,5.000000000000000000e+00,5.000000000000000000e+00,5.000000000000000000e+00,5.000000000000000000e+00,5.000000000000000000e+00,5.000000000000000000e+00,5.000000000000000000e+00,3.742377996444702148e+00,3.710494995117187500e+00,3.665725708007812500e+00,3.690267562866210938e+00,3.704636335372924805e+00,3.763710260391235352e+00,5.000000000000000000e+00,3.850408792495727539e+00,3.861064910888671875e+00,5.000000000000000000e+00,5.000000000000000000e+00,5.000000000000000000e+00,5.000000000000000000e+00,5.000000000000000000e+00,5.000000000000000000e+00,5.000000000000000000e+00,4.864552021026611328e+00,4.673389911651611328e+00,4.496684074401855469e+00,4.332853794097900391e+00,4.180541992187500000e+00,4.038574695587158203e+00,3.905933380126953125e+00,3.781727552413940430e+00,3.665177345275878906e+00,3.555596590042114258e+00,3.452378034591674805e+00,3.354983091354370117e+00,3.262932777404785156e+00,3.175798892974853516e+00,3.093197345733642578e+00,3.014783859252929688e+00,2.940247774124145508e+00,2.869307994842529297e+00,2.801711082458496094e+00,2.737225770950317383e+00,2.675642013549804688e+00,2.616768598556518555e+00,2.560430049896240234e+00,2.506466388702392578e+00,2.454730510711669922e+00,2.405086994171142578e+00,2.357411861419677734e+00,2.311589717864990234e+00,2.267515182495117188e+00,2.225090026855468750e+00,2.184223175048828125e+00,2.144830226898193359e+00,2.106833219528198242e+00,2.070158958435058594e+00,2.034739732742309570e+00,2.000512123107910156e+00,1.967416882514953613e+00,1.935398817062377930e+00,1.904406309127807617e+00,1.874390721321105957e+00,1.845306634902954102e+00
5.000000000000000000e+00,5.000000000000000000e+00,5.000000000000000000e+00,5.000000000000000000e+00,5.000000000000000000e+00,5.000000000000000000e+00,5.000000000000000000e+00,5.000000000000000000e+00,5.000000000000000000e+00,5.000000000000000000e+00,5.000000000000000000e+00,5.000000000000000000e+00,5.000000000000000000e+00,5.000000000000000000e+00,5.000000000000000000e+00,5.000000000000000000e+00,5.000000000000000000e+00,5.000000000000000000e+00,5.000000000000000000e+00,5.000000000000000000e+00,5.000000000000000000e+00,5.000000000000000000e+00,5.000000000000000000e+00,3.737089157104492188e+00,3.707017421722412109e+00,3.614798069000244141e+00,3.618812084197998047e+00,3.760700702667236328e+00,3.773658514022827148e+00,5.000000000000000000e+00,5.000000000000000000e+00,3.809948921203613281e+00,5.000000000000000000e+00,5.000000000000000000e+00,5.000000000000000000e+00,5.000000000000000000e+00,5.000000000000000000e+00,5.000000000000000000e+00,5.000000000000000000e+00,4.864692211151123047e+00,4.673519611358642578e+00,4.496803760528564453e+00,4.332965373992919922e+00,4.180645465850830078e+00,4.038671493530273438e+00,3.906023740768432617e+00,3.781812191009521484e+00,3.665257215499877930e+00,3.555671691894531250e+00,3.452448606491088867e+00,3.355050086975097656e+00,3.262995958328247070e+00,3.175858497619628906e+00,3.093254089355468750e+00,3.014837741851806641e+00,2.940299034118652344e+00,2.869356870651245117e+00,2.801757574081420898e+00,2.737270116806030273e+00,2.675684452056884766e+00,2.616809368133544922e+00,2.560469150543212891e+00,2.506503820419311523e+00,2.454766273498535156e+00,2.405121326446533203e+00,2.357444763183593750e+00,2.311621427536010742e+00,2.267545700073242188e+00,2.225119352340698242e+00,2.184251308441162109e+00,2.144857645034790039e+00,2.106859445571899414e+00,2.070184230804443359e+00,2.034764289855957031e+00,2.000535726547241211e+00,1.967440009117126465e+00,1.935421228408813477e+00,1.904428005218505859e+00,1.874411702156066895e+00,1.845326900482177734e+00
5.000000000000000000e+00,5.000000000000000000e+00,5.000000000000000000e+00,5.000000000000000000e+00,5.000000000000000000e+00,5.000000000000000000e+00,5.000000000000000000e+00,5.000000000000000000e+00,5.000000000000000000e+00,5.000000000000000000e+00,5.000000000000000000e+00,5.000000000000000000e+00,5.000000000000000000e+00,5.000000000000000000e+00,5.000000000000000000e+00,5.000000000000000000e+00,5.000000000000000000e+00,5.000000000000000000e+00,5.000000000000000000e+00,5.000000000000000000e+00,5.000000000000000000e+00,5.000000000000000000e+00,5.000000000000000000e+00,3.720820903778076172e+00,5.000000000000000000e+00,3.593186378479003906e+00,3.596116304397583008e+00,3.768299579620361328e+00,3.786344289779663086e+00,5.000000000000000000e+00,5.000000000000000000e+00,3.742039203643798828e+00,5.000000000000000000e+00,5.000000000000000000e+00,5.000000000000000000e+00,5.000000000000000000e+00,5.000000000000000000e+00,5.000000000000000000e+00,5.000000000000000000e+00,4.864832878112792969e+00,4.673648834228515625e+00,4.496923923492431641e+00,4.333076953887939453e+00,4.180749416351318359e+00,4.038768291473388672e+00,3.906114339828491211e+00,3.781897068023681641e+00,3.665336847305297852e+00,3.555746555328369141e+00,3.452519416809082031e+00,3.355116844177246094e+00,3.263059139251708984e+00,3.175918340682983398e+00,3.093310832977294922e+00,3.014891624450683594e+00,2.940350294113159180e+00,2.869405746459960938e+00,2.801804542541503906e+00,2.737314701080322266e+00,2.675727128982543945e+00,2.616849899291992188e+00,2.560508012771606445e+00,2.506541013717651367e+00,2.454802036285400391e+00,2.405155658721923828e+00,2.357477664947509766e+00,2.311653137207031250e+00,2.267576217651367188e+00,2.225148677825927734e+00,2.184279680252075195e+00,2.144884824752807617e+00,2.106885910034179688e+00,2.070209741592407227e+00,2.034788846969604492e+00,2.000559568405151367e+00,1.967462778091430664e+00,1.935443282127380371e+00,1.904449343681335449e+00,1.874432325363159180e+00,1.845346927642822266e+00
5.000000000000000000e+00,5.000000000000000000e+00,5.000000000000000000e+00,5.000000000000000000e+00,5.000000000000000000e+00,5.000000000000000000e+00,5.000000000000000000e+00,5.000000000000000000e+00,5.000000000000000000e+00,5.000000000000000000e+00,5.000000000000000000e+00,5.000000000000000000e+00,5.000000000000000000e+00,5.000000000000000000e+00,5.000000000000000000e+00,5.000000000000000000e+00,5.000000000000000000e+00,5.000000000000000000e+00,5.000000000000000000e+00,5.000000000000000000e+00,5.000000000000000000e+00,5.000000000000000000e+00,5.000000000000000000e+00,3.715456008911132812e+00,3.717429161071777344e+00,3.595572471618652344e+00,3.576835393905639648e+00,3.626024007797241211e+00,3.803492307662963867e+00,5.000000000000000000e+00,5.000000000000000000e+00,5.000000000000000000e+00,3.753548622131347656e+00,5.000000000000000000e+00,5.000000000000000000e+00,5.000000000000000000e+00,5.000000000000000000e+00,5.000000000000000000e+00,5.000000000000000000e+00,4.864973545074462891e+00,4.673779010772705078e+00,4.497044086456298828e+00,4.333188056945800781e+00,4.180853366851806641e+00,4.038865089416503906e+00,3.906204700469970703e+00,3.781981945037841797e+00,3.665416479110717773e+00,3.555821657180786133e+00,3.452589988708496094e+00,3.355183601379394531e+00,3.263122320175170898e+00,3.175978183746337891e+00,3.093367576599121094e+00,3.014945745468139648e+00,2.940401792526245117e+00,2.869454860687255859e+00,2.801851034164428711e+00,2.737359285354614258e+00,2.675769567489624023e+00,2.616890430450439453e+00,2.560546875000000000e+00,2.506578207015991211e+00,2.454837560653686523e+00,2.405189990997314453e+00,2.357510805130004883e+00,2.311684846878051758e+00,2.267606735229492188e+00,2.225178003311157227e+00,2.184308052062988281e+00,2.144912004470825195e+00,2.106912136077880859e+00,2.070235013961791992e+00,2.034813404083251953e+00,2.000583171844482422e+00,1.967485904693603516e+00,1.935465693473815918e+00,1.904471039772033691e+00,1.874453306198120117e+00,1.845367312431335449e+00
5.000000000000000000e+00,5.000000000000000000e+00,5.000000000000000000e+00,5.000000000000000000e+00,5.000000000000000000e+00,5.000000000000000000e+00,5.000000000000000000e+00,5.000000000000000000e+00,5.000000000000000000e+00,5.000000000000000000e+00,5.000000000000000000e+00,5.000000000000000000e+00,5.000000000000000000e+00,5.000000000000000000e+00,5.000000000000000000e+00,5.000000000000000000e+00,5.000000000000000000e+00,5.000000000000000000e+00,5.000000000000000000e+00,5.000000000000000000e+00,5.000000000000000000e+00,5.000000000000000000e+00,5.000000000000000000e+00,3.702446937561035156e+00,3.696734905242919922e+00,3.613024711608886719e+00,3.553046226501464844e+00,3.591233253479003906e+00,3.834789752960205078e+00,5.000000000000000000e+00,5.000000000000000000e+00,5.000000000000000000e+00,5.000000000000000000e+00,5.000000000000000000e+00,5.000000000000000000e+00,5.000000000000000000e+00,5.000000000000000000e+00,5.000000000000000000e+00,5.000000000000000000e+00,4.865113735198974609e+00,4.673908233642578125e+00,4.497163772583007812e+00,4.333299636840820312e+00,4.180956840515136719e+00,4.038961887359619141e+00,3.906295299530029297e+00,3.782066822052001953e+00,3.665496110916137695e+00,3.555896520614624023e+00,3.452660799026489258e+00,3.355250358581542969e+00,3.263185739517211914e+00,3.176038265228271484e+00,3.093424558639526367e+00,3.014999628067016602e+00,2.940453052520751953e+00,2.869503736495971680e+00,2.801897525787353516e+00,2.737403631210327148e+00,2.675812244415283203e+00,2.616931200027465820e+00,2.560585737228393555e+00,2.506615400314331055e+00,2.454873323440551758e+00,2.405224323272705078e+00,2.357543706893920898e+00,2.311716556549072266e+00,2.267637252807617188e+00,2.225207328796386719e+00,2.184336185455322266e+00,2.144939422607421875e+00,2.106938600540161133e+00,2.070260524749755859e+00,2.034837961196899414e+00,2.000607013702392578e+00,1.967508673667907715e+00,1.935487747192382812e+00,1.904492378234863281e+00,1.874474048614501953e+00,1.845387339591979980e+00
5.000000000000000000e+00,5.000000000000000000e+00,5.000000000000000000e+00,5.000000000000000000e+00,5.000000000000000000e+00,5.000000000000000000e+00,5.000000000000000000e+00,5.000000000000000000e+00,5.000000000000000000e+00,5.000000000000000000e+00,5.000000000000000000e+00,5.000000000000000000e+00,5.000000000000000000e+00,5.000000000000000000e+00,5.000000000000000000e+00,5.000000000000000000e+00,5.000000000000000000e+00,5.000000000000000000e+00,5.000000000000000000e+00,5.000000000000000000e+00,5.000000000000000000e+00,5.000000000000000000e+00,5.000000000000000000e+00,3.688847064971923828e+00,5.000000000000000000e+00,5.000000000000000000e+00,3.539499521255493164e+00,3.551989793777465820e+00,3.869828939437866211e+00,5.000000000000000000e+00,5.000000000000000000e+00,5.000000000000000000e+00,5.000000000000000000e+00,5.000000000000000000e+00,5.000000000000000000e+00,5.000000000000000000e+00,5.000000000000000000e+00,5.000000000000000000e+00,5.000000000000000000e+00,4.865254402160644531e+00,4.674037933349609375e+00,4.497283935546875000e+00,4.333410739898681641e+00,4.181060791015625000e+00,4.039058685302734375e+00,3.906385898590087891e+00,3.782151699066162109e+00,3.665575742721557617e+00,3.555971860885620117e+00,3.452731847763061523e+00,3.355317354202270508e+00,3.263248920440673828e+00,3.176098108291625977e+00,3.093481302261352539e+00,3.015053510665893555e+00,2.940504312515258789e+00,2.869552612304687500e+00,2.801944017410278320e+00,2.737447977066040039e+00,2.675854682922363281e+00,2.616971731185913086e+00,2.560624599456787109e+00,2.506652832031250000e+00,2.454909086227416992e+00,2.405258655548095703e+00,2.357576608657836914e+00,2.311748266220092773e+00,2.267667770385742188e+00,2.225236654281616211e+00,2.184364557266235352e+00,2.144966602325439453e+00,2.106964826583862305e+00,2.070286035537719727e+00,2.034862518310546875e+00,2.000630617141723633e+00,1.967531800270080566e+00,1.935510039329528809e+00,1.904513955116271973e+00,1.874495029449462891e+00,1.845407724380493164e+00
5.000000000000000000e+00,5.000000000000000000e+00,5.000000000000000000e+00,5.000000000000000000e+00,5.000000000000000000e+00,5.000000000000000000e+00,5.000000000000000000e+00,5.000000000000000000e+00,5.000000000000000000e+00,5.000000000000000000e+00,5.000000000000000000e+00,5.000000000000000000e+00,5.000000000000000000e+00,5.000000000000000000e+00,5.000000000000000000e+00,5.000000000000000000e+00,5.000000000000000000e+00,5.000000000000000000e+00,5.000000000000000000e+00,5.000000000000000000e+00,5.000000000000000000e+00,5.000000000000000000e+00,5.000000000000000000e+00,5.000000000000000000e+00,5.000000000000000000e+00,5.000000000000000000e+00,3.545561790466308594e+00,3.542415142059326172e+00,5.000000000000000000e+00,5.000000000000000000e+00,5.000000000000000000e+00,5.000000000000000000e+00,5.000000000000000000e+00,5.000000000000000000e+00,5.000000000000000000e+00,5.000000000000000000e+00,5.000000000000000000e+00,5.000000000000000000e+00,5.000000000000000000e+00,4.865394592285156250e+00,4.674167633056640625e+00,4.497403621673583984e+00,4.333522319793701172e+00,4.181164264678955078e+00,4.039155483245849609e+00,3.906476736068725586e+00,3.782236814498901367e+00,3.665655851364135742e+00,3.556046962738037109e+00,3.452802658081054688e+00,3.355384111404418945e+00,3.263312101364135742e+00,3.176157951354980469e+00,3.093538045883178711e+00,3.015107393264770508e+00,2.940555572509765625e+00,2.869601249694824219e+00,2.801990747451782227e+00,2.737492561340332031e+00,2.675897121429443359e+00,2.617012500762939453e+00,2.560663461685180664e+00,2.506690025329589844e+00,2.454944849014282227e+00,2.405292749404907227e+00,2.357609510421752930e+00,2.311779975891113281e+00,2.267698287963867188e+00,2.225266218185424805e+00,2.184392929077148438e+00,2.144994020462036133e+00,2.106991291046142578e+00,2.070311307907104492e+00,2.034887075424194336e+00,2.000654458999633789e+00,1.967554688453674316e+00,1.935532212257385254e+00,1.904535651206970215e+00,1.874515891075134277e+00,1.845427989959716797e+00
5.000000000000000000e+00,5.000000000000000000e+00,5.000000000000000000e+00,5.000000000000000000e+00,5.000000000000000000e+00,5.000000000000000000e+00,5.000000000000000000e+00,5.000000000000000000e+00,5.000000000000000000e+00,5.000000000000000000e+00,5.000000000000000000e+00,5.000000000000000000e+00,5.000000000000000000e+00,5.000000000000000000e+00,5.000000000000000000e+00,5.000000000000000000e+00,5.000000000000000000e+00,5.000000000000000000e+00,5.000000000000000000e+00,5.000000000000000000e+00,5.000000000000000000e+00,5.000000000000000000e+00,5.000000000000000000e+00,5.000000000000000000e+00,5.000000000000000000e+00,5.000000000000000000e+00,3.550326347351074219e+00,3.558402299880981445e+00,5.000000000000000000e+00,5.000000000000000000e+00,5.000000000000000000e+00,5.000000000000000000e+00,5.000000000000000000e+00,5.000000000000000000e+00,5.000000000000000000e+00,5.000000000000000000e+00,5.000000000000000000e+00,5.000000000000000000e+00,5.000000000000000000e+00,4.865533351898193359e+00,4.674297332763671875e+00,4.497523784637451172e+00,4.333633899688720703e+00,4.181268215179443359e+00,4.039252281188964844e+00,3.906567335128784180e+00,3.782321691513061523e+00,3.665735483169555664e+00,3.556121826171875000e+00,3.452873229980468750e+00,3.355450868606567383e+00,3.263375282287597656e+00,3.176217794418334961e+00,3.093594789505004883e+00,3.015161514282226562e+00,2.940606832504272461e+00,2.869650125503540039e+00,2.802037239074707031e+00,2.737536907196044922e+00,2.675939559936523438e+00,2.617053031921386719e+00,2.560702323913574219e+00,2.506727218627929688e+00,2.454980611801147461e+00,2.405327081680297852e+00,2.357642650604248047e+00,2.311811685562133789e+00,2.267728805541992188e+00,2.225295543670654297e+00,2.184421300888061523e+00,2.145021200180053711e+00,2.107017517089843750e+00,2.070336818695068359e+00,2.034911632537841797e+00,2.000678300857543945e+00,1.967577695846557617e+00,1.935554504394531250e+00,1.904556989669799805e+00,1.874536633491516113e+00,1.845448017120361328e+00
5.000000000000000000e+00,5.000000000000000000e+00,5.000000000000000000e+00,5.000000000000000000e+00,5.000000000000000000e+00,5.000000000000000000e+00,5.000000000000000000e+00,5.000000000000000000e+00,5.000000000000000000e+00,5.000000000000000000e+00,5.000000000000000000e+00,5.000000000000000000e+00,5.000000000000000000e+00,5.000000000000000000e+00,5.000000000000000000e+00,5.000000000000000000e+00,5.000000000000000000e+00,5.000000000000000000e+00,5.000000000000000000e+00,5.000000000000000000e+00,5.000000000000000000e+00,5.000000000000000000e+00,5.000000000000000000e+00,5.000000000000000000e+00,5.000000000000000000e+00,5.000000000000000000e+00,3.557491302490234375e+00,3.578236341476440430e+00,5.000000000000000000e+00,5.000000000000000000e+00,5.000000000000000000e+00,5.000000000000000000e+00,5.000000000000000000e+00,5.000000000000000000e+00,5.000000000000000000e+00,5.000000000000000000e+00,5.000000000000000000e+00,5.000000000000000000e+00,5.000000000000000000e+00,4.865672588348388672e+00,4.674425601959228516e+00,4.497643947601318359e+00,4.333745479583740234e+00,4.181371688842773438e+00,4.039349079132080078e+00,3.906657695770263672e+00,3.782406568527221680e+00,3.665815353393554688e+00,3.556196928024291992e+00,3.452944040298461914e+00,3.355517625808715820e+00,3.263438463211059570e+00,3.176277637481689453e+00,3.093651533126831055e+00,3.015215396881103516e+00,2.940658092498779297e+00,2.869699001312255859e+00,2.802083730697631836e+00,2.737581491470336914e+00,2.675981998443603516e+00,2.617093563079833984e+00,2.560741186141967773e+00,2.506764650344848633e+00,2.455016374588012695e+00,2.405361413955688477e+00,2.357675552368164062e+00,2.311843395233154297e+00,2.267759323120117188e+00,2.225324869155883789e+00,2.184449434280395508e+00,2.145048618316650391e+00,2.107043981552124023e+00,2.070362329483032227e+00,2.034936189651489258e+00,2.000702142715454102e+00,1.967600822448730469e+00,1.935576796531677246e+00,1.904578685760498047e+00,1.874557614326477051e+00,1.845468401908874512e+00
5.000000000000000000e+00,5.000000000000000000e+00,5.000000000000000000e+00,5.000000000000000000e+00,5.000000000000000000e+00,5.000000000000000000e+00,5.000000000000000000e+00,5.000000000000000000e+00,5.000000000000000000e+00,5.000000000000000000e+00,5.000000000000000000e+00,5.000000000000000000e+00,5.000000000000000000e+00,5.000000000000000000e+00,5.000000000000000000e+00,5.000000000000000000e+00,5.000000000000000000e+00,5.000000000000000000e+00,5.000000000000000000e+00,5.000000000000000000e+00,5.000000000000000000e+00,5.000000000000000000e+00,5.000000000000000000e+00,5.000000000000000000e+00,5.000000000000000000e+00,4.015794277191162109e+00,3.563176631927490234e+00,3.567552328109741211e+00,5.000000000000000000e+00,5.000000000000000000e+00,5.000000000000000000e+00,5.000000000000000000e+00,5.000000000000000000e+00,5.000000000000000000e+00,5.000000000000000000e+00,5.000000000000000000e+00,5.000000000000000000e+00,5.000000000000000000e+00,5.000000000000000000e+00,4.865811347961425781e+00,4.674553871154785156e+00,4.497764110565185547e+00,4.333856582641601562e+00,4.181475639343261719e+00,4.039445877075195312e+00,3.906748294830322266e+00,3.782491445541381836e+00,3.665894985198974609e+00,3.556272029876708984e+00,3.453014612197875977e+00,3.355584383010864258e+00,3.263501644134521484e+00,3.176337480545043945e+00,3.093708276748657227e+00,3.015269279479980469e+00,2.940709352493286133e+00,2.869747877120971680e+00,2.802130460739135742e+00,2.737625837326049805e+00,2.676024436950683594e+00,2.617134332656860352e+00,2.560780048370361328e+00,2.506801843643188477e+00,2.455052137374877930e+00,2.405395746231079102e+00,2.357708454132080078e+00,2.311875104904174805e+00,2.267789602279663086e+00,2.225354433059692383e+00,2.184478044509887695e+00,2.145076036453247070e+00,2.107070207595825195e+00,2.070387840270996094e+00,2.034960746765136719e+00,2.000725746154785156e+00,1.967623591423034668e+00,1.935598969459533691e+00,1.904600024223327637e+00,1.874578356742858887e+00,1.845488429069519043e+00
5.000000000000000000e+00,5.000000000000000000e+00,5.000000000000000000e+00,5.000000000000000000e+00,5.000000000000000000e+00,5.000000000000000000e+00,5.000000000000000000e+00,5.000000000000000000e+00,5.000000000000000000e+00,5.000000000000000000e+00,5.000000000000000000e+00,5.000000000000000000e+00,5.000000000000000000e+00,5.000000000000000000e+00,5.000000000000000000e+00,5.000000000000000000e+00,5.000000000000000000e+00,5.000000000000000000e+00,5.000000000000000000e+00,5.000000000000000000e+00,5.000000000000000000e+00,5.000000000000000000e+00,5.000000000000000000e+00,5.000000000000000000e+00,5.000000000000000000e+00,4.037015914916992188e+00,3.568880081176757812e+00,3.556143522262573242e+00,5.000000000000000000e+00,5.000000000000000000e+00,5.000000000000000000e+00,5.000000000000000000e+00,5.000000000000000000e+00,5.000000000000000000e+00,5.000000000000000000e+00,5.000000000000000000e+00,5.000000000000000000e+00,5.000000000000000000e+00,5.000000000000000000e+00,4.865950584411621094e+00,4.674682617187500000e+00,4.497882366180419922e+00,4.333968162536621094e+00,4.181579113006591797e+00,4.039542675018310547e+00,3.906838893890380859e+00,3.782576322555541992e+00,3.665974617004394531e+00,3.556346893310546875e+00,3.453085422515869141e+00,3.355651140213012695e+00,3.263564825057983398e+00,3.176397323608398438e+00,3.093765020370483398e+00,3.015323162078857422e+00,2.940760612487792969e+00,2.869796752929687500e+00,2.802176952362060547e+00,2.737670421600341797e+00,2.676066875457763672e+00,2.617174863815307617e+00,2.560818910598754883e+00,2.506839036941528320e+00,2.455087900161743164e+00,2.405430078506469727e+00,2.357741594314575195e+00,2.311906814575195312e+00,2.267820358276367188e+00,2.225383758544921875e+00,2.184506177902221680e+00,2.145103216171264648e+00,2.107096672058105469e+00,2.070413112640380859e+00,2.034985303878784180e+00,2.000749588012695312e+00,1.967646718025207520e+00,1.935621261596679688e+00,1.904621720314025879e+00,1.874599337577819824e+00,1.845508813858032227e+00
5.000000000000000000e+00,5.000000000000000000e+00,5.000000000000000000e+00,5.000000000000000000e+00,5.000000000000000000e+00,5.000000000000000000e+00,5.000000000000000000e+00,5.000000000000000000e+00,5.000000000000000000e+00,5.000000000000000000e+00,5.000000000000000000e+00,5.000000000000000000e+00,5.000000000000000000e+00,5.000000000000000000e+00,5.000000000000000000e+00,5.000000000000000000e+00,5.000000000000000000e+00,5.000000000000000000e+00,5.000000000000000000e+00,5.000000000000000000e+00,5.000000000000000000e+00,5.000000000000000000e+00,5.000000000000000000e+00,5.000000000000000000e+00,5.000000000000000000e+00,4.065533638000488281e+00,3.576615095138549805e+00,3.555353403091430664e+00,5.000000000000000000e+00,5.000000000000000000e+00,5.000000000000000000e+00,5.000000000000000000e+00,5.000000000000000000e+00,5.000000000000000000e+00,5.000000000000000000e+00,5.000000000000000000e+00,5.000000000000000000e+00,5.000000000000000000e+00,5.000000000000000000e+00,4.866089820861816406e+00,4.674810886383056641e+00,4.498001098632812500e+00,4.334078311920166016e+00,4.181683063507080078e+00,4.039639472961425781e+00,3.906929254531860352e+00,3.782661199569702148e+00,3.666054487228393555e+00,3.556421995162963867e+00,3.453156232833862305e+00,3.355718135833740234e+00,3.263627767562866211e+00,3.176457166671752930e+00,3.093822002410888672e+00,3.015377044677734375e+00,2.940812110900878906e+00,2.869845628738403320e+00,2.802223443984985352e+00,2.737714767456054688e+00,2.676109313964843750e+00,2.617215394973754883e+00,2.560858011245727539e+00,2.506876468658447266e+00,2.455123901367187500e+00,2.405464649200439453e+00,2.357774496078491211e+00,2.311938524246215820e+00,2.267850875854492188e+00,2.225413084030151367e+00,2.184534549713134766e+00,2.145130634307861328e+00,2.107122898101806641e+00,2.070438623428344727e+00,2.035009860992431641e+00,2.000773191452026367e+00,1.967669606208801270e+00,1.935643434524536133e+00,1.904643058776855469e+00,1.874620079994201660e+00,1.845528841018676758e+00
5.000000000000000000e+00,5.000000000000000000e+00,5.000000000000000000e+00,5.000000000000000000e+00,5.000000000000000000e+00,5.000000000000000000e+00,5.000000000000000000e+00,5.000000000000000000e+00,5.000000000000000000e+00,5.000000000000000000e+00,5.000000000000000000e+00,5.000000000000000000e+00,5.000000000000000000e+00,5.000000000000000000e+00,5.000000000000000000e+00,5.000000000000000000e+00,5.000000000000000000e+00,5.000000000000000000e+00,5.000000000000000000e+00,5.000000000000000000e+00,5.000000000000000000e+00,5.000000000000000000e+00,5.000000000000000000e+00,5.000000000000000000e+00,5.000000000000000000e+00,4.091951370239257812e+00,3.607966899871826172e+00,3.557812929153442383e+00,5.000000000000000000e+00,5.000000000000000000e+00,5.000000000000000000e+00,5.000000000000000000e+00,5.000000000000000000e+00,5.000000000000000000e+00,5.000000000000000000e+00,5.000000000000000000e+00,5.000000000000000000e+00,5.000000000000000000e+00,5.000000000000000000e+00,4.866229057312011719e+00,4.674939155578613281e+00,4.498119831085205078e+00,4.334188461303710938e+00,4.181786060333251953e+00,4.039736747741699219e+00,3.907019853591918945e+00,3.782746076583862305e+00,3.666134119033813477e+00,3.556496858596801758e+00,3.453226804733276367e+00,3.355784893035888672e+00,3.263690948486328125e+00,3.176517009735107422e+00,3.093878746032714844e+00,3.015430927276611328e+00,2.940863370895385742e+00,2.869894504547119141e+00,2.802270174026489258e+00,2.737759113311767578e+00,2.676151990890502930e+00,2.617256402969360352e+00,2.560896873474121094e+00,2.506913900375366211e+00,2.455159425735473633e+00,2.405498981475830078e+00,2.357807636260986328e+00,2.311970233917236328e+00,2.267881393432617188e+00,2.225442409515380859e+00,2.184562921524047852e+00,2.145157814025878906e+00,2.107149362564086914e+00,2.070464134216308594e+00,2.035034418106079102e+00,2.000797033309936523e+00,1.967692613601684570e+00,1.935665726661682129e+00,1.904664754867553711e+00,1.874640941619873047e+00,1.845549106597900391e+00
4.871388912200927734e+00,4.870166778564453125e+00,4.868945598602294922e+00,4.867725372314453125e+00,4.866505146026611328e+00,4.865285873413085938e+00,4.864067077636718750e+00,4.862849235534667969e+00,4.861631870269775391e+00,4.860414981842041016e+00,4.859198570251464844e+00,4.857983112335205078e+00,4.856768131256103516e+00,4.855553627014160156e+00,4.854339599609375000e+00,4.853126525878906250e+00,4.851914405822753906e+00,4.850702285766601562e+00,4.849491119384765625e+00,4.848279953002929688e+00,4.847069740295410156e+00,4.845860481262207031e+00,4.844651222229003906e+00,4.843442916870117188e+00,4.842235088348388672e+00,4.049494266510009766e+00,4.839821815490722656e+00,3.552335023880004883e+00,4.837410449981689453e+00,4.836205482482910156e+00,4.835001468658447266e+00,4.833797454833984375e+00,4.832594394683837891e+00,4.831392288208007812e+00,4.830190658569335938e+00,4.828989505767822266e+00,4.827788829803466797e+00,4.826589107513427734e+00,4.825389385223388672e+00,4.824190616607666016e+00,4.675067424774169922e+00,4.498239040374755859e+00,4.334299087524414062e+00,4.181888580322265625e+00,4.039833545684814453e+00,3.907110452651977539e+00,3.782830953598022461e+00,3.666213750839233398e+00,3.556571960449218750e+00,3.453297615051269531e+00,3.355851650238037109e+00,3.263754129409790039e+00,3.176576852798461914e+00,3.093935489654541016e+00,3.015485048294067383e+00,2.940914630889892578e+00,2.869943380355834961e+00,2.802316904067993164e+00,2.737803936004638672e+00,2.676194667816162109e+00,2.617296934127807617e+00,2.560935974121093750e+00,2.506951093673706055e+00,2.455195188522338867e+00,2.405533313751220703e+00,2.357840538024902344e+00,2.312001943588256836e+00,2.267911911010742188e+00,2.225471973419189453e+00,2.184591054916381836e+00,2.145185232162475586e+00,2.107175588607788086e+00,2.070489406585693359e+00,2.035058975219726562e+00,2.000820875167846680e+00,1.967715501785278320e+00,1.935687780380249023e+00,1.904686093330383301e+00,1.874661684036254883e+00,1.845569252967834473e+00
3.776211738586425781e+00,3.775477409362792969e+00,3.774743556976318359e+00,3.774009943008422852e+00,3.773276567459106445e+00,3.772543430328369141e+00,3.771810770034790039e+00,3.771078109741210938e+00,3.770345926284790039e+00,3.769614458084106445e+00,3.768882751464843750e+00,3.768151521682739258e+00,3.767420291900634766e+00,3.766689538955688477e+00,3.765959024429321289e+00,3.765228986740112305e+00,3.764498710632324219e+00,3.763769149780273438e+00,3.763039827346801758e+00,3.762310743331909180e+00,3.761581897735595703e+00,3.760853290557861328e+00,3.760125160217285156e+00,3.759397268295288086e+00,3.758669376373291016e+00,3.757942199707031250e+00,3.757215023040771484e+00,3.481255531311035156e+00,3.451493501663208008e+00,3.755035638809204102e+00,3.754309654235839844e+00,3.753583908081054688e+00,3.752858400344848633e+00,3.752133369445800781e+00,3.751408338546752930e+00,3.750683784484863281e+00,3.749959468841552734e+00,3.749235391616821289e+00,3.748511791229248047e+00,3.747788190841674805e+00,3.747065067291259766e+00,3.746342182159423828e+00,3.745619535446166992e+00,3.744897127151489258e+00,3.744174957275390625e+00,3.743453502655029297e+00,3.742732048034667969e+00,3.666293621063232422e+00,3.556647062301635742e+00,3.453368186950683594e+00,3.355918407440185547e+00,3.263817310333251953e+00,3.176636695861816406e+00,3.093992471694946289e+00,3.015539169311523438e+00,2.940966129302978516e+00,2.869992256164550781e+00,2.802363395690917969e+00,2.737848281860351562e+00,2.676237106323242188e+00,2.617337465286254883e+00,2.560974836349487305e+00,2.506988286972045898e+00,2.455230951309204102e+00,2.405567646026611328e+00,2.357873439788818359e+00,2.312033653259277344e+00,2.267942428588867188e+00,2.225501298904418945e+00,2.184619426727294922e+00,2.145212411880493164e+00,2.107201814651489258e+00,2.070514917373657227e+00,2.035083532333374023e+00,2.000844478607177734e+00,1.967738509178161621e+00,1.935710191726684570e+00,1.904707789421081543e+00,1.874682664871215820e+00,1.845589518547058105e+00
3.083079338073730469e+00,3.082589864730834961e+00,3.082100629806518555e+00,3.081611633300781250e+00,3.081122636795043945e+00,3.080633878707885742e+00,3.080145120620727539e+00,3.079656600952148438e+00,3.079168319702148438e+00,3.078680038452148438e+00,3.078191995620727539e+00,3.077704191207885742e+00,3.077216625213623047e+00,3.076729059219360352e+00,3.076241731643676758e+00,3.075754404067993164e+00,3.075267314910888672e+00,3.074780464172363281e+00,3.074293613433837891e+00,3.073807001113891602e+00,3.073320388793945312e+00,3.072834014892578125e+00,3.072347879409790039e+00,3.071861743927001953e+00,3.071375846862792969e+00,3.070890188217163086e+00,3.070404529571533203e+00,3.069919109344482422e+00,3.069433927536010742e+00,3.068949222564697266e+00,3.068464040756225586e+00,3.067979335784912109e+00,3.067494630813598633e+00,3.067010164260864258e+00,3.066525936126708984e+00,3.066041707992553711e+00,3.065557718276977539e+00,3.065073728561401367e+00,3.064589977264404297e+00,3.064106464385986328e+00,3.063623189926147461e+00,3.063139915466308594e+00,3.062656641006469727e+00,3.062173604965209961e+00,3.061690807342529297e+00,3.061208248138427734e+00,3.060725688934326172e+00,3.060243606567382812e+00,3.059761285781860352e+00,3.059279441833496094e+00,3.058797359466552734e+00,3.058315753936767578e+00,3.057834148406982422e+00,3.057352542877197266e+00,3.015593051910400391e+00,2.941017389297485352e+00,2.870041131973266602e+00,2.802410125732421875e+00,2.737892866134643555e+00,2.676279544830322266e+00,2.617378234863281250e+00,2.561013698577880859e+00,2.507025718688964844e+00,2.455266714096069336e+00,2.405601978302001953e+00,2.357906579971313477e+00,2.312065362930297852e+00,2.267972946166992188e+00,2.225530624389648438e+00,2.184647798538208008e+00,2.145239591598510742e+00,2.107228279113769531e+00,2.070540189743041992e+00,2.035108327865600586e+00,2.000868320465087891e+00,1.967761397361755371e+00,1.935732245445251465e+00,1.904729127883911133e+00,1.874703407287597656e+00,1.845609664916992188e+00
2.604937076568603516e+00,2.604587793350219727e+00,2.604238510131835938e+00,2.603889226913452148e+00,2.603539943695068359e+00,2.603191137313842773e+00,2.602842092514038086e+00,2.602493286132812500e+00,2.602144479751586914e+00,2.601795911788940430e+00,2.601447343826293945e+00,2.601098775863647461e+00,2.600750446319580078e+00,2.600402116775512695e+00,2.600054264068603516e+00,2.599706172943115234e+00,2.599358081817626953e+00,2.599010229110717773e+00,2.598662376403808594e+00,2.598314523696899414e+00,2.597966909408569336e+00,2.597619295120239258e+00,2.597271919250488281e+00,2.596924543380737305e+00,2.596577405929565430e+00,2.596230268478393555e+00,2.595883131027221680e+00,2.595536231994628906e+00,2.595189332962036133e+00,2.594842433929443359e+00,2.594495773315429688e+00,2.594149112701416016e+00,2.593802690505981445e+00,2.593456268310546875e+00,2.593110084533691406e+00,2.592763900756835938e+00,2.592417716979980469e+00,2.592071533203125000e+00,2.591725587844848633e+00,2.591379642486572266e+00,2.591033935546875000e+00,2.590688228607177734e+00,2.590342760086059570e+00,2.589997291564941406e+00,2.589651823043823242e+00,2.589306592941284180e+00,2.588961362838745117e+00,2.588616132736206055e+00,2.588271141052246094e+00,2.587926149368286133e+00,2.587581396102905273e+00,2.587236642837524414e+00,2.586892127990722656e+00,2.586547374725341797e+00,2.586203098297119141e+00,2.585858583450317383e+00,2.585514307022094727e+00,2.585170030593872070e+00,2.584825992584228516e+00,2.584481954574584961e+00,2.584137916564941406e+00,2.561052560806274414e+00,2.507062911987304688e+00,2.455302476882934570e+00,2.405636310577392578e+00,2.357939481735229492e+00,2.312097072601318359e+00,2.268003463745117188e+00,2.225559949874877930e+00,2.184675931930541992e+00,2.145267009735107422e+00,2.107254505157470703e+00,2.070565700531005859e+00,2.035132884979248047e+00,2.000891923904418945e+00,1.967784523963928223e+00,1.935754656791687012e+00,1.904750823974609375e+00,1.874724388122558594e+00,1.845629930496215820e+00
2.255163908004760742e+00,2.254903078079223633e+00,2.254642486572265625e+00,2.254381895065307617e+00,2.254121303558349609e+00,2.253860950469970703e+00,2.253600358963012695e+00,2.253340005874633789e+00,2.253079652786254883e+00,2.252819538116455078e+00,2.252559185028076172e+00,2.252299070358276367e+00,2.252038955688476562e+00,2.251778841018676758e+00,2.251518964767456055e+00,2.251259088516235352e+00,2.250999212265014648e+00,2.250739336013793945e+00,2.250479698181152344e+00,2.250220060348510742e+00,2.249960422515869141e+00,2.249700784683227539e+00,2.249441385269165039e+00,2.249181270599365234e+00,2.248920679092407227e+00,2.248660326004028320e+00,2.248399972915649414e+00,2.248139619827270508e+00,2.247879505157470703e+00,2.247619152069091797e+00,2.247359037399291992e+00,2.247098922729492188e+00,2.246839046478271484e+00,2.246579170227050781e+00,2.246319293975830078e+00,2.246059417724609375e+00,2.245799779891967773e+00,2.245539903640747070e+00,2.245280265808105469e+00,2.245020627975463867e+00,2.244761228561401367e+00,2.244501829147338867e+00,2.244242429733276367e+00,2.243983030319213867e+00,2.243723630905151367e+00,2.243464469909667969e+00,2.243205308914184570e+00,2.242946147918701172e+00,2.242687225341796875e+00,2.242428064346313477e+00,2.242169141769409180e+00,2.241910457611083984e+00,2.241651773452758789e+00,2.241392850875854492e+00,2.241134166717529297e+00,2.240875720977783203e+00,2.240617036819458008e+00,2.240358591079711914e+00,2.240100145339965820e+00,2.239841699600219727e+00,2.239583492279052734e+00,2.239325046539306641e+00,2.239066839218139648e+00,2.238808631896972656e+00,2.238550662994384766e+00,2.238292694091796875e+00,2.238034725189208984e+00,2.237776756286621094e+00,2.225589275360107422e+00,2.184704303741455078e+00,2.145294189453125000e+00,2.107280969619750977e+00,2.070591211318969727e+00,2.035157442092895508e+00,2.000915765762329102e+00,1.967807292938232422e+00,1.935776948928833008e+00,1.904772400856018066e+00,1.874745368957519531e+00,1.845650315284729004e+00
1.988152503967285156e+00,1.987949848175048828e+00,1.987747073173522949e+00,1.987544536590576172e+00,1.987342119216918945e+00,1.987139463424682617e+00,1.986937046051025391e+00,1.986734747886657715e+00,1.986532449722290039e+00,1.986329913139343262e+00,1.986127734184265137e+00,1.985925555229187012e+00,1.985723137855529785e+00,1.985521078109741211e+00,1.985319018363952637e+00,1.985116958618164062e+00,1.984914779663085938e+00,1.984712839126586914e+00,1.984511017799377441e+00,1.984308838844299316e+00,1.984107017517089844e+00,1.983905196189880371e+00,1.983703494071960449e+00,1.983501553535461426e+00,1.983299970626831055e+00,1.983098387718200684e+00,1.982896566390991211e+00,1.982694983482360840e+00,1.982493519783020020e+00,1.982292056083679199e+00,1.982090473175048828e+00,1.981889128684997559e+00,1.981687784194946289e+00,1.981486201286315918e+00,1.981284976005554199e+00,1.981083750724792480e+00,1.980882644653320312e+00,1.980681300163269043e+00,1.980480194091796875e+00,1.980279207229614258e+00,1.980077981948852539e+00,1.979876995086669922e+00,1.979676127433776855e+00,1.979475140571594238e+00,1.979274153709411621e+00,1.979073286056518555e+00,1.978872537612915039e+00,1.978671669960021973e+00,1.978470921516418457e+00,1.978270292282104492e+00,1.978069782257080078e+00,1.977868914604187012e+00,1.977668404579162598e+00,1.977468013763427734e+00,1.977267503738403320e+00,1.977066874504089355e+00,1.976866602897644043e+00,1.976666331291198730e+00,1.976465821266174316e+00,1.976265549659729004e+00,1.976065397262573242e+00,1.975865244865417480e+00,1.975664854049682617e+00,1.975464820861816406e+00,1.975264787673950195e+00,1.975064635276794434e+00,1.974864602088928223e+00,1.974664688110351562e+00,1.974464893341064453e+00,1.974264860153198242e+00,1.974065065383911133e+00,1.973865270614624023e+00,1.973665356636047363e+00,1.973465681076049805e+00,1.973266124725341797e+00,1.967830419540405273e+00,1.935799002647399902e+00,1.904793858528137207e+00,1.874766111373901367e+00,1.845670342445373535e+00
1.777675509452819824e+00,1.777513504028320312e+00,1.777351617813110352e+00,1.777189612388610840e+00,1.777027606964111328e+00,1.776865720748901367e+00,1.776703953742980957e+00,1.776541948318481445e+00,1.776380181312561035e+00,1.776218414306640625e+00,1.776056766510009766e+00,1.775894880294799805e+00,1.775733232498168945e+00,1.775571584701538086e+00,1.775409817695617676e+00,1.775248289108276367e+00,1.775086760520935059e+00,1.774925231933593750e+00,1.774763584136962891e+00,1.774602174758911133e+00,1.774440765380859375e+00,1.774279117584228516e+00,1.774117827415466309e+00,1.773956418037414551e+00,1.773795127868652344e+00,1.773633718490600586e+00,1.773472428321838379e+00,1.773311257362365723e+00,1.773149847984313965e+00,1.772988677024841309e+00,1.772827625274658203e+00,1.772666573524475098e+00,1.772505283355712891e+00,1.772344231605529785e+00,1.772183179855346680e+00,1.772022247314453125e+00,1.771861076354980469e+00,1.771700143814086914e+00,1.771539330482482910e+00,1.771378278732299805e+00,1.771217465400695801e+00,1.771056652069091797e+00,1.770895838737487793e+00,1.770734906196594238e+00,1.770574212074279785e+00,1.770413517951965332e+00,1.770252704620361328e+00,1.770092010498046875e+00,1.769931435585021973e+00,1.769770860671997070e+00,1.769610166549682617e+00,1.769449710845947266e+00,1.769289135932922363e+00,1.769128561019897461e+00,1.768968105316162109e+00,1.768807768821716309e+00,1.768647313117980957e+00,1.768486857414245605e+00,1.768326520919799805e+00,1.768166303634643555e+00,1.768005847930908203e+00,1.767845630645751953e+00,1.767685413360595703e+00,1.767525315284729004e+00,1.767364978790283203e+00,1.767204880714416504e+00,1.767044782638549805e+00,1.766884565353393555e+00,1.766724586486816406e+00,1.766564607620239258e+00,1.766404628753662109e+00,1.766244530677795410e+00,1.766084551811218262e+00,1.765924692153930664e+00,1.765764713287353516e+00,1.765604853630065918e+00,1.765445113182067871e+00,1.765285372734069824e+00,1.765125513076782227e+00,1.764965772628784180e+00
1.607496976852416992e+00,1.607364535331726074e+00,1.607231974601745605e+00,1.607099533081054688e+00,1.606967210769653320e+00,1.606834769248962402e+00,1.606702327728271484e+00,1.606570005416870117e+00,1.606437683105468750e+00,1.606305241584777832e+00,1.606173038482666016e+00,1.606040835380554199e+00,1.605908632278442383e+00,1.605776309967041016e+00,1.605644106864929199e+00,1.605511903762817383e+00,1.605379819869995117e+00,1.605247616767883301e+00,1.605115532875061035e+00,1.604983448982238770e+00,1.604851245880126953e+00,1.604719281196594238e+00,1.604587316513061523e+00,1.604455351829528809e+00,1.604323148727416992e+00,1.604191303253173828e+00,1.604059338569641113e+00,1.603927373886108398e+00,1.603795528411865234e+00,1.603663682937622070e+00,1.603531837463378906e+00,1.603399872779846191e+00,1.603268146514892578e+00,1.603136301040649414e+00,1.603004455566406250e+00,1.602872729301452637e+00,1.602741122245788574e+00,1.602609395980834961e+00,1.602477669715881348e+00,1.602345943450927734e+00,1.602214336395263672e+00,1.602082610130310059e+00,1.601951122283935547e+00,1.601819515228271484e+00,1.601688027381896973e+00,1.601556420326232910e+00,1.601424932479858398e+00,1.601293444633483887e+00,1.601161956787109375e+00,1.601030468940734863e+00,1.600899100303649902e+00,1.600767731666564941e+00,1.600636243820190430e+00,1.600504994392395020e+00,1.600373625755310059e+00,1.600242257118225098e+00,1.600111007690429688e+00,1.599979758262634277e+00,1.599848508834838867e+00,1.599717140197753906e+00,1.599586009979248047e+00,1.599454879760742188e+00,1.599323630332946777e+00,1.599192500114440918e+00,1.599061369895935059e+00,1.598930358886718750e+00,1.598799109458923340e+00,1.598668098449707031e+00,1.598537087440490723e+00,1.598406195640563965e+00,1.598275065422058105e+00,1.598144173622131348e+00,1.598013162612915039e+00,1.597882151603698730e+00,1.597751259803771973e+00,1.597620487213134766e+00,1.597489595413208008e+00,1.597358703613281250e+00,1.597227931022644043e+00,1.597097158432006836e+00
1.467054486274719238e+00,1.466944098472595215e+00,1.466833710670471191e+00,1.466723442077636719e+00,1.466613173484802246e+00,1.466502785682678223e+00,1.466392636299133301e+00,1.466282367706298828e+00,1.466172099113464355e+00,1.466061830520629883e+00,1.465951681137084961e+00,1.465841531753540039e+00,1.465731263160705566e+00,1.465621113777160645e+00,1.465511083602905273e+00,1.465400815010070801e+00,1.465290784835815430e+00,1.465180754661560059e+00,1.465070724487304688e+00,1.464960575103759766e+00,1.464850544929504395e+00,1.464740514755249023e+00,1.464630484580993652e+00,1.464520454406738281e+00,1.464410543441772461e+00,1.464300632476806641e+00,1.464190602302551270e+00,1.464080691337585449e+00,1.463970899581909180e+00,1.463860869407653809e+00,1.463751077651977539e+00,1.463641285896301270e+00,1.463531374931335449e+00,1.463421463966369629e+00,1.463311791419982910e+00,1.463201999664306641e+00,1.463092088699340820e+00,1.462982416152954102e+00,1.462872743606567383e+00,1.462762951850891113e+00,1.462653160095214844e+00,1.462543606758117676e+00,1.462433934211730957e+00,1.462324142456054688e+00,1.462214589118957520e+00,1.462105035781860352e+00,1.461995363235473633e+00,1.461885690689086914e+00,1.461776137351989746e+00,1.461666703224182129e+00,1.461557149887084961e+00,1.461447596549987793e+00,1.461338043212890625e+00,1.461228609085083008e+00,1.461119055747985840e+00,1.461009621620178223e+00,1.460900187492370605e+00,1.460790872573852539e+00,1.460681319236755371e+00,1.460572004318237305e+00,1.460462570190429688e+00,1.460353136062622070e+00,1.460243821144104004e+00,1.460134625434875488e+00,1.460025310516357422e+00,1.459915876388549805e+00,1.459806680679321289e+00,1.459697484970092773e+00,1.459588050842285156e+00,1.459478855133056641e+00,1.459369659423828125e+00,1.459260582923889160e+00,1.459151268005371094e+00,1.459042191505432129e+00,1.458932995796203613e+00,1.458823800086975098e+00,1.458714723587036133e+00,1.458605647087097168e+00,1.458496570587158203e+00,1.458387494087219238e+00
1.349180221557617188e+00,1.349086999893188477e+00,1.348993659019470215e+00,1.348900318145751953e+00,1.348806977272033691e+00,1.348713755607604980e+00,1.348620533943176270e+00,1.348527193069458008e+00,1.348433971405029297e+00,1.348340749740600586e+00,1.348247528076171875e+00,1.348154306411743164e+00,1.348061203956604004e+00,1.347967982292175293e+00,1.347874760627746582e+00,1.347781658172607422e+00,1.347688555717468262e+00,1.347595334053039551e+00,1.347502231597900391e+00,1.347409248352050781e+00,1.347316145896911621e+00,1.347223043441772461e+00,1.347130060195922852e+00,1.347036957740783691e+00,1.346943855285644531e+00,1.346850872039794922e+00,1.346757888793945312e+00,1.346664905548095703e+00,1.346571922302246094e+00,1.346478939056396484e+00,1.346386075019836426e+00,1.346293091773986816e+00,1.346200108528137207e+00,1.346107244491577148e+00,1.346014380455017090e+00,1.345921397209167480e+00,1.345828533172607422e+00,1.345735669136047363e+00,1.345642805099487305e+00,1.345549941062927246e+00,1.345457077026367188e+00,1.345364332199096680e+00,1.345271468162536621e+00,1.345178723335266113e+00,1.345085978507995605e+00,1.344993233680725098e+00,1.344900369644165039e+00,1.344807624816894531e+00,1.344714999198913574e+00,1.344622135162353516e+00,1.344529509544372559e+00,1.344436883926391602e+00,1.344344139099121094e+00,1.344251394271850586e+00,1.344158768653869629e+00,1.344066262245178223e+00,1.343973517417907715e+00,1.343880891799926758e+00,1.343788385391235352e+00,1.343695759773254395e+00,1.343603134155273438e+00,1.343510627746582031e+00,1.343418121337890625e+00,1.343325495719909668e+00,1.343232989311218262e+00,1.343140482902526855e+00,1.343047976493835449e+00,1.342955470085144043e+00,1.342862963676452637e+00,1.342770576477050781e+00,1.342678070068359375e+00,1.342585682868957520e+00,1.342493295669555664e+00,1.342400908470153809e+00,1.342308402061462402e+00,1.342216014862060547e+00,1.342123746871948242e+00,1.342031240463256836e+00,1.341938972473144531e+00,1.341846704483032227e+00
1.248839259147644043e+00,1.248759269714355469e+00,1.248679280281066895e+00,1.248599410057067871e+00,1.248519420623779297e+00,1.248439550399780273e+00,1.248359560966491699e+00,1.248279690742492676e+00,1.248199820518493652e+00,1.248119831085205078e+00,1.248040080070495605e+00,1.247960209846496582e+00,1.247880339622497559e+00,1.247800469398498535e+00,1.247720599174499512e+00,1.247640848159790039e+00,1.247560977935791016e+00,1.247481226921081543e+00,1.247401475906372070e+00,1.247321724891662598e+00,1.247241854667663574e+00,1.247162103652954102e+00,1.247082352638244629e+00,1.247002601623535156e+00,1.246922850608825684e+00,1.246843099594116211e+00,1.246763467788696289e+00,1.246683716773986816e+00,1.246604084968566895e+00,1.246524333953857422e+00,1.246444702148437500e+00,1.246365070343017578e+00,1.246285438537597656e+00,1.246205806732177734e+00,1.246126055717468262e+00,1.246046543121337891e+00,1.245966911315917969e+00,1.245887279510498047e+00,1.245807647705078125e+00,1.245728135108947754e+00,1.245648622512817383e+00,1.245568990707397461e+00,1.245489478111267090e+00,1.245409965515136719e+00,1.245330333709716797e+00,1.245250821113586426e+00,1.245171308517456055e+00,1.245091915130615234e+00,1.245012283325195312e+00,1.244932889938354492e+00,1.244853377342224121e+00,1.244773864746093750e+00,1.244694471359252930e+00,1.244615077972412109e+00,1.244535684585571289e+00,1.244456171989440918e+00,1.244376778602600098e+00,1.244297504425048828e+00,1.244217991828918457e+00,1.244138598442077637e+00,1.244059324264526367e+00,1.243979930877685547e+00,1.243900537490844727e+00,1.243821263313293457e+00,1.243741989135742188e+00,1.243662714958190918e+00,1.243583321571350098e+00,1.243504047393798828e+00,1.243424773216247559e+00,1.243345499038696289e+00,1.243266224861145020e+00,1.243186950683593750e+00,1.243107795715332031e+00,1.243028521537780762e+00,1.242949247360229492e+00,1.242870092391967773e+00,1.242790818214416504e+00,1.242711663246154785e+00,1.242632508277893066e+00,1.242553353309631348e+00
1.162390112876892090e+00,1.162320852279663086e+00,1.162251591682434082e+00,1.162182331085205078e+00,1.162113070487976074e+00,1.162043809890747070e+00,1.161974549293518066e+00,1.161905407905578613e+00,1.161836147308349609e+00,1.161766886711120605e+00,1.161697745323181152e+00,1.161628484725952148e+00,1.161559343338012695e+00,1.161490201950073242e+00,1.161420941352844238e+00,1.161351799964904785e+00,1.161282658576965332e+00,1.161213517189025879e+00,1.161144375801086426e+00,1.161075234413146973e+00,1.161006093025207520e+00,1.160937070846557617e+00,1.160867810249328613e+00,1.160798788070678711e+00,1.160729765892028809e+00,1.160660624504089355e+00,1.160591483116149902e+00,1.160522460937500000e+00,1.160453438758850098e+00,1.160384297370910645e+00,1.160315275192260742e+00,1.160246253013610840e+00,1.160177230834960938e+00,1.160108208656311035e+00,1.160039305686950684e+00,1.159970283508300781e+00,1.159901261329650879e+00,1.159832239151000977e+00,1.159763336181640625e+00,1.159694314002990723e+00,1.159625291824340820e+00,1.159556388854980469e+00,1.159487485885620117e+00,1.159418463706970215e+00,1.159349560737609863e+00,1.159280657768249512e+00,1.159211874008178711e+00,1.159142851829528809e+00,1.159073948860168457e+00,1.159005165100097656e+00,1.158936142921447754e+00,1.158867359161376953e+00,1.158798456192016602e+00,1.158729672431945801e+00,1.158660769462585449e+00,1.158591985702514648e+00,1.158523201942443848e+00,1.158454298973083496e+00,1.158385515213012695e+00,1.158316731452941895e+00,1.158247947692871094e+00,1.158179163932800293e+00,1.158110380172729492e+00,1.158041596412658691e+00,1.157972812652587891e+00,1.157904028892517090e+00,1.157835364341735840e+00,1.157766699790954590e+00,1.157697916030883789e+00,1.157629132270812988e+00,1.157560467720031738e+00,1.157491683959960938e+00,1.157423019409179688e+00,1.157354354858398438e+00,1.157285690307617188e+00,1.157217025756835938e+00,1.157148361206054688e+00,1.157079696655273438e+00,1.157011032104492188e+00,1.156942367553710938e+00
1.087134718894958496e+00,1.087074160575866699e+00,1.087013602256774902e+00,1.086952924728393555e+00,1.086892366409301758e+00,1.086831808090209961e+00,1.086771130561828613e+00,1.086710691452026367e+00,1.086650133132934570e+00,1.086589574813842773e+00,1.086529016494750977e+00,1.086468458175659180e+00,1.086408019065856934e+00,1.086347460746765137e+00,1.086286902427673340e+00,1.086226463317871094e+00,1.086166024208068848e+00,1.086105465888977051e+00,1.086045026779174805e+00,1.085984468460083008e+00,1.085924029350280762e+00,1.085863590240478516e+00,1.085803151130676270e+00,1.085742712020874023e+00,1.085682153701782227e+00,1.085621714591979980e+00,1.085561394691467285e+00,1.085500955581665039e+00,1.085440516471862793e+00,1.085380077362060547e+00,1.085319757461547852e+00,1.085259318351745605e+00,1.085198879241943359e+00,1.085138559341430664e+00,1.085078239440917969e+00,1.085017800331115723e+00,1.084957480430603027e+00,1.084897041320800781e+00,1.084836721420288086e+00,1.084776401519775391e+00,1.084716081619262695e+00,1.084655761718750000e+00,1.084595322608947754e+00,1.084535002708435059e+00,1.084474802017211914e+00,1.084414482116699219e+00,1.084354162216186523e+00,1.084293842315673828e+00,1.084233641624450684e+00,1.084173321723937988e+00,1.084113001823425293e+00,1.084052801132202148e+00,1.083992481231689453e+00,1.083932280540466309e+00,1.083872079849243164e+00,1.083811879158020020e+00,1.083751559257507324e+00,1.083691358566284180e+00,1.083631157875061035e+00,1.083570957183837891e+00,1.083510756492614746e+00,1.083450555801391602e+00,1.083390355110168457e+00,1.083330154418945312e+00,1.083269953727722168e+00,1.083209872245788574e+00,1.083149671554565430e+00,1.083089470863342285e+00,1.083029389381408691e+00,1.082969188690185547e+00,1.082909107208251953e+00,1.082848906517028809e+00,1.082788825035095215e+00,1.082728624343872070e+00,1.082668542861938477e+00,1.082608461380004883e+00,1.082548379898071289e+00,1.082488298416137695e+00,1.082428216934204102e+00,1.082368135452270508e+00
1.021031141281127930e+00,1.020977735519409180e+00,1.020924210548400879e+00,1.020870804786682129e+00,1.020817399024963379e+00,1.020763993263244629e+00,1.020710587501525879e+00,1.020657181739807129e+00,1.020603775978088379e+00,1.020550251007080078e+00,1.020496845245361328e+00,1.020443558692932129e+00,1.020390033721923828e+00,1.020336747169494629e+00,1.020283341407775879e+00,1.020230054855346680e+00,1.020176529884338379e+00,1.020123243331909180e+00,1.020069837570190430e+00,1.020016551017761230e+00,1.019963145256042480e+00,1.019909858703613281e+00,1.019856572151184082e+00,1.019803166389465332e+00,1.019749879837036133e+00,1.019696593284606934e+00,1.019643187522888184e+00,1.019589900970458984e+00,1.019536614418029785e+00,1.019483327865600586e+00,1.019430041313171387e+00,1.019376754760742188e+00,1.019323468208312988e+00,1.019270181655883789e+00,1.019216895103454590e+00,1.019163608551025391e+00,1.019110441207885742e+00,1.019057154655456543e+00,1.019003868103027344e+00,1.018950700759887695e+00,1.018897414207458496e+00,1.018844127655029297e+00,1.018790960311889648e+00,1.018737792968750000e+00,1.018684506416320801e+00,1.018631339073181152e+00,1.018578171730041504e+00,1.018524885177612305e+00,1.018471717834472656e+00,1.018418550491333008e+00,1.018365383148193359e+00,1.018312215805053711e+00,1.018259048461914062e+00,1.018205881118774414e+00,1.018152713775634766e+00,1.018099546432495117e+00,1.018046379089355469e+00,1.017993330955505371e+00,1.017940044403076172e+00,1.017886996269226074e+00,1.017833828926086426e+00,1.017780780792236328e+00,1.017727613449096680e+00,1.017674565315246582e+00,1.017621397972106934e+00,1.017568349838256836e+00,1.017515182495117188e+00,1.017462134361267090e+00,1.017409086227416992e+00,1.017355918884277344e+00,1.017302870750427246e+00,1.017249822616577148e+00,1.017196774482727051e+00,1.017143726348876953e+00,1.017090678215026855e+00,1.017037630081176758e+00,1.016984581947326660e+00,1.016931533813476562e+00,1.016878604888916016e+00,1.016825556755065918e+00
9.625057578086853027e-01,9.624582529067993164e-01,9.624108076095581055e-01,9.623633027076721191e-01,9.623157978057861328e-01,9.622683525085449219e-01,9.622209072113037109e-01,9.621733427047729492e-01,9.621258378028869629e-01,9.620783925056457520e-01,9.620310068130493164e-01,9.619835615158081055e-01,9.619361162185668945e-01,9.618886709213256836e-01,9.618411660194396973e-01,9.617937207221984863e-01,9.617463350296020508e-01,9.616988897323608398e-01,9.616515040397644043e-01,9.616041183471679688e-01,9.615566730499267578e-01,9.615091681480407715e-01,9.614617824554443359e-01,9.614144563674926758e-01,9.613670706748962402e-01,9.613196849822998047e-01,9.612722992897033691e-01,9.612249732017517090e-01,9.611774682998657227e-01,9.611301422119140625e-01,9.610827565193176270e-01,9.610354304313659668e-01,9.609881043434143066e-01,9.609407186508178711e-01,9.608933925628662109e-01,9.608460664749145508e-01,9.607986807823181152e-01,9.607513546943664551e-01,9.607040286064147949e-01,9.606567025184631348e-01,9.606094360351562500e-01,9.605621099472045898e-01,9.605148434638977051e-01,9.604673981666564941e-01,9.604201316833496094e-01,9.603728652000427246e-01,9.603255987167358398e-01,9.602783322334289551e-01,9.602310657501220703e-01,9.601837992668151855e-01,9.601364135742187500e-01,9.600891470909118652e-01,9.600419402122497559e-01,9.599946737289428711e-01,9.599474072456359863e-01,9.599002003669738770e-01,9.598529934883117676e-01,9.598056077957153320e-01,9.597584009170532227e-01,9.597111940383911133e-01,9.596639871597290039e-01,9.596167802810668945e-01,9.595695734024047852e-01,9.595223665237426758e-01,9.594751000404357910e-01,9.594278931617736816e-01,9.593806862831115723e-01,9.593335390090942383e-01,9.592863321304321289e-01,9.592391848564147949e-01,9.591920375823974609e-01,9.591447710990905762e-01,9.590976238250732422e-01,9.590504765510559082e-01,9.590033292770385742e-01,9.589561820030212402e-01,9.589090347290039062e-01,9.588618874549865723e-01,9.588146805763244629e-01,9.587675333023071289e-01
9.103259444236755371e-01,9.102834463119506836e-01,9.102410078048706055e-01,9.101985096931457520e-01,9.101560711860656738e-01,9.101135730743408203e-01,9.100710153579711914e-01,9.100285768508911133e-01,9.099861383438110352e-01,9.099436998367309570e-01,9.099012613296508789e-01,9.098588228225708008e-01,9.098163843154907227e-01,9.097738265991210938e-01,9.097314476966857910e-01,9.096890091896057129e-01,9.096465706825256348e-01,9.096041917800903320e-01,9.095617532730102539e-01,9.095193743705749512e-01,9.094768762588500977e-01,9.094344377517700195e-01,9.093920588493347168e-01,9.093496799468994141e-01,9.093073010444641113e-01,9.092649221420288086e-01,9.092225432395935059e-01,9.091800451278686523e-01,9.091376662254333496e-01,9.090953469276428223e-01,9.090529680252075195e-01,9.090105891227722168e-01,9.089682698249816895e-01,9.089258909225463867e-01,9.088834524154663086e-01,9.088411331176757812e-01,9.087987542152404785e-01,9.087564349174499512e-01,9.087141156196594238e-01,9.086717963218688965e-01,9.086294770240783691e-01,9.085870385169982910e-01,9.085447192192077637e-01,9.085023999214172363e-01,9.084601402282714844e-01,9.084178209304809570e-01,9.083755016326904297e-01,9.083332419395446777e-01,9.082908034324645996e-01,9.082485437393188477e-01,9.082062840461730957e-01,9.081639647483825684e-01,9.081217050552368164e-01,9.080794453620910645e-01,9.080371856689453125e-01,9.079948067665100098e-01,9.079525470733642578e-01,9.079102873802185059e-01,9.078680276870727539e-01,9.078258275985717773e-01,9.077835679054260254e-01,9.077413082122802734e-01,9.076989889144897461e-01,9.076567292213439941e-01,9.076145291328430176e-01,9.075722694396972656e-01,9.075300693511962891e-01,9.074878692626953125e-01,9.074456691741943359e-01,9.074034094810485840e-01,9.073611497879028320e-01,9.073189496994018555e-01,9.072767496109008789e-01,9.072345495223999023e-01,9.071923494338989258e-01,9.071501493453979492e-01,9.071080088615417480e-01,9.070656895637512207e-01,9.070235490798950195e-01,9.069813489913940430e-01
8.635128140449523926e-01,8.634745478630065918e-01,8.634363412857055664e-01,8.633981347084045410e-01,8.633599281311035156e-01,8.633216619491577148e-01,8.632834553718566895e-01,8.632452487945556641e-01,8.632070422172546387e-01,8.631688356399536133e-01,8.631306290626525879e-01,8.630924820899963379e-01,8.630542159080505371e-01,8.630160093307495117e-01,8.629778623580932617e-01,8.629396557807922363e-01,8.629015088081359863e-01,8.628633022308349609e-01,8.628251552581787109e-01,8.627868890762329102e-01,8.627487421035766602e-01,8.627105951309204102e-01,8.626724481582641602e-01,8.626343011856079102e-01,8.625961542129516602e-01,8.625580072402954102e-01,8.625198006629943848e-01,8.624816536903381348e-01,8.624435663223266602e-01,8.624054193496704102e-01,8.623672723770141602e-01,8.623291850090026855e-01,8.622910380363464355e-01,8.622528314590454102e-01,8.622147440910339355e-01,8.621766567230224609e-01,8.621385097503662109e-01,8.621004223823547363e-01,8.620623350143432617e-01,8.620242476463317871e-01,8.619861006736755371e-01,8.619480133056640625e-01,8.619099259376525879e-01,8.618718385696411133e-01,8.618337512016296387e-01,8.617956638336181641e-01,8.617576360702514648e-01,8.617194294929504395e-01,8.616814017295837402e-01,8.616433143615722656e-01,8.616052865982055664e-01,8.615671992301940918e-01,8.615291714668273926e-01,8.614911437034606934e-01,8.614529967308044434e-01,8.614149689674377441e-01,8.613769412040710449e-01,8.613389134407043457e-01,8.613008856773376465e-01,8.612628579139709473e-01,8.612248301506042480e-01,8.611867427825927734e-01,8.611487150192260742e-01,8.611106872558593750e-01,8.610726594924926758e-01,8.610346913337707520e-01,8.609966635704040527e-01,8.609586954116821289e-01,8.609206080436706543e-01,8.608825802803039551e-01,8.608446121215820312e-01,8.608066439628601074e-01,8.607686758041381836e-01,8.607306480407714844e-01,8.606926798820495605e-01,8.606546521186828613e-01,8.606166839599609375e-01,8.605787158012390137e-01,8.605407476425170898e-01,8.605027794837951660e-01
8.212788701057434082e-01,8.212442994117736816e-01,8.212097287178039551e-01,8.211750388145446777e-01,8.211405277252197266e-01,8.211059570312500000e-01,8.210713863372802734e-01,8.210368156433105469e-01,8.210023045539855957e-01,8.209677338600158691e-01,8.209331035614013672e-01,8.208985328674316406e-01,8.208640217781066895e-01,8.208294510841369629e-01,8.207949399948120117e-01,8.207604289054870605e-01,8.207258582115173340e-01,8.206912875175476074e-01,8.206567764282226562e-01,8.206222057342529297e-01,8.205876946449279785e-01,8.205531835556030273e-01,8.205186724662780762e-01,8.204841613769531250e-01,8.204495906829833984e-01,8.204150795936584473e-01,8.203805685043334961e-01,8.203461170196533203e-01,8.203116059303283691e-01,8.202770948410034180e-01,8.202426433563232422e-01,8.202081322669982910e-01,8.201735615730285645e-01,8.201391100883483887e-01,8.201045989990234375e-01,8.200701475143432617e-01,8.200356960296630859e-01,8.200011849403381348e-01,8.199667334556579590e-01,8.199321627616882324e-01,8.198977112770080566e-01,8.198632597923278809e-01,8.198288083076477051e-01,8.197943568229675293e-01,8.197599053382873535e-01,8.197254538536071777e-01,8.196909427642822266e-01,8.196564912796020508e-01,8.196220993995666504e-01,8.195876479148864746e-01,8.195531964302062988e-01,8.195188045501708984e-01,8.194843530654907227e-01,8.194498419761657715e-01,8.194154500961303711e-01,8.193809986114501953e-01,8.193466067314147949e-01,8.193122148513793945e-01,8.192777633666992188e-01,8.192433714866638184e-01,8.192089200019836426e-01,8.191744685173034668e-01,8.191400766372680664e-01,8.191056847572326660e-01,8.190712928771972656e-01,8.190369009971618652e-01,8.190025687217712402e-01,8.189680576324462891e-01,8.189337253570556641e-01,8.188993334770202637e-01,8.188649415969848633e-01,8.188305497169494629e-01,8.187962174415588379e-01,8.187618255615234375e-01,8.187273740768432617e-01,8.186930418014526367e-01,8.186587095260620117e-01,8.186243176460266113e-01,8.185899853706359863e-01,8.185556530952453613e-01
7.829836010932922363e-01,7.829521298408508301e-01,7.829206585884094238e-01,7.828892469406127930e-01,7.828578352928161621e-01,7.828264236450195312e-01,7.827950119972229004e-01,7.827636003494262695e-01,7.827321887016296387e-01,7.827007174491882324e-01,7.826693058013916016e-01,7.826378941535949707e-01,7.826064825057983398e-01,7.825751304626464844e-01,7.825437188148498535e-01,7.825123071670532227e-01,7.824808955192565918e-01,7.824494838714599609e-01,7.824181318283081055e-01,7.823867201805114746e-01,7.823553681373596191e-01,7.823239564895629883e-01,7.822926044464111328e-01,7.822611331939697266e-01,7.822297811508178711e-01,7.821984291076660156e-01,7.821670770645141602e-01,7.821357250213623047e-01,7.821043729782104492e-01,7.820730209350585938e-01,7.820415496826171875e-01,7.820101976394653320e-01,7.819788455963134766e-01,7.819475531578063965e-01,7.819162011146545410e-01,7.818848490715026855e-01,7.818534970283508301e-01,7.818220853805541992e-01,7.817907929420471191e-01,7.817594408988952637e-01,7.817281484603881836e-01,7.816967964172363281e-01,7.816655039787292480e-01,7.816341519355773926e-01,7.816027402877807617e-01,7.815714478492736816e-01,7.815401554107666016e-01,7.815088033676147461e-01,7.814775109291076660e-01,7.814462184906005859e-01,7.814149260520935059e-01,7.813835740089416504e-01,7.813522219657897949e-01,7.813209295272827148e-01,7.812896370887756348e-01,7.812584042549133301e-01,7.812271118164062500e-01,7.811958193778991699e-01,7.811644673347473145e-01,7.811331748962402344e-01,7.811018824577331543e-01,7.810706496238708496e-01,7.810393571853637695e-01,7.810080647468566895e-01,7.809768319129943848e-01,7.809455394744873047e-01,7.809142470359802246e-01,7.808829545974731445e-01,7.808517217636108398e-01,7.808204293251037598e-01,7.807891964912414551e-01,7.807579636573791504e-01,7.807267308235168457e-01,7.806953787803649902e-01,7.806641459465026855e-01,7.806329131126403809e-01,7.806016802787780762e-01,7.805704474449157715e-01,7.805392146110534668e-01,7.805079817771911621e-01
7.481005191802978516e-01,7.480717301368713379e-01,7.480430603027343750e-01,7.480143904685974121e-01,7.479857206344604492e-01,7.479570508003234863e-01,7.479283809661865234e-01,7.478997111320495605e-01,7.478709220886230469e-01,7.478422522544860840e-01,7.478135824203491211e-01,7.477849721908569336e-01,7.477563023567199707e-01,7.477276325225830078e-01,7.476989626884460449e-01,7.476702332496643066e-01,7.476415634155273438e-01,7.476129531860351562e-01,7.475842833518981934e-01,7.475556135177612305e-01,7.475270032882690430e-01,7.474983334541320801e-01,7.474696636199951172e-01,7.474409937858581543e-01,7.474123835563659668e-01,7.473837137222290039e-01,7.473551034927368164e-01,7.473264932632446289e-01,7.472978234291076660e-01,7.472691535949707031e-01,7.472405433654785156e-01,7.472119331359863281e-01,7.471832633018493652e-01,7.471546530723571777e-01,7.471260428428649902e-01,7.470974326133728027e-01,7.470687627792358398e-01,7.470401525497436523e-01,7.470115423202514648e-01,7.469829320907592773e-01,7.469543218612670898e-01,7.469257712364196777e-01,7.468971610069274902e-01,7.468684911727905273e-01,7.468398809432983398e-01,7.468113303184509277e-01,7.467827200889587402e-01,7.467541098594665527e-01,7.467255592346191406e-01,7.466969490051269531e-01,7.466683387756347656e-01,7.466397285461425781e-01,7.466111779212951660e-01,7.465825676918029785e-01,7.465540170669555664e-01,7.465254664421081543e-01,7.464969158172607422e-01,7.464682459831237793e-01,7.464396953582763672e-01,7.464111447334289551e-01,7.463825941085815430e-01,7.463540434837341309e-01,7.463254928588867188e-01,7.462969422340393066e-01,7.462683320045471191e-01,7.462397813796997070e-01,7.462112307548522949e-01,7.461826801300048828e-01,7.461541295051574707e-01,7.461255788803100586e-01,7.460970282554626465e-01,7.460684776306152344e-01,7.460399270057678223e-01,7.460113763809204102e-01,7.459828853607177734e-01,7.459543347358703613e-01,7.459258437156677246e-01,7.458972930908203125e-01,7.458687424659729004e-01,7.458401918411254883e-01
7.161929607391357422e-01,7.161666750907897949e-01,7.161403894424438477e-01,7.161141037940979004e-01,7.160878181457519531e-01,7.160615324974060059e-01,7.160351872444152832e-01,7.160089015960693359e-01,7.159826159477233887e-01,7.159563899040222168e-01,7.159301042556762695e-01,7.159038186073303223e-01,7.158775329589843750e-01,7.158512473106384277e-01,7.158249616622924805e-01,7.157986760139465332e-01,7.157724499702453613e-01,7.157461643218994141e-01,7.157198786735534668e-01,7.156936526298522949e-01,7.156673669815063477e-01,7.156410813331604004e-01,7.156148552894592285e-01,7.155885696411132812e-01,7.155623435974121094e-01,7.155361175537109375e-01,7.155098319053649902e-01,7.154836058616638184e-01,7.154573202133178711e-01,7.154310345649719238e-01,7.154048085212707520e-01,7.153785824775695801e-01,7.153523564338684082e-01,7.153261303901672363e-01,7.152999043464660645e-01,7.152736186981201172e-01,7.152473926544189453e-01,7.152211666107177734e-01,7.151949405670166016e-01,7.151687145233154297e-01,7.151424884796142578e-01,7.151163220405578613e-01,7.150900363922119141e-01,7.150638103485107422e-01,7.150375843048095703e-01,7.150114178657531738e-01,7.149851918220520020e-01,7.149589657783508301e-01,7.149327993392944336e-01,7.149065136909484863e-01,7.148803472518920898e-01,7.148541212081909180e-01,7.148279547691345215e-01,7.148017287254333496e-01,7.147755622863769531e-01,7.147493958473205566e-01,7.147231101989746094e-01,7.146969437599182129e-01,7.146707773208618164e-01,7.146446108818054199e-01,7.146183848381042480e-01,7.145922183990478516e-01,7.145660519599914551e-01,7.145398259162902832e-01,7.145136594772338867e-01,7.144874930381774902e-01,7.144613265991210938e-01,7.144351601600646973e-01,7.144089937210083008e-01,7.143828272819519043e-01,7.143566012382507324e-01,7.143304347991943359e-01,7.143042683601379395e-01,7.142781615257263184e-01,7.142519950866699219e-01,7.142258286476135254e-01,7.141996622085571289e-01,7.141734957695007324e-01,7.141473293304443359e-01,7.141212224960327148e-01
