5.000000000000000000e+00,5.000000000000000000e+00,5.000000000000000000e+00,5.000000000000000000e+00,5.000000000000000000e+00,5.000000000000000000e+00,5.000000000000000000e+00,5.000000000000000000e+00,5.000000000000000000e+00,5.000000000000000000e+00,5.000000000000000000e+00,5.000000000000000000e+00,5.000000000000000000e+00,5.000000000000000000e+00,5.000000000000000000e+00,5.000000000000000000e+00,5.000000000000000000e+00,5.000000000000000000e+00,5.000000000000000000e+00,5.000000000000000000e+00,5.000000000000000000e+00,5.000000000000000000e+00,5.000000000000000000e+00,5.000000000000000000e+00,5.000000000000000000e+00,5.000000000000000000e+00,5.000000000000000000e+00,5.000000000000000000e+00,5.000000000000000000e+00,2.328423023223876953e+00,2.314297437667846680e+00,2.321587800979614258e+00,2.280709743499755859e+00,2.263889312744140625e+00,2.268303871154785156e+00,2.280588150024414062e+00,2.302998304367065430e+00,2.345421552658081055e+00,2.458768606185913086e+00,2.466516256332397461e+00,4.671316146850585938e+00,4.494767665863037109e+00,4.331077575683593750e+00,4.178890705108642578e+00,4.037036418914794922e+00,3.904497146606445312e+00,3.780383110046386719e+00,3.663916826248168945e+00,3.554412364959716797e+00,3.451263427734375000e+00,3.353932142257690430e+00,3.261940717697143555e+00,3.174860239028930664e+00,3.092308521270751953e+00,3.013941049575805664e+00,2.939447402954101562e+00,2.868547201156616211e+00,2.800987005233764648e+00,2.736535549163818359e+00,2.674983739852905273e+00,2.616140127182006836e+00,2.559829235076904297e+00,2.505891561508178711e+00,2.454180240631103516e+00,2.404559612274169922e+00,2.356905937194824219e+00,2.311104297637939453e+00,2.267048835754394531e+00,2.224641561508178711e+00,2.183791875839233398e+00,2.144415140151977539e+00,2.106433629989624023e+00,2.069773674011230469e+00,2.034368038177490234e+00,2.000153541564941406e+00,1.967070937156677246e+00,1.935064435005187988e+00,1.904083251953125000e+00,1.874078273773193359e+00,1.845004200935363770e+00
5.000000000000000000e+00,5.000000000000000000e+00,5.000000000000000000e+00,5.000000000000000000e+00,5.000000000000000000e+00,5.000000000000000000e+00,5.000000000000000000e+00,5.000000000000000000e+00,5.000000000000000000e+00,5.000000000000000000e+00,5.000000000000000000e+00,5.000000000000000000e+00,5.000000000000000000e+00,5.000000000000000000e+00,5.000000000000000000e+00,5.000000000000000000e+00,5.000000000000000000e+00,5.000000000000000000e+00,5.000000000000000000e+00,5.000000000000000000e+00,5.000000000000000000e+00,5.000000000000000000e+00,5.000000000000000000e+00,5.000000000000000000e+00,5.000000000000000000e+00,5.000000000000000000e+00,5.000000000000000000e+00,5.000000000000000000e+00,5.000000000000000000e+00,2.338960886001586914e+00,2.325503110885620117e+00,2.297566890716552734e+00,2.266047239303588867e+00,2.252492427825927734e+00,2.257255315780639648e+00,2.282299041748046875e+00,2.303397417068481445e+00,2.351429700851440430e+00,2.472843647003173828e+00,2.470560550689697266e+00,4.671444892883300781e+00,4.494886398315429688e+00,4.331187725067138672e+00,4.178993701934814453e+00,4.037132263183593750e+00,3.904586553573608398e+00,3.780467033386230469e+00,3.663995504379272461e+00,3.554486751556396484e+00,3.451333284378051758e+00,3.353998184204101562e+00,3.262003183364868164e+00,3.174919605255126953e+00,3.092364788055419922e+00,3.013994455337524414e+00,2.939498186111450195e+00,2.868595838546752930e+00,2.801033020019531250e+00,2.736579656600952148e+00,2.675025939941406250e+00,2.616180419921875000e+00,2.559867858886718750e+00,2.505928754806518555e+00,2.454215526580810547e+00,2.404593467712402344e+00,2.356938838958740234e+00,2.311135768890380859e+00,2.267079114913940430e+00,2.224670886993408203e+00,2.183820009231567383e+00,2.144442081451416016e+00,2.106459617614746094e+00,2.069798707962036133e+00,2.034392356872558594e+00,2.000177145004272461e+00,1.967093467712402344e+00,1.935086607933044434e+00,1.904104590415954590e+00,1.874098777770996094e+00,1.845024347305297852e+00
5.000000000000000000e+00,5.000000000000000000e+00,5.000000000000000000e+00,5.000000000000000000e+00,5.000000000000000000e+00,5.000000000000000000e+00,5.000000000000000000e+00,5.000000000000000000e+00,5.000000000000000000e+00,5.000000000000000000e+00,5.000000000000000000e+00,5.000000000000000000e+00,5.000000000000000000e+00,5.000000000000000000e+00,5.000000000000000000e+00,5.000000000000000000e+00,5.000000000000000000e+00,5.000000000000000000e+00,5.000000000000000000e+00,5.000000000000000000e+00,5.000000000000000000e+00,5.000000000000000000e+00,5.000000000000000000e+00,5.000000000000000000e+00,5.000000000000000000e+00,5.000000000000000000e+00,5.000000000000000000e+00,5.000000000000000000e+00,5.000000000000000000e+00,2.348523139953613281e+00,2.339762926101684570e+00,2.288759469985961914e+00,2.261674404144287109e+00,2.246441364288330078e+00,2.251579284667968750e+00,2.270056486129760742e+00,2.294392824172973633e+00,2.330556869506835938e+00,2.486163377761840820e+00,2.482278823852539062e+00,4.671573162078857422e+00,4.495005130767822266e+00,4.331297874450683594e+00,4.179096221923828125e+00,4.037228107452392578e+00,3.904676198959350586e+00,3.780550956726074219e+00,3.664074897766113281e+00,3.554560899734497070e+00,3.451403141021728516e+00,3.354064702987670898e+00,3.262065649032592773e+00,3.174978733062744141e+00,3.092421054840087891e+00,3.014047622680664062e+00,2.939548730850219727e+00,2.868643999099731445e+00,2.801079034805297852e+00,2.736623525619506836e+00,2.675068140029907227e+00,2.616220474243164062e+00,2.559906244277954102e+00,2.505965471267700195e+00,2.454250812530517578e+00,2.404627561569213867e+00,2.356971263885498047e+00,2.311167001724243164e+00,2.267109155654907227e+00,2.224699974060058594e+00,2.183847904205322266e+00,2.144469261169433594e+00,2.106485605239868164e+00,2.069823980331420898e+00,2.034416913986206055e+00,2.000200510025024414e+00,1.967116355895996094e+00,1.935108661651611328e+00,1.904125809669494629e+00,1.874119520187377930e+00,1.845044374465942383e+00
5.000000000000000000e+00,5.000000000000000000e+00,5.000000000000000000e+00,5.000000000000000000e+00,5.000000000000000000e+00,5.000000000000000000e+00,5.000000000000000000e+00,5.000000000000000000e+00,5.000000000000000000e+00,5.000000000000000000e+00,5.000000000000000000e+00,5.000000000000000000e+00,5.000000000000000000e+00,5.000000000000000000e+00,5.000000000000000000e+00,5.000000000000000000e+00,5.000000000000000000e+00,5.000000000000000000e+00,5.000000000000000000e+00,5.000000000000000000e+00,5.000000000000000000e+00,5.000000000000000000e+00,5.000000000000000000e+00,5.000000000000000000e+00,5.000000000000000000e+00,5.000000000000000000e+00,5.000000000000000000e+00,5.000000000000000000e+00,5.000000000000000000e+00,2.352618932723999023e+00,2.347759723663330078e+00,2.292397975921630859e+00,2.263051033020019531e+00,2.259178876876831055e+00,2.263475179672241211e+00,2.276123285293579102e+00,2.304025650024414062e+00,2.355056285858154297e+00,2.492502450942993164e+00,2.476652622222900391e+00,4.671700954437255859e+00,4.495123863220214844e+00,4.331408500671386719e+00,4.179198741912841797e+00,4.037323951721191406e+00,3.904765605926513672e+00,3.780634880065917969e+00,3.664153575897216797e+00,3.554635047912597656e+00,3.451473236083984375e+00,3.354130744934082031e+00,3.262128114700317383e+00,3.175037860870361328e+00,3.092477083206176758e+00,3.014101028442382812e+00,2.939599752426147461e+00,2.868692398071289062e+00,2.801125288009643555e+00,2.736667871475219727e+00,2.675110101699829102e+00,2.616260766983032227e+00,2.559944868087768555e+00,2.506002426147460938e+00,2.454286336898803711e+00,2.404661655426025391e+00,2.357003927230834961e+00,2.311198472976684570e+00,2.267139673233032227e+00,2.224729061126708984e+00,2.183876037597656250e+00,2.144496440887451172e+00,2.106511592864990234e+00,2.069849014282226562e+00,2.034441232681274414e+00,2.000224113464355469e+00,1.967138886451721191e+00,1.935130596160888672e+00,1.904147148132324219e+00,1.874140024185180664e+00,1.845064282417297363e+00
5.000000000000000000e+00,5.000000000000000000e+00,5.000000000000000000e+00,5.000000000000000000e+00,5.000000000000000000e+00,5.000000000000000000e+00,5.000000000000000000e+00,5.000000000000000000e+00,5.000000000000000000e+00,5.000000000000000000e+00,5.000000000000000000e+00,5.000000000000000000e+00,5.000000000000000000e+00,5.000000000000000000e+00,5.000000000000000000e+00,5.000000000000000000e+00,5.000000000000000000e+00,5.000000000000000000e+00,5.000000000000000000e+00,5.000000000000000000e+00,5.000000000000000000e+00,5.000000000000000000e+00,5.000000000000000000e+00,5.000000000000000000e+00,5.000000000000000000e+00,5.000000000000000000e+00,5.000000000000000000e+00,5.000000000000000000e+00,5.000000000000000000e+00,2.336431980133056641e+00,2.333680391311645508e+00,2.278658151626586914e+00,2.258408308029174805e+00,2.258957624435424805e+00,2.268245935440063477e+00,2.280599832534790039e+00,2.308129072189331055e+00,2.352285146713256836e+00,2.487592220306396484e+00,2.456815719604492188e+00,2.463400840759277344e+00,4.495242118835449219e+00,4.331518650054931641e+00,4.179301738739013672e+00,4.037419795989990234e+00,3.904855251312255859e+00,3.780719280242919922e+00,3.664232492446899414e+00,3.554709196090698242e+00,3.451543569564819336e+00,3.354196786880493164e+00,3.262190580368041992e+00,3.175097465515136719e+00,3.092533349990844727e+00,3.014154434204101562e+00,2.939650535583496094e+00,2.868740797042846680e+00,2.801171302795410156e+00,2.736711740493774414e+00,2.675152063369750977e+00,2.616300821304321289e+00,2.559983491897583008e+00,2.506039381027221680e+00,2.454321622848510742e+00,2.404695510864257812e+00,2.357036590576171875e+00,2.311229705810546875e+00,2.267169713973999023e+00,2.224757909774780273e+00,2.183904170989990234e+00,2.144523382186889648e+00,2.106537818908691406e+00,2.069874286651611328e+00,2.034465551376342773e+00,2.000247478485107422e+00,1.967161774635314941e+00,1.935152649879455566e+00,1.904168367385864258e+00,1.874160766601562500e+00,1.845084309577941895e+00
5.000000000000000000e+00,5.000000000000000000e+00,5.000000000000000000e+00,5.000000000000000000e+00,5.000000000000000000e+00,5.000000000000000000e+00,5.000000000000000000e+00,5.000000000000000000e+00,5.000000000000000000e+00,5.000000000000000000e+00,5.000000000000000000e+00,5.000000000000000000e+00,5.000000000000000000e+00,5.000000000000000000e+00,5.000000000000000000e+00,5.000000000000000000e+00,5.000000000000000000e+00,5.000000000000000000e+00,5.000000000000000000e+00,5.000000000000000000e+00,5.000000000000000000e+00,5.000000000000000000e+00,5.000000000000000000e+00,5.000000000000000000e+00,5.000000000000000000e+00,5.000000000000000000e+00,5.000000000000000000e+00,5.000000000000000000e+00,5.000000000000000000e+00,2.329928874969482422e+00,2.325073719024658203e+00,2.269171953201293945e+00,2.241583824157714844e+00,2.248220920562744141e+00,2.290764570236206055e+00,2.288791179656982422e+00,2.323404788970947266e+00,2.355534553527832031e+00,5.000000000000000000e+00,2.451031923294067383e+00,2.443271636962890625e+00,4.495361328125000000e+00,4.331628799438476562e+00,4.179404258728027344e+00,4.037515640258789062e+00,3.904944658279418945e+00,3.780803203582763672e+00,3.664311170578002930e+00,3.554783344268798828e+00,3.451613426208496094e+00,3.354262828826904297e+00,3.262253046035766602e+00,3.175156593322753906e+00,3.092589378356933594e+00,3.014208078384399414e+00,2.939701318740844727e+00,2.868788957595825195e+00,2.801217555999755859e+00,2.736755847930908203e+00,2.675194025039672852e+00,2.616341352462768555e+00,2.560021877288818359e+00,2.506076097488403320e+00,2.454357147216796875e+00,2.404729604721069336e+00,2.357069253921508789e+00,2.311261415481567383e+00,2.267199993133544922e+00,2.224786996841430664e+00,2.183932065963745117e+00,2.144550323486328125e+00,2.106563806533813477e+00,2.069899559020996094e+00,2.034489870071411133e+00,2.000271081924438477e+00,1.967184543609619141e+00,1.935174465179443359e+00,1.904189705848693848e+00,1.874181509017944336e+00,1.845104217529296875e+00
5.000000000000000000e+00,5.000000000000000000e+00,5.000000000000000000e+00,5.000000000000000000e+00,5.000000000000000000e+00,5.000000000000000000e+00,5.000000000000000000e+00,5.000000000000000000e+00,5.000000000000000000e+00,5.000000000000000000e+00,5.000000000000000000e+00,5.000000000000000000e+00,5.000000000000000000e+00,5.000000000000000000e+00,5.000000000000000000e+00,5.000000000000000000e+00,5.000000000000000000e+00,5.000000000000000000e+00,5.000000000000000000e+00,5.000000000000000000e+00,5.000000000000000000e+00,5.000000000000000000e+00,5.000000000000000000e+00,5.000000000000000000e+00,5.000000000000000000e+00,5.000000000000000000e+00,5.000000000000000000e+00,5.000000000000000000e+00,5.000000000000000000e+00,2.326086044311523438e+00,2.316681623458862305e+00,2.256622791290283203e+00,2.221494913101196289e+00,2.222842454910278320e+00,2.245388984680175781e+00,2.326147794723510742e+00,2.335043907165527344e+00,2.345043420791625977e+00,5.000000000000000000e+00,2.457393169403076172e+00,2.417718887329101562e+00,4.495480060577392578e+00,4.331738948822021484e+00,4.179506778717041016e+00,4.037611484527587891e+00,3.905034780502319336e+00,3.780887126922607422e+00,3.664390087127685547e+00,3.554857969284057617e+00,3.451683282852172852e+00,3.354328870773315430e+00,3.262315750122070312e+00,3.175215721130371094e+00,3.092645645141601562e+00,3.014261245727539062e+00,2.939752101898193359e+00,2.868837356567382812e+00,2.801263570785522461e+00,2.736799716949462891e+00,2.675236225128173828e+00,2.616381406784057617e+00,2.560060262680053711e+00,2.506113052368164062e+00,2.454392433166503906e+00,2.404763460159301758e+00,2.357101917266845703e+00,2.311292648315429688e+00,2.267230033874511719e+00,2.224816083908081055e+00,2.183960199356079102e+00,2.144577264785766602e+00,2.106590032577514648e+00,2.069924592971801758e+00,2.034513950347900391e+00,2.000294685363769531e+00,1.967207193374633789e+00,1.935196638107299805e+00,1.904211163520812988e+00,1.874202013015747070e+00,1.845124363899230957e+00
5.000000000000000000e+00,5.000000000000000000e+00,5.000000000000000000e+00,5.000000000000000000e+00,5.000000000000000000e+00,5.000000000000000000e+00,5.000000000000000000e+00,5.000000000000000000e+00,5.000000000000000000e+00,5.000000000000000000e+00,5.000000000000000000e+00,5.000000000000000000e+00,5.000000000000000000e+00,5.000000000000000000e+00,5.000000000000000000e+00,5.000000000000000000e+00,5.000000000000000000e+00,5.000000000000000000e+00,5.000000000000000000e+00,5.000000000000000000e+00,5.000000000000000000e+00,5.000000000000000000e+00,5.000000000000000000e+00,5.000000000000000000e+00,5.000000000000000000e+00,5.000000000000000000e+00,5.000000000000000000e+00,5.000000000000000000e+00,5.000000000000000000e+00,2.314664602279663086e+00,2.307953596115112305e+00,2.251589059829711914e+00,2.213716030120849609e+00,2.214706897735595703e+00,2.216323852539062500e+00,2.278818130493164062e+00,2.325194120407104492e+00,2.326853513717651367e+00,2.385115385055541992e+00,4.863274574279785156e+00,2.435892105102539062e+00,2.446496009826660156e+00,4.331849098205566406e+00,4.179609775543212891e+00,4.037706851959228516e+00,3.905124187469482422e+00,3.780971050262451172e+00,3.664469003677368164e+00,3.554932117462158203e+00,3.451753377914428711e+00,3.354394912719726562e+00,3.262378454208374023e+00,3.175274848937988281e+00,3.092702150344848633e+00,3.014314651489257812e+00,2.939802885055541992e+00,2.868885993957519531e+00,2.801309823989868164e+00,2.736843585968017578e+00,2.675278425216674805e+00,2.616421699523925781e+00,2.560098886489868164e+00,2.506150007247924805e+00,2.454427957534790039e+00,2.404797315597534180e+00,2.357134580612182617e+00,2.311324119567871094e+00,2.267260313034057617e+00,2.224845409393310547e+00,2.183988094329833984e+00,2.144604444503784180e+00,2.106616020202636719e+00,2.069949865341186523e+00,2.034538269042968750e+00,2.000318050384521484e+00,1.967230081558227539e+00,1.935218453407287598e+00,1.904232382774353027e+00,1.874222755432128906e+00,1.845144271850585938e+00
5.000000000000000000e+00,5.000000000000000000e+00,5.000000000000000000e+00,5.000000000000000000e+00,5.000000000000000000e+00,5.000000000000000000e+00,5.000000000000000000e+00,5.000000000000000000e+00,5.000000000000000000e+00,5.000000000000000000e+00,5.000000000000000000e+00,5.000000000000000000e+00,5.000000000000000000e+00,5.000000000000000000e+00,5.000000000000000000e+00,5.000000000000000000e+00,5.000000000000000000e+00,5.000000000000000000e+00,5.000000000000000000e+00,5.000000000000000000e+00,5.000000000000000000e+00,5.000000000000000000e+00,5.000000000000000000e+00,5.000000000000000000e+00,5.000000000000000000e+00,5.000000000000000000e+00,5.000000000000000000e+00,5.000000000000000000e+00,5.000000000000000000e+00,2.317812442779541016e+00,5.000000000000000000e+00,2.251516819000244141e+00,2.209335803985595703e+00,2.209568738937377930e+00,2.210469484329223633e+00,2.263461351394653320e+00,2.316579103469848633e+00,2.318570375442504883e+00,2.374213457107543945e+00,4.863413333892822266e+00,2.370005130767822266e+00,2.380870103836059570e+00,4.331959247589111328e+00,4.179712295532226562e+00,4.037803173065185547e+00,3.905213832855224609e+00,3.781054973602294922e+00,3.664548158645629883e+00,3.555006265640258789e+00,3.451823234558105469e+00,3.354461431503295898e+00,3.262440919876098633e+00,3.175334215164184570e+00,3.092758178710937500e+00,3.014368057250976562e+00,2.939853429794311523e+00,2.868934154510498047e+00,2.801355838775634766e+00,2.736887693405151367e+00,2.675320386886596680e+00,2.616461753845214844e+00,2.560137271881103516e+00,2.506186962127685547e+00,2.454463243484497070e+00,2.404831409454345703e+00,2.357167243957519531e+00,2.311355352401733398e+00,2.267290353775024414e+00,2.224874496459960938e+00,2.184016227722167969e+00,2.144631385803222656e+00,2.106642007827758789e+00,2.069974899291992188e+00,2.034562826156616211e+00,2.000341653823852539e+00,1.967252612113952637e+00,1.935240626335144043e+00,1.904253721237182617e+00,1.874243259429931641e+00,1.845164299011230469e+00
5.000000000000000000e+00,5.000000000000000000e+00,5.000000000000000000e+00,5.000000000000000000e+00,5.000000000000000000e+00,5.000000000000000000e+00,5.000000000000000000e+00,5.000000000000000000e+00,5.000000000000000000e+00,5.000000000000000000e+00,5.000000000000000000e+00,5.000000000000000000e+00,5.000000000000000000e+00,5.000000000000000000e+00,5.000000000000000000e+00,5.000000000000000000e+00,5.000000000000000000e+00,5.000000000000000000e+00,5.000000000000000000e+00,5.000000000000000000e+00,5.000000000000000000e+00,5.000000000000000000e+00,5.000000000000000000e+00,5.000000000000000000e+00,5.000000000000000000e+00,5.000000000000000000e+00,5.000000000000000000e+00,5.000000000000000000e+00,5.000000000000000000e+00,2.306210994720458984e+00,2.294406175613403320e+00,2.275969743728637695e+00,2.211784839630126953e+00,2.205295324325561523e+00,2.205780267715454102e+00,2.251560211181640625e+00,2.316030979156494141e+00,2.317607879638671875e+00,2.371402740478515625e+00,4.863552570343017578e+00,4.672470569610595703e+00,2.395432949066162109e+00,4.332069873809814453e+00,4.179814815521240234e+00,4.037898540496826172e+00,3.905303239822387695e+00,3.781138896942138672e+00,3.664627075195312500e+00,3.555080413818359375e+00,3.451893329620361328e+00,3.354527473449707031e+00,3.262503385543823242e+00,3.175393342971801758e+00,3.092814445495605469e+00,3.014421463012695312e+00,2.939904451370239258e+00,2.868982553482055664e+00,2.801401853561401367e+00,2.736931800842285156e+00,2.675362348556518555e+00,2.616502046585083008e+00,2.560175895690917969e+00,2.506223917007446289e+00,2.454498529434204102e+00,2.404865503311157227e+00,2.357199907302856445e+00,2.311386823654174805e+00,2.267320871353149414e+00,2.224903345108032227e+00,2.184044122695922852e+00,2.144658565521240234e+00,2.106668233871459961e+00,2.070000171661376953e+00,2.034587144851684570e+00,2.000365018844604492e+00,1.967275500297546387e+00,1.935262680053710938e+00,1.904274940490722656e+00,1.874264001846313477e+00,1.845184445381164551e+00
5.000000000000000000e+00,5.000000000000000000e+00,5.000000000000000000e+00,5.000000000000000000e+00,5.000000000000000000e+00,5.000000000000000000e+00,5.000000000000000000e+00,5.000000000000000000e+00,5.000000000000000000e+00,5.000000000000000000e+00,5.000000000000000000e+00,5.000000000000000000e+00,5.000000000000000000e+00,5.000000000000000000e+00,5.000000000000000000e+00,5.000000000000000000e+00,5.000000000000000000e+00,5.000000000000000000e+00,5.000000000000000000e+00,5.000000000000000000e+00,5.000000000000000000e+00,5.000000000000000000e+00,5.000000000000000000e+00,5.000000000000000000e+00,5.000000000000000000e+00,5.000000000000000000e+00,5.000000000000000000e+00,5.000000000000000000e+00,5.000000000000000000e+00,2.290768146514892578e+00,2.295357227325439453e+00,2.302211761474609375e+00,2.223834753036499023e+00,2.202256917953491211e+00,2.201269626617431641e+00,2.238956928253173828e+00,2.318664789199829102e+00,2.320538282394409180e+00,2.372729778289794922e+00,4.863691329956054688e+00,4.672599315643310547e+00,4.495954990386962891e+00,2.374831438064575195e+00,4.179917812347412109e+00,4.037994384765625000e+00,3.905392885208129883e+00,3.781223297119140625e+00,3.664705991744995117e+00,3.555154800415039062e+00,3.451963663101196289e+00,3.354593515396118164e+00,3.262565851211547852e+00,3.175452947616577148e+00,3.092870473861694336e+00,3.014474630355834961e+00,2.939955234527587891e+00,2.869030952453613281e+00,2.801447868347167969e+00,2.736975908279418945e+00,2.675404310226440430e+00,2.616542100906372070e+00,2.560214519500732422e+00,2.506260633468627930e+00,2.454534053802490234e+00,2.404899358749389648e+00,2.357232570648193359e+00,2.311418056488037109e+00,2.267350912094116211e+00,2.224932432174682617e+00,2.184072256088256836e+00,2.144685506820678711e+00,2.106694221496582031e+00,2.070025444030761719e+00,2.034611463546752930e+00,2.000388622283935547e+00,1.967298269271850586e+00,1.935284614562988281e+00,1.904296278953552246e+00,1.874284744262695312e+00,1.845204353332519531e+00
5.000000000000000000e+00,5.000000000000000000e+00,5.000000000000000000e+00,5.000000000000000000e+00,5.000000000000000000e+00,5.000000000000000000e+00,5.000000000000000000e+00,5.000000000000000000e+00,5.000000000000000000e+00,5.000000000000000000e+00,5.000000000000000000e+00,5.000000000000000000e+00,5.000000000000000000e+00,5.000000000000000000e+00,5.000000000000000000e+00,5.000000000000000000e+00,5.000000000000000000e+00,5.000000000000000000e+00,5.000000000000000000e+00,5.000000000000000000e+00,5.000000000000000000e+00,5.000000000000000000e+00,5.000000000000000000e+00,5.000000000000000000e+00,5.000000000000000000e+00,5.000000000000000000e+00,5.000000000000000000e+00,5.000000000000000000e+00,5.000000000000000000e+00,2.284950494766235352e+00,5.000000000000000000e+00,5.000000000000000000e+00,2.236505270004272461e+00,2.196046113967895508e+00,2.194890499114990234e+00,2.226687908172607422e+00,2.319154977798461914e+00,2.323476076126098633e+00,2.376703977584838867e+00,4.863830089569091797e+00,4.672727584838867188e+00,4.496073722839355469e+00,4.332290172576904297e+00,4.180020332336425781e+00,4.038090229034423828e+00,3.905482292175292969e+00,3.781307220458984375e+00,3.664784669876098633e+00,3.555228948593139648e+00,3.452033519744873047e+00,3.354659557342529297e+00,3.262628316879272461e+00,3.175512075424194336e+00,3.092926740646362305e+00,3.014528274536132812e+00,2.940006017684936523e+00,2.869079113006591797e+00,2.801494359970092773e+00,2.737019777297973633e+00,2.675446510314941406e+00,2.616582632064819336e+00,2.560252904891967773e+00,2.506297588348388672e+00,2.454569578170776367e+00,2.404933452606201172e+00,2.357264995574951172e+00,2.311449766159057617e+00,2.267381191253662109e+00,2.224961519241333008e+00,2.184100151062011719e+00,2.144712448120117188e+00,2.106720209121704102e+00,2.070050477981567383e+00,2.034635782241821289e+00,2.000412225723266602e+00,1.967320919036865234e+00,1.935306668281555176e+00,1.904317498207092285e+00,1.874305248260498047e+00,1.845224380493164062e+00
5.000000000000000000e+00,5.000000000000000000e+00,5.000000000000000000e+00,5.000000000000000000e+00,5.000000000000000000e+00,5.000000000000000000e+00,5.000000000000000000e+00,5.000000000000000000e+00,5.000000000000000000e+00,5.000000000000000000e+00,5.000000000000000000e+00,5.000000000000000000e+00,5.000000000000000000e+00,5.000000000000000000e+00,5.000000000000000000e+00,5.000000000000000000e+00,5.000000000000000000e+00,5.000000000000000000e+00,5.000000000000000000e+00,5.000000000000000000e+00,5.000000000000000000e+00,5.000000000000000000e+00,5.000000000000000000e+00,5.000000000000000000e+00,5.000000000000000000e+00,5.000000000000000000e+00,5.000000000000000000e+00,5.000000000000000000e+00,5.000000000000000000e+00,2.274964570999145508e+00,5.000000000000000000e+00,5.000000000000000000e+00,2.257322788238525391e+00,2.194981813430786133e+00,2.187370300292968750e+00,2.214762687683105469e+00,2.319896697998046875e+00,2.325257539749145508e+00,2.378869056701660156e+00,4.863969326019287109e+00,4.672855377197265625e+00,4.496192455291748047e+00,4.332400798797607422e+00,4.180122852325439453e+00,4.038186073303222656e+00,3.905572414398193359e+00,3.781391143798828125e+00,3.664863586425781250e+00,3.555303573608398438e+00,3.452103376388549805e+00,3.354725599288940430e+00,3.262691020965576172e+00,3.175571203231811523e+00,3.092982769012451172e+00,3.014581680297851562e+00,2.940056800842285156e+00,2.869127511978149414e+00,2.801540374755859375e+00,2.737063884735107422e+00,2.675488471984863281e+00,2.616622924804687500e+00,2.560291528701782227e+00,2.506334543228149414e+00,2.454604864120483398e+00,2.404967308044433594e+00,2.357297658920288086e+00,2.311480998992919922e+00,2.267411231994628906e+00,2.224990606307983398e+00,2.184128284454345703e+00,2.144739389419555664e+00,2.106746435165405273e+00,2.070075750350952148e+00,2.034660100936889648e+00,2.000435829162597656e+00,1.967343688011169434e+00,1.935328602790832520e+00,1.904338955879211426e+00,1.874325990676879883e+00,1.845244288444519043e+00
5.000000000000000000e+00,5.000000000000000000e+00,5.000000000000000000e+00,5.000000000000000000e+00,5.000000000000000000e+00,5.000000000000000000e+00,5.000000000000000000e+00,5.000000000000000000e+00,5.000000000000000000e+00,5.000000000000000000e+00,5.000000000000000000e+00,5.000000000000000000e+00,5.000000000000000000e+00,5.000000000000000000e+00,5.000000000000000000e+00,5.000000000000000000e+00,5.000000000000000000e+00,5.000000000000000000e+00,5.000000000000000000e+00,5.000000000000000000e+00,5.000000000000000000e+00,5.000000000000000000e+00,5.000000000000000000e+00,5.000000000000000000e+00,5.000000000000000000e+00,5.000000000000000000e+00,5.000000000000000000e+00,5.000000000000000000e+00,5.000000000000000000e+00,5.000000000000000000e+00,5.000000000000000000e+00,5.000000000000000000e+00,2.277653217315673828e+00,2.207731723785400391e+00,2.182904243469238281e+00,2.199888467788696289e+00,2.320715904235839844e+00,2.327905893325805664e+00,2.381371974945068359e+00,4.864108562469482422e+00,4.672984123229980469e+00,4.496311187744140625e+00,4.332510948181152344e+00,4.180225372314453125e+00,4.038281917572021484e+00,3.905661821365356445e+00,3.781475067138671875e+00,3.664942502975463867e+00,3.555377721786499023e+00,3.452173471450805664e+00,3.354791641235351562e+00,3.262753725051879883e+00,3.175630569458007812e+00,3.093039274215698242e+00,3.014635086059570312e+00,2.940107583999633789e+00,2.869176149368286133e+00,2.801586389541625977e+00,2.737107753753662109e+00,2.675530672073364258e+00,2.616662979125976562e+00,2.560329914093017578e+00,2.506371498107910156e+00,2.454640388488769531e+00,2.405001401901245117e+00,2.357330560684204102e+00,2.311512470245361328e+00,2.267441511154174805e+00,2.225019931793212891e+00,2.184156179428100586e+00,2.144766569137573242e+00,2.106772422790527344e+00,2.070100784301757812e+00,2.034684419631958008e+00,2.000459194183349609e+00,1.967366337776184082e+00,1.935350656509399414e+00,1.904360294342041016e+00,1.874346494674682617e+00,1.845264315605163574e+00
5.000000000000000000e+00,5.000000000000000000e+00,5.000000000000000000e+00,5.000000000000000000e+00,5.000000000000000000e+00,5.000000000000000000e+00,5.000000000000000000e+00,5.000000000000000000e+00,5.000000000000000000e+00,5.000000000000000000e+00,5.000000000000000000e+00,5.000000000000000000e+00,5.000000000000000000e+00,5.000000000000000000e+00,5.000000000000000000e+00,5.000000000000000000e+00,5.000000000000000000e+00,5.000000000000000000e+00,5.000000000000000000e+00,5.000000000000000000e+00,5.000000000000000000e+00,5.000000000000000000e+00,5.000000000000000000e+00,5.000000000000000000e+00,5.000000000000000000e+00,5.000000000000000000e+00,5.000000000000000000e+00,5.000000000000000000e+00,5.000000000000000000e+00,5.000000000000000000e+00,5.000000000000000000e+00,5.000000000000000000e+00,5.000000000000000000e+00,2.222695350646972656e+00,2.181847572326660156e+00,2.190363645553588867e+00,2.319856166839599609e+00,2.330560207366943359e+00,5.000000000000000000e+00,4.864247322082519531e+00,4.673112392425537109e+00,4.496430397033691406e+00,4.332621097564697266e+00,4.180328369140625000e+00,4.038377761840820312e+00,3.905751466751098633e+00,3.781559228897094727e+00,3.665021657943725586e+00,3.555451869964599609e+00,3.452243328094482422e+00,3.354858160018920898e+00,3.262816190719604492e+00,3.175689697265625000e+00,3.093095541000366211e+00,3.014688491821289062e+00,2.940158367156982422e+00,2.869224548339843750e+00,2.801632404327392578e+00,2.737151861190795898e+00,2.675572633743286133e+00,2.616703271865844727e+00,2.560368537902832031e+00,2.506408452987670898e+00,2.454675674438476562e+00,2.405035257339477539e+00,2.357363224029541016e+00,2.311543703079223633e+00,2.267471790313720703e+00,2.225049018859863281e+00,2.184184312820434570e+00,2.144793748855590820e+00,2.106798648834228516e+00,2.070126056671142578e+00,2.034708738327026367e+00,2.000482797622680664e+00,1.967389225959777832e+00,1.935372710227966309e+00,1.904381513595581055e+00,1.874367237091064453e+00,1.845284461975097656e+00
5.000000000000000000e+00,5.000000000000000000e+00,5.000000000000000000e+00,5.000000000000000000e+00,5.000000000000000000e+00,5.000000000000000000e+00,5.000000000000000000e+00,5.000000000000000000e+00,5.000000000000000000e+00,5.000000000000000000e+00,5.000000000000000000e+00,5.000000000000000000e+00,5.000000000000000000e+00,5.000000000000000000e+00,5.000000000000000000e+00,5.000000000000000000e+00,5.000000000000000000e+00,5.000000000000000000e+00,5.000000000000000000e+00,5.000000000000000000e+00,5.000000000000000000e+00,5.000000000000000000e+00,5.000000000000000000e+00,5.000000000000000000e+00,5.000000000000000000e+00,5.000000000000000000e+00,5.000000000000000000e+00,5.000000000000000000e+00,5.000000000000000000e+00,5.000000000000000000e+00,5.000000000000000000e+00,5.000000000000000000e+00,5.000000000000000000e+00,2.235597610473632812e+00,2.189919710159301758e+00,2.196218252182006836e+00,2.321507692337036133e+00,2.330452919006347656e+00,5.000000000000000000e+00,4.864386558532714844e+00,4.673240661621093750e+00,4.496549129486083984e+00,4.332731723785400391e+00,4.180430889129638672e+00,4.038473606109619141e+00,3.905841112136840820e+00,3.781643152236938477e+00,3.665100574493408203e+00,3.555526256561279297e+00,3.452313423156738281e+00,3.354924201965332031e+00,3.262878656387329102e+00,3.175748825073242188e+00,3.093151569366455078e+00,3.014741897583007812e+00,2.940209150314331055e+00,2.869272708892822266e+00,2.801678657531738281e+00,2.737195968627929688e+00,2.675614833831787109e+00,2.616743326187133789e+00,2.560407161712646484e+00,2.506445407867431641e+00,2.454710960388183594e+00,2.405069351196289062e+00,2.357395648956298828e+00,2.311575174331665039e+00,2.267502069473266602e+00,2.225078105926513672e+00,2.184212207794189453e+00,2.144820690155029297e+00,2.106824636459350586e+00,2.070151090621948242e+00,2.034733057022094727e+00,2.000506162643432617e+00,1.967411756515502930e+00,1.935394644737243652e+00,1.904402852058410645e+00,1.874387741088867188e+00,1.845304369926452637e+00
5.000000000000000000e+00,5.000000000000000000e+00,5.000000000000000000e+00,5.000000000000000000e+00,5.000000000000000000e+00,5.000000000000000000e+00,5.000000000000000000e+00,5.000000000000000000e+00,5.000000000000000000e+00,5.000000000000000000e+00,5.000000000000000000e+00,5.000000000000000000e+00,5.000000000000000000e+00,5.000000000000000000e+00,5.000000000000000000e+00,5.000000000000000000e+00,5.000000000000000000e+00,5.000000000000000000e+00,5.000000000000000000e+00,5.000000000000000000e+00,5.000000000000000000e+00,5.000000000000000000e+00,5.000000000000000000e+00,5.000000000000000000e+00,5.000000000000000000e+00,5.000000000000000000e+00,5.000000000000000000e+00,5.000000000000000000e+00,5.000000000000000000e+00,5.000000000000000000e+00,5.000000000000000000e+00,5.000000000000000000e+00,5.000000000000000000e+00,2.231072664260864258e+00,2.207171916961669922e+00,2.215254068374633789e+00,2.329527378082275391e+00,2.339809417724609375e+00,5.000000000000000000e+00,4.864525794982910156e+00,4.673368930816650391e+00,4.496667861938476562e+00,4.332841873168945312e+00,4.180533885955810547e+00,4.038569450378417969e+00,3.905930519104003906e+00,3.781727552413940430e+00,3.665179491043090820e+00,3.555600404739379883e+00,3.452383756637573242e+00,3.354990243911743164e+00,3.262941122055053711e+00,3.175808429718017578e+00,3.093207836151123047e+00,3.014795064926147461e+00,2.940259933471679688e+00,2.869321107864379883e+00,2.801724672317504883e+00,2.737240076065063477e+00,2.675656795501708984e+00,2.616783618927001953e+00,2.560445547103881836e+00,2.506482124328613281e+00,2.454746484756469727e+00,2.405103445053100586e+00,2.357428312301635742e+00,2.311606645584106445e+00,2.267532348632812500e+00,2.225106954574584961e+00,2.184240341186523438e+00,2.144847631454467773e+00,2.106850624084472656e+00,2.070176601409912109e+00,2.034757375717163086e+00,2.000529766082763672e+00,1.967434644699096680e+00,1.935416698455810547e+00,1.904424071311950684e+00,1.874408483505249023e+00,1.845324397087097168e+00
5.000000000000000000e+00,5.000000000000000000e+00,5.000000000000000000e+00,5.000000000000000000e+00,5.000000000000000000e+00,5.000000000000000000e+00,5.000000000000000000e+00,5.000000000000000000e+00,5.000000000000000000e+00,5.000000000000000000e+00,5.000000000000000000e+00,5.000000000000000000e+00,5.000000000000000000e+00,5.000000000000000000e+00,5.000000000000000000e+00,5.000000000000000000e+00,5.000000000000000000e+00,5.000000000000000000e+00,5.000000000000000000e+00,5.000000000000000000e+00,5.000000000000000000e+00,5.000000000000000000e+00,5.000000000000000000e+00,5.000000000000000000e+00,5.000000000000000000e+00,5.000000000000000000e+00,5.000000000000000000e+00,5.000000000000000000e+00,5.000000000000000000e+00,5.000000000000000000e+00,5.000000000000000000e+00,5.000000000000000000e+00,5.000000000000000000e+00,2.235814809799194336e+00,2.221938610076904297e+00,2.240231513977050781e+00,2.355419635772705078e+00,2.364396095275878906e+00,5.000000000000000000e+00,4.864664554595947266e+00,4.673497200012207031e+00,4.496786594390869141e+00,4.332952022552490234e+00,4.180636405944824219e+00,4.038665294647216797e+00,3.906020164489746094e+00,3.781811475753784180e+00,3.665258407592773438e+00,3.555674552917480469e+00,3.452453613281250000e+00,3.355056285858154297e+00,3.263003587722778320e+00,3.175867557525634766e+00,3.093264102935791016e+00,3.014848709106445312e+00,2.940310716629028320e+00,2.869369506835937500e+00,2.801770925521850586e+00,2.737283945083618164e+00,2.675698757171630859e+00,2.616823911666870117e+00,2.560484170913696289e+00,2.506519079208374023e+00,2.454782009124755859e+00,2.405137300491333008e+00,2.357460975646972656e+00,2.311638116836547852e+00,2.267562389373779297e+00,2.225136041641235352e+00,2.184268474578857422e+00,2.144874572753906250e+00,2.106876850128173828e+00,2.070201635360717773e+00,2.034781694412231445e+00,2.000553131103515625e+00,1.967457532882690430e+00,1.935438632965087891e+00,1.904445528984069824e+00,1.874429225921630859e+00,1.845344305038452148e+00
5.000000000000000000e+00,5.000000000000000000e+00,5.000000000000000000e+00,5.000000000000000000e+00,5.000000000000000000e+00,5.000000000000000000e+00,5.000000000000000000e+00,5.000000000000000000e+00,5.000000000000000000e+00,5.000000000000000000e+00,5.000000000000000000e+00,5.000000000000000000e+00,5.000000000000000000e+00,5.000000000000000000e+00,5.000000000000000000e+00,5.000000000000000000e+00,5.000000000000000000e+00,5.000000000000000000e+00,5.000000000000000000e+00,5.000000000000000000e+00,5.000000000000000000e+00,5.000000000000000000e+00,5.000000000000000000e+00,5.000000000000000000e+00,5.000000000000000000e+00,5.000000000000000000e+00,5.000000000000000000e+00,5.000000000000000000e+00,5.000000000000000000e+00,5.000000000000000000e+00,5.000000000000000000e+00,5.000000000000000000e+00,5.000000000000000000e+00,2.245880365371704102e+00,2.233661174774169922e+00,2.265251159667968750e+00,2.428223848342895508e+00,5.000000000000000000e+00,5.000000000000000000e+00,4.864802360534667969e+00,4.673625469207763672e+00,4.496905326843261719e+00,4.333062648773193359e+00,4.180738925933837891e+00,4.038761138916015625e+00,3.906110286712646484e+00,3.781895399093627930e+00,3.665337085723876953e+00,3.555749177932739258e+00,3.452523708343505859e+00,3.355122327804565430e+00,3.263066530227661133e+00,3.175926923751831055e+00,3.093320131301879883e+00,3.014902114868164062e+00,2.940361499786376953e+00,2.869417905807495117e+00,2.801817178726196289e+00,2.737328052520751953e+00,2.675740957260131836e+00,2.616864204406738281e+00,2.560522556304931641e+00,2.506556034088134766e+00,2.454817295074462891e+00,2.405171394348144531e+00,2.357493638992309570e+00,2.311669349670410156e+00,2.267592668533325195e+00,2.225165128707885742e+00,2.184296369552612305e+00,2.144901752471923828e+00,2.106902837753295898e+00,2.070226907730102539e+00,2.034806013107299805e+00,2.000576734542846680e+00,1.967480063438415527e+00,1.935460686683654785e+00,1.904466867446899414e+00,1.874449729919433594e+00,1.845364451408386230e+00
5.000000000000000000e+00,5.000000000000000000e+00,5.000000000000000000e+00,5.000000000000000000e+00,5.000000000000000000e+00,5.000000000000000000e+00,5.000000000000000000e+00,5.000000000000000000e+00,5.000000000000000000e+00,5.000000000000000000e+00,5.000000000000000000e+00,5.000000000000000000e+00,5.000000000000000000e+00,5.000000000000000000e+00,5.000000000000000000e+00,5.000000000000000000e+00,5.000000000000000000e+00,5.000000000000000000e+00,5.000000000000000000e+00,5.000000000000000000e+00,5.000000000000000000e+00,5.000000000000000000e+00,5.000000000000000000e+00,5.000000000000000000e+00,5.000000000000000000e+00,5.000000000000000000e+00,5.000000000000000000e+00,5.000000000000000000e+00,5.000000000000000000e+00,5.000000000000000000e+00,5.000000000000000000e+00,5.000000000000000000e+00,5.000000000000000000e+00,2.254848241806030273e+00,2.237206697463989258e+00,2.266759395599365234e+00,5.000000000000000000e+00,5.000000000000000000e+00,5.000000000000000000e+00,4.864941120147705078e+00,4.673752784729003906e+00,4.497024059295654297e+00,4.333172798156738281e+00,4.180841922760009766e+00,4.038856983184814453e+00,3.906199693679809570e+00,3.781979322433471680e+00,3.665416002273559570e+00,3.555823564529418945e+00,3.452593564987182617e+00,3.355188608169555664e+00,3.263128995895385742e+00,3.175986051559448242e+00,3.093376398086547852e+00,3.014955520629882812e+00,2.940412282943725586e+00,2.869466304779052734e+00,2.801863193511962891e+00,2.737371921539306641e+00,2.675783157348632812e+00,2.616904497146606445e+00,2.560561180114746094e+00,2.506592988967895508e+00,2.454852819442749023e+00,2.405205249786376953e+00,2.357526540756225586e+00,2.311700820922851562e+00,2.267622709274291992e+00,2.225194454193115234e+00,2.184324502944946289e+00,2.144928693771362305e+00,2.106929063796997070e+00,2.070251941680908203e+00,2.034830331802368164e+00,2.000600337982177734e+00,1.967502951622009277e+00,1.935482621192932129e+00,1.904488086700439453e+00,1.874470472335815430e+00,1.845384359359741211e+00
5.000000000000000000e+00,5.000000000000000000e+00,5.000000000000000000e+00,5.000000000000000000e+00,5.000000000000000000e+00,5.000000000000000000e+00,5.000000000000000000e+00,5.000000000000000000e+00,5.000000000000000000e+00,5.000000000000000000e+00,5.000000000000000000e+00,5.000000000000000000e+00,5.000000000000000000e+00,5.000000000000000000e+00,5.000000000000000000e+00,5.000000000000000000e+00,5.000000000000000000e+00,5.000000000000000000e+00,5.000000000000000000e+00,5.000000000000000000e+00,5.000000000000000000e+00,5.000000000000000000e+00,5.000000000000000000e+00,5.000000000000000000e+00,5.000000000000000000e+00,5.000000000000000000e+00,5.000000000000000000e+00,5.000000000000000000e+00,5.000000000000000000e+00,5.000000000000000000e+00,5.000000000000000000e+00,5.000000000000000000e+00,5.000000000000000000e+00,2.263893604278564453e+00,2.241659879684448242e+00,2.267118930816650391e+00,5.000000000000000000e+00,5.000000000000000000e+00,5.000000000000000000e+00,4.865079879760742188e+00,4.673881053924560547e+00,4.497143268585205078e+00,4.333282947540283203e+00,4.180944442749023438e+00,4.038952827453613281e+00,3.906289339065551758e+00,3.782063484191894531e+00,3.665495395660400391e+00,3.555897712707519531e+00,3.452663660049438477e+00,3.355254888534545898e+00,3.263191461563110352e+00,3.176045179367065430e+00,3.093432903289794922e+00,3.015008926391601562e+00,2.940463066101074219e+00,2.869514703750610352e+00,2.801909208297729492e+00,2.737416028976440430e+00,2.675825119018554688e+00,2.616944551467895508e+00,2.560599565505981445e+00,2.506629943847656250e+00,2.454888105392456055e+00,2.405239343643188477e+00,2.357558965682983398e+00,2.311732292175292969e+00,2.267652988433837891e+00,2.225223541259765625e+00,2.184352397918701172e+00,2.144955873489379883e+00,2.106955051422119141e+00,2.070277214050292969e+00,2.034854650497436523e+00,2.000623703002929688e+00,1.967525601387023926e+00,1.935504674911499023e+00,1.904509425163269043e+00,1.874490976333618164e+00,1.845404386520385742e+00
5.000000000000000000e+00,5.000000000000000000e+00,5.000000000000000000e+00,5.000000000000000000e+00,5.000000000000000000e+00,5.000000000000000000e+00,5.000000000000000000e+00,5.000000000000000000e+00,5.000000000000000000e+00,5.000000000000000000e+00,5.000000000000000000e+00,5.000000000000000000e+00,5.000000000000000000e+00,5.000000000000000000e+00,5.000000000000000000e+00,5.000000000000000000e+00,5.000000000000000000e+00,5.000000000000000000e+00,5.000000000000000000e+00,5.000000000000000000e+00,5.000000000000000000e+00,5.000000000000000000e+00,5.000000000000000000e+00,5.000000000000000000e+00,5.000000000000000000e+00,5.000000000000000000e+00,5.000000000000000000e+00,5.000000000000000000e+00,5.000000000000000000e+00,5.000000000000000000e+00,5.000000000000000000e+00,5.000000000000000000e+00,5.000000000000000000e+00,2.273252725601196289e+00,2.247966289520263672e+00,2.267431735992431641e+00,5.000000000000000000e+00,5.000000000000000000e+00,5.000000000000000000e+00,4.865218639373779297e+00,4.674008846282958984e+00,4.497260570526123047e+00,4.333393573760986328e+00,4.181046962738037109e+00,4.039048671722412109e+00,3.906378984451293945e+00,3.782147407531738281e+00,3.665574312210083008e+00,3.555971860885620117e+00,3.452733516693115234e+00,3.355320930480957031e+00,3.263253927230834961e+00,3.176104545593261719e+00,3.093488931655883789e+00,3.015062332153320312e+00,2.940514087677001953e+00,2.869563102722167969e+00,2.801955223083496094e+00,2.737460136413574219e+00,2.675867080688476562e+00,2.616984844207763672e+00,2.560638189315795898e+00,2.506666898727416992e+00,2.454923391342163086e+00,2.405273437500000000e+00,2.357591629028320312e+00,2.311763525009155273e+00,2.267683267593383789e+00,2.225252628326416016e+00,2.184380531311035156e+00,2.144982814788818359e+00,2.106981039047241211e+00,2.070302248001098633e+00,2.034878969192504883e+00,2.000647306442260742e+00,1.967548370361328125e+00,1.935526847839355469e+00,1.904530644416809082e+00,1.874511718750000000e+00,1.845424532890319824e+00
5.000000000000000000e+00,5.000000000000000000e+00,5.000000000000000000e+00,5.000000000000000000e+00,5.000000000000000000e+00,5.000000000000000000e+00,5.000000000000000000e+00,5.000000000000000000e+00,5.000000000000000000e+00,5.000000000000000000e+00,5.000000000000000000e+00,5.000000000000000000e+00,5.000000000000000000e+00,5.000000000000000000e+00,5.000000000000000000e+00,5.000000000000000000e+00,5.000000000000000000e+00,5.000000000000000000e+00,5.000000000000000000e+00,5.000000000000000000e+00,5.000000000000000000e+00,5.000000000000000000e+00,5.000000000000000000e+00,5.000000000000000000e+00,5.000000000000000000e+00,5.000000000000000000e+00,5.000000000000000000e+00,5.000000000000000000e+00,5.000000000000000000e+00,5.000000000000000000e+00,5.000000000000000000e+00,5.000000000000000000e+00,2.741423130035400391e+00,2.283521890640258789e+00,2.256207942962646484e+00,2.269993066787719727e+00,5.000000000000000000e+00,5.000000000000000000e+00,5.000000000000000000e+00,4.865357398986816406e+00,4.674137115478515625e+00,4.497379302978515625e+00,4.333502769470214844e+00,4.181149959564208984e+00,4.039144515991210938e+00,3.906468629837036133e+00,3.782231807708740234e+00,3.665652990341186523e+00,3.556046247482299805e+00,3.452804088592529297e+00,3.355387210845947266e+00,3.263316631317138672e+00,3.176163911819458008e+00,3.093545198440551758e+00,3.015115499496459961e+00,2.940564870834350586e+00,2.869611501693725586e+00,2.802001476287841797e+00,2.737504243850708008e+00,2.675909280776977539e+00,2.617025136947631836e+00,2.560676813125610352e+00,2.506703615188598633e+00,2.454958915710449219e+00,2.405307292938232422e+00,2.357624292373657227e+00,2.311794996261596680e+00,2.267713546752929688e+00,2.225281715393066406e+00,2.184408426284790039e+00,2.145009756088256836e+00,2.107007026672363281e+00,2.070327520370483398e+00,2.034903287887573242e+00,2.000670909881591797e+00,1.967571258544921875e+00,1.935548663139343262e+00,1.904552102088928223e+00,1.874532461166381836e+00,1.845444440841674805e+00
5.000000000000000000e+00,5.000000000000000000e+00,5.000000000000000000e+00,5.000000000000000000e+00,5.000000000000000000e+00,5.000000000000000000e+00,5.000000000000000000e+00,5.000000000000000000e+00,5.000000000000000000e+00,5.000000000000000000e+00,5.000000000000000000e+00,5.000000000000000000e+00,5.000000000000000000e+00,5.000000000000000000e+00,5.000000000000000000e+00,5.000000000000000000e+00,5.000000000000000000e+00,5.000000000000000000e+00,5.000000000000000000e+00,5.000000000000000000e+00,5.000000000000000000e+00,5.000000000000000000e+00,5.000000000000000000e+00,5.000000000000000000e+00,5.000000000000000000e+00,5.000000000000000000e+00,5.000000000000000000e+00,5.000000000000000000e+00,5.000000000000000000e+00,5.000000000000000000e+00,5.000000000000000000e+00,5.000000000000000000e+00,5.000000000000000000e+00,2.294601678848266602e+00,2.266671657562255859e+00,2.272656917572021484e+00,5.000000000000000000e+00,5.000000000000000000e+00,5.000000000000000000e+00,4.865496635437011719e+00,4.674265384674072266e+00,4.497498035430908203e+00,4.333612918853759766e+00,4.181251525878906250e+00,4.039240360260009766e+00,3.906558036804199219e+00,3.782315731048583984e+00,3.665731906890869141e+00,3.556120395660400391e+00,3.452873945236206055e+00,3.355453252792358398e+00,3.263379096984863281e+00,3.176223278045654297e+00,3.093601465225219727e+00,3.015169143676757812e+00,2.940615653991699219e+00,2.869659662246704102e+00,2.802047729492187500e+00,2.737548112869262695e+00,2.675951242446899414e+00,2.617065429687500000e+00,2.560715198516845703e+00,2.506740570068359375e+00,2.454994440078735352e+00,2.405341386795043945e+00,2.357656955718994141e+00,2.311826467514038086e+00,2.267743825912475586e+00,2.225310802459716797e+00,2.184436798095703125e+00,2.145036935806274414e+00,2.107033252716064453e+00,2.070352792739868164e+00,2.034927606582641602e+00,2.000694274902343750e+00,1.967593908309936523e+00,1.935570836067199707e+00,1.904573202133178711e+00,1.874552965164184570e+00,1.845464468002319336e+00
4.875762939453125000e+00,4.874552249908447266e+00,4.873341560363769531e+00,4.872131824493408203e+00,4.870922565460205078e+00,4.869714260101318359e+00,4.868506431579589844e+00,4.867298603057861328e+00,4.866092205047607422e+00,4.864885807037353516e+00,4.863680362701416016e+00,4.862475395202636719e+00,4.861270904541015625e+00,4.860067367553710938e+00,4.858863830566406250e+00,4.857661247253417969e+00,4.856459617614746094e+00,4.855257987976074219e+00,4.854057312011718750e+00,4.852857112884521484e+00,4.851657390594482422e+00,4.850458145141601562e+00,4.849259853363037109e+00,4.848062515258789062e+00,4.846864700317382812e+00,4.845668315887451172e+00,4.844472408294677734e+00,4.843276500701904297e+00,4.842081546783447266e+00,4.840887546539306641e+00,4.839693546295166016e+00,4.838500499725341797e+00,2.674555540084838867e+00,2.328544616699218750e+00,2.277786970138549805e+00,2.275427103042602539e+00,4.832543849945068359e+00,4.831354141235351562e+00,4.830164909362792969e+00,4.828976631164550781e+00,4.674393653869628906e+00,4.497616291046142578e+00,4.333723068237304688e+00,4.181354045867919922e+00,4.039336204528808594e+00,3.906648159027099609e+00,3.782399654388427734e+00,3.665810823440551758e+00,3.556195020675659180e+00,3.452944040298461914e+00,3.355519294738769531e+00,3.263441801071166992e+00,3.176282405853271484e+00,3.093657493591308594e+00,3.015222549438476562e+00,2.940666437149047852e+00,2.869708061218261719e+00,2.802093744277954102e+00,2.737592220306396484e+00,2.675993204116821289e+00,2.617105722427368164e+00,2.560753822326660156e+00,2.506777524948120117e+00,2.455029726028442383e+00,2.405375242233276367e+00,2.357689619064331055e+00,2.311857938766479492e+00,2.267773866653442383e+00,2.225339651107788086e+00,2.184464693069458008e+00,2.145063877105712891e+00,2.107059478759765625e+00,2.070377826690673828e+00,2.034951925277709961e+00,2.000717878341674805e+00,1.967616677284240723e+00,1.935592651367187500e+00,1.904594659805297852e+00,1.874573707580566406e+00,1.845484375953674316e+00
3.778574466705322266e+00,3.777847290039062500e+00,3.777120113372802734e+00,3.776393175125122070e+00,3.775666952133178711e+00,3.774940490722656250e+00,3.774214982986450195e+00,3.773489236831665039e+00,3.772763729095458984e+00,3.772038698196411133e+00,3.771313905715942383e+00,3.770589113235473633e+00,3.769865274429321289e+00,3.769140958786010742e+00,3.768417119979858398e+00,3.767693996429443359e+00,3.766970872879028320e+00,3.766247749328613281e+00,3.765525579452514648e+00,3.764802932739257812e+00,3.764080762863159180e+00,3.763359308242797852e+00,3.762637615203857422e+00,3.761916875839233398e+00,3.761195659637451172e+00,3.760474920272827148e+00,3.759754896163940430e+00,3.759034633636474609e+00,3.758314609527587891e+00,3.757595300674438477e+00,3.756875991821289062e+00,3.756156682968139648e+00,2.658061504364013672e+00,2.694140434265136719e+00,2.299267530441284180e+00,2.300470829010009766e+00,3.752565860748291016e+00,3.751848459243774414e+00,3.751131534576416016e+00,3.750414609909057617e+00,3.749698400497436523e+00,3.748981952667236328e+00,3.748265981674194336e+00,3.747550487518310547e+00,3.746834993362426758e+00,3.746119499206542969e+00,3.745404958724975586e+00,3.665889739990234375e+00,3.556269407272338867e+00,3.453013896942138672e+00,3.355585575103759766e+00,3.263504505157470703e+00,3.176341772079467773e+00,3.093713760375976562e+00,3.015275955200195312e+00,2.940717220306396484e+00,2.869756698608398438e+00,2.802139997482299805e+00,2.737636089324951172e+00,2.676035642623901367e+00,2.617145776748657227e+00,2.560792207717895508e+00,2.506814479827880859e+00,2.455065250396728516e+00,2.405409336090087891e+00,2.357722282409667969e+00,2.311889171600341797e+00,2.267804145812988281e+00,2.225368976593017578e+00,2.184492826461791992e+00,2.145090818405151367e+00,2.107085466384887695e+00,2.070403099060058594e+00,2.034976243972778320e+00,2.000741481781005859e+00,1.967639327049255371e+00,1.935614824295043945e+00,1.904616117477416992e+00,1.874594330787658691e+00,1.845504522323608398e+00
3.084477424621582031e+00,3.083992719650268555e+00,3.083508253097534180e+00,3.083023786544799805e+00,3.082539558410644531e+00,3.082055568695068359e+00,3.081571578979492188e+00,3.081087827682495117e+00,3.080604314804077148e+00,3.080120801925659180e+00,3.079637289047241211e+00,3.079154491424560547e+00,3.078671216964721680e+00,3.078188657760620117e+00,3.077705860137939453e+00,3.077223300933837891e+00,3.076740980148315430e+00,3.076258659362792969e+00,3.075776338577270508e+00,3.075294733047485352e+00,3.074812650680541992e+00,3.074331045150756836e+00,3.073849678039550781e+00,3.073368310928344727e+00,3.072886943817138672e+00,3.072406053543090820e+00,3.071925163269042969e+00,3.071444272994995117e+00,3.070963859558105469e+00,3.070483207702636719e+00,3.070002794265747070e+00,3.069522857666015625e+00,2.650111436843872070e+00,3.068563222885131836e+00,2.297825336456298828e+00,2.272380590438842773e+00,3.067124605178833008e+00,3.066645145416259766e+00,3.066166162490844727e+00,3.065687417984008789e+00,3.065208435058593750e+00,3.064729690551757812e+00,3.064251422882080078e+00,3.063772916793823242e+00,3.063294649124145508e+00,3.062816858291625977e+00,3.062338829040527344e+00,3.061861038208007812e+00,3.061383724212646484e+00,3.060906171798706055e+00,3.060428857803344727e+00,3.059951782226562500e+00,3.059474706649780273e+00,3.058997869491577148e+00,3.015329360961914062e+00,2.940768003463745117e+00,2.869805097579956055e+00,2.802186012268066406e+00,2.737680196762084961e+00,2.676077604293823242e+00,2.617186069488525391e+00,2.560830831527709961e+00,2.506851434707641602e+00,2.455100536346435547e+00,2.405443191528320312e+00,2.357754945755004883e+00,2.311920642852783203e+00,2.267834424972534180e+00,2.225398063659667969e+00,2.184520721435546875e+00,2.145117998123168945e+00,2.107111454010009766e+00,2.070428371429443359e+00,2.035000801086425781e+00,2.000764846801757812e+00,1.967662215232849121e+00,1.935636878013610840e+00,1.904637217521667480e+00,1.874614953994750977e+00,1.845524549484252930e+00
2.605808734893798828e+00,2.605463027954101562e+00,2.605117082595825195e+00,2.604771375656127930e+00,2.604425668716430664e+00,2.604080200195312500e+00,2.603734731674194336e+00,2.603389263153076172e+00,2.603044033050537109e+00,2.602699041366577148e+00,2.602353811264038086e+00,2.602008581161499023e+00,2.601663827896118164e+00,2.601319074630737305e+00,2.600974082946777344e+00,2.600629568099975586e+00,2.600285053253173828e+00,2.599940538406372070e+00,2.599596261978149414e+00,2.599251985549926758e+00,2.598907709121704102e+00,2.598563671112060547e+00,2.598219633102416992e+00,2.597875833511352539e+00,2.597532033920288086e+00,2.597188234329223633e+00,2.596844673156738281e+00,2.596500873565673828e+00,2.596157550811767578e+00,2.595814228057861328e+00,2.595470905303955078e+00,2.595127582550048828e+00,2.594784736633300781e+00,2.594441652297973633e+00,2.279437303543090820e+00,2.241384267807006836e+00,2.235059022903442383e+00,2.593070268630981445e+00,2.592727899551391602e+00,2.592385292053222656e+00,2.592043161392211914e+00,2.591700792312622070e+00,2.591358661651611328e+00,2.591016530990600586e+00,2.590674400329589844e+00,2.590332508087158203e+00,2.589990854263305664e+00,2.589648962020874023e+00,2.589307308197021484e+00,2.588965892791748047e+00,2.588624238967895508e+00,2.588282823562622070e+00,2.587941646575927734e+00,2.587600469589233398e+00,2.587259292602539062e+00,2.586918354034423828e+00,2.586577415466308594e+00,2.586236715316772461e+00,2.585895776748657227e+00,2.585555076599121094e+00,2.585214614868164062e+00,2.560869455337524414e+00,2.506888389587402344e+00,2.455136060714721680e+00,2.405477285385131836e+00,2.357787609100341797e+00,2.311952114105224609e+00,2.267864704132080078e+00,2.225427150726318359e+00,2.184548854827880859e+00,2.145145177841186523e+00,2.107137680053710938e+00,2.070453405380249023e+00,2.035025119781494141e+00,2.000788450241088867e+00,1.967684745788574219e+00,1.935658812522888184e+00,1.904658675193786621e+00,1.874635577201843262e+00,1.845544457435607910e+00
2.255748510360717773e+00,2.255489349365234375e+00,2.255230188369750977e+00,2.254971027374267578e+00,2.254711866378784180e+00,2.254452943801879883e+00,2.254194021224975586e+00,2.253935098648071289e+00,2.253676176071166992e+00,2.253417253494262695e+00,2.253158807754516602e+00,2.252900123596191406e+00,2.252641439437866211e+00,2.252382993698120117e+00,2.252124309539794922e+00,2.251865863800048828e+00,2.251607656478881836e+00,2.251349449157714844e+00,2.251091003417968750e+00,2.250832796096801758e+00,2.250574827194213867e+00,2.250316858291625977e+00,2.250058650970458984e+00,2.249800682067871094e+00,2.249542713165283203e+00,2.249284982681274414e+00,2.249027252197265625e+00,2.248769521713256836e+00,2.248511791229248047e+00,2.248254299163818359e+00,2.247996807098388672e+00,2.247739315032958984e+00,2.247481822967529297e+00,2.247224569320678711e+00,2.246967315673828125e+00,2.208857774734497070e+00,2.191145658493041992e+00,2.195730447769165039e+00,2.245938777923583984e+00,2.245682001113891602e+00,2.245424985885620117e+00,2.245167970657348633e+00,2.244911193847656250e+00,2.244654417037963867e+00,2.244397640228271484e+00,2.244141101837158203e+00,2.243884563446044922e+00,2.243628025054931641e+00,2.243371725082397461e+00,2.243115186691284180e+00,2.242858886718750000e+00,2.242602586746215820e+00,2.242346286773681641e+00,2.242090225219726562e+00,2.241834163665771484e+00,2.241578102111816406e+00,2.241322040557861328e+00,2.241066217422485352e+00,2.240810155868530273e+00,2.240554571151733398e+00,2.240298748016357422e+00,2.240042924880981445e+00,2.239787340164184570e+00,2.239531755447387695e+00,2.239276170730590820e+00,2.239020824432373047e+00,2.238765478134155273e+00,2.238510131835937500e+00,2.225456237792968750e+00,2.184576749801635742e+00,2.145172119140625000e+00,2.107163667678833008e+00,2.070478677749633789e+00,2.035049438476562500e+00,2.000812053680419922e+00,1.967707633972167969e+00,1.935680866241455078e+00,1.904679894447326660e+00,1.874656319618225098e+00,1.845564603805541992e+00
1.988603711128234863e+00,1.988402247428894043e+00,1.988200783729553223e+00,1.987999558448791504e+00,1.987798213958740234e+00,1.987596869468688965e+00,1.987395524978637695e+00,1.987194299697875977e+00,1.986993074417114258e+00,1.986791849136352539e+00,1.986590743064880371e+00,1.986389636993408203e+00,1.986188650131225586e+00,1.985987544059753418e+00,1.985786795616149902e+00,1.985585927963256836e+00,1.985385060310363770e+00,1.985184192657470703e+00,1.984983325004577637e+00,1.984782576560974121e+00,1.984581828117370605e+00,1.984381079673767090e+00,1.984180450439453125e+00,1.983979821205139160e+00,1.983779311180114746e+00,1.983578920364379883e+00,1.983378529548645020e+00,1.983178019523620605e+00,1.982977628707885742e+00,1.982777237892150879e+00,1.982576966285705566e+00,1.982376694679260254e+00,1.982176423072814941e+00,1.981976151466369629e+00,1.981775999069213867e+00,1.981575846672058105e+00,1.981375813484191895e+00,1.981176018714904785e+00,1.980975985527038574e+00,1.980775952339172363e+00,1.980576038360595703e+00,1.980376243591308594e+00,1.980176329612731934e+00,1.979976534843444824e+00,1.979776740074157715e+00,1.979577064514160156e+00,1.979377388954162598e+00,1.979177713394165039e+00,1.978978276252746582e+00,1.978778719902038574e+00,1.978579282760620117e+00,1.978379726409912109e+00,1.978180289268493652e+00,1.977980852127075195e+00,1.977781534194946289e+00,1.977582216262817383e+00,1.977382898330688477e+00,1.977183699607849121e+00,1.976984500885009766e+00,1.976785540580749512e+00,1.976586341857910156e+00,1.976387262344360352e+00,1.976188302040100098e+00,1.975989222526550293e+00,1.975790262222290039e+00,1.975591421127319336e+00,1.975392460823059082e+00,1.975193619728088379e+00,1.974994778633117676e+00,1.974796056747436523e+00,1.974597573280334473e+00,1.974398851394653320e+00,1.974200248718261719e+00,1.974001646041870117e+00,1.973803043365478516e+00,1.967730522155761719e+00,1.935702800750732422e+00,1.904701232910156250e+00,1.874677062034606934e+00,1.845584511756896973e+00
1.778033971786499023e+00,1.777872920036315918e+00,1.777711987495422363e+00,1.777550935745239258e+00,1.777390003204345703e+00,1.777228951454162598e+00,1.777068018913269043e+00,1.776907205581665039e+00,1.776746273040771484e+00,1.776585340499877930e+00,1.776424527168273926e+00,1.776263713836669922e+00,1.776103019714355469e+00,1.775942444801330566e+00,1.775781750679016113e+00,1.775621056556701660e+00,1.775460362434387207e+00,1.775299668312072754e+00,1.775139093399047852e+00,1.774978518486022949e+00,1.774818062782287598e+00,1.774657487869262695e+00,1.774497032165527344e+00,1.774336576461791992e+00,1.774176359176635742e+00,1.774015903472900391e+00,1.773855566978454590e+00,1.773695230484008789e+00,1.773534893989562988e+00,1.773374557495117188e+00,1.773214340209960938e+00,1.773054122924804688e+00,1.772893905639648438e+00,1.772733807563781738e+00,1.772573590278625488e+00,1.772413730621337891e+00,1.772253632545471191e+00,1.772093534469604492e+00,1.771933555603027344e+00,1.771773576736450195e+00,1.771613597869873047e+00,1.771453619003295898e+00,1.771293759346008301e+00,1.771133899688720703e+00,1.770974040031433105e+00,1.770814180374145508e+00,1.770654559135437012e+00,1.770494818687438965e+00,1.770335078239440918e+00,1.770175337791442871e+00,1.770015716552734375e+00,1.769856095314025879e+00,1.769696354866027832e+00,1.769536852836608887e+00,1.769377231597900391e+00,1.769217729568481445e+00,1.769058227539062500e+00,1.768898963928222656e+00,1.768739461898803711e+00,1.768580079078674316e+00,1.768420696258544922e+00,1.768261313438415527e+00,1.768101930618286133e+00,1.767942667007446289e+00,1.767783403396606445e+00,1.767624139785766602e+00,1.767464995384216309e+00,1.767305731773376465e+00,1.767146825790405273e+00,1.766987681388854980e+00,1.766828536987304688e+00,1.766669511795043945e+00,1.766510486602783203e+00,1.766351461410522461e+00,1.766192436218261719e+00,1.766033530235290527e+00,1.765874505043029785e+00,1.765715599060058594e+00,1.765556812286376953e+00,1.765398144721984863e+00
1.607788085937500000e+00,1.607656598091125488e+00,1.607524871826171875e+00,1.607393145561218262e+00,1.607261538505554199e+00,1.607129931449890137e+00,1.606998324394226074e+00,1.606866717338562012e+00,1.606735110282897949e+00,1.606603503227233887e+00,1.606472015380859375e+00,1.606340527534484863e+00,1.606209158897399902e+00,1.606077671051025391e+00,1.605946302413940430e+00,1.605814814567565918e+00,1.605683445930480957e+00,1.605552077293395996e+00,1.605420708656311035e+00,1.605289340019226074e+00,1.605158090591430664e+00,1.605026721954345703e+00,1.604895472526550293e+00,1.604764342308044434e+00,1.604633092880249023e+00,1.604501962661743164e+00,1.604370713233947754e+00,1.604239583015441895e+00,1.604108452796936035e+00,1.603977322578430176e+00,1.603846192359924316e+00,1.603715181350708008e+00,1.603584051132202148e+00,1.603453040122985840e+00,1.603322148323059082e+00,1.603191137313842773e+00,1.603060245513916016e+00,1.602929234504699707e+00,1.602798342704772949e+00,1.602667450904846191e+00,1.602536559104919434e+00,1.602405667304992676e+00,1.602274775505065918e+00,1.602144002914428711e+00,1.602013230323791504e+00,1.601882576942443848e+00,1.601751804351806641e+00,1.601621031761169434e+00,1.601490378379821777e+00,1.601359724998474121e+00,1.601228952407836914e+00,1.601098299026489258e+00,1.600967764854431152e+00,1.600837111473083496e+00,1.600706577301025391e+00,1.600575923919677734e+00,1.600445628166198730e+00,1.600315093994140625e+00,1.600184559822082520e+00,1.600054025650024414e+00,1.599923610687255859e+00,1.599793076515197754e+00,1.599662661552429199e+00,1.599532365798950195e+00,1.599401950836181641e+00,1.599271535873413086e+00,1.599141240119934082e+00,1.599011063575744629e+00,1.598880767822265625e+00,1.598750591278076172e+00,1.598620295524597168e+00,1.598490118980407715e+00,1.598359823226928711e+00,1.598229646682739258e+00,1.598099470138549805e+00,1.597969412803649902e+00,1.597839236259460449e+00,1.597709178924560547e+00,1.597579240798950195e+00,1.597449183464050293e+00
1.467295527458190918e+00,1.467185735702514648e+00,1.467076063156127930e+00,1.466966390609741211e+00,1.466856718063354492e+00,1.466747045516967773e+00,1.466637492179870605e+00,1.466527819633483887e+00,1.466418266296386719e+00,1.466308712959289551e+00,1.466199159622192383e+00,1.466089725494384766e+00,1.465980172157287598e+00,1.465870618820190430e+00,1.465761065483093262e+00,1.465651631355285645e+00,1.465542197227478027e+00,1.465432763099670410e+00,1.465323328971862793e+00,1.465213894844055176e+00,1.465104460716247559e+00,1.464995265007019043e+00,1.464885830879211426e+00,1.464776515960693359e+00,1.464667201042175293e+00,1.464557886123657227e+00,1.464448571205139160e+00,1.464339256286621094e+00,1.464229941368103027e+00,1.464120745658874512e+00,1.464011430740356445e+00,1.463902235031127930e+00,1.463793158531188965e+00,1.463683962821960449e+00,1.463574886322021484e+00,1.463465690612792969e+00,1.463356494903564453e+00,1.463247418403625488e+00,1.463138341903686523e+00,1.463029265403747559e+00,1.462920188903808594e+00,1.462811112403869629e+00,1.462702035903930664e+00,1.462593197822570801e+00,1.462484121322631836e+00,1.462375164031982422e+00,1.462266206741333008e+00,1.462157249450683594e+00,1.462048292160034180e+00,1.461939334869384766e+00,1.461830496788024902e+00,1.461721539497375488e+00,1.461612701416015625e+00,1.461503863334655762e+00,1.461395144462585449e+00,1.461286306381225586e+00,1.461177468299865723e+00,1.461068630218505859e+00,1.460959911346435547e+00,1.460851073265075684e+00,1.460742354393005371e+00,1.460633635520935059e+00,1.460524916648864746e+00,1.460416197776794434e+00,1.460307478904724121e+00,1.460198998451232910e+00,1.460090398788452148e+00,1.459981679916381836e+00,1.459873080253601074e+00,1.459764480590820312e+00,1.459655880928039551e+00,1.459547281265258789e+00,1.459438800811767578e+00,1.459330201148986816e+00,1.459221720695495605e+00,1.459113240242004395e+00,1.459004759788513184e+00,1.458896398544311523e+00,1.458787918090820312e+00,1.458679437637329102e+00
1.349382758140563965e+00,1.349290013313293457e+00,1.349197149276733398e+00,1.349104404449462891e+00,1.349011659622192383e+00,1.348918914794921875e+00,1.348826169967651367e+00,1.348733544349670410e+00,1.348640799522399902e+00,1.348548293113708496e+00,1.348455548286437988e+00,1.348362922668457031e+00,1.348270297050476074e+00,1.348177671432495117e+00,1.348085045814514160e+00,1.347992420196533203e+00,1.347899794578552246e+00,1.347807288169860840e+00,1.347714662551879883e+00,1.347622156143188477e+00,1.347529649734497070e+00,1.347437143325805664e+00,1.347344636917114258e+00,1.347252130508422852e+00,1.347159624099731445e+00,1.347067117691040039e+00,1.346974730491638184e+00,1.346882224082946777e+00,1.346789836883544922e+00,1.346697330474853516e+00,1.346604943275451660e+00,1.346512675285339355e+00,1.346420288085937500e+00,1.346327900886535645e+00,1.346235513687133789e+00,1.346143126487731934e+00,1.346050858497619629e+00,1.345958471298217773e+00,1.345866203308105469e+00,1.345773935317993164e+00,1.345681548118591309e+00,1.345589280128479004e+00,1.345497131347656250e+00,1.345404863357543945e+00,1.345312714576721191e+00,1.345220446586608887e+00,1.345128178596496582e+00,1.345036029815673828e+00,1.344943761825561523e+00,1.344851613044738770e+00,1.344759464263916016e+00,1.344667315483093262e+00,1.344575166702270508e+00,1.344483137130737305e+00,1.344390988349914551e+00,1.344298958778381348e+00,1.344206809997558594e+00,1.344114780426025391e+00,1.344022750854492188e+00,1.343930602073669434e+00,1.343838572502136230e+00,1.343746542930603027e+00,1.343654632568359375e+00,1.343562602996826172e+00,1.343470692634582520e+00,1.343378663063049316e+00,1.343286752700805664e+00,1.343194842338562012e+00,1.343102812767028809e+00,1.343010902404785156e+00,1.342918992042541504e+00,1.342827081680297852e+00,1.342735171318054199e+00,1.342643380165100098e+00,1.342551469802856445e+00,1.342459797859191895e+00,1.342367887496948242e+00,1.342276096343994141e+00,1.342184305191040039e+00,1.342092514038085938e+00
1.249011516571044922e+00,1.248932003974914551e+00,1.248852491378784180e+00,1.248773097991943359e+00,1.248693585395812988e+00,1.248614192008972168e+00,1.248534679412841797e+00,1.248455286026000977e+00,1.248375892639160156e+00,1.248296499252319336e+00,1.248217105865478516e+00,1.248137712478637695e+00,1.248058319091796875e+00,1.247978925704956055e+00,1.247899532318115234e+00,1.247820258140563965e+00,1.247740864753723145e+00,1.247661590576171875e+00,1.247582197189331055e+00,1.247503042221069336e+00,1.247423648834228516e+00,1.247344374656677246e+00,1.247265100479125977e+00,1.247185826301574707e+00,1.247106552124023438e+00,1.247027277946472168e+00,1.246948003768920898e+00,1.246868848800659180e+00,1.246789574623107910e+00,1.246710419654846191e+00,1.246631264686584473e+00,1.246552109718322754e+00,1.246472835540771484e+00,1.246393680572509766e+00,1.246314525604248047e+00,1.246235370635986328e+00,1.246156215667724609e+00,1.246077060699462891e+00,1.245998024940490723e+00,1.245918869972229004e+00,1.245839715003967285e+00,1.245760798454284668e+00,1.245681643486022949e+00,1.245602607727050781e+00,1.245523571968078613e+00,1.245444536209106445e+00,1.245365500450134277e+00,1.245286464691162109e+00,1.245207428932189941e+00,1.245128393173217773e+00,1.245049357414245605e+00,1.244970440864562988e+00,1.244891524314880371e+00,1.244812488555908203e+00,1.244733572006225586e+00,1.244654655456542969e+00,1.244575619697570801e+00,1.244496703147888184e+00,1.244417786598205566e+00,1.244338870048522949e+00,1.244259953498840332e+00,1.244181036949157715e+00,1.244102239608764648e+00,1.244023442268371582e+00,1.243944525718688965e+00,1.243865728378295898e+00,1.243786931037902832e+00,1.243708014488220215e+00,1.243629217147827148e+00,1.243550419807434082e+00,1.243471622467041016e+00,1.243392825126647949e+00,1.243314027786254883e+00,1.243235230445861816e+00,1.243156552314758301e+00,1.243077874183654785e+00,1.242999076843261719e+00,1.242920398712158203e+00,1.242841601371765137e+00,1.242762923240661621e+00
1.162538290023803711e+00,1.162469506263732910e+00,1.162400603294372559e+00,1.162331700325012207e+00,1.162262916564941406e+00,1.162194132804870605e+00,1.162125349044799805e+00,1.162056565284729004e+00,1.161987662315368652e+00,1.161918878555297852e+00,1.161850094795227051e+00,1.161781311035156250e+00,1.161712527275085449e+00,1.161643743515014648e+00,1.161574959754943848e+00,1.161506175994873047e+00,1.161437511444091797e+00,1.161368846893310547e+00,1.161300063133239746e+00,1.161231398582458496e+00,1.161162614822387695e+00,1.161093950271606445e+00,1.161025285720825195e+00,1.160956501960754395e+00,1.160887837409973145e+00,1.160819172859191895e+00,1.160750508308410645e+00,1.160681843757629395e+00,1.160613298416137695e+00,1.160544633865356445e+00,1.160475969314575195e+00,1.160407423973083496e+00,1.160338759422302246e+00,1.160270094871520996e+00,1.160201549530029297e+00,1.160132884979248047e+00,1.160064339637756348e+00,1.159995794296264648e+00,1.159927248954772949e+00,1.159858703613281250e+00,1.159790158271789551e+00,1.159721612930297852e+00,1.159653067588806152e+00,1.159584522247314453e+00,1.159515976905822754e+00,1.159447550773620605e+00,1.159379005432128906e+00,1.159310460090637207e+00,1.159242033958435059e+00,1.159173488616943359e+00,1.159105181694030762e+00,1.159036636352539062e+00,1.158968210220336914e+00,1.158899784088134766e+00,1.158831357955932617e+00,1.158762931823730469e+00,1.158694505691528320e+00,1.158626079559326172e+00,1.158557653427124023e+00,1.158489227294921875e+00,1.158420801162719727e+00,1.158352613449096680e+00,1.158284187316894531e+00,1.158215880393981934e+00,1.158147454261779785e+00,1.158079147338867188e+00,1.158010721206665039e+00,1.157942414283752441e+00,1.157874107360839844e+00,1.157805800437927246e+00,1.157737493515014648e+00,1.157669186592102051e+00,1.157600998878479004e+00,1.157532691955566406e+00,1.157464385032653809e+00,1.157396078109741211e+00,1.157327890396118164e+00,1.157259583473205566e+00,1.157191395759582520e+00,1.157123088836669922e+00
1.087263464927673340e+00,1.087203264236450195e+00,1.087143063545227051e+00,1.087082743644714355e+00,1.087022542953491211e+00,1.086962461471557617e+00,1.086902260780334473e+00,1.086842060089111328e+00,1.086781859397888184e+00,1.086721658706665039e+00,1.086661458015441895e+00,1.086601257324218750e+00,1.086541056632995605e+00,1.086480975151062012e+00,1.086420774459838867e+00,1.086360692977905273e+00,1.086300611495971680e+00,1.086240410804748535e+00,1.086180329322814941e+00,1.086120247840881348e+00,1.086060047149658203e+00,1.085999965667724609e+00,1.085939884185791016e+00,1.085879802703857422e+00,1.085819721221923828e+00,1.085759639739990234e+00,1.085699558258056641e+00,1.085639595985412598e+00,1.085579514503479004e+00,1.085519433021545410e+00,1.085459351539611816e+00,1.085399389266967773e+00,1.085339307785034180e+00,1.085279345512390137e+00,1.085219264030456543e+00,1.085159301757812500e+00,1.085099220275878906e+00,1.085039258003234863e+00,1.084979295730590820e+00,1.084919333457946777e+00,1.084859371185302734e+00,1.084799408912658691e+00,1.084739446640014648e+00,1.084679484367370605e+00,1.084619522094726562e+00,1.084559559822082520e+00,1.084499597549438477e+00,1.084439635276794434e+00,1.084379673004150391e+00,1.084319829940795898e+00,1.084259986877441406e+00,1.084200024604797363e+00,1.084140181541442871e+00,1.084080219268798828e+00,1.084020376205444336e+00,1.083960533142089844e+00,1.083900570869445801e+00,1.083840727806091309e+00,1.083780884742736816e+00,1.083721041679382324e+00,1.083661198616027832e+00,1.083601355552673340e+00,1.083541631698608398e+00,1.083481788635253906e+00,1.083421945571899414e+00,1.083362102508544922e+00,1.083302259445190430e+00,1.083242535591125488e+00,1.083182692527770996e+00,1.083122968673706055e+00,1.083063125610351562e+00,1.083003401756286621e+00,1.082943677902221680e+00,1.082883834838867188e+00,1.082824110984802246e+00,1.082764387130737305e+00,1.082704663276672363e+00,1.082644939422607422e+00,1.082585215568542480e+00,1.082525491714477539e+00
1.021144032478332520e+00,1.021090865135192871e+00,1.021037697792053223e+00,1.020984649658203125e+00,1.020931482315063477e+00,1.020878434181213379e+00,1.020825266838073730e+00,1.020772218704223633e+00,1.020719051361083984e+00,1.020666003227233887e+00,1.020612955093383789e+00,1.020559787750244141e+00,1.020506739616394043e+00,1.020453691482543945e+00,1.020400643348693848e+00,1.020347595214843750e+00,1.020294547080993652e+00,1.020241498947143555e+00,1.020188450813293457e+00,1.020135402679443359e+00,1.020082473754882812e+00,1.020029425621032715e+00,1.019976377487182617e+00,1.019923329353332520e+00,1.019870400428771973e+00,1.019817471504211426e+00,1.019764423370361328e+00,1.019711375236511230e+00,1.019658446311950684e+00,1.019605398178100586e+00,1.019552469253540039e+00,1.019499540328979492e+00,1.019446492195129395e+00,1.019393563270568848e+00,1.019340634346008301e+00,1.019287705421447754e+00,1.019234776496887207e+00,1.019181847572326660e+00,1.019128918647766113e+00,1.019075989723205566e+00,1.019023060798645020e+00,1.018970131874084473e+00,1.018917202949523926e+00,1.018864393234252930e+00,1.018811464309692383e+00,1.018758535385131836e+00,1.018705606460571289e+00,1.018652796745300293e+00,1.018599987030029297e+00,1.018547058105468750e+00,1.018494248390197754e+00,1.018441319465637207e+00,1.018388509750366211e+00,1.018335700035095215e+00,1.018282771110534668e+00,1.018229961395263672e+00,1.018177151679992676e+00,1.018124341964721680e+00,1.018071532249450684e+00,1.018018722534179688e+00,1.017965912818908691e+00,1.017913103103637695e+00,1.017860293388366699e+00,1.017807483673095703e+00,1.017754673957824707e+00,1.017701983451843262e+00,1.017649173736572266e+00,1.017596364021301270e+00,1.017543673515319824e+00,1.017490863800048828e+00,1.017438173294067383e+00,1.017385363578796387e+00,1.017332673072814941e+00,1.017279863357543945e+00,1.017227172851562500e+00,1.017174482345581055e+00,1.017121672630310059e+00,1.017068982124328613e+00,1.017016291618347168e+00,1.016963601112365723e+00
9.626053571701049805e-01,9.625580906867980957e-01,9.625109434127807617e-01,9.624637961387634277e-01,9.624165296554565430e-01,9.623693823814392090e-01,9.623221158981323242e-01,9.622749686241149902e-01,9.622277021408081055e-01,9.621806144714355469e-01,9.621333479881286621e-01,9.620862603187561035e-01,9.620390534400939941e-01,9.619919061660766602e-01,9.619448184967041016e-01,9.618976116180419922e-01,9.618505239486694336e-01,9.618033170700073242e-01,9.617562294006347656e-01,9.617090225219726562e-01,9.616619944572448730e-01,9.616147875785827637e-01,9.615676999092102051e-01,9.615205526351928711e-01,9.614734649658203125e-01,9.614264369010925293e-01,9.613792896270751953e-01,9.613322615623474121e-01,9.612851142883300781e-01,9.612380266189575195e-01,9.611909389495849609e-01,9.611439108848571777e-01,9.610967636108398438e-01,9.610497355461120605e-01,9.610026478767395020e-01,9.609556198120117188e-01,9.609085917472839355e-01,9.608615040779113770e-01,9.608145356178283691e-01,9.607673883438110352e-01,9.607204198837280273e-01,9.606733322143554688e-01,9.606263637542724609e-01,9.605792760848999023e-01,9.605323076248168945e-01,9.604852199554443359e-01,9.604383111000061035e-01,9.603913426399230957e-01,9.603442549705505371e-01,9.602973461151123047e-01,9.602502584457397461e-01,9.602033495903015137e-01,9.601563215255737305e-01,9.601094126701354980e-01,9.600623846054077148e-01,9.600154161453247070e-01,9.599684476852416992e-01,9.599215388298034668e-01,9.598746299743652344e-01,9.598276019096374512e-01,9.597806930541992188e-01,9.597337245941162109e-01,9.596868157386779785e-01,9.596398472785949707e-01,9.595929384231567383e-01,9.595459699630737305e-01,9.594991207122802734e-01,9.594521522521972656e-01,9.594053030014038086e-01,9.593584537506103516e-01,9.593114852905273438e-01,9.592646360397338867e-01,9.592176675796508789e-01,9.591708779335021973e-01,9.591239094734191895e-01,9.590771198272705078e-01,9.590301513671875000e-01,9.589833617210388184e-01,9.589364528656005859e-01,9.588896036148071289e-01
9.104143381118774414e-01,9.103721976280212402e-01,9.103299975395202637e-01,9.102877378463745117e-01,9.102455377578735352e-01,9.102032780647277832e-01,9.101610779762268066e-01,9.101188182830810547e-01,9.100766777992248535e-01,9.100344181060791016e-01,9.099922776222229004e-01,9.099500179290771484e-01,9.099078774452209473e-01,9.098657369613647461e-01,9.098234772682189941e-01,9.097813367843627930e-01,9.097391366958618164e-01,9.096969962120056152e-01,9.096547961235046387e-01,9.096126556396484375e-01,9.095704555511474609e-01,9.095283150672912598e-01,9.094861149787902832e-01,9.094440340995788574e-01,9.094019532203674316e-01,9.093597531318664551e-01,9.093176126480102539e-01,9.092754721641540527e-01,9.092333912849426270e-01,9.091911911964416504e-01,9.091491103172302246e-01,9.091069698333740234e-01,9.090648889541625977e-01,9.090226888656616211e-01,9.089806675910949707e-01,9.089385867118835449e-01,9.088964462280273438e-01,9.088544249534606934e-01,9.088122844696044922e-01,9.087702035903930664e-01,9.087280631065368652e-01,9.086860418319702148e-01,9.086439013481140137e-01,9.086018800735473633e-01,9.085597991943359375e-01,9.085177779197692871e-01,9.084757566452026367e-01,9.084336757659912109e-01,9.083916544914245605e-01,9.083495736122131348e-01,9.083075523376464844e-01,9.082654714584350586e-01,9.082234501838684082e-01,9.081813693046569824e-01,9.081394076347351074e-01,9.080973267555236816e-01,9.080553650856018066e-01,9.080134034156799316e-01,9.079713225364685059e-01,9.079293608665466309e-01,9.078872799873352051e-01,9.078453779220581055e-01,9.078032970428466797e-01,9.077613353729248047e-01,9.077193140983581543e-01,9.076773524284362793e-01,9.076353311538696289e-01,9.075934290885925293e-01,9.075514674186706543e-01,9.075094461441040039e-01,9.074675440788269043e-01,9.074255228042602539e-01,9.073836207389831543e-01,9.073415994644165039e-01,9.072996973991394043e-01,9.072576761245727539e-01,9.072157740592956543e-01,9.071738123893737793e-01,9.071319103240966797e-01,9.070900678634643555e-01
8.635917901992797852e-01,8.635538816452026367e-01,8.635157942771911621e-01,8.634778857231140137e-01,8.634397983551025391e-01,8.634018898010253906e-01,8.633638620376586914e-01,8.633258938789367676e-01,8.632878661155700684e-01,8.632499575614929199e-01,8.632119894027709961e-01,8.631740212440490723e-01,8.631360530853271484e-01,8.630980849266052246e-01,8.630601167678833008e-01,8.630221486091613770e-01,8.629842400550842285e-01,8.629462122917175293e-01,8.629083037376403809e-01,8.628703355789184570e-01,8.628324270248413086e-01,8.627945184707641602e-01,8.627565503120422363e-01,8.627187013626098633e-01,8.626806735992431641e-01,8.626428246498107910e-01,8.626048564910888672e-01,8.625670075416564941e-01,8.625290393829345703e-01,8.624911308288574219e-01,8.624532222747802734e-01,8.624153137207031250e-01,8.623774647712707520e-01,8.623395562171936035e-01,8.623017072677612305e-01,8.622637391090393066e-01,8.622258901596069336e-01,8.621879816055297852e-01,8.621501326560974121e-01,8.621122241020202637e-01,8.620743751525878906e-01,8.620364665985107422e-01,8.619986176490783691e-01,8.619608283042907715e-01,8.619229197502136230e-01,8.618851304054260254e-01,8.618472218513488770e-01,8.618093729019165039e-01,8.617715239524841309e-01,8.617337346076965332e-01,8.616958260536193848e-01,8.616580367088317871e-01,8.616201281547546387e-01,8.615823388099670410e-01,8.615445494651794434e-01,8.615067005157470703e-01,8.614689111709594727e-01,8.614310622215270996e-01,8.613932728767395020e-01,8.613554239273071289e-01,8.613176941871643066e-01,8.612798452377319336e-01,8.612420558929443359e-01,8.612042069435119629e-01,8.611664772033691406e-01,8.611287474632263184e-01,8.610908985137939453e-01,8.610531687736511230e-01,8.610153198242187500e-01,8.609775900840759277e-01,8.609397411346435547e-01,8.609020113945007324e-01,8.608642220497131348e-01,8.608264923095703125e-01,8.607887029647827148e-01,8.607509732246398926e-01,8.607131838798522949e-01,8.606754541397094727e-01,8.606377840042114258e-01,8.605999946594238281e-01
8.213498592376708984e-01,8.213154673576354980e-01,8.212811350822448730e-01,8.212466835975646973e-01,8.212123513221740723e-01,8.211779594421386719e-01,8.211436271667480469e-01,8.211092352867126465e-01,8.210749030113220215e-01,8.210406303405761719e-01,8.210062384605407715e-01,8.209719061851501465e-01,8.209375143051147461e-01,8.209032416343688965e-01,8.208688497543334961e-01,8.208345174789428711e-01,8.208001852035522461e-01,8.207658529281616211e-01,8.207315206527709961e-01,8.206971883773803711e-01,8.206629157066345215e-01,8.206285834312438965e-01,8.205943107604980469e-01,8.205599188804626465e-01,8.205256462097167969e-01,8.204913139343261719e-01,8.204570412635803223e-01,8.204227089881896973e-01,8.203884363174438477e-01,8.203541040420532227e-01,8.203198909759521484e-01,8.202856183052062988e-01,8.202512860298156738e-01,8.202170133590698242e-01,8.201827406883239746e-01,8.201484680175781250e-01,8.201141357421875000e-01,8.200799226760864258e-01,8.200455904006958008e-01,8.200113773345947266e-01,8.199770450592041016e-01,8.199428319931030273e-01,8.199086189270019531e-01,8.198743462562561035e-01,8.198401331901550293e-01,8.198058009147644043e-01,8.197715878486633301e-01,8.197373151779174805e-01,8.197031021118164062e-01,8.196688294410705566e-01,8.196346759796142578e-01,8.196003437042236328e-01,8.195661902427673340e-01,8.195319771766662598e-01,8.194977045059204102e-01,8.194635510444641113e-01,8.194292783737182617e-01,8.193951249122619629e-01,8.193608522415161133e-01,8.193266987800598145e-01,8.192924261093139648e-01,8.192582726478576660e-01,8.192239999771118164e-01,8.191898465156555176e-01,8.191556930541992188e-01,8.191214799880981445e-01,8.190873265266418457e-01,8.190530538558959961e-01,8.190189599990844727e-01,8.189846873283386230e-01,8.189505934715270996e-01,8.189163208007812500e-01,8.188822269439697266e-01,8.188480138778686523e-01,8.188138604164123535e-01,8.187797665596008301e-01,8.187455534934997559e-01,8.187114000320434570e-01,8.186772465705871582e-01,8.186430931091308594e-01
7.830476164817810059e-01,7.830163836479187012e-01,7.829850912094116211e-01,7.829539179801940918e-01,7.829226255416870117e-01,7.828914523124694824e-01,7.828601598739624023e-01,7.828289866447448730e-01,7.827977538108825684e-01,7.827665209770202637e-01,7.827353477478027344e-01,7.827040553092956543e-01,7.826728820800781250e-01,7.826416492462158203e-01,7.826104760169982910e-01,7.825791835784912109e-01,7.825480103492736816e-01,7.825167775154113770e-01,7.824856042861938477e-01,7.824544310569763184e-01,7.824231982231140137e-01,7.823920249938964844e-01,7.823607921600341797e-01,7.823296785354614258e-01,7.822984457015991211e-01,7.822672724723815918e-01,7.822360396385192871e-01,7.822049260139465332e-01,7.821736931800842285e-01,7.821425795555114746e-01,7.821114063262939453e-01,7.820802330970764160e-01,7.820490598678588867e-01,7.820178866386413574e-01,7.819867730140686035e-01,7.819555401802062988e-01,7.819244265556335449e-01,7.818932533264160156e-01,7.818621397018432617e-01,7.818309068679809570e-01,7.817997932434082031e-01,7.817686796188354492e-01,7.817375063896179199e-01,7.817063927650451660e-01,7.816752195358276367e-01,7.816441059112548828e-01,7.816129326820373535e-01,7.815818786621093750e-01,7.815507054328918457e-01,7.815195918083190918e-01,7.814884185791015625e-01,7.814573645591735840e-01,7.814262509346008301e-01,7.813951373100280762e-01,7.813640236854553223e-01,7.813329100608825684e-01,7.813017964363098145e-01,7.812706828117370605e-01,7.812396287918090820e-01,7.812084555625915527e-01,7.811774015426635742e-01,7.811462879180908203e-01,7.811152338981628418e-01,7.810841202735900879e-01,7.810530066490173340e-01,7.810219526290893555e-01,7.809908390045166016e-01,7.809597849845886230e-01,7.809286713600158691e-01,7.808976173400878906e-01,7.808665037155151367e-01,7.808355093002319336e-01,7.808043956756591797e-01,7.807733416557312012e-01,7.807423472404479980e-01,7.807112336158752441e-01,7.806801795959472656e-01,7.806491255760192871e-01,7.806180715560913086e-01,7.805870175361633301e-01
7.481585741043090820e-01,7.481300234794616699e-01,7.481015324592590332e-01,7.480729818344116211e-01,7.480444908142089844e-01,7.480159401893615723e-01,7.479874491691589355e-01,7.479589581489562988e-01,7.479304075241088867e-01,7.479019761085510254e-01,7.478734254837036133e-01,7.478449344635009766e-01,7.478163838386535645e-01,7.477879524230957031e-01,7.477594017982482910e-01,7.477309703826904297e-01,7.477024197578430176e-01,7.476739883422851562e-01,7.476454973220825195e-01,7.476170063018798828e-01,7.475885748863220215e-01,7.475600242614746094e-01,7.475315928459167480e-01,7.475031018257141113e-01,7.474746108055114746e-01,7.474461197853088379e-01,7.474176883697509766e-01,7.473891973495483398e-01,7.473607659339904785e-01,7.473323345184326172e-01,7.473038434982299805e-01,7.472754120826721191e-01,7.472469210624694824e-01,7.472184896469116211e-01,7.471899986267089844e-01,7.471615672111511230e-01,7.471331357955932617e-01,7.471047043800354004e-01,7.470762133598327637e-01,7.470477819442749023e-01,7.470194101333618164e-01,7.469909191131591797e-01,7.469625473022460938e-01,7.469340562820434570e-01,7.469056844711303711e-01,7.468771934509277344e-01,7.468488216400146484e-01,7.468203306198120117e-01,7.467919588088989258e-01,7.467635273933410645e-01,7.467350959777832031e-01,7.467067241668701172e-01,7.466782927513122559e-01,7.466499209403991699e-01,7.466214895248413086e-01,7.465931177139282227e-01,7.465646266937255859e-01,7.465363144874572754e-01,7.465078234672546387e-01,7.464795112609863281e-01,7.464510798454284668e-01,7.464227080345153809e-01,7.463943362236022949e-01,7.463659048080444336e-01,7.463375329971313477e-01,7.463091611862182617e-01,7.462807893753051758e-01,7.462523579597473145e-01,7.462240457534790039e-01,7.461956143379211426e-01,7.461673021316528320e-01,7.461388707160949707e-01,7.461104989051818848e-01,7.460821866989135742e-01,7.460538148880004883e-01,7.460254430770874023e-01,7.459970712661743164e-01,7.459687590599060059e-01,7.459403276443481445e-01,7.459120154380798340e-01
7.162458300590515137e-01,7.162197232246398926e-01,7.161935567855834961e-01,7.161674499511718750e-01,7.161412835121154785e-01,7.161151766777038574e-01,7.160890698432922363e-01,7.160629034042358398e-01,7.160367965698242188e-01,7.160106301307678223e-01,7.159845232963562012e-01,7.159584164619445801e-01,7.159323096275329590e-01,7.159061431884765625e-01,7.158800363540649414e-01,7.158539295196533203e-01,7.158278226852416992e-01,7.158017158508300781e-01,7.157756090164184570e-01,7.157495021820068359e-01,7.157233953475952148e-01,7.156972885131835938e-01,7.156711816787719727e-01,7.156451344490051270e-01,7.156189680099487305e-01,7.155929207801818848e-01,7.155668139457702637e-01,7.155407071113586426e-01,7.155146598815917969e-01,7.154885530471801758e-01,7.154625058174133301e-01,7.154363989830017090e-01,7.154102921485900879e-01,7.153841853141784668e-01,7.153581380844116211e-01,7.153320312500000000e-01,7.153059840202331543e-01,7.152798771858215332e-01,7.152538299560546875e-01,7.152278423309326172e-01,7.152017354965209961e-01,7.151756882667541504e-01,7.151495814323425293e-01,7.151235342025756836e-01,7.150974869728088379e-01,7.150714397430419922e-01,7.150453329086303711e-01,7.150193452835083008e-01,7.149932384490966797e-01,7.149671912193298340e-01,7.149412035942077637e-01,7.149150967597961426e-01,7.148891091346740723e-01,7.148630619049072266e-01,7.148370146751403809e-01,7.148109674453735352e-01,7.147849202156066895e-01,7.147588729858398438e-01,7.147328853607177734e-01,7.147068381309509277e-01,7.146807909011840820e-01,7.146548032760620117e-01,7.146287560462951660e-01,7.146027684211730957e-01,7.145767211914062500e-01,7.145507335662841797e-01,7.145246863365173340e-01,7.144986987113952637e-01,7.144726514816284180e-01,7.144466638565063477e-01,7.144206166267395020e-01,7.143946290016174316e-01,7.143686413764953613e-01,7.143425941467285156e-01,7.143166661262512207e-01,7.142906188964843750e-01,7.142646312713623047e-01,7.142385840415954590e-01,7.142126560211181641e-01,7.141866087913513184e-01
6.869442462921142578e-01,6.869201660156250000e-01,6.868961453437805176e-01,6.868721246719360352e-01,6.868481040000915527e-01,6.868240833282470703e-01,6.868000030517578125e-01,6.867759823799133301e-01,6.867519021034240723e-01,6.867279410362243652e-01,6.867038607597351074e-01,6.866798400878906250e-01,6.866558194160461426e-01,6.866317987442016602e-01,6.866077780723571777e-01,6.865837574005126953e-01,6.865597367286682129e-01,6.865357160568237305e-01,6.865116953849792480e-01,6.864876747131347656e-01,6.864636540412902832e-01,6.864396333694458008e-01,6.864156723022460938e-01,6.863915920257568359e-01,6.863676309585571289e-01,6.863436698913574219e-01,6.863196492195129395e-01,6.862956285476684570e-01,6.862716078758239746e-01,6.862476468086242676e-01,6.862236261367797852e-01,6.861996650695800781e-01,6.861756443977355957e-01,6.861516833305358887e-01,6.861276626586914062e-01,6.861036419868469238e-01,6.860796809196472168e-01,6.860557198524475098e-01,6.860317587852478027e-01,6.860077381134033203e-01,6.859837770462036133e-01,6.859597563743591309e-01,6.859357953071594238e-01,6.859118342399597168e-01,6.858878731727600098e-01,6.858638525009155273e-01,6.858398914337158203e-01,6.858159303665161133e-01,6.857919692993164062e-01,6.857680082321166992e-01,6.857440471649169922e-01,6.857200860977172852e-01,6.856961250305175781e-01,6.856721639633178711e-01,6.856482028961181641e-01,6.856242418289184570e-01,6.856002807617187500e-01,6.855763792991638184e-01,6.855523586273193359e-01,6.855284571647644043e-01,6.855045557022094727e-01,6.854805350303649902e-01,6.854566335678100586e-01,6.854326725006103516e-01,6.854087710380554199e-01,6.853848099708557129e-01,6.853608489036560059e-01,6.853368878364562988e-01,6.853129863739013672e-01,6.852890253067016602e-01,6.852651238441467285e-01,6.852412223815917969e-01,6.852172613143920898e-01,6.851933598518371582e-01,6.851693987846374512e-01,6.851455569267272949e-01,6.851215958595275879e-01,6.850976943969726562e-01,6.850737333297729492e-01,6.850498318672180176e-01
6.599458456039428711e-01,6.599236726760864258e-01,6.599014997482299805e-01,6.598793268203735352e-01,6.598571538925170898e-01,6.598349213600158691e-01,6.598127484321594238e-01,6.597905755043029785e-01,6.597684025764465332e-01,6.597461700439453125e-01,6.597240567207336426e-01,6.597018241882324219e-01,6.596796512603759766e-01,6.596575379371643066e-01,6.596353054046630859e-01,6.596131920814514160e-01,6.595909595489501953e-01,6.595688462257385254e-01,6.595466732978820801e-01,6.595245003700256348e-01,6.595023274421691895e-01,6.594801545143127441e-01,6.594579815864562988e-01,6.594358682632446289e-01,6.594136953353881836e-01,6.593915224075317383e-01,6.593694090843200684e-01,6.593472361564636230e-01,6.593250632286071777e-01,6.593028903007507324e-01,6.592807769775390625e-01,6.592586040496826172e-01,6.592364907264709473e-01,6.592143177986145020e-01,6.591922044754028320e-01,6.591700911521911621e-01,6.591479182243347168e-01,6.591258049011230469e-01,6.591036319732666016e-01,6.590815186500549316e-01,6.590593457221984863e-01,6.590372323989868164e-01,6.590150594711303711e-01,6.589930057525634766e-01,6.589708328247070312e-01,6.589487195014953613e-01,6.589266061782836914e-01,6.589044928550720215e-01,6.588823795318603516e-01,6.588602066040039062e-01,6.588380932807922363e-01,6.588159799575805664e-01,6.587938666343688965e-01,6.587717533111572266e-01,6.587496399879455566e-01,6.587275266647338867e-01,6.587054133415222168e-01,6.586833596229553223e-01,6.586611866950988770e-01,6.586391329765319824e-01,6.586169600486755371e-01,6.585949063301086426e-01,6.585727930068969727e-01,6.585506796836853027e-01,6.585285663604736328e-01,6.585065126419067383e-01,6.584843993186950684e-01,6.584622859954833984e-01,6.584402322769165039e-01,6.584181189537048340e-01,6.583960652351379395e-01,6.583739519119262695e-01,6.583518385887145996e-01,6.583297252655029297e-01,6.583076715469360352e-01,6.582855582237243652e-01,6.582635045051574707e-01,6.582413911819458008e-01,6.582193374633789062e-01,6.581972837448120117e-01
