5.000000000000000000e+00,5.000000000000000000e+00,5.000000000000000000e+00,5.000000000000000000e+00,5.000000000000000000e+00,5.000000000000000000e+00,5.000000000000000000e+00,5.000000000000000000e+00,5.000000000000000000e+00,5.000000000000000000e+00,5.000000000000000000e+00,5.000000000000000000e+00,5.000000000000000000e+00,5.000000000000000000e+00,5.000000000000000000e+00,5.000000000000000000e+00,5.000000000000000000e+00,5.000000000000000000e+00,5.000000000000000000e+00,5.000000000000000000e+00,5.000000000000000000e+00,5.000000000000000000e+00,5.000000000000000000e+00,5.000000000000000000e+00,5.000000000000000000e+00,4.087096214294433594e+00,4.028418540954589844e+00,5.000000000000000000e+00,5.000000000000000000e+00,5.000000000000000000e+00,5.000000000000000000e+00,5.000000000000000000e+00,5.000000000000000000e+00,5.000000000000000000e+00,5.000000000000000000e+00,5.000000000000000000e+00,5.000000000000000000e+00,5.000000000000000000e+00,5.000000000000000000e+00,4.863588333129882812e+00,4.672500133514404297e+00,4.495859146118164062e+00,4.332087039947509766e+00,4.179827690124511719e+00,4.037907600402832031e+00,3.905308723449707031e+00,3.781141042709350586e+00,3.664626121520996094e+00,3.555077552795410156e+00,3.451887845993041992e+00,3.354520082473754883e+00,3.262494325637817383e+00,3.175382852554321289e+00,3.092802524566650391e+00,3.014408349990844727e+00,2.939890146255493164e+00,2.868967294692993164e+00,2.801385879516601562e+00,2.736914873123168945e+00,2.675344944000244141e+00,2.616484165191650391e+00,2.560157537460327148e+00,2.506204843521118164e+00,2.454479217529296875e+00,2.404845714569091797e+00,2.357179641723632812e+00,2.311366319656372070e+00,2.267300128936767578e+00,2.224882602691650391e+00,2.184023141860961914e+00,2.144637346267700195e+00,2.106646776199340820e+00,2.069978713989257812e+00,2.034565448760986328e+00,2.000343322753906250e+00,1.967253804206848145e+00,1.935240864753723145e+00,1.904253244400024414e+00,1.874242305755615234e+00,1.845162510871887207e+00
5.000000000000000000e+00,5.000000000000000000e+00,5.000000000000000000e+00,5.000000000000000000e+00,5.000000000000000000e+00,5.000000000000000000e+00,5.000000000000000000e+00,5.000000000000000000e+00,5.000000000000000000e+00,5.000000000000000000e+00,5.000000000000000000e+00,5.000000000000000000e+00,5.000000000000000000e+00,5.000000000000000000e+00,5.000000000000000000e+00,5.000000000000000000e+00,5.000000000000000000e+00,5.000000000000000000e+00,5.000000000000000000e+00,5.000000000000000000e+00,5.000000000000000000e+00,5.000000000000000000e+00,5.000000000000000000e+00,3.969651222229003906e+00,4.015905380249023438e+00,4.008209228515625000e+00,4.102799415588378906e+00,4.125348091125488281e+00,5.000000000000000000e+00,5.000000000000000000e+00,5.000000000000000000e+00,5.000000000000000000e+00,5.000000000000000000e+00,5.000000000000000000e+00,5.000000000000000000e+00,5.000000000000000000e+00,5.000000000000000000e+00,5.000000000000000000e+00,5.000000000000000000e+00,4.863729000091552734e+00,4.672629356384277344e+00,4.495978832244873047e+00,4.332198619842529297e+00,4.179931163787841797e+00,4.038003921508789062e+00,3.905399084091186523e+00,3.781225919723510742e+00,3.664705991744995117e+00,3.555152416229248047e+00,3.451958656311035156e+00,3.354586839675903320e+00,3.262557506561279297e+00,3.175442695617675781e+00,3.092859029769897461e+00,3.014462232589721680e+00,2.939941406250000000e+00,2.869016170501708984e+00,2.801432609558105469e+00,2.736959218978881836e+00,2.675387382507324219e+00,2.616524696350097656e+00,2.560196399688720703e+00,2.506242036819458008e+00,2.454514980316162109e+00,2.404880046844482422e+00,2.357212543487548828e+00,2.311398029327392578e+00,2.267330646514892578e+00,2.224911928176879883e+00,2.184051275253295898e+00,2.144664525985717773e+00,2.106673002243041992e+00,2.070003986358642578e+00,2.034590005874633789e+00,2.000367164611816406e+00,1.967276573181152344e+00,1.935263156890869141e+00,1.904274702072143555e+00,1.874262928962707520e+00,1.845182776451110840e+00
5.000000000000000000e+00,5.000000000000000000e+00,5.000000000000000000e+00,5.000000000000000000e+00,5.000000000000000000e+00,5.000000000000000000e+00,5.000000000000000000e+00,5.000000000000000000e+00,5.000000000000000000e+00,5.000000000000000000e+00,5.000000000000000000e+00,5.000000000000000000e+00,5.000000000000000000e+00,5.000000000000000000e+00,5.000000000000000000e+00,5.000000000000000000e+00,5.000000000000000000e+00,5.000000000000000000e+00,5.000000000000000000e+00,5.000000000000000000e+00,5.000000000000000000e+00,5.000000000000000000e+00,3.985195636749267578e+00,3.959076404571533203e+00,3.964433193206787109e+00,3.985891103744506836e+00,4.020633697509765625e+00,4.072334289550781250e+00,4.143769264221191406e+00,5.000000000000000000e+00,5.000000000000000000e+00,5.000000000000000000e+00,5.000000000000000000e+00,5.000000000000000000e+00,5.000000000000000000e+00,5.000000000000000000e+00,5.000000000000000000e+00,5.000000000000000000e+00,5.000000000000000000e+00,4.863869190216064453e+00,4.672759056091308594e+00,4.496098995208740234e+00,4.332309722900390625e+00,4.180035114288330078e+00,4.038100719451904297e+00,3.905489206314086914e+00,3.781310796737670898e+00,3.664785623550415039e+00,3.555227518081665039e+00,3.452029228210449219e+00,3.354653596878051758e+00,3.262620687484741211e+00,3.175502300262451172e+00,3.092915773391723633e+00,3.014516115188598633e+00,2.939992666244506836e+00,2.869065046310424805e+00,2.801479101181030273e+00,2.737003803253173828e+00,2.675429821014404297e+00,2.616565227508544922e+00,2.560235023498535156e+00,2.506279230117797852e+00,2.454550743103027344e+00,2.404914379119873047e+00,2.357245445251464844e+00,2.311429738998413086e+00,2.267361164093017578e+00,2.224941253662109375e+00,2.184079647064208984e+00,2.144691705703735352e+00,2.106699466705322266e+00,2.070029497146606445e+00,2.034614562988281250e+00,2.000391006469726562e+00,1.967299699783325195e+00,1.935285210609436035e+00,1.904296159744262695e+00,1.874283909797668457e+00,1.845202922821044922e+00
5.000000000000000000e+00,5.000000000000000000e+00,5.000000000000000000e+00,5.000000000000000000e+00,5.000000000000000000e+00,5.000000000000000000e+00,5.000000000000000000e+00,5.000000000000000000e+00,5.000000000000000000e+00,5.000000000000000000e+00,5.000000000000000000e+00,5.000000000000000000e+00,5.000000000000000000e+00,5.000000000000000000e+00,5.000000000000000000e+00,5.000000000000000000e+00,5.000000000000000000e+00,5.000000000000000000e+00,5.000000000000000000e+00,5.000000000000000000e+00,5.000000000000000000e+00,5.000000000000000000e+00,5.000000000000000000e+00,3.979279279708862305e+00,3.971202850341796875e+00,3.964725255966186523e+00,3.997241973876953125e+00,4.038382530212402344e+00,4.151412963867187500e+00,4.234452247619628906e+00,5.000000000000000000e+00,5.000000000000000000e+00,5.000000000000000000e+00,5.000000000000000000e+00,5.000000000000000000e+00,5.000000000000000000e+00,5.000000000000000000e+00,5.000000000000000000e+00,5.000000000000000000e+00,4.864009380340576172e+00,4.672888278961181641e+00,4.496218681335449219e+00,4.332421302795410156e+00,4.180138587951660156e+00,4.038197517395019531e+00,3.905579566955566406e+00,3.781395435333251953e+00,3.664865255355834961e+00,3.555302381515502930e+00,3.452100038528442383e+00,3.354720115661621094e+00,3.262683868408203125e+00,3.175562143325805664e+00,3.092972517013549805e+00,3.014569997787475586e+00,2.940043926239013672e+00,2.869113683700561523e+00,2.801525592803955078e+00,2.737048149108886719e+00,2.675472259521484375e+00,2.616605758666992188e+00,2.560273885726928711e+00,2.506316423416137695e+00,2.454586505889892578e+00,2.404948472976684570e+00,2.357278585433959961e+00,2.311461448669433594e+00,2.267391681671142578e+00,2.224970579147338867e+00,2.184108018875122070e+00,2.144719123840332031e+00,2.106725692749023438e+00,2.070055007934570312e+00,2.034639120101928711e+00,2.000414609909057617e+00,1.967322587966918945e+00,1.935307502746582031e+00,1.904317736625671387e+00,1.874304652214050293e+00,1.845223188400268555e+00
5.000000000000000000e+00,5.000000000000000000e+00,5.000000000000000000e+00,5.000000000000000000e+00,5.000000000000000000e+00,5.000000000000000000e+00,5.000000000000000000e+00,5.000000000000000000e+00,5.000000000000000000e+00,5.000000000000000000e+00,5.000000000000000000e+00,5.000000000000000000e+00,5.000000000000000000e+00,5.000000000000000000e+00,5.000000000000000000e+00,5.000000000000000000e+00,5.000000000000000000e+00,5.000000000000000000e+00,5.000000000000000000e+00,5.000000000000000000e+00,5.000000000000000000e+00,5.000000000000000000e+00,5.000000000000000000e+00,3.991102933883666992e+00,3.989696741104125977e+00,3.972975969314575195e+00,3.984144210815429688e+00,4.036093711853027344e+00,4.191247940063476562e+00,4.230298042297363281e+00,5.000000000000000000e+00,5.000000000000000000e+00,5.000000000000000000e+00,5.000000000000000000e+00,5.000000000000000000e+00,5.000000000000000000e+00,5.000000000000000000e+00,5.000000000000000000e+00,5.000000000000000000e+00,4.864149570465087891e+00,4.673017501831054688e+00,4.496338844299316406e+00,4.332532405853271484e+00,4.180242061614990234e+00,4.038294315338134766e+00,3.905670166015625000e+00,3.781480312347412109e+00,3.664944887161254883e+00,3.555377006530761719e+00,3.452170610427856445e+00,3.354786872863769531e+00,3.262747049331665039e+00,3.175621986389160156e+00,3.093029260635375977e+00,3.014623880386352539e+00,2.940095186233520508e+00,2.869162559509277344e+00,2.801572084426879883e+00,2.737092494964599609e+00,2.675514698028564453e+00,2.616646528244018555e+00,2.560312747955322266e+00,2.506353855133056641e+00,2.454622268676757812e+00,2.404982805252075195e+00,2.357311487197875977e+00,2.311493158340454102e+00,2.267421960830688477e+00,2.224999904632568359e+00,2.184136152267456055e+00,2.144746303558349609e+00,2.106751918792724609e+00,2.070080280303955078e+00,2.034663677215576172e+00,2.000438451766967773e+00,1.967345595359802246e+00,1.935329675674438477e+00,1.904339075088500977e+00,1.874325633049011230e+00,1.845243215560913086e+00
5.000000000000000000e+00,5.000000000000000000e+00,5.000000000000000000e+00,5.000000000000000000e+00,5.000000000000000000e+00,5.000000000000000000e+00,5.000000000000000000e+00,5.000000000000000000e+00,5.000000000000000000e+00,5.000000000000000000e+00,5.000000000000000000e+00,5.000000000000000000e+00,5.000000000000000000e+00,5.000000000000000000e+00,5.000000000000000000e+00,5.000000000000000000e+00,5.000000000000000000e+00,5.000000000000000000e+00,5.000000000000000000e+00,5.000000000000000000e+00,5.000000000000000000e+00,5.000000000000000000e+00,5.000000000000000000e+00,4.001105785369873047e+00,4.003808498382568359e+00,3.970512866973876953e+00,3.988015890121459961e+00,4.036515712738037109e+00,4.196815013885498047e+00,4.222535133361816406e+00,5.000000000000000000e+00,5.000000000000000000e+00,5.000000000000000000e+00,5.000000000000000000e+00,5.000000000000000000e+00,5.000000000000000000e+00,5.000000000000000000e+00,5.000000000000000000e+00,5.000000000000000000e+00,4.864290237426757812e+00,4.673147201538085938e+00,4.496458530426025391e+00,4.332643985748291016e+00,4.180346012115478516e+00,4.038391113281250000e+00,3.905760526657104492e+00,3.781565189361572266e+00,3.665024518966674805e+00,3.555451869964599609e+00,3.452241182327270508e+00,3.354853630065917969e+00,3.262809991836547852e+00,3.175681829452514648e+00,3.093086004257202148e+00,3.014677762985229492e+00,2.940146446228027344e+00,2.869211435317993164e+00,2.801618576049804688e+00,2.737137079238891602e+00,2.675557136535644531e+00,2.616687059402465820e+00,2.560351610183715820e+00,2.506391048431396484e+00,2.454657793045043945e+00,2.405017137527465820e+00,2.357344388961791992e+00,2.311524868011474609e+00,2.267452478408813477e+00,2.225029230117797852e+00,2.184164524078369141e+00,2.144773721694946289e+00,2.106778383255004883e+00,2.070105791091918945e+00,2.034688234329223633e+00,2.000462055206298828e+00,1.967368483543395996e+00,1.935351967811584473e+00,1.904360771179199219e+00,1.874346256256103516e+00,1.845263600349426270e+00
5.000000000000000000e+00,5.000000000000000000e+00,5.000000000000000000e+00,5.000000000000000000e+00,5.000000000000000000e+00,5.000000000000000000e+00,5.000000000000000000e+00,5.000000000000000000e+00,5.000000000000000000e+00,5.000000000000000000e+00,5.000000000000000000e+00,5.000000000000000000e+00,5.000000000000000000e+00,5.000000000000000000e+00,5.000000000000000000e+00,5.000000000000000000e+00,5.000000000000000000e+00,5.000000000000000000e+00,5.000000000000000000e+00,5.000000000000000000e+00,5.000000000000000000e+00,5.000000000000000000e+00,5.000000000000000000e+00,4.014749526977539062e+00,3.981833219528198242e+00,3.956297159194946289e+00,3.976907491683959961e+00,4.024426937103271484e+00,4.226974964141845703e+00,4.228304386138916016e+00,5.000000000000000000e+00,5.000000000000000000e+00,5.000000000000000000e+00,5.000000000000000000e+00,5.000000000000000000e+00,5.000000000000000000e+00,5.000000000000000000e+00,5.000000000000000000e+00,5.000000000000000000e+00,4.864430427551269531e+00,4.673276424407958984e+00,4.496578693389892578e+00,4.332755088806152344e+00,4.180449485778808594e+00,4.038487911224365234e+00,3.905851125717163086e+00,3.781649827957153320e+00,3.665104150772094727e+00,3.555526971817016602e+00,3.452311992645263672e+00,3.354920387268066406e+00,3.262872934341430664e+00,3.175741672515869141e+00,3.093142747879028320e+00,3.014731645584106445e+00,2.940197706222534180e+00,2.869260311126708984e+00,2.801665306091308594e+00,2.737181425094604492e+00,2.675599575042724609e+00,2.616727590560913086e+00,2.560390472412109375e+00,2.506428241729736328e+00,2.454693555831909180e+00,2.405051231384277344e+00,2.357377290725708008e+00,2.311556577682495117e+00,2.267482995986938477e+00,2.225058555603027344e+00,2.184192895889282227e+00,2.144800901412963867e+00,2.106804609298706055e+00,2.070131063461303711e+00,2.034712791442871094e+00,2.000485897064208984e+00,1.967391490936279297e+00,1.935374140739440918e+00,1.904382109642028809e+00,1.874367237091064453e+00,1.845283627510070801e+00
5.000000000000000000e+00,5.000000000000000000e+00,5.000000000000000000e+00,5.000000000000000000e+00,5.000000000000000000e+00,5.000000000000000000e+00,5.000000000000000000e+00,5.000000000000000000e+00,5.000000000000000000e+00,5.000000000000000000e+00,5.000000000000000000e+00,5.000000000000000000e+00,5.000000000000000000e+00,5.000000000000000000e+00,5.000000000000000000e+00,5.000000000000000000e+00,5.000000000000000000e+00,5.000000000000000000e+00,5.000000000000000000e+00,5.000000000000000000e+00,5.000000000000000000e+00,5.000000000000000000e+00,5.000000000000000000e+00,3.994964361190795898e+00,3.992556810379028320e+00,3.972215890884399414e+00,3.989101648330688477e+00,4.033298015594482422e+00,5.000000000000000000e+00,4.199968814849853516e+00,5.000000000000000000e+00,5.000000000000000000e+00,5.000000000000000000e+00,5.000000000000000000e+00,5.000000000000000000e+00,5.000000000000000000e+00,5.000000000000000000e+00,5.000000000000000000e+00,5.000000000000000000e+00,4.864570617675781250e+00,4.673406124114990234e+00,4.496698379516601562e+00,4.332866668701171875e+00,4.180552959442138672e+00,4.038584232330322266e+00,3.905941486358642578e+00,3.781734704971313477e+00,3.665183782577514648e+00,3.555601835250854492e+00,3.452382564544677734e+00,3.354987144470214844e+00,3.262936115264892578e+00,3.175801515579223633e+00,3.093199491500854492e+00,3.014785289764404297e+00,2.940248966217041016e+00,2.869309186935424805e+00,2.801711797714233398e+00,2.737226009368896484e+00,2.675642013549804688e+00,2.616768360137939453e+00,2.560429334640502930e+00,2.506465435028076172e+00,2.454729318618774414e+00,2.405085563659667969e+00,2.357410430908203125e+00,2.311588287353515625e+00,2.267513513565063477e+00,2.225088119506835938e+00,2.184221029281616211e+00,2.144828081130981445e+00,2.106831073760986328e+00,2.070156574249267578e+00,2.034737348556518555e+00,2.000509500503540039e+00,1.967414379119873047e+00,1.935396432876586914e+00,1.904403805732727051e+00,1.874387979507446289e+00,1.845304012298583984e+00
5.000000000000000000e+00,5.000000000000000000e+00,5.000000000000000000e+00,5.000000000000000000e+00,5.000000000000000000e+00,5.000000000000000000e+00,5.000000000000000000e+00,5.000000000000000000e+00,5.000000000000000000e+00,5.000000000000000000e+00,5.000000000000000000e+00,5.000000000000000000e+00,5.000000000000000000e+00,5.000000000000000000e+00,5.000000000000000000e+00,5.000000000000000000e+00,5.000000000000000000e+00,5.000000000000000000e+00,5.000000000000000000e+00,5.000000000000000000e+00,5.000000000000000000e+00,5.000000000000000000e+00,5.000000000000000000e+00,3.981100320816040039e+00,3.954264640808105469e+00,3.910480499267578125e+00,4.014466285705566406e+00,4.062190532684326172e+00,4.118748188018798828e+00,4.188046455383300781e+00,5.000000000000000000e+00,5.000000000000000000e+00,5.000000000000000000e+00,5.000000000000000000e+00,5.000000000000000000e+00,5.000000000000000000e+00,5.000000000000000000e+00,5.000000000000000000e+00,5.000000000000000000e+00,4.864710807800292969e+00,4.673535823822021484e+00,4.496818065643310547e+00,4.332977771759033203e+00,4.180656433105468750e+00,4.038681030273437500e+00,3.906032085418701172e+00,3.781819581985473633e+00,3.665263414382934570e+00,3.555676937103271484e+00,3.452453374862670898e+00,3.355053901672363281e+00,3.262999296188354492e+00,3.175861358642578125e+00,3.093256235122680664e+00,3.014839172363281250e+00,2.940300226211547852e+00,2.869357824325561523e+00,2.801758289337158203e+00,2.737270355224609375e+00,2.675684452056884766e+00,2.616808891296386719e+00,2.560468196868896484e+00,2.506502866744995117e+00,2.454765081405639648e+00,2.405119895935058594e+00,2.357443332672119141e+00,2.311619997024536133e+00,2.267543792724609375e+00,2.225117444992065430e+00,2.184249401092529297e+00,2.144855260848999023e+00,2.106857299804687500e+00,2.070182085037231445e+00,2.034761905670166016e+00,2.000533342361450195e+00,1.967437386512756348e+00,1.935418486595153809e+00,1.904425144195556641e+00,1.874408960342407227e+00,1.845324039459228516e+00
5.000000000000000000e+00,5.000000000000000000e+00,5.000000000000000000e+00,5.000000000000000000e+00,5.000000000000000000e+00,5.000000000000000000e+00,5.000000000000000000e+00,5.000000000000000000e+00,5.000000000000000000e+00,5.000000000000000000e+00,5.000000000000000000e+00,5.000000000000000000e+00,5.000000000000000000e+00,5.000000000000000000e+00,5.000000000000000000e+00,5.000000000000000000e+00,5.000000000000000000e+00,5.000000000000000000e+00,5.000000000000000000e+00,5.000000000000000000e+00,5.000000000000000000e+00,5.000000000000000000e+00,5.000000000000000000e+00,3.960481882095336914e+00,3.908340930938720703e+00,3.876189947128295898e+00,3.912168741226196289e+00,4.039053916931152344e+00,4.083232402801513672e+00,5.000000000000000000e+00,5.000000000000000000e+00,5.000000000000000000e+00,5.000000000000000000e+00,5.000000000000000000e+00,5.000000000000000000e+00,5.000000000000000000e+00,5.000000000000000000e+00,5.000000000000000000e+00,5.000000000000000000e+00,4.864851474761962891e+00,4.673665046691894531e+00,4.496937751770019531e+00,4.333089351654052734e+00,4.180760383605957031e+00,4.038777828216552734e+00,3.906122446060180664e+00,3.781904458999633789e+00,3.665343284606933594e+00,3.555751800537109375e+00,3.452523946762084961e+00,3.355120658874511719e+00,3.263062238693237305e+00,3.175921201705932617e+00,3.093312978744506836e+00,3.014893293380737305e+00,2.940351486206054688e+00,2.869406700134277344e+00,2.801804542541503906e+00,2.737314701080322266e+00,2.675726890563964844e+00,2.616849422454833984e+00,2.560507059097290039e+00,2.506540060043334961e+00,2.454800844192504883e+00,2.405154228210449219e+00,2.357476234436035156e+00,2.311651706695556641e+00,2.267574310302734375e+00,2.225146770477294922e+00,2.184277772903442383e+00,2.144882678985595703e+00,2.106883525848388672e+00,2.070207357406616211e+00,2.034786462783813477e+00,2.000556945800781250e+00,1.967460274696350098e+00,1.935440897941589355e+00,1.904446721076965332e+00,1.874429702758789062e+00,1.845344305038452148e+00
5.000000000000000000e+00,5.000000000000000000e+00,5.000000000000000000e+00,5.000000000000000000e+00,5.000000000000000000e+00,5.000000000000000000e+00,5.000000000000000000e+00,5.000000000000000000e+00,5.000000000000000000e+00,5.000000000000000000e+00,5.000000000000000000e+00,5.000000000000000000e+00,5.000000000000000000e+00,5.000000000000000000e+00,5.000000000000000000e+00,5.000000000000000000e+00,5.000000000000000000e+00,5.000000000000000000e+00,5.000000000000000000e+00,5.000000000000000000e+00,5.000000000000000000e+00,5.000000000000000000e+00,5.000000000000000000e+00,3.944878578186035156e+00,3.944469928741455078e+00,3.848651409149169922e+00,3.870237350463867188e+00,4.031621456146240234e+00,4.078245162963867188e+00,5.000000000000000000e+00,4.145703792572021484e+00,5.000000000000000000e+00,5.000000000000000000e+00,5.000000000000000000e+00,5.000000000000000000e+00,5.000000000000000000e+00,5.000000000000000000e+00,5.000000000000000000e+00,5.000000000000000000e+00,4.864991664886474609e+00,4.673794746398925781e+00,4.497057914733886719e+00,4.333200454711914062e+00,4.180863857269287109e+00,4.038874626159667969e+00,3.906213045120239258e+00,3.781989097595214844e+00,3.665422916412353516e+00,3.555826902389526367e+00,3.452594757080078125e+00,3.355187416076660156e+00,3.263125419616699219e+00,3.175981044769287109e+00,3.093369722366333008e+00,3.014947175979614258e+00,2.940402746200561523e+00,2.869455575942993164e+00,2.801851272583007812e+00,2.737359285354614258e+00,2.675769567489624023e+00,2.616890192031860352e+00,2.560545921325683594e+00,2.506577253341674805e+00,2.454836606979370117e+00,2.405188560485839844e+00,2.357509136199951172e+00,2.311683177947998047e+00,2.267604827880859375e+00,2.225176095962524414e+00,2.184305906295776367e+00,2.144909858703613281e+00,2.106909990310668945e+00,2.070232868194580078e+00,2.034811019897460938e+00,2.000580787658691406e+00,1.967483282089233398e+00,1.935462951660156250e+00,1.904468178749084473e+00,1.874450564384460449e+00,1.845364451408386230e+00
5.000000000000000000e+00,5.000000000000000000e+00,5.000000000000000000e+00,5.000000000000000000e+00,5.000000000000000000e+00,5.000000000000000000e+00,5.000000000000000000e+00,5.000000000000000000e+00,5.000000000000000000e+00,5.000000000000000000e+00,5.000000000000000000e+00,5.000000000000000000e+00,5.000000000000000000e+00,5.000000000000000000e+00,5.000000000000000000e+00,5.000000000000000000e+00,5.000000000000000000e+00,5.000000000000000000e+00,5.000000000000000000e+00,5.000000000000000000e+00,5.000000000000000000e+00,5.000000000000000000e+00,5.000000000000000000e+00,3.939206361770629883e+00,5.000000000000000000e+00,3.820050477981567383e+00,3.829401493072509766e+00,4.030004978179931641e+00,4.082032680511474609e+00,5.000000000000000000e+00,5.000000000000000000e+00,5.000000000000000000e+00,5.000000000000000000e+00,5.000000000000000000e+00,5.000000000000000000e+00,5.000000000000000000e+00,5.000000000000000000e+00,5.000000000000000000e+00,5.000000000000000000e+00,4.865132331848144531e+00,4.673924446105957031e+00,4.497177600860595703e+00,4.333312034606933594e+00,4.180967330932617188e+00,4.038970947265625000e+00,3.906303405761718750e+00,3.782073974609375000e+00,3.665502548217773438e+00,3.555901765823364258e+00,3.452665328979492188e+00,3.355254173278808594e+00,3.263188600540161133e+00,3.176040649414062500e+00,3.093426465988159180e+00,3.015001058578491211e+00,2.940454006195068359e+00,2.869504451751708984e+00,2.801897764205932617e+00,2.737403631210327148e+00,2.675812005996704102e+00,2.616930484771728516e+00,2.560584783554077148e+00,2.506614685058593750e+00,2.454872369766235352e+00,2.405222892761230469e+00,2.357542276382446289e+00,2.311714887619018555e+00,2.267635345458984375e+00,2.225205421447753906e+00,2.184334278106689453e+00,2.144937276840209961e+00,2.106936216354370117e+00,2.070258140563964844e+00,2.034835577011108398e+00,2.000604391098022461e+00,1.967506170272827148e+00,1.935485005378723145e+00,1.904489755630493164e+00,1.874471306800842285e+00,1.845384716987609863e+00
5.000000000000000000e+00,5.000000000000000000e+00,5.000000000000000000e+00,5.000000000000000000e+00,5.000000000000000000e+00,5.000000000000000000e+00,5.000000000000000000e+00,5.000000000000000000e+00,5.000000000000000000e+00,5.000000000000000000e+00,5.000000000000000000e+00,5.000000000000000000e+00,5.000000000000000000e+00,5.000000000000000000e+00,5.000000000000000000e+00,5.000000000000000000e+00,5.000000000000000000e+00,5.000000000000000000e+00,5.000000000000000000e+00,5.000000000000000000e+00,5.000000000000000000e+00,5.000000000000000000e+00,5.000000000000000000e+00,5.000000000000000000e+00,5.000000000000000000e+00,3.828472375869750977e+00,3.788791656494140625e+00,4.027763843536376953e+00,4.080937862396240234e+00,5.000000000000000000e+00,5.000000000000000000e+00,5.000000000000000000e+00,5.000000000000000000e+00,5.000000000000000000e+00,5.000000000000000000e+00,5.000000000000000000e+00,5.000000000000000000e+00,5.000000000000000000e+00,5.000000000000000000e+00,4.865272521972656250e+00,4.674053668975830078e+00,4.497297763824462891e+00,4.333423137664794922e+00,4.181071281433105469e+00,4.039067745208740234e+00,3.906394004821777344e+00,3.782158851623535156e+00,3.665582180023193359e+00,3.555976867675781250e+00,3.452736139297485352e+00,3.355320930480957031e+00,3.263251781463623047e+00,3.176100492477416992e+00,3.093483209609985352e+00,3.015054941177368164e+00,2.940505266189575195e+00,2.869553327560424805e+00,2.801944255828857422e+00,2.737447977066040039e+00,2.675854444503784180e+00,2.616971254348754883e+00,2.560623884201049805e+00,2.506651878356933594e+00,2.454908132553100586e+00,2.405257225036621094e+00,2.357575178146362305e+00,2.311746597290039062e+00,2.267665863037109375e+00,2.225234746932983398e+00,2.184362649917602539e+00,2.144964456558227539e+00,2.106962680816650391e+00,2.070283651351928711e+00,2.034860134124755859e+00,2.000628232955932617e+00,1.967529296875000000e+00,1.935507416725158691e+00,1.904511213302612305e+00,1.874492287635803223e+00,1.845404863357543945e+00
5.000000000000000000e+00,5.000000000000000000e+00,5.000000000000000000e+00,5.000000000000000000e+00,5.000000000000000000e+00,5.000000000000000000e+00,5.000000000000000000e+00,5.000000000000000000e+00,5.000000000000000000e+00,5.000000000000000000e+00,5.000000000000000000e+00,5.000000000000000000e+00,5.000000000000000000e+00,5.000000000000000000e+00,5.000000000000000000e+00,5.000000000000000000e+00,5.000000000000000000e+00,5.000000000000000000e+00,5.000000000000000000e+00,5.000000000000000000e+00,5.000000000000000000e+00,5.000000000000000000e+00,5.000000000000000000e+00,5.000000000000000000e+00,5.000000000000000000e+00,3.853507995605468750e+00,3.783819198608398438e+00,4.021054267883300781e+00,5.000000000000000000e+00,5.000000000000000000e+00,5.000000000000000000e+00,5.000000000000000000e+00,5.000000000000000000e+00,5.000000000000000000e+00,5.000000000000000000e+00,5.000000000000000000e+00,5.000000000000000000e+00,5.000000000000000000e+00,5.000000000000000000e+00,4.865412712097167969e+00,4.674183368682861328e+00,4.497417926788330078e+00,4.333534717559814453e+00,4.181174755096435547e+00,4.039164543151855469e+00,3.906484365463256836e+00,3.782243728637695312e+00,3.665661573410034180e+00,3.556051731109619141e+00,3.452806711196899414e+00,3.355387926101684570e+00,3.263314962387084961e+00,3.176160335540771484e+00,3.093540191650390625e+00,3.015108823776245117e+00,2.940556526184082031e+00,2.869602203369140625e+00,2.801990985870361328e+00,2.737492561340332031e+00,2.675896883010864258e+00,2.617011785507202148e+00,2.560662746429443359e+00,2.506689071655273438e+00,2.454943656921386719e+00,2.405291557312011719e+00,2.357608079910278320e+00,2.311778306961059570e+00,2.267696380615234375e+00,2.225264310836791992e+00,2.184390783309936523e+00,2.144991874694824219e+00,2.106988906860351562e+00,2.070309162139892578e+00,2.034884691238403320e+00,2.000652074813842773e+00,1.967552065849304199e+00,1.935529470443725586e+00,1.904532790184020996e+00,1.874513030052185059e+00,1.845424890518188477e+00
5.000000000000000000e+00,5.000000000000000000e+00,5.000000000000000000e+00,5.000000000000000000e+00,5.000000000000000000e+00,5.000000000000000000e+00,5.000000000000000000e+00,5.000000000000000000e+00,5.000000000000000000e+00,5.000000000000000000e+00,5.000000000000000000e+00,5.000000000000000000e+00,5.000000000000000000e+00,5.000000000000000000e+00,5.000000000000000000e+00,5.000000000000000000e+00,5.000000000000000000e+00,5.000000000000000000e+00,5.000000000000000000e+00,5.000000000000000000e+00,5.000000000000000000e+00,5.000000000000000000e+00,5.000000000000000000e+00,5.000000000000000000e+00,5.000000000000000000e+00,3.844706296920776367e+00,3.827934741973876953e+00,4.031241893768310547e+00,5.000000000000000000e+00,5.000000000000000000e+00,5.000000000000000000e+00,5.000000000000000000e+00,5.000000000000000000e+00,5.000000000000000000e+00,5.000000000000000000e+00,5.000000000000000000e+00,5.000000000000000000e+00,5.000000000000000000e+00,5.000000000000000000e+00,4.865551948547363281e+00,4.674313068389892578e+00,4.497537612915039062e+00,4.333645820617675781e+00,4.181278705596923828e+00,4.039261341094970703e+00,3.906574964523315430e+00,3.782328605651855469e+00,3.665741205215454102e+00,3.556126832962036133e+00,3.452877521514892578e+00,3.355454206466674805e+00,3.263378143310546875e+00,3.176220178604125977e+00,3.093596935272216797e+00,3.015162706375122070e+00,2.940607786178588867e+00,2.869650840759277344e+00,2.802037477493286133e+00,2.737536907196044922e+00,2.675939321517944336e+00,2.617052316665649414e+00,2.560701608657836914e+00,2.506726264953613281e+00,2.454979419708251953e+00,2.405325889587402344e+00,2.357640981674194336e+00,2.311810016632080078e+00,2.267726898193359375e+00,2.225293636322021484e+00,2.184419155120849609e+00,2.145019054412841797e+00,2.107015132904052734e+00,2.070334434509277344e+00,2.034909248352050781e+00,2.000675678253173828e+00,1.967575192451477051e+00,1.935551881790161133e+00,1.904554247856140137e+00,1.874534010887145996e+00,1.845445275306701660e+00
5.000000000000000000e+00,5.000000000000000000e+00,5.000000000000000000e+00,5.000000000000000000e+00,5.000000000000000000e+00,5.000000000000000000e+00,5.000000000000000000e+00,5.000000000000000000e+00,5.000000000000000000e+00,5.000000000000000000e+00,5.000000000000000000e+00,5.000000000000000000e+00,5.000000000000000000e+00,5.000000000000000000e+00,5.000000000000000000e+00,5.000000000000000000e+00,5.000000000000000000e+00,5.000000000000000000e+00,5.000000000000000000e+00,5.000000000000000000e+00,5.000000000000000000e+00,5.000000000000000000e+00,5.000000000000000000e+00,5.000000000000000000e+00,5.000000000000000000e+00,3.872737646102905273e+00,3.884754180908203125e+00,4.079137802124023438e+00,5.000000000000000000e+00,5.000000000000000000e+00,5.000000000000000000e+00,5.000000000000000000e+00,5.000000000000000000e+00,5.000000000000000000e+00,5.000000000000000000e+00,5.000000000000000000e+00,5.000000000000000000e+00,5.000000000000000000e+00,5.000000000000000000e+00,4.865690708160400391e+00,4.674441814422607422e+00,4.497657775878906250e+00,4.333756923675537109e+00,4.181382179260253906e+00,4.039358139038085938e+00,3.906665563583374023e+00,3.782413482666015625e+00,3.665820837020874023e+00,3.556201934814453125e+00,3.452948331832885742e+00,3.355520963668823242e+00,3.263441324234008789e+00,3.176280021667480469e+00,3.093653678894042969e+00,3.015216588973999023e+00,2.940659046173095703e+00,2.869699716567993164e+00,2.802083969116210938e+00,2.737581491470336914e+00,2.675981760025024414e+00,2.617093086242675781e+00,2.560740470886230469e+00,2.506763696670532227e+00,2.455015182495117188e+00,2.405360221862792969e+00,2.357674121856689453e+00,2.311841726303100586e+00,2.267757415771484375e+00,2.225322961807250977e+00,2.184447526931762695e+00,2.145046234130859375e+00,2.107041597366333008e+00,2.070359945297241211e+00,2.034933805465698242e+00,2.000699520111083984e+00,1.967597961425781250e+00,1.935573935508728027e+00,1.904575824737548828e+00,1.874554753303527832e+00,1.845465302467346191e+00
5.000000000000000000e+00,5.000000000000000000e+00,5.000000000000000000e+00,5.000000000000000000e+00,5.000000000000000000e+00,5.000000000000000000e+00,5.000000000000000000e+00,5.000000000000000000e+00,5.000000000000000000e+00,5.000000000000000000e+00,5.000000000000000000e+00,5.000000000000000000e+00,5.000000000000000000e+00,5.000000000000000000e+00,5.000000000000000000e+00,5.000000000000000000e+00,5.000000000000000000e+00,5.000000000000000000e+00,5.000000000000000000e+00,5.000000000000000000e+00,5.000000000000000000e+00,5.000000000000000000e+00,5.000000000000000000e+00,5.000000000000000000e+00,5.000000000000000000e+00,3.901488542556762695e+00,3.917256593704223633e+00,4.139523983001708984e+00,5.000000000000000000e+00,5.000000000000000000e+00,5.000000000000000000e+00,5.000000000000000000e+00,5.000000000000000000e+00,5.000000000000000000e+00,5.000000000000000000e+00,5.000000000000000000e+00,5.000000000000000000e+00,5.000000000000000000e+00,5.000000000000000000e+00,4.865828990936279297e+00,4.674570083618164062e+00,4.497777462005615234e+00,4.333868503570556641e+00,4.181486129760742188e+00,4.039454936981201172e+00,3.906755924224853516e+00,3.782498121261596680e+00,3.665900707244873047e+00,3.556276798248291016e+00,3.453018903732299805e+00,3.355587720870971680e+00,3.263504505157470703e+00,3.176339864730834961e+00,3.093710184097290039e+00,3.015270709991455078e+00,2.940710544586181641e+00,2.869748592376708984e+00,2.802130699157714844e+00,2.737625837326049805e+00,2.676024198532104492e+00,2.617133617401123047e+00,2.560779333114624023e+00,2.506800889968872070e+00,2.455050945281982422e+00,2.405394315719604492e+00,2.357707023620605469e+00,2.311873197555541992e+00,2.267787933349609375e+00,2.225352287292480469e+00,2.184475660324096680e+00,2.145073652267456055e+00,2.107067823410034180e+00,2.070385217666625977e+00,2.034958362579345703e+00,2.000723123550415039e+00,1.967621088027954102e+00,1.935596227645874023e+00,1.904597282409667969e+00,1.874575614929199219e+00,1.845485568046569824e+00
5.000000000000000000e+00,5.000000000000000000e+00,5.000000000000000000e+00,5.000000000000000000e+00,5.000000000000000000e+00,5.000000000000000000e+00,5.000000000000000000e+00,5.000000000000000000e+00,5.000000000000000000e+00,5.000000000000000000e+00,5.000000000000000000e+00,5.000000000000000000e+00,5.000000000000000000e+00,5.000000000000000000e+00,5.000000000000000000e+00,5.000000000000000000e+00,5.000000000000000000e+00,5.000000000000000000e+00,5.000000000000000000e+00,5.000000000000000000e+00,5.000000000000000000e+00,5.000000000000000000e+00,5.000000000000000000e+00,5.000000000000000000e+00,5.000000000000000000e+00,3.933099031448364258e+00,3.952922821044921875e+00,5.000000000000000000e+00,5.000000000000000000e+00,5.000000000000000000e+00,5.000000000000000000e+00,5.000000000000000000e+00,5.000000000000000000e+00,5.000000000000000000e+00,5.000000000000000000e+00,5.000000000000000000e+00,5.000000000000000000e+00,5.000000000000000000e+00,5.000000000000000000e+00,4.865967750549316406e+00,4.674697875976562500e+00,4.497896194458007812e+00,4.333980083465576172e+00,4.181589603424072266e+00,4.039551734924316406e+00,3.906846523284912109e+00,3.782582998275756836e+00,3.665980339050292969e+00,3.556351900100708008e+00,3.453089714050292969e+00,3.355654716491699219e+00,3.263567686080932617e+00,3.176399707794189453e+00,3.093766927719116211e+00,3.015324592590332031e+00,2.940761804580688477e+00,2.869797468185424805e+00,2.802177190780639648e+00,2.737670421600341797e+00,2.676066637039184570e+00,2.617174148559570312e+00,2.560818195343017578e+00,2.506838083267211914e+00,2.455086708068847656e+00,2.405428647994995117e+00,2.357739925384521484e+00,2.311904907226562500e+00,2.267818450927734375e+00,2.225381612777709961e+00,2.184504032135009766e+00,2.145100831985473633e+00,2.107094287872314453e+00,2.070410728454589844e+00,2.034982919692993164e+00,2.000746965408325195e+00,1.967643976211547852e+00,1.935618400573730469e+00,1.904618859291076660e+00,1.874596357345581055e+00,1.845505714416503906e+00
5.000000000000000000e+00,5.000000000000000000e+00,5.000000000000000000e+00,5.000000000000000000e+00,5.000000000000000000e+00,5.000000000000000000e+00,5.000000000000000000e+00,5.000000000000000000e+00,5.000000000000000000e+00,5.000000000000000000e+00,5.000000000000000000e+00,5.000000000000000000e+00,5.000000000000000000e+00,5.000000000000000000e+00,5.000000000000000000e+00,5.000000000000000000e+00,5.000000000000000000e+00,5.000000000000000000e+00,5.000000000000000000e+00,5.000000000000000000e+00,5.000000000000000000e+00,5.000000000000000000e+00,5.000000000000000000e+00,5.000000000000000000e+00,5.000000000000000000e+00,3.967546939849853516e+00,4.141509056091308594e+00,5.000000000000000000e+00,5.000000000000000000e+00,5.000000000000000000e+00,5.000000000000000000e+00,5.000000000000000000e+00,5.000000000000000000e+00,5.000000000000000000e+00,5.000000000000000000e+00,5.000000000000000000e+00,5.000000000000000000e+00,5.000000000000000000e+00,5.000000000000000000e+00,4.866106510162353516e+00,4.674825668334960938e+00,4.498014450073242188e+00,4.334090232849121094e+00,4.181693553924560547e+00,4.039648532867431641e+00,3.906937122344970703e+00,3.782667875289916992e+00,3.666059970855712891e+00,3.556426763534545898e+00,3.453160285949707031e+00,3.355721473693847656e+00,3.263630628585815430e+00,3.176459550857543945e+00,3.093823671340942383e+00,3.015378475189208984e+00,2.940813064575195312e+00,2.869846105575561523e+00,2.802223682403564453e+00,2.737714767456054688e+00,2.676109313964843750e+00,2.617214918136596680e+00,2.560857057571411133e+00,2.506875514984130859e+00,2.455122232437133789e+00,2.405462980270385742e+00,2.357772827148437500e+00,2.311936616897583008e+00,2.267848968505859375e+00,2.225410938262939453e+00,2.184532165527343750e+00,2.145128250122070312e+00,2.107120513916015625e+00,2.070436000823974609e+00,2.035007476806640625e+00,2.000770568847656250e+00,1.967666983604431152e+00,1.935640692710876465e+00,1.904640316963195801e+00,1.874617338180541992e+00,1.845525979995727539e+00
5.000000000000000000e+00,5.000000000000000000e+00,5.000000000000000000e+00,5.000000000000000000e+00,5.000000000000000000e+00,5.000000000000000000e+00,5.000000000000000000e+00,5.000000000000000000e+00,5.000000000000000000e+00,5.000000000000000000e+00,5.000000000000000000e+00,5.000000000000000000e+00,5.000000000000000000e+00,5.000000000000000000e+00,5.000000000000000000e+00,5.000000000000000000e+00,5.000000000000000000e+00,5.000000000000000000e+00,5.000000000000000000e+00,5.000000000000000000e+00,5.000000000000000000e+00,5.000000000000000000e+00,5.000000000000000000e+00,5.000000000000000000e+00,5.000000000000000000e+00,3.982417821884155273e+00,5.000000000000000000e+00,5.000000000000000000e+00,5.000000000000000000e+00,5.000000000000000000e+00,5.000000000000000000e+00,5.000000000000000000e+00,5.000000000000000000e+00,5.000000000000000000e+00,5.000000000000000000e+00,5.000000000000000000e+00,5.000000000000000000e+00,5.000000000000000000e+00,5.000000000000000000e+00,4.866245746612548828e+00,4.674953937530517578e+00,4.498133182525634766e+00,4.334200382232666016e+00,4.181796073913574219e+00,4.039745330810546875e+00,3.907027482986450195e+00,3.782752752304077148e+00,3.666139841079711914e+00,3.556501865386962891e+00,3.453231096267700195e+00,3.355788230895996094e+00,3.263693809509277344e+00,3.176519393920898438e+00,3.093880414962768555e+00,3.015432357788085938e+00,2.940864324569702148e+00,2.869894981384277344e+00,2.802270412445068359e+00,2.737759113311767578e+00,2.676151752471923828e+00,2.617255449295043945e+00,2.560895919799804688e+00,2.506912708282470703e+00,2.455157995223999023e+00,2.405497312545776367e+00,2.357805967330932617e+00,2.311968326568603516e+00,2.267879486083984375e+00,2.225440502166748047e+00,2.184560537338256836e+00,2.145155429840087891e+00,2.107146978378295898e+00,2.070461511611938477e+00,2.035032033920288086e+00,2.000794410705566406e+00,1.967689871788024902e+00,1.935662865638732910e+00,1.904661893844604492e+00,1.874638080596923828e+00,1.845546126365661621e+00
4.874869823455810547e+00,4.873659133911132812e+00,4.872447967529296875e+00,4.871238231658935547e+00,4.870028972625732422e+00,4.868820190429687500e+00,4.867611408233642578e+00,4.866404056549072266e+00,4.865197181701660156e+00,4.863990306854248047e+00,4.862784385681152344e+00,4.861579418182373047e+00,4.860374450683593750e+00,4.859170436859130859e+00,4.857967376708984375e+00,4.856764316558837891e+00,4.855562210083007812e+00,4.854360580444335938e+00,4.853159427642822266e+00,4.851958751678466797e+00,4.850759029388427734e+00,4.849559783935546875e+00,4.848361015319824219e+00,4.847163200378417969e+00,4.845965385437011719e+00,3.917032241821289062e+00,3.908460617065429688e+00,4.842376232147216797e+00,4.841181278228759766e+00,4.839986801147460938e+00,4.838792324066162109e+00,4.837599277496337891e+00,4.836406707763671875e+00,4.835214614868164062e+00,4.834022521972656250e+00,4.832831859588623047e+00,4.831641197204589844e+00,4.830451011657714844e+00,4.829261779785156250e+00,4.828073501586914062e+00,4.675082206726074219e+00,4.498251438140869141e+00,4.334310531616210938e+00,4.181899070739746094e+00,4.039842128753662109e+00,3.907118082046508789e+00,3.782837629318237305e+00,3.666219472885131836e+00,3.556576967239379883e+00,3.453301906585693359e+00,3.355854988098144531e+00,3.263756990432739258e+00,3.176579236984252930e+00,3.093937158584594727e+00,3.015486240386962891e+00,2.940915584564208984e+00,2.869943618774414062e+00,2.802316904067993164e+00,2.737803697586059570e+00,2.676193952560424805e+00,2.617296218872070312e+00,2.560935020446777344e+00,2.506949901580810547e+00,2.455193758010864258e+00,2.405531644821166992e+00,2.357838869094848633e+00,2.312000036239624023e+00,2.267910003662109375e+00,2.225469827651977539e+00,2.184588909149169922e+00,2.145182847976684570e+00,2.107173204421997070e+00,2.070486783981323242e+00,2.035056591033935547e+00,2.000818252563476562e+00,1.967712640762329102e+00,1.935685157775878906e+00,1.904683351516723633e+00,1.874659061431884766e+00,1.845566391944885254e+00
3.777628660202026367e+00,3.776901483535766602e+00,3.776174306869506836e+00,3.775447368621826172e+00,3.774721145629882812e+00,3.773994684219360352e+00,3.773268461227416992e+00,3.772542953491210938e+00,3.771817445755004883e+00,3.771092176437377930e+00,3.770367622375488281e+00,3.769642829895019531e+00,3.768918275833129883e+00,3.768194675445556641e+00,3.767470598220825195e+00,3.766746997833251953e+00,3.766024112701416016e+00,3.765300989151000977e+00,3.764578342437744141e+00,3.763856172561645508e+00,3.763134002685546875e+00,3.762412071228027344e+00,3.761690616607666016e+00,3.760969400405883789e+00,3.760248184204101562e+00,3.759527683258056641e+00,3.758807182312011719e+00,3.758086919784545898e+00,3.757367372512817383e+00,3.756647586822509766e+00,3.755928039550781250e+00,3.755209207534790039e+00,3.754490375518798828e+00,3.753771543502807617e+00,3.753053665161132812e+00,3.752335548400878906e+00,3.751617670059204102e+00,3.750900506973266602e+00,3.750183343887329102e+00,3.749466419219970703e+00,3.748749971389770508e+00,3.748033523559570312e+00,3.747317314147949219e+00,3.746601819992065430e+00,3.745886325836181641e+00,3.745170831680297852e+00,3.744456291198730469e+00,3.666299104690551758e+00,3.556651830673217773e+00,3.453372478485107422e+00,3.355921745300292969e+00,3.263820171356201172e+00,3.176639080047607422e+00,3.093993902206420898e+00,3.015540122985839844e+00,2.940966844558715820e+00,2.869992494583129883e+00,2.802363395690917969e+00,2.737848043441772461e+00,2.676236391067504883e+00,2.617336750030517578e+00,2.560973882675170898e+00,2.506987333297729492e+00,2.455229520797729492e+00,2.405565977096557617e+00,2.357871770858764648e+00,2.312031745910644531e+00,2.267940282821655273e+00,2.225499153137207031e+00,2.184617042541503906e+00,2.145210027694702148e+00,2.107199430465698242e+00,2.070512294769287109e+00,2.035081148147583008e+00,2.000841856002807617e+00,1.967735767364501953e+00,1.935707211494445801e+00,1.904704928398132324e+00,1.874679803848266602e+00,1.845586538314819336e+00
3.083574295043945312e+00,3.083089590072631836e+00,3.082605123519897461e+00,3.082120895385742188e+00,3.081636428833007812e+00,3.081152677536010742e+00,3.080668687820434570e+00,3.080184698104858398e+00,3.079701185226440430e+00,3.079217672348022461e+00,3.078734397888183594e+00,3.078251361846923828e+00,3.077768325805664062e+00,3.077285289764404297e+00,3.076802730560302734e+00,3.076320171356201172e+00,3.075837612152099609e+00,3.075355529785156250e+00,3.074873447418212891e+00,3.074391603469848633e+00,3.073909759521484375e+00,3.073427915573120117e+00,3.072946548461914062e+00,3.072465181350708008e+00,3.071983814239501953e+00,3.071502923965454102e+00,3.071022033691406250e+00,3.070541143417358398e+00,3.070060729980468750e+00,3.069580316543579102e+00,3.069099903106689453e+00,3.068619966506958008e+00,3.068139791488647461e+00,3.067659854888916016e+00,3.067180395126342773e+00,3.066700696945190430e+00,3.066221237182617188e+00,3.065742254257202148e+00,3.065263032913208008e+00,3.064784049987792969e+00,3.064305543899536133e+00,3.063826799392700195e+00,3.063348054885864258e+00,3.062870025634765625e+00,3.062391757965087891e+00,3.061913490295410156e+00,3.061435937881469727e+00,3.060957908630371094e+00,3.060480356216430664e+00,3.060003042221069336e+00,3.059525728225708008e+00,3.059048414230346680e+00,3.058571577072143555e+00,3.058094739913940430e+00,3.015594244003295898e+00,2.941018104553222656e+00,2.870041370391845703e+00,2.802410125732421875e+00,2.737892627716064453e+00,2.676278829574584961e+00,2.617377281188964844e+00,2.561012744903564453e+00,2.507024288177490234e+00,2.455265283584594727e+00,2.405600309371948242e+00,2.357904911041259766e+00,2.312063455581665039e+00,2.267970800399780273e+00,2.225528478622436523e+00,2.184645414352416992e+00,2.145237445831298828e+00,2.107225894927978516e+00,2.070537805557250977e+00,2.035105705261230469e+00,2.000865697860717773e+00,1.967758655548095703e+00,1.935729622840881348e+00,1.904726386070251465e+00,1.874700427055358887e+00,1.845606803894042969e+00
2.604969739913940430e+00,2.604623794555664062e+00,2.604278087615966797e+00,2.603932142257690430e+00,2.603586435317993164e+00,2.603241205215454102e+00,2.602895498275756836e+00,2.602550268173217773e+00,2.602205038070678711e+00,2.601859807968139648e+00,2.601514577865600586e+00,2.601169824600219727e+00,2.600824832916259766e+00,2.600479841232299805e+00,2.600135326385498047e+00,2.599790573120117188e+00,2.599446058273315430e+00,2.599101781845092773e+00,2.598757266998291016e+00,2.598412990570068359e+00,2.598068952560424805e+00,2.597724676132202148e+00,2.597380638122558594e+00,2.597036838531494141e+00,2.596693038940429688e+00,2.596349239349365234e+00,2.596005916595458984e+00,2.595662117004394531e+00,2.595318794250488281e+00,2.594975471496582031e+00,2.594632148742675781e+00,2.594288825988769531e+00,2.593945980072021484e+00,2.593602895736694336e+00,2.593260049819946289e+00,2.592917203903198242e+00,2.592574596405029297e+00,2.592231750488281250e+00,2.591889381408691406e+00,2.591546773910522461e+00,2.591204404830932617e+00,2.590862274169921875e+00,2.590520143508911133e+00,2.590178251266479492e+00,2.589836120605468750e+00,2.589493989944458008e+00,2.589152336120605469e+00,2.588810682296752930e+00,2.588469028472900391e+00,2.588127613067626953e+00,2.587785959243774414e+00,2.587444543838500977e+00,2.587103366851806641e+00,2.586762189865112305e+00,2.586421012878417969e+00,2.586080312728881836e+00,2.585739135742187500e+00,2.585398435592651367e+00,2.585057735443115234e+00,2.584717035293579102e+00,2.584376335144042969e+00,2.561051607131958008e+00,2.507061719894409180e+00,2.455301046371459961e+00,2.405634641647338867e+00,2.357937574386596680e+00,2.312095165252685547e+00,2.268001317977905273e+00,2.225557804107666016e+00,2.184673786163330078e+00,2.145264625549316406e+00,2.107252120971679688e+00,2.070563077926635742e+00,2.035130262374877930e+00,2.000889301300048828e+00,1.967781662940979004e+00,1.935751676559448242e+00,1.904747962951660156e+00,1.874721407890319824e+00,1.845626950263977051e+00
2.255016803741455078e+00,2.254755496978759766e+00,2.254494428634643555e+00,2.254233598709106445e+00,2.253972530364990234e+00,2.253711700439453125e+00,2.253450632095336914e+00,2.253190040588378906e+00,2.252929210662841797e+00,2.252668619155883789e+00,2.252407789230346680e+00,2.252147436141967773e+00,2.251886844635009766e+00,2.251626491546630859e+00,2.251365900039672852e+00,2.251105785369873047e+00,2.250845432281494141e+00,2.250585317611694336e+00,2.250324964523315430e+00,2.250065088272094727e+00,2.249804973602294922e+00,2.249545097351074219e+00,2.249285221099853516e+00,2.249026536941528320e+00,2.248768568038940430e+00,2.248510599136352539e+00,2.248253107070922852e+00,2.247995376586914062e+00,2.247737646102905273e+00,2.247480154037475586e+00,2.247222661972045898e+00,2.246965169906616211e+00,2.246707916259765625e+00,2.246450662612915039e+00,2.246193408966064453e+00,2.245936155319213867e+00,2.245679140090942383e+00,2.245421886444091797e+00,2.245164871215820312e+00,2.244907855987548828e+00,2.244651079177856445e+00,2.244394302368164062e+00,2.244137525558471680e+00,2.243880748748779297e+00,2.243624210357666016e+00,2.243367433547973633e+00,2.243110895156860352e+00,2.242854356765747070e+00,2.242598056793212891e+00,2.242341518402099609e+00,2.242085218429565430e+00,2.241828918457031250e+00,2.241572856903076172e+00,2.241316795349121094e+00,2.241060733795166016e+00,2.240804433822631836e+00,2.240548610687255859e+00,2.240292787551879883e+00,2.240036725997924805e+00,2.239781141281127930e+00,2.239525318145751953e+00,2.239269733428955078e+00,2.239014148712158203e+00,2.238758563995361328e+00,2.238503217697143555e+00,2.238247632980346680e+00,2.237992286682128906e+00,2.237736940383911133e+00,2.225587368011474609e+00,2.184702157974243164e+00,2.145292043685913086e+00,2.107278585433959961e+00,2.070588588714599609e+00,2.035154819488525391e+00,2.000913143157958984e+00,1.967804551124572754e+00,1.935774087905883789e+00,1.904769420623779297e+00,1.874742150306701660e+00,1.845647215843200684e+00
1.988039851188659668e+00,1.987837076187133789e+00,1.987634062767028809e+00,1.987431049346923828e+00,1.987228155136108398e+00,1.987025499343872070e+00,1.986822724342346191e+00,1.986619949340820312e+00,1.986417174339294434e+00,1.986214637756347656e+00,1.986011981964111328e+00,1.985809445381164551e+00,1.985606789588928223e+00,1.985404491424560547e+00,1.985202074050903320e+00,1.984999537467956543e+00,1.984797120094299316e+00,1.984594941139221191e+00,1.984392642974853516e+00,1.984190344810485840e+00,1.983988046646118164e+00,1.983786106109619141e+00,1.983583927154541016e+00,1.983381748199462891e+00,1.983179688453674316e+00,1.982977867126464844e+00,1.982775807380676270e+00,1.982573866844177246e+00,1.982371926307678223e+00,1.982170343399047852e+00,1.981968402862548828e+00,1.981766700744628906e+00,1.981564879417419434e+00,1.981363415718078613e+00,1.981161713600158691e+00,1.980960011482238770e+00,1.980758428573608398e+00,1.980557084083557129e+00,1.980355620384216309e+00,1.980154156684875488e+00,1.979952692985534668e+00,1.979751586914062500e+00,1.979550123214721680e+00,1.979348897933959961e+00,1.979147553443908691e+00,1.978946328163146973e+00,1.978745341300964355e+00,1.978544235229492188e+00,1.978343129158020020e+00,1.978142023086547852e+00,1.977941274642944336e+00,1.977740287780761719e+00,1.977539300918579102e+00,1.977338433265686035e+00,1.977137804031372070e+00,1.976936936378479004e+00,1.976736187934875488e+00,1.976535439491271973e+00,1.976334929466247559e+00,1.976134300231933594e+00,1.975933670997619629e+00,1.975733041763305664e+00,1.975532770156860352e+00,1.975332260131835938e+00,1.975131750106811523e+00,1.974931359291076660e+00,1.974731206893920898e+00,1.974530935287475586e+00,1.974330544471740723e+00,1.974130272865295410e+00,1.973930358886718750e+00,1.973730206489562988e+00,1.973530054092407227e+00,1.973329901695251465e+00,1.973130106925964355e+00,1.967827677726745605e+00,1.935796141624450684e+00,1.904790997505187988e+00,1.874763131141662598e+00,1.845667362213134766e+00
1.777587175369262695e+00,1.777425050735473633e+00,1.777262687683105469e+00,1.777100443840026855e+00,1.776938199996948242e+00,1.776776194572448730e+00,1.776613950729370117e+00,1.776451826095581055e+00,1.776289701461791992e+00,1.776127815246582031e+00,1.775965690612792969e+00,1.775803685188293457e+00,1.775641679763793945e+00,1.775479912757873535e+00,1.775317907333374023e+00,1.775156021118164062e+00,1.774994134902954102e+00,1.774832487106323242e+00,1.774670600891113281e+00,1.774508833885192871e+00,1.774347066879272461e+00,1.774185538291931152e+00,1.774023771286010742e+00,1.773862123489379883e+00,1.773700475692749023e+00,1.773539066314697266e+00,1.773377418518066406e+00,1.773215889930725098e+00,1.773054361343383789e+00,1.772892951965332031e+00,1.772731542587280273e+00,1.772570013999938965e+00,1.772408604621887207e+00,1.772247433662414551e+00,1.772086024284362793e+00,1.771924734115600586e+00,1.771763443946838379e+00,1.771602392196655273e+00,1.771441102027893066e+00,1.771279931068420410e+00,1.771118760108947754e+00,1.770957708358764648e+00,1.770796656608581543e+00,1.770635485649108887e+00,1.770474433898925781e+00,1.770313382148742676e+00,1.770152568817138672e+00,1.769991636276245117e+00,1.769830584526062012e+00,1.769669771194458008e+00,1.769508957862854004e+00,1.769348144531250000e+00,1.769187331199645996e+00,1.769026517868041992e+00,1.768865942955017090e+00,1.768705129623413086e+00,1.768544435501098633e+00,1.768383741378784180e+00,1.768223285675048828e+00,1.768062710762023926e+00,1.767902016639709473e+00,1.767741441726684570e+00,1.767581105232238770e+00,1.767420649528503418e+00,1.767260193824768066e+00,1.767099738121032715e+00,1.766939401626586914e+00,1.766779065132141113e+00,1.766618728637695312e+00,1.766458392143249512e+00,1.766298174858093262e+00,1.766137957572937012e+00,1.765977740287780762e+00,1.765817523002624512e+00,1.765657544136047363e+00,1.765497326850891113e+00,1.765337228775024414e+00,1.765177130699157715e+00,1.765017271041870117e+00,1.764857172966003418e+00
1.607426047325134277e+00,1.607293367385864258e+00,1.607160687446594238e+00,1.607028007507324219e+00,1.606895327568054199e+00,1.606762766838073730e+00,1.606630206108093262e+00,1.606497526168823242e+00,1.606364965438842773e+00,1.606232523918151855e+00,1.606099963188171387e+00,1.605967521667480469e+00,1.605834960937500000e+00,1.605702638626098633e+00,1.605570197105407715e+00,1.605437755584716797e+00,1.605305314064025879e+00,1.605173110961914062e+00,1.605040669441223145e+00,1.604908347129821777e+00,1.604776024818420410e+00,1.604643940925598145e+00,1.604511618614196777e+00,1.604379296302795410e+00,1.604247093200683594e+00,1.604115009307861328e+00,1.603982806205749512e+00,1.603850722312927246e+00,1.603718519210815430e+00,1.603586554527282715e+00,1.603454470634460449e+00,1.603322386741638184e+00,1.603190302848815918e+00,1.603058338165283203e+00,1.602926373481750488e+00,1.602794408798217773e+00,1.602662324905395508e+00,1.602530598640441895e+00,1.602398633956909180e+00,1.602266669273376465e+00,1.602134823799133301e+00,1.602003097534179688e+00,1.601871252059936523e+00,1.601739406585693359e+00,1.601607680320739746e+00,1.601475834846496582e+00,1.601344227790832520e+00,1.601212501525878906e+00,1.601080775260925293e+00,1.600949048995971680e+00,1.600817561149597168e+00,1.600685954093933105e+00,1.600554227828979492e+00,1.600422620773315430e+00,1.600291252136230469e+00,1.600159645080566406e+00,1.600028157234191895e+00,1.599896550178527832e+00,1.599765181541442871e+00,1.599633693695068359e+00,1.599502325057983398e+00,1.599370837211608887e+00,1.599239587783813477e+00,1.599108219146728516e+00,1.598976850509643555e+00,1.598845481872558594e+00,1.598714232444763184e+00,1.598582983016967773e+00,1.598451733589172363e+00,1.598320364952087402e+00,1.598189353942871094e+00,1.598058104515075684e+00,1.597926855087280273e+00,1.597795724868774414e+00,1.597664713859558105e+00,1.597533583641052246e+00,1.597402453422546387e+00,1.597271323204040527e+00,1.597140431404113770e+00,1.597009420394897461e+00
1.466996431350708008e+00,1.466885924339294434e+00,1.466775417327880859e+00,1.466664910316467285e+00,1.466554403305053711e+00,1.466444015502929688e+00,1.466333508491516113e+00,1.466223001480102539e+00,1.466112613677978516e+00,1.466002345085144043e+00,1.465891838073730469e+00,1.465781450271606445e+00,1.465671062469482422e+00,1.465560913085937500e+00,1.465450525283813477e+00,1.465340137481689453e+00,1.465229868888854980e+00,1.465119719505310059e+00,1.465009450912475586e+00,1.464899182319641113e+00,1.464788913726806641e+00,1.464678764343261719e+00,1.464568614959716797e+00,1.464458346366882324e+00,1.464348196983337402e+00,1.464238166809082031e+00,1.464128017425537109e+00,1.464017868041992188e+00,1.463907718658447266e+00,1.463797807693481445e+00,1.463687658309936523e+00,1.463577628135681152e+00,1.463467597961425781e+00,1.463357686996459961e+00,1.463247656822204590e+00,1.463137626647949219e+00,1.463027715682983398e+00,1.462917804718017578e+00,1.462807893753051758e+00,1.462697982788085938e+00,1.462588071823120117e+00,1.462478280067443848e+00,1.462368369102478027e+00,1.462258577346801758e+00,1.462148666381835938e+00,1.462038874626159668e+00,1.461929202079772949e+00,1.461819410324096680e+00,1.461709618568420410e+00,1.461599826812744141e+00,1.461490154266357422e+00,1.461380481719970703e+00,1.461270689964294434e+00,1.461161017417907715e+00,1.461051464080810547e+00,1.460941791534423828e+00,1.460832118988037109e+00,1.460722565650939941e+00,1.460613012313842773e+00,1.460503458976745605e+00,1.460393905639648438e+00,1.460284233093261719e+00,1.460174798965454102e+00,1.460065364837646484e+00,1.459955811500549316e+00,1.459846258163452148e+00,1.459736943244934082e+00,1.459627509117126465e+00,1.459517955780029297e+00,1.459408521652221680e+00,1.459299206733703613e+00,1.459189891815185547e+00,1.459080457687377930e+00,1.458971142768859863e+00,1.458861827850341797e+00,1.458752512931823730e+00,1.458643198013305664e+00,1.458533883094787598e+00,1.458424687385559082e+00,1.458315491676330566e+00
1.349132061004638672e+00,1.349038720130920410e+00,1.348945140838623047e+00,1.348851680755615234e+00,1.348758220672607422e+00,1.348664879798889160e+00,1.348571419715881348e+00,1.348477959632873535e+00,1.348384618759155273e+00,1.348291277885437012e+00,1.348197937011718750e+00,1.348104476928710938e+00,1.348011136054992676e+00,1.347917914390563965e+00,1.347824573516845703e+00,1.347731232643127441e+00,1.347637891769409180e+00,1.347544670104980469e+00,1.347451448440551758e+00,1.347358226776123047e+00,1.347264885902404785e+00,1.347171783447265625e+00,1.347078561782836914e+00,1.346985340118408203e+00,1.346892118453979492e+00,1.346799015998840332e+00,1.346705794334411621e+00,1.346612691879272461e+00,1.346519470214843750e+00,1.346426486968994141e+00,1.346333265304565430e+00,1.346240162849426270e+00,1.346147060394287109e+00,1.346054077148437500e+00,1.345960974693298340e+00,1.345867872238159180e+00,1.345774888992309570e+00,1.345681905746459961e+00,1.345588922500610352e+00,1.345495820045471191e+00,1.345402836799621582e+00,1.345309972763061523e+00,1.345216989517211914e+00,1.345124006271362305e+00,1.345031023025512695e+00,1.344938158988952637e+00,1.344845294952392578e+00,1.344752311706542969e+00,1.344659447669982910e+00,1.344566583633422852e+00,1.344473838806152344e+00,1.344380974769592285e+00,1.344288110733032227e+00,1.344195246696472168e+00,1.344102501869201660e+00,1.344009637832641602e+00,1.343916893005371094e+00,1.343824028968811035e+00,1.343731403350830078e+00,1.343638658523559570e+00,1.343545913696289062e+00,1.343453168869018555e+00,1.343360543251037598e+00,1.343267798423767090e+00,1.343175172805786133e+00,1.343082427978515625e+00,1.342989802360534668e+00,1.342897176742553711e+00,1.342804551124572754e+00,1.342711925506591797e+00,1.342619419097900391e+00,1.342526793479919434e+00,1.342434167861938477e+00,1.342341542243957520e+00,1.342249155044555664e+00,1.342156529426574707e+00,1.342064023017883301e+00,1.341971516609191895e+00,1.341879010200500488e+00,1.341786503791809082e+00
1.248798727989196777e+00,1.248718738555908203e+00,1.248638629913330078e+00,1.248558521270751953e+00,1.248478412628173828e+00,1.248398423194885254e+00,1.248318314552307129e+00,1.248238325119018555e+00,1.248158216476440430e+00,1.248078227043151855e+00,1.247998237609863281e+00,1.247918248176574707e+00,1.247838258743286133e+00,1.247758269309997559e+00,1.247678279876708984e+00,1.247598409652709961e+00,1.247518420219421387e+00,1.247438549995422363e+00,1.247358560562133789e+00,1.247278690338134766e+00,1.247198700904846191e+00,1.247118830680847168e+00,1.247038960456848145e+00,1.246959090232849121e+00,1.246879220008850098e+00,1.246799468994140625e+00,1.246719598770141602e+00,1.246639728546142578e+00,1.246559858322143555e+00,1.246480107307434082e+00,1.246400237083435059e+00,1.246320486068725586e+00,1.246240615844726562e+00,1.246160984039306641e+00,1.246081233024597168e+00,1.246001362800598145e+00,1.245921611785888672e+00,1.245841979980468750e+00,1.245762228965759277e+00,1.245682477951049805e+00,1.245602846145629883e+00,1.245523214340209961e+00,1.245443463325500488e+00,1.245363831520080566e+00,1.245284080505371094e+00,1.245204448699951172e+00,1.245124816894531250e+00,1.245045185089111328e+00,1.244965553283691406e+00,1.244885921478271484e+00,1.244806408882141113e+00,1.244726777076721191e+00,1.244647264480590820e+00,1.244567632675170898e+00,1.244488120079040527e+00,1.244408607482910156e+00,1.244328975677490234e+00,1.244249463081359863e+00,1.244170069694519043e+00,1.244090437889099121e+00,1.244010925292968750e+00,1.243931412696838379e+00,1.243852019309997559e+00,1.243772625923156738e+00,1.243693113327026367e+00,1.243613600730895996e+00,1.243534326553344727e+00,1.243454813957214355e+00,1.243375420570373535e+00,1.243296027183532715e+00,1.243216633796691895e+00,1.243137240409851074e+00,1.243057847023010254e+00,1.242978453636169434e+00,1.242899179458618164e+00,1.242819786071777344e+00,1.242740511894226074e+00,1.242661118507385254e+00,1.242581844329833984e+00,1.242502570152282715e+00
1.162355661392211914e+00,1.162286400794982910e+00,1.162216901779174805e+00,1.162147521972656250e+00,1.162078142166137695e+00,1.162008881568908691e+00,1.161939501762390137e+00,1.161870121955871582e+00,1.161800742149353027e+00,1.161731481552124023e+00,1.161662220954895020e+00,1.161592841148376465e+00,1.161523461341857910e+00,1.161454319953918457e+00,1.161384940147399902e+00,1.161315679550170898e+00,1.161246418952941895e+00,1.161177158355712891e+00,1.161107897758483887e+00,1.161038637161254883e+00,1.160969376564025879e+00,1.160900235176086426e+00,1.160830974578857422e+00,1.160761713981628418e+00,1.160692572593688965e+00,1.160623431205749512e+00,1.160554170608520508e+00,1.160485029220581055e+00,1.160415768623352051e+00,1.160346746444702148e+00,1.160277485847473145e+00,1.160208344459533691e+00,1.160139203071594238e+00,1.160070180892944336e+00,1.160001039505004883e+00,1.159931898117065430e+00,1.159862756729125977e+00,1.159793734550476074e+00,1.159724593162536621e+00,1.159655451774597168e+00,1.159586429595947266e+00,1.159517407417297363e+00,1.159448266029357910e+00,1.159379243850708008e+00,1.159310221672058105e+00,1.159241080284118652e+00,1.159172177314758301e+00,1.159103155136108398e+00,1.159034132957458496e+00,1.158965110778808594e+00,1.158896207809448242e+00,1.158827185630798340e+00,1.158758163452148438e+00,1.158689141273498535e+00,1.158620238304138184e+00,1.158551335334777832e+00,1.158482313156127930e+00,1.158413410186767578e+00,1.158344507217407227e+00,1.158275604248046875e+00,1.158206701278686523e+00,1.158137798309326172e+00,1.158069014549255371e+00,1.158000111579895020e+00,1.157931208610534668e+00,1.157862305641174316e+00,1.157793521881103516e+00,1.157724618911743164e+00,1.157655715942382812e+00,1.157586932182312012e+00,1.157518148422241211e+00,1.157449364662170410e+00,1.157380461692810059e+00,1.157311677932739258e+00,1.157242894172668457e+00,1.157174110412597656e+00,1.157105326652526855e+00,1.157036542892456055e+00,1.156967878341674805e+00,1.156899094581604004e+00
1.087105154991149902e+00,1.087044596672058105e+00,1.086983799934387207e+00,1.086923122406005859e+00,1.086862444877624512e+00,1.086801767349243164e+00,1.086741089820861816e+00,1.086680412292480469e+00,1.086619734764099121e+00,1.086559176445007324e+00,1.086498498916625977e+00,1.086437940597534180e+00,1.086377263069152832e+00,1.086316704750061035e+00,1.086256027221679688e+00,1.086195468902587891e+00,1.086134791374206543e+00,1.086074233055114746e+00,1.086013674736022949e+00,1.085953116416931152e+00,1.085892558097839355e+00,1.085831999778747559e+00,1.085771441459655762e+00,1.085710883140563965e+00,1.085650324821472168e+00,1.085589766502380371e+00,1.085529208183288574e+00,1.085468769073486328e+00,1.085408210754394531e+00,1.085347771644592285e+00,1.085287213325500488e+00,1.085226655006408691e+00,1.085166215896606445e+00,1.085105776786804199e+00,1.085045337677001953e+00,1.084984779357910156e+00,1.084924340248107910e+00,1.084863901138305664e+00,1.084803462028503418e+00,1.084743022918701172e+00,1.084682464599609375e+00,1.084622144699096680e+00,1.084561705589294434e+00,1.084501266479492188e+00,1.084440827369689941e+00,1.084380388259887695e+00,1.084320068359375000e+00,1.084259629249572754e+00,1.084199309349060059e+00,1.084138870239257812e+00,1.084078550338745117e+00,1.084018230438232422e+00,1.083957791328430176e+00,1.083897471427917480e+00,1.083837151527404785e+00,1.083776831626892090e+00,1.083716511726379395e+00,1.083656191825866699e+00,1.083595871925354004e+00,1.083535552024841309e+00,1.083475232124328613e+00,1.083414912223815918e+00,1.083354711532592773e+00,1.083294391632080078e+00,1.083234071731567383e+00,1.083173871040344238e+00,1.083113551139831543e+00,1.083053350448608398e+00,1.082993030548095703e+00,1.082932829856872559e+00,1.082872629165649414e+00,1.082812428474426270e+00,1.082752108573913574e+00,1.082691907882690430e+00,1.082631707191467285e+00,1.082571506500244141e+00,1.082511305809020996e+00,1.082451105117797852e+00,1.082391023635864258e+00,1.082330822944641113e+00
1.021005630493164062e+00,1.020952105522155762e+00,1.020898580551147461e+00,1.020845055580139160e+00,1.020791530609130859e+00,1.020738005638122559e+00,1.020684480667114258e+00,1.020630955696105957e+00,1.020577430725097656e+00,1.020524024963378906e+00,1.020470499992370605e+00,1.020416975021362305e+00,1.020363569259643555e+00,1.020310044288635254e+00,1.020256638526916504e+00,1.020203113555908203e+00,1.020149707794189453e+00,1.020096302032470703e+00,1.020042777061462402e+00,1.019989371299743652e+00,1.019935846328735352e+00,1.019882559776306152e+00,1.019829034805297852e+00,1.019775629043579102e+00,1.019722223281860352e+00,1.019668817520141602e+00,1.019615411758422852e+00,1.019562005996704102e+00,1.019508600234985352e+00,1.019455313682556152e+00,1.019401907920837402e+00,1.019348502159118652e+00,1.019295096397399902e+00,1.019241809844970703e+00,1.019188404083251953e+00,1.019134998321533203e+00,1.019081711769104004e+00,1.019028425216674805e+00,1.018975019454956055e+00,1.018921732902526855e+00,1.018868327140808105e+00,1.018815040588378906e+00,1.018761754035949707e+00,1.018708467483520508e+00,1.018655180931091309e+00,1.018601775169372559e+00,1.018548607826232910e+00,1.018495321273803711e+00,1.018442034721374512e+00,1.018388628959655762e+00,1.018335461616516113e+00,1.018282175064086914e+00,1.018228888511657715e+00,1.018175601959228516e+00,1.018122434616088867e+00,1.018069148063659668e+00,1.018015980720520020e+00,1.017962694168090820e+00,1.017909526824951172e+00,1.017856240272521973e+00,1.017803072929382324e+00,1.017749786376953125e+00,1.017696738243103027e+00,1.017643451690673828e+00,1.017590284347534180e+00,1.017537117004394531e+00,1.017483949661254883e+00,1.017430782318115234e+00,1.017377614974975586e+00,1.017324447631835938e+00,1.017271280288696289e+00,1.017218112945556641e+00,1.017164945602416992e+00,1.017111778259277344e+00,1.017058730125427246e+00,1.017005562782287598e+00,1.016952395439147949e+00,1.016899347305297852e+00,1.016846179962158203e+00,1.016793131828308105e+00
9.624835252761840820e-01,9.624360799789428711e-01,9.623884558677673340e-01,9.623408913612365723e-01,9.622932672500610352e-01,9.622457027435302734e-01,9.621981382369995117e-01,9.621505737304687500e-01,9.621030092239379883e-01,9.620555639266967773e-01,9.620080590248107910e-01,9.619604945182800293e-01,9.619129300117492676e-01,9.618654251098632812e-01,9.618178606033325195e-01,9.617703557014465332e-01,9.617228507995605469e-01,9.616754055023193359e-01,9.616279006004333496e-01,9.615803956985473633e-01,9.615328907966613770e-01,9.614853858947753906e-01,9.614378809928894043e-01,9.613904356956481934e-01,9.613429307937622070e-01,9.612955451011657715e-01,9.612480998039245605e-01,9.612005949020385742e-01,9.611531496047973633e-01,9.611057043075561523e-01,9.610581994056701660e-01,9.610107541084289551e-01,9.609633088111877441e-01,9.609159827232360840e-01,9.608685374259948730e-01,9.608210921287536621e-01,9.607737064361572266e-01,9.607262611389160156e-01,9.606788158416748047e-01,9.606314301490783691e-01,9.605839848518371582e-01,9.605367183685302734e-01,9.604893326759338379e-01,9.604418873786926270e-01,9.603945016860961914e-01,9.603471159934997559e-01,9.602997303009033203e-01,9.602523446083068848e-01,9.602050185203552246e-01,9.601576328277587891e-01,9.601103663444519043e-01,9.600630402565002441e-01,9.600156545639038086e-01,9.599683284759521484e-01,9.599209427833557129e-01,9.598736166954040527e-01,9.598262906074523926e-01,9.597789645195007324e-01,9.597317576408386230e-01,9.596844315528869629e-01,9.596371054649353027e-01,9.595897793769836426e-01,9.595424532890319824e-01,9.594951868057250977e-01,9.594478607177734375e-01,9.594005942344665527e-01,9.593533873558044434e-01,9.593061208724975586e-01,9.592587947845458984e-01,9.592115283012390137e-01,9.591642618179321289e-01,9.591169953346252441e-01,9.590697288513183594e-01,9.590225219726562500e-01,9.589753746986389160e-01,9.589281082153320312e-01,9.588808417320251465e-01,9.588336348533630371e-01,9.587863683700561523e-01,9.587391614913940430e-01
9.103064537048339844e-01,9.102640151977539062e-01,9.102214574813842773e-01,9.101788401603698730e-01,9.101362824440002441e-01,9.100937247276306152e-01,9.100511670112609863e-01,9.100086688995361328e-01,9.099661111831665039e-01,9.099236726760864258e-01,9.098811149597167969e-01,9.098385572433471680e-01,9.097960591316223145e-01,9.097535014152526855e-01,9.097110033035278320e-01,9.096685051918029785e-01,9.096259474754333496e-01,9.095835685729980469e-01,9.095410704612731934e-01,9.094985723495483398e-01,9.094560742378234863e-01,9.094135761260986328e-01,9.093710780143737793e-01,9.093285799026489258e-01,9.092860817909240723e-01,9.092437028884887695e-01,9.092012643814086914e-01,9.091587662696838379e-01,9.091163277626037598e-01,9.090738296508789062e-01,9.090313911437988281e-01,9.089889526367187500e-01,9.089464545249938965e-01,9.089041352272033691e-01,9.088616967201232910e-01,9.088192582130432129e-01,9.087768197059631348e-01,9.087343811988830566e-01,9.086919426918029785e-01,9.086495637893676758e-01,9.086071252822875977e-01,9.085648059844970703e-01,9.085223674774169922e-01,9.084799885749816895e-01,9.084376096725463867e-01,9.083951711654663086e-01,9.083527922630310059e-01,9.083104133605957031e-01,9.082680344581604004e-01,9.082256555557250977e-01,9.081833362579345703e-01,9.081409573554992676e-01,9.080985784530639648e-01,9.080562591552734375e-01,9.080138802528381348e-01,9.079715013504028320e-01,9.079291820526123047e-01,9.078868031501770020e-01,9.078445434570312500e-01,9.078022241592407227e-01,9.077598452568054199e-01,9.077175259590148926e-01,9.076752066612243652e-01,9.076328873634338379e-01,9.075905680656433105e-01,9.075482487678527832e-01,9.075059890747070312e-01,9.074637293815612793e-01,9.074214100837707520e-01,9.073790907859802246e-01,9.073367714881896973e-01,9.072945117950439453e-01,9.072521924972534180e-01,9.072099328041076660e-01,9.071677327156066895e-01,9.071254730224609375e-01,9.070831537246704102e-01,9.070408940315246582e-01,9.069986343383789062e-01,9.069563746452331543e-01
8.634956479072570801e-01,8.634574413299560547e-01,8.634191155433654785e-01,8.633807897567749023e-01,8.633425235748291016e-01,8.633041977882385254e-01,8.632659316062927246e-01,8.632276654243469238e-01,8.631893396377563477e-01,8.631511926651000977e-01,8.631128668785095215e-01,8.630746006965637207e-01,8.630363345146179199e-01,8.629980683326721191e-01,8.629598021507263184e-01,8.629215359687805176e-01,8.628832697868347168e-01,8.628451228141784668e-01,8.628068566322326660e-01,8.627686500549316406e-01,8.627303838729858398e-01,8.626921772956848145e-01,8.626539111137390137e-01,8.626157045364379883e-01,8.625774383544921875e-01,8.625392913818359375e-01,8.625010848045349121e-01,8.624628782272338867e-01,8.624246716499328613e-01,8.623864650726318359e-01,8.623482584953308105e-01,8.623100519180297852e-01,8.622718453407287598e-01,8.622336983680725098e-01,8.621954917907714844e-01,8.621573448181152344e-01,8.621191382408142090e-01,8.620809316635131836e-01,8.620427846908569336e-01,8.620045781135559082e-01,8.619664311408996582e-01,8.619283437728881836e-01,8.618901371955871582e-01,8.618519902229309082e-01,8.618138432502746582e-01,8.617756962776184082e-01,8.617374897003173828e-01,8.616993427276611328e-01,8.616611957550048828e-01,8.616230487823486328e-01,8.615850210189819336e-01,8.615468740463256836e-01,8.615087270736694336e-01,8.614705801010131836e-01,8.614324927330017090e-01,8.613943457603454590e-01,8.613562583923339844e-01,8.613181114196777344e-01,8.612800836563110352e-01,8.612419962882995605e-01,8.612038493156433105e-01,8.611657619476318359e-01,8.611276745796203613e-01,8.610895872116088867e-01,8.610514402389526367e-01,8.610133528709411621e-01,8.609753847122192383e-01,8.609372973442077637e-01,8.608992099761962891e-01,8.608611226081848145e-01,8.608230352401733398e-01,8.607850074768066406e-01,8.607469201087951660e-01,8.607088327407836914e-01,8.606708645820617676e-01,8.606328368186950684e-01,8.605947494506835938e-01,8.605567216873168945e-01,8.605186939239501953e-01,8.604806065559387207e-01
8.212636709213256836e-01,8.212291002273559570e-01,8.211944103240966797e-01,8.211597800254821777e-01,8.211251497268676758e-01,8.210905194282531738e-01,8.210558891296386719e-01,8.210212588310241699e-01,8.209866285324096680e-01,8.209520578384399414e-01,8.209174275398254395e-01,8.208827972412109375e-01,8.208481669425964355e-01,8.208135962486267090e-01,8.207789659500122070e-01,8.207443356513977051e-01,8.207097649574279785e-01,8.206751942634582520e-01,8.206406235694885254e-01,8.206059932708740234e-01,8.205714225769042969e-01,8.205368518829345703e-01,8.205022215843200684e-01,8.204676508903503418e-01,8.204330801963806152e-01,8.203985691070556641e-01,8.203639984130859375e-01,8.203294277191162109e-01,8.202948570251464844e-01,8.202602863311767578e-01,8.202257156372070312e-01,8.201911449432373047e-01,8.201565742492675781e-01,8.201221227645874023e-01,8.200875520706176758e-01,8.200529813766479492e-01,8.200184106826782227e-01,8.199838995933532715e-01,8.199493288993835449e-01,8.199148178100585938e-01,8.198802471160888672e-01,8.198457956314086914e-01,8.198112845420837402e-01,8.197767138481140137e-01,8.197422027587890625e-01,8.197076916694641113e-01,8.196731805801391602e-01,8.196386694908142090e-01,8.196041584014892578e-01,8.195696473121643066e-01,8.195351958274841309e-01,8.195006847381591797e-01,8.194661736488342285e-01,8.194316625595092773e-01,8.193972110748291016e-01,8.193626999855041504e-01,8.193281888961791992e-01,8.192936778068542480e-01,8.192592859268188477e-01,8.192248344421386719e-01,8.191903233528137207e-01,8.191558718681335449e-01,8.191213607788085938e-01,8.190869092941284180e-01,8.190524578094482422e-01,8.190179467201232910e-01,8.189836144447326660e-01,8.189491033554077148e-01,8.189146518707275391e-01,8.188802003860473633e-01,8.188457489013671875e-01,8.188112974166870117e-01,8.187768459320068359e-01,8.187424540519714355e-01,8.187080621719360352e-01,8.186736106872558594e-01,8.186392188072204590e-01,8.186047673225402832e-01,8.185703158378601074e-01,8.185359239578247070e-01
7.829700708389282227e-01,7.829386591911315918e-01,7.829071283340454102e-01,7.828756570816040039e-01,7.828441858291625977e-01,7.828126549720764160e-01,7.827811837196350098e-01,7.827497124671936035e-01,7.827182412147521973e-01,7.826868295669555664e-01,7.826553583145141602e-01,7.826238870620727539e-01,7.825924158096313477e-01,7.825609445571899414e-01,7.825294733047485352e-01,7.824980020523071289e-01,7.824665904045104980e-01,7.824351787567138672e-01,7.824037075042724609e-01,7.823722958564758301e-01,7.823408246040344238e-01,7.823093533515930176e-01,7.822779417037963867e-01,7.822464704513549805e-01,7.822150588035583496e-01,7.821837067604064941e-01,7.821522355079650879e-01,7.821208238601684570e-01,7.820894122123718262e-01,7.820580005645751953e-01,7.820265293121337891e-01,7.819951176643371582e-01,7.819637060165405273e-01,7.819323539733886719e-01,7.819009423255920410e-01,7.818695306777954102e-01,7.818381190299987793e-01,7.818067073822021484e-01,7.817753553390502930e-01,7.817439436912536621e-01,7.817125320434570312e-01,7.816811800003051758e-01,7.816498279571533203e-01,7.816184163093566895e-01,7.815870642662048340e-01,7.815556526184082031e-01,7.815242409706115723e-01,7.814928889274597168e-01,7.814615368843078613e-01,7.814301252365112305e-01,7.813988327980041504e-01,7.813674807548522949e-01,7.813360691070556641e-01,7.813047170639038086e-01,7.812733650207519531e-01,7.812420129776000977e-01,7.812106609344482422e-01,7.811793088912963867e-01,7.811480164527893066e-01,7.811166644096374512e-01,7.810853123664855957e-01,7.810539603233337402e-01,7.810226082801818848e-01,7.809912562370300293e-01,7.809599637985229492e-01,7.809286117553710938e-01,7.808973789215087891e-01,7.808660268783569336e-01,7.808346748352050781e-01,7.808033823966979980e-01,7.807720303535461426e-01,7.807407379150390625e-01,7.807093858718872070e-01,7.806780934333801270e-01,7.806468605995178223e-01,7.806155681610107422e-01,7.805842161178588867e-01,7.805529236793518066e-01,7.805216312408447266e-01,7.804903388023376465e-01
7.480884194374084473e-01,7.480597496032714844e-01,7.480310201644897461e-01,7.480022311210632324e-01,7.479735016822814941e-01,7.479447722434997559e-01,7.479160428047180176e-01,7.478872537612915039e-01,7.478585243225097656e-01,7.478298544883728027e-01,7.478011250495910645e-01,7.477723956108093262e-01,7.477436661720275879e-01,7.477149367332458496e-01,7.476862072944641113e-01,7.476575374603271484e-01,7.476288080215454102e-01,7.476001381874084473e-01,7.475714087486267090e-01,7.475427389144897461e-01,7.475140094757080078e-01,7.474852800369262695e-01,7.474566102027893066e-01,7.474278807640075684e-01,7.473992109298706055e-01,7.473705410957336426e-01,7.473418712615966797e-01,7.473131418228149414e-01,7.472844719886779785e-01,7.472557425498962402e-01,7.472270727157592773e-01,7.471984028816223145e-01,7.471697330474853516e-01,7.471411228179931641e-01,7.471123933792114258e-01,7.470837235450744629e-01,7.470550537109375000e-01,7.470263838768005371e-01,7.469977140426635742e-01,7.469690442085266113e-01,7.469403743743896484e-01,7.469117641448974609e-01,7.468830943107604980e-01,7.468544840812683105e-01,7.468258142471313477e-01,7.467971444129943848e-01,7.467684745788574219e-01,7.467398643493652344e-01,7.467111945152282715e-01,7.466825246810913086e-01,7.466539740562438965e-01,7.466253042221069336e-01,7.465966939926147461e-01,7.465680241584777832e-01,7.465394139289855957e-01,7.465108036994934082e-01,7.464821338653564453e-01,7.464535236358642578e-01,7.464249730110168457e-01,7.463963031768798828e-01,7.463676929473876953e-01,7.463390827178955078e-01,7.463104724884033203e-01,7.462818622589111328e-01,7.462532520294189453e-01,7.462246417999267578e-01,7.461960911750793457e-01,7.461674809455871582e-01,7.461388707160949707e-01,7.461102604866027832e-01,7.460816502571105957e-01,7.460530400276184082e-01,7.460244894027709961e-01,7.459958791732788086e-01,7.459673285484313965e-01,7.459387779235839844e-01,7.459101676940917969e-01,7.458815574645996094e-01,7.458530068397521973e-01,7.458243966102600098e-01
7.161822319030761719e-01,7.161559462547302246e-01,7.161296010017395020e-01,7.161032557487487793e-01,7.160769104957580566e-01,7.160505652427673340e-01,7.160242199897766113e-01,7.159978747367858887e-01,7.159715294837951660e-01,7.159452438354492188e-01,7.159188985824584961e-01,7.158925533294677734e-01,7.158662676811218262e-01,7.158399224281311035e-01,7.158135771751403809e-01,7.157872915267944336e-01,7.157609462738037109e-01,7.157346606254577637e-01,7.157083749771118164e-01,7.156820297241210938e-01,7.156557440757751465e-01,7.156293988227844238e-01,7.156031131744384766e-01,7.155768275260925293e-01,7.155504822731018066e-01,7.155242562294006348e-01,7.154979705810546875e-01,7.154716253280639648e-01,7.154453396797180176e-01,7.154190540313720703e-01,7.153927683830261230e-01,7.153664231300354004e-01,7.153401374816894531e-01,7.153139114379882812e-01,7.152876257896423340e-01,7.152613401412963867e-01,7.152350544929504395e-01,7.152087688446044922e-01,7.151824831962585449e-01,7.151562571525573730e-01,7.151299715042114258e-01,7.151037454605102539e-01,7.150774598121643066e-01,7.150511741638183594e-01,7.150249481201171875e-01,7.149986624717712402e-01,7.149723768234252930e-01,7.149461507797241211e-01,7.149198651313781738e-01,7.148936390876770020e-01,7.148674130439758301e-01,7.148411870002746582e-01,7.148149013519287109e-01,7.147886753082275391e-01,7.147623896598815918e-01,7.147361636161804199e-01,7.147099375724792480e-01,7.146836519241333008e-01,7.146574854850769043e-01,7.146312594413757324e-01,7.146050333976745605e-01,7.145787477493286133e-01,7.145525217056274414e-01,7.145262956619262695e-01,7.145000696182250977e-01,7.144738435745239258e-01,7.144476771354675293e-01,7.144214510917663574e-01,7.143952250480651855e-01,7.143689990043640137e-01,7.143427729606628418e-01,7.143166065216064453e-01,7.142903804779052734e-01,7.142641544342041016e-01,7.142379879951477051e-01,7.142117619514465332e-01,7.141855955123901367e-01,7.141593694686889648e-01,7.141332030296325684e-01,7.141069769859313965e-01
6.868863105773925781e-01,6.868621110916137695e-01,6.868379116058349609e-01,6.868136525154113770e-01,6.867894530296325684e-01,6.867651939392089844e-01,6.867409348487854004e-01,6.867167353630065918e-01,6.866924762725830078e-01,6.866683363914489746e-01,6.866440773010253906e-01,6.866198778152465820e-01,6.865956783294677734e-01,6.865714192390441895e-01,6.865472197532653809e-01,6.865230202674865723e-01,6.864987611770629883e-01,6.864746212959289551e-01,6.864504218101501465e-01,6.864262223243713379e-01,6.864020228385925293e-01,6.863778233528137207e-01,6.863535642623901367e-01,6.863293647766113281e-01,6.863051652908325195e-01,6.862810254096984863e-01,6.862568259239196777e-01,6.862326264381408691e-01,6.862084865570068359e-01,6.861842870712280273e-01,6.861600875854492188e-01,6.861358880996704102e-01,6.861116886138916016e-01,6.860875487327575684e-01,6.860634088516235352e-01,6.860392093658447266e-01,6.860150098800659180e-01,6.859908103942871094e-01,6.859666705131530762e-01,6.859424710273742676e-01,6.859183311462402344e-01,6.858941912651062012e-01,6.858700513839721680e-01,6.858458518981933594e-01,6.858217120170593262e-01,6.857975125312805176e-01,6.857733726501464844e-01,6.857491731643676758e-01,6.857250332832336426e-01,6.857008934020996094e-01,6.856767535209655762e-01,6.856526136398315430e-01,6.856284737586975098e-01,6.856043338775634766e-01,6.855801939964294434e-01,6.855559945106506348e-01,6.855318546295166016e-01,6.855077147483825684e-01,6.854836344718933105e-01,6.854594945907592773e-01,6.854353547096252441e-01,6.854112148284912109e-01,6.853870749473571777e-01,6.853629350662231445e-01,6.853387951850891113e-01,6.853147149085998535e-01,6.852906346321105957e-01,6.852664947509765625e-01,6.852423548698425293e-01,6.852182149887084961e-01,6.851941347122192383e-01,6.851699948310852051e-01,6.851458549499511719e-01,6.851217746734619141e-01,6.850976943969726562e-01,6.850735545158386230e-01,6.850494742393493652e-01,6.850253343582153320e-01,6.850012540817260742e-01,6.849771142005920410e-01
6.598929762840270996e-01,6.598706245422363281e-01,6.598482728004455566e-01,6.598259210586547852e-01,6.598035097122192383e-01,6.597811579704284668e-01,6.597588062286376953e-01,6.597364544868469238e-01,6.597141027450561523e-01,6.596917510032653809e-01,6.596693992614746094e-01,6.596470475196838379e-01,6.596246957778930664e-01,6.596023440361022949e-01,6.595799922943115234e-01,6.595576405525207520e-01,6.595352888107299805e-01,6.595129966735839844e-01,6.594906449317932129e-01,6.594682931900024414e-01,6.594459414482116699e-01,6.594235897064208984e-01,6.594012975692749023e-01,6.593789458274841309e-01,6.593565940856933594e-01,6.593343019485473633e-01,6.593119502067565918e-01,6.592896580696105957e-01,6.592673063278198242e-01,6.592449545860290527e-01,6.592226624488830566e-01,6.592003107070922852e-01,6.591780185699462891e-01,6.591557264328002930e-01,6.591334342956542969e-01,6.591110825538635254e-01,6.590887904167175293e-01,6.590664386749267578e-01,6.590441465377807617e-01,6.590217947959899902e-01,6.589995026588439941e-01,6.589772105216979980e-01,6.589549183845520020e-01,6.589326262474060059e-01,6.589103341102600098e-01,6.588879823684692383e-01,6.588656902313232422e-01,6.588433980941772461e-01,6.588211059570312500e-01,6.587988138198852539e-01,6.587765216827392578e-01,6.587542295455932617e-01,6.587319374084472656e-01,6.587096452713012695e-01,6.586873531341552734e-01,6.586650609970092773e-01,6.586427688598632812e-01,6.586204767227172852e-01,6.585982441902160645e-01,6.585759520530700684e-01,6.585537195205688477e-01,6.585314273834228516e-01,6.585091352462768555e-01,6.584868431091308594e-01,6.584645509719848633e-01,6.584423184394836426e-01,6.584200859069824219e-01,6.583977937698364258e-01,6.583755612373352051e-01,6.583532691001892090e-01,6.583309769630432129e-01,6.583087444305419922e-01,6.582864522933959961e-01,6.582642197608947754e-01,6.582419872283935547e-01,6.582196950912475586e-01,6.581974625587463379e-01,6.581752300262451172e-01,6.581529378890991211e-01,6.581307053565979004e-01
6.349409222602844238e-01,6.349202990531921387e-01,6.348995566368103027e-01,6.348788738250732422e-01,6.348581314086914062e-01,6.348374485969543457e-01,6.348167061805725098e-01,6.347960233688354492e-01,6.347753405570983887e-01,6.347546577453613281e-01,6.347339749336242676e-01,6.347132921218872070e-01,6.346925497055053711e-01,6.346718668937683105e-01,6.346511840820312500e-01,6.346305012702941895e-01,6.346098184585571289e-01,6.345891356468200684e-01,6.345684528350830078e-01,6.345477700233459473e-01,6.345270872116088867e-01,6.345064043998718262e-01,6.344857215881347656e-01,6.344650387763977051e-01,6.344443559646606445e-01,6.344237327575683594e-01,6.344030499458312988e-01,6.343823671340942383e-01,6.343616843223571777e-01,6.343410015106201172e-01,6.343203186988830566e-01,6.342996358871459961e-01,6.342790126800537109e-01,6.342583894729614258e-01,6.342377066612243652e-01,6.342170238494873047e-01,6.341963410377502441e-01,6.341757178306579590e-01,6.341550350189208984e-01,6.341343522071838379e-01,6.341137290000915527e-01,6.340931057929992676e-01,6.340724825859069824e-01,6.340517997741699219e-01,6.340311169624328613e-01,6.340104937553405762e-01,6.339898109436035156e-01,6.339691877365112305e-01,6.339485645294189453e-01,6.339278817176818848e-01,6.339073181152343750e-01,6.338866353034973145e-01,6.338660120964050293e-01,6.338453888893127441e-01,6.338247060775756836e-01,6.338040828704833984e-01,6.337834596633911133e-01,6.337627768516540527e-01,6.337422132492065430e-01,6.337215900421142578e-01,6.337009668350219727e-01,6.336803436279296875e-01,6.336596608161926270e-01,6.336390376091003418e-01,6.336184144020080566e-01,6.335977911949157715e-01,6.335772275924682617e-01,6.335566043853759766e-01,6.335359811782836914e-01,6.335153579711914062e-01,6.334947347640991211e-01,6.334741115570068359e-01,6.334534883499145508e-01,6.334328651428222656e-01,6.334123015403747559e-01,6.333916783332824707e-01,6.333711147308349609e-01,6.333504915237426758e-01,6.333298683166503906e-01,6.333092451095581055e-01
6.118071675300598145e-01,6.117879748344421387e-01,6.117687821388244629e-01,6.117495298385620117e-01,6.117303371429443359e-01,6.117110848426818848e-01,6.116918325424194336e-01,6.116726398468017578e-01,6.116533875465393066e-01,6.116342544555664062e-01,6.116150021553039551e-01,6.115958094596862793e-01,6.115765571594238281e-01,6.115573644638061523e-01,6.115381717681884766e-01,6.115189194679260254e-01,6.114997267723083496e-01,6.114805340766906738e-01,6.114613413810729980e-01,6.114421486854553223e-01,6.114228963851928711e-01,6.114037036895751953e-01,6.113845109939575195e-01,6.113653182983398438e-01,6.113461256027221680e-01,6.113269329071044922e-01,6.113077402114868164e-01,6.112885475158691406e-01,6.112693548202514648e-01,6.112501621246337891e-01,6.112309694290161133e-01,6.112117767333984375e-01,6.111925840377807617e-01,6.111733913421630859e-01,6.111541986465454102e-01,6.111350655555725098e-01,6.111158728599548340e-01,6.110966801643371582e-01,6.110774874687194824e-01,6.110582947731018066e-01,6.110391020774841309e-01,6.110199689865112305e-01,6.110007762908935547e-01,6.109815835952758789e-01,6.109624505043029785e-01,6.109432578086853027e-01,6.109240651130676270e-01,6.109048724174499512e-01,6.108857393264770508e-01,6.108665466308593750e-01,6.108474135398864746e-01,6.108282208442687988e-01,6.108090877532958984e-01,6.107898950576782227e-01,6.107707619667053223e-01,6.107515692710876465e-01,6.107324361801147461e-01,6.107132434844970703e-01,6.106941103935241699e-01,6.106749773025512695e-01,6.106557846069335938e-01,6.106366515159606934e-01,6.106174588203430176e-01,6.105983257293701172e-01,6.105791926383972168e-01,6.105599999427795410e-01,6.105409264564514160e-01,6.105217337608337402e-01,6.105026006698608398e-01,6.104834675788879395e-01,6.104643344879150391e-01,6.104451417922973633e-01,6.104260087013244629e-01,6.104068756103515625e-01,6.103878021240234375e-01,6.103686094284057617e-01,6.103494763374328613e-01,6.103303432464599609e-01,6.103112101554870605e-01,6.102920770645141602e-01
5.902998447418212891e-01,5.902820229530334473e-01,5.902640819549560547e-01,5.902462005615234375e-01,5.902283191680908203e-01,5.902103781700134277e-01,5.901924967765808105e-01,5.901746153831481934e-01,5.901567339897155762e-01,5.901388525962829590e-01,5.901209712028503418e-01,5.901030898094177246e-01,5.900852084159851074e-01,5.900673270225524902e-01,5.900493860244750977e-01,5.900315046310424805e-01,5.900136232376098633e-01,5.899958014488220215e-01,5.899779200553894043e-01,5.899600386619567871e-01,5.899421572685241699e-01,5.899242758750915527e-01,5.899063944816589355e-01,5.898885130882263184e-01,5.898706316947937012e-01,5.898528099060058594e-01,5.898349285125732422e-01,5.898170471191406250e-01,5.897991657257080078e-01,5.897813439369201660e-01,5.897634625434875488e-01,5.897455811500549316e-01,5.897276997566223145e-01,5.897098779678344727e-01,5.896919965744018555e-01,5.896741747856140137e-01,5.896562933921813965e-01,5.896384119987487793e-01,5.896205306053161621e-01,5.896027088165283203e-01,5.895848274230957031e-01,5.895670056343078613e-01,5.895491838455200195e-01,5.895313024520874023e-01,5.895134210586547852e-01,5.894955992698669434e-01,5.894777178764343262e-01,5.894598960876464844e-01,5.894420146942138672e-01,5.894241929054260254e-01,5.894063711166381836e-01,5.893885493278503418e-01,5.893706679344177246e-01,5.893528461456298828e-01,5.893349647521972656e-01,5.893171429634094238e-01,5.892993211746215820e-01,5.892814397811889648e-01,5.892636775970458984e-01,5.892457962036132812e-01,5.892279744148254395e-01,5.892101526260375977e-01,5.891922712326049805e-01,5.891744494438171387e-01,5.891566276550292969e-01,5.891388058662414551e-01,5.891209840774536133e-01,5.891031622886657715e-01,5.890853404998779297e-01,5.890675187110900879e-01,5.890496969223022461e-01,5.890318751335144043e-01,5.890140533447265625e-01,5.889962315559387207e-01,5.889784097671508789e-01,5.889605879783630371e-01,5.889427661895751953e-01,5.889249444007873535e-01,5.889071226119995117e-01,5.888893008232116699e-01
5.702533721923828125e-01,5.702366828918457031e-01,5.702199935913085938e-01,5.702032446861267090e-01,5.701865553855895996e-01,5.701698660850524902e-01,5.701531767845153809e-01,5.701364278793334961e-01,5.701197385787963867e-01,5.701031088829040527e-01,5.700864195823669434e-01,5.700696706771850586e-01,5.700529813766479492e-01,5.700362920761108398e-01,5.700196027755737305e-01,5.700029134750366211e-01,5.699862241744995117e-01,5.699695944786071777e-01,5.699529051780700684e-01,5.699362158775329590e-01,5.699194669723510742e-01,5.699028372764587402e-01,5.698861479759216309e-01,5.698694586753845215e-01,5.698527693748474121e-01,5.698360800743103027e-01,5.698194503784179688e-01,5.698027610778808594e-01,5.697860717773437500e-01,5.697693824768066406e-01,5.697526931762695312e-01,5.697360038757324219e-01,5.697193145751953125e-01,5.697026848793029785e-01,5.696860551834106445e-01,5.696693658828735352e-01,5.696526765823364258e-01,5.696359872817993164e-01,5.696193575859069824e-01,5.696026682853698730e-01,5.695859789848327637e-01,5.695693492889404297e-01,5.695527195930480957e-01,5.695360302925109863e-01,5.695193409919738770e-01,5.695027112960815430e-01,5.694860219955444336e-01,5.694693922996520996e-01,5.694527029991149902e-01,5.694360733032226562e-01,5.694194436073303223e-01,5.694027543067932129e-01,5.693861246109008789e-01,5.693694353103637695e-01,5.693528056144714355e-01,5.693361759185791016e-01,5.693194866180419922e-01,5.693028569221496582e-01,5.692862272262573242e-01,5.692695975303649902e-01,5.692529082298278809e-01,5.692362785339355469e-01,5.692196488380432129e-01,5.692029595375061035e-01,5.691863298416137695e-01,5.691697001457214355e-01,5.691530704498291016e-01,5.691364407539367676e-01,5.691198110580444336e-01,5.691031813621520996e-01,5.690864920616149902e-01,5.690698623657226562e-01,5.690532326698303223e-01,5.690366029739379883e-01,5.690200328826904297e-01,5.690033435821533203e-01,5.689867138862609863e-01,5.689700841903686523e-01,5.689534544944763184e-01,5.689368247985839844e-01
