5.000000000000000000e+00,5.000000000000000000e+00,5.000000000000000000e+00,5.000000000000000000e+00,5.000000000000000000e+00,5.000000000000000000e+00,5.000000000000000000e+00,5.000000000000000000e+00,5.000000000000000000e+00,5.000000000000000000e+00,5.000000000000000000e+00,5.000000000000000000e+00,5.000000000000000000e+00,5.000000000000000000e+00,5.000000000000000000e+00,5.000000000000000000e+00,5.000000000000000000e+00,5.000000000000000000e+00,5.000000000000000000e+00,5.000000000000000000e+00,5.000000000000000000e+00,5.000000000000000000e+00,5.000000000000000000e+00,5.000000000000000000e+00,5.000000000000000000e+00,5.000000000000000000e+00,4.389223098754882812e+00,5.000000000000000000e+00,5.000000000000000000e+00,5.000000000000000000e+00,5.000000000000000000e+00,5.000000000000000000e+00,5.000000000000000000e+00,5.000000000000000000e+00,5.000000000000000000e+00,5.000000000000000000e+00,5.000000000000000000e+00,5.000000000000000000e+00,5.000000000000000000e+00,4.847689151763916016e+00,4.657933235168457031e+00,4.482473373413085938e+00,4.319752216339111328e+00,4.168431282043457031e+00,4.027352809906005859e+00,3.895511865615844727e+00,3.772028684616088867e+00,3.656133890151977539e+00,3.547148227691650391e+00,3.444472074508666992e+00,3.347572803497314453e+00,3.255976438522338867e+00,3.169259071350097656e+00,3.087040662765502930e+00,3.008980751037597656e+00,2.934770822525024414e+00,2.864133596420288086e+00,2.796816587448120117e+00,2.732591152191162109e+00,2.671249389648437500e+00,2.612601041793823242e+00,2.556472778320312500e+00,2.502705574035644531e+00,2.451153039932250977e+00,2.401681661605834961e+00,2.354167938232421875e+00,2.308497428894042969e+00,2.264565467834472656e+00,2.222274065017700195e+00,2.181533575057983398e+00,2.142259836196899414e+00,2.104375362396240234e+00,2.067807197570800781e+00,2.032488584518432617e+00,1.998356103897094727e+00,1.965351104736328125e+00,1.933418631553649902e+00,1.902507066726684570e+00,1.872568368911743164e+00,1.843557596206665039e+00
5.000000000000000000e+00,5.000000000000000000e+00,5.000000000000000000e+00,5.000000000000000000e+00,5.000000000000000000e+00,5.000000000000000000e+00,5.000000000000000000e+00,5.000000000000000000e+00,5.000000000000000000e+00,5.000000000000000000e+00,5.000000000000000000e+00,5.000000000000000000e+00,5.000000000000000000e+00,5.000000000000000000e+00,5.000000000000000000e+00,5.000000000000000000e+00,5.000000000000000000e+00,5.000000000000000000e+00,5.000000000000000000e+00,5.000000000000000000e+00,5.000000000000000000e+00,5.000000000000000000e+00,5.000000000000000000e+00,5.000000000000000000e+00,5.000000000000000000e+00,5.000000000000000000e+00,4.383980274200439453e+00,4.501159191131591797e+00,5.000000000000000000e+00,5.000000000000000000e+00,5.000000000000000000e+00,5.000000000000000000e+00,5.000000000000000000e+00,5.000000000000000000e+00,5.000000000000000000e+00,5.000000000000000000e+00,5.000000000000000000e+00,5.000000000000000000e+00,5.000000000000000000e+00,4.847828865051269531e+00,4.658061981201171875e+00,4.482592582702636719e+00,4.319862842559814453e+00,4.168534278869628906e+00,4.027449131011962891e+00,3.895601987838745117e+00,3.772113084793090820e+00,3.656213045120239258e+00,3.547223091125488281e+00,3.444542407989501953e+00,3.347639560699462891e+00,3.256039381027221680e+00,3.169318675994873047e+00,3.087097644805908203e+00,3.009034395217895508e+00,2.934822320938110352e+00,2.864182233810424805e+00,2.796862840652465820e+00,2.732635498046875000e+00,2.671291828155517578e+00,2.612641811370849609e+00,2.556511640548706055e+00,2.502742528915405273e+00,2.451188564300537109e+00,2.401715993881225586e+00,2.354200839996337891e+00,2.308529138565063477e+00,2.264595985412597656e+00,2.222303390502929688e+00,2.181561946868896484e+00,2.142287254333496094e+00,2.104401588439941406e+00,2.067832708358764648e+00,2.032513141632080078e+00,1.998379945755004883e+00,1.965374112129211426e+00,1.933440685272216797e+00,1.902528643608093262e+00,1.872589230537414551e+00,1.843577623367309570e+00
5.000000000000000000e+00,5.000000000000000000e+00,5.000000000000000000e+00,5.000000000000000000e+00,5.000000000000000000e+00,5.000000000000000000e+00,5.000000000000000000e+00,5.000000000000000000e+00,5.000000000000000000e+00,5.000000000000000000e+00,5.000000000000000000e+00,5.000000000000000000e+00,5.000000000000000000e+00,5.000000000000000000e+00,5.000000000000000000e+00,5.000000000000000000e+00,5.000000000000000000e+00,5.000000000000000000e+00,5.000000000000000000e+00,5.000000000000000000e+00,5.000000000000000000e+00,5.000000000000000000e+00,5.000000000000000000e+00,5.000000000000000000e+00,5.000000000000000000e+00,5.000000000000000000e+00,4.437132358551025391e+00,5.000000000000000000e+00,5.000000000000000000e+00,5.000000000000000000e+00,5.000000000000000000e+00,5.000000000000000000e+00,5.000000000000000000e+00,5.000000000000000000e+00,5.000000000000000000e+00,5.000000000000000000e+00,5.000000000000000000e+00,5.000000000000000000e+00,5.000000000000000000e+00,4.847968578338623047e+00,4.658191204071044922e+00,4.482711791992187500e+00,4.319973945617675781e+00,4.168637275695800781e+00,4.027545452117919922e+00,3.895691871643066406e+00,3.772197723388671875e+00,3.656292438507080078e+00,3.547297716140747070e+00,3.444612741470336914e+00,3.347705841064453125e+00,3.256102561950683594e+00,3.169378042221069336e+00,3.087154150009155273e+00,3.009088277816772461e+00,2.934873342514038086e+00,2.864231109619140625e+00,2.796909332275390625e+00,2.732679843902587891e+00,2.671334028244018555e+00,2.612682342529296875e+00,2.556550502777099609e+00,2.502779722213745117e+00,2.451224327087402344e+00,2.401750087738037109e+00,2.354233741760253906e+00,2.308560848236083984e+00,2.264626264572143555e+00,2.222332954406738281e+00,2.181590080261230469e+00,2.142314434051513672e+00,2.104427814483642578e+00,2.067857980728149414e+00,2.032537698745727539e+00,1.998403549194335938e+00,1.965397119522094727e+00,1.933462977409362793e+00,1.902549982070922852e+00,1.872610211372375488e+00,1.843597888946533203e+00
5.000000000000000000e+00,5.000000000000000000e+00,5.000000000000000000e+00,5.000000000000000000e+00,5.000000000000000000e+00,5.000000000000000000e+00,5.000000000000000000e+00,5.000000000000000000e+00,5.000000000000000000e+00,5.000000000000000000e+00,5.000000000000000000e+00,5.000000000000000000e+00,5.000000000000000000e+00,5.000000000000000000e+00,5.000000000000000000e+00,5.000000000000000000e+00,5.000000000000000000e+00,5.000000000000000000e+00,5.000000000000000000e+00,5.000000000000000000e+00,5.000000000000000000e+00,5.000000000000000000e+00,5.000000000000000000e+00,5.000000000000000000e+00,4.448160648345947266e+00,4.431067943572998047e+00,4.446998119354248047e+00,4.444032669067382812e+00,4.478216648101806641e+00,4.490629196166992188e+00,5.000000000000000000e+00,5.000000000000000000e+00,5.000000000000000000e+00,5.000000000000000000e+00,5.000000000000000000e+00,5.000000000000000000e+00,5.000000000000000000e+00,5.000000000000000000e+00,5.000000000000000000e+00,4.848108291625976562e+00,4.658319950103759766e+00,4.482831001281738281e+00,4.320084571838378906e+00,4.168740749359130859e+00,4.027641773223876953e+00,3.895781993865966797e+00,3.772282123565673828e+00,3.656371831893920898e+00,3.547372341156005859e+00,3.444683551788330078e+00,3.347772359848022461e+00,3.256165504455566406e+00,3.169437646865844727e+00,3.087210655212402344e+00,3.009142160415649414e+00,2.934924364089965820e+00,2.864279747009277344e+00,2.796955585479736328e+00,2.732724189758300781e+00,2.671376705169677734e+00,2.612722635269165039e+00,2.556589126586914062e+00,2.502816677093505859e+00,2.451260089874267578e+00,2.401784420013427734e+00,2.354266643524169922e+00,2.308592319488525391e+00,2.264656782150268555e+00,2.222362279891967773e+00,2.181618452072143555e+00,2.142341613769531250e+00,2.104454278945922852e+00,2.067883491516113281e+00,2.032562255859375000e+00,1.998427271842956543e+00,1.965419888496398926e+00,1.933485269546508789e+00,1.902571558952331543e+00,1.872630834579467773e+00,1.843617916107177734e+00
5.000000000000000000e+00,5.000000000000000000e+00,5.000000000000000000e+00,5.000000000000000000e+00,5.000000000000000000e+00,5.000000000000000000e+00,5.000000000000000000e+00,5.000000000000000000e+00,5.000000000000000000e+00,5.000000000000000000e+00,5.000000000000000000e+00,5.000000000000000000e+00,5.000000000000000000e+00,5.000000000000000000e+00,5.000000000000000000e+00,5.000000000000000000e+00,5.000000000000000000e+00,5.000000000000000000e+00,5.000000000000000000e+00,5.000000000000000000e+00,5.000000000000000000e+00,5.000000000000000000e+00,5.000000000000000000e+00,4.444988250732421875e+00,4.427440166473388672e+00,4.379946231842041016e+00,4.388598442077636719e+00,4.397822856903076172e+00,4.459857940673828125e+00,4.502264499664306641e+00,5.000000000000000000e+00,5.000000000000000000e+00,5.000000000000000000e+00,5.000000000000000000e+00,5.000000000000000000e+00,5.000000000000000000e+00,5.000000000000000000e+00,5.000000000000000000e+00,5.000000000000000000e+00,4.848248004913330078e+00,4.658448696136474609e+00,4.482950687408447266e+00,4.320195198059082031e+00,4.168843746185302734e+00,4.027738094329833984e+00,3.895872354507446289e+00,3.772366523742675781e+00,3.656451463699340820e+00,3.547446966171264648e+00,3.444753885269165039e+00,3.347839117050170898e+00,3.256228208541870117e+00,3.169497728347778320e+00,3.087267160415649414e+00,3.009195804595947266e+00,2.934975624084472656e+00,2.864328384399414062e+00,2.797002315521240234e+00,2.732768535614013672e+00,2.671418905258178711e+00,2.612762928009033203e+00,2.556627988815307617e+00,2.502854108810424805e+00,2.451295614242553711e+00,2.401818752288818359e+00,2.354299545288085938e+00,2.308624029159545898e+00,2.264687299728393555e+00,2.222391366958618164e+00,2.181646823883056641e+00,2.142369031906127930e+00,2.104480504989624023e+00,2.067908763885498047e+00,2.032586812973022461e+00,1.998451113700866699e+00,1.965442895889282227e+00,1.933507323265075684e+00,1.902593135833740234e+00,1.872651815414428711e+00,1.843638181686401367e+00
5.000000000000000000e+00,5.000000000000000000e+00,5.000000000000000000e+00,5.000000000000000000e+00,5.000000000000000000e+00,5.000000000000000000e+00,5.000000000000000000e+00,5.000000000000000000e+00,5.000000000000000000e+00,5.000000000000000000e+00,5.000000000000000000e+00,5.000000000000000000e+00,5.000000000000000000e+00,5.000000000000000000e+00,5.000000000000000000e+00,5.000000000000000000e+00,5.000000000000000000e+00,5.000000000000000000e+00,5.000000000000000000e+00,5.000000000000000000e+00,5.000000000000000000e+00,5.000000000000000000e+00,5.000000000000000000e+00,5.000000000000000000e+00,4.466323852539062500e+00,4.390002727508544922e+00,4.380083560943603516e+00,4.406034469604492188e+00,4.470314502716064453e+00,4.501327514648437500e+00,5.000000000000000000e+00,5.000000000000000000e+00,5.000000000000000000e+00,5.000000000000000000e+00,5.000000000000000000e+00,5.000000000000000000e+00,5.000000000000000000e+00,5.000000000000000000e+00,5.000000000000000000e+00,4.848387241363525391e+00,4.658577442169189453e+00,4.483069896697998047e+00,4.320306301116943359e+00,4.168947219848632812e+00,4.027834415435791016e+00,3.895962476730346680e+00,3.772450923919677734e+00,3.656530618667602539e+00,3.547522068023681641e+00,3.444824218750000000e+00,3.347905635833740234e+00,3.256291151046752930e+00,3.169557094573974609e+00,3.087323904037475586e+00,3.009249448776245117e+00,2.935026884078979492e+00,2.864377021789550781e+00,2.797048807144165039e+00,2.732812643051147461e+00,2.671461105346679688e+00,2.612803697586059570e+00,2.556666612625122070e+00,2.502891302108764648e+00,2.451331615447998047e+00,2.401852846145629883e+00,2.354332447052001953e+00,2.308655738830566406e+00,2.264717817306518555e+00,2.222420692443847656e+00,2.181674957275390625e+00,2.142396211624145508e+00,2.104506731033325195e+00,2.067934274673461914e+00,2.032611131668090820e+00,1.998474717140197754e+00,1.965465903282165527e+00,1.933529615402221680e+00,1.902614474296569824e+00,1.872672438621520996e+00,1.843658447265625000e+00
5.000000000000000000e+00,5.000000000000000000e+00,5.000000000000000000e+00,5.000000000000000000e+00,5.000000000000000000e+00,5.000000000000000000e+00,5.000000000000000000e+00,5.000000000000000000e+00,5.000000000000000000e+00,5.000000000000000000e+00,5.000000000000000000e+00,5.000000000000000000e+00,5.000000000000000000e+00,5.000000000000000000e+00,5.000000000000000000e+00,5.000000000000000000e+00,5.000000000000000000e+00,5.000000000000000000e+00,5.000000000000000000e+00,5.000000000000000000e+00,5.000000000000000000e+00,5.000000000000000000e+00,5.000000000000000000e+00,5.000000000000000000e+00,4.466265201568603516e+00,4.383565425872802734e+00,4.377119064331054688e+00,4.402451992034912109e+00,4.502942562103271484e+00,4.494920253753662109e+00,5.000000000000000000e+00,5.000000000000000000e+00,5.000000000000000000e+00,5.000000000000000000e+00,5.000000000000000000e+00,5.000000000000000000e+00,5.000000000000000000e+00,5.000000000000000000e+00,5.000000000000000000e+00,4.848526954650878906e+00,4.658706665039062500e+00,4.483189105987548828e+00,4.320416927337646484e+00,4.169050216674804688e+00,4.027930736541748047e+00,3.896052360534667969e+00,3.772535800933837891e+00,3.656610012054443359e+00,3.547596693038940430e+00,3.444894790649414062e+00,3.347972154617309570e+00,3.256354331970214844e+00,3.169616699218750000e+00,3.087380409240722656e+00,3.009303331375122070e+00,2.935077905654907227e+00,2.864425897598266602e+00,2.797095060348510742e+00,2.732856988906860352e+00,2.671503305435180664e+00,2.612844228744506836e+00,2.556705713272094727e+00,2.502928495407104492e+00,2.451367139816284180e+00,2.401887178421020508e+00,2.354365348815917969e+00,2.308687448501586914e+00,2.264748096466064453e+00,2.222450256347656250e+00,2.181703090667724609e+00,2.142423629760742188e+00,2.104533195495605469e+00,2.067959547042846680e+00,2.032635927200317383e+00,1.998498439788818359e+00,1.965488791465759277e+00,1.933551907539367676e+00,1.902636051177978516e+00,1.872693419456481934e+00,1.843678474426269531e+00
5.000000000000000000e+00,5.000000000000000000e+00,5.000000000000000000e+00,5.000000000000000000e+00,5.000000000000000000e+00,5.000000000000000000e+00,5.000000000000000000e+00,5.000000000000000000e+00,5.000000000000000000e+00,5.000000000000000000e+00,5.000000000000000000e+00,5.000000000000000000e+00,5.000000000000000000e+00,5.000000000000000000e+00,5.000000000000000000e+00,5.000000000000000000e+00,5.000000000000000000e+00,5.000000000000000000e+00,5.000000000000000000e+00,5.000000000000000000e+00,5.000000000000000000e+00,5.000000000000000000e+00,5.000000000000000000e+00,5.000000000000000000e+00,4.490453243255615234e+00,4.369656562805175781e+00,4.377079963684082031e+00,4.397480964660644531e+00,5.000000000000000000e+00,4.522065639495849609e+00,4.528371334075927734e+00,5.000000000000000000e+00,5.000000000000000000e+00,5.000000000000000000e+00,5.000000000000000000e+00,5.000000000000000000e+00,5.000000000000000000e+00,5.000000000000000000e+00,5.000000000000000000e+00,4.848666667938232422e+00,4.658835411071777344e+00,4.483308792114257812e+00,4.320528030395507812e+00,4.169153690338134766e+00,4.028027057647705078e+00,3.896142482757568359e+00,3.772620201110839844e+00,3.656689643859863281e+00,3.547671318054199219e+00,3.444965362548828125e+00,3.348038673400878906e+00,3.256417274475097656e+00,3.169676542282104492e+00,3.087436914443969727e+00,3.009357213973999023e+00,2.935128927230834961e+00,2.864474534988403320e+00,2.797141551971435547e+00,2.732901334762573242e+00,2.671545982360839844e+00,2.612884759902954102e+00,2.556744337081909180e+00,2.502965688705444336e+00,2.451402902603149414e+00,2.401921510696411133e+00,2.354398250579833984e+00,2.308718919754028320e+00,2.264778614044189453e+00,2.222479581832885742e+00,2.181731462478637695e+00,2.142450809478759766e+00,2.104559421539306641e+00,2.067985057830810547e+00,2.032660245895385742e+00,1.998522281646728516e+00,1.965511798858642578e+00,1.933573961257934570e+00,1.902657508850097656e+00,1.872714281082153320e+00,1.843698740005493164e+00
5.000000000000000000e+00,5.000000000000000000e+00,5.000000000000000000e+00,5.000000000000000000e+00,5.000000000000000000e+00,5.000000000000000000e+00,5.000000000000000000e+00,5.000000000000000000e+00,5.000000000000000000e+00,5.000000000000000000e+00,5.000000000000000000e+00,5.000000000000000000e+00,5.000000000000000000e+00,5.000000000000000000e+00,5.000000000000000000e+00,5.000000000000000000e+00,5.000000000000000000e+00,5.000000000000000000e+00,5.000000000000000000e+00,5.000000000000000000e+00,5.000000000000000000e+00,5.000000000000000000e+00,5.000000000000000000e+00,5.000000000000000000e+00,4.506606578826904297e+00,4.385518550872802734e+00,4.379339694976806641e+00,4.405505657196044922e+00,4.481793403625488281e+00,4.481276988983154297e+00,4.458635807037353516e+00,5.000000000000000000e+00,5.000000000000000000e+00,5.000000000000000000e+00,5.000000000000000000e+00,5.000000000000000000e+00,5.000000000000000000e+00,5.000000000000000000e+00,5.000000000000000000e+00,4.848806381225585938e+00,4.658964157104492188e+00,4.483428001403808594e+00,4.320638656616210938e+00,4.169256687164306641e+00,4.028123855590820312e+00,3.896232843399047852e+00,3.772704601287841797e+00,3.656769037246704102e+00,3.547745943069458008e+00,3.445035696029663086e+00,3.348105430603027344e+00,3.256480216979980469e+00,3.169736146926879883e+00,3.087493419647216797e+00,3.009410858154296875e+00,2.935180425643920898e+00,2.864522933959960938e+00,2.797187805175781250e+00,2.732945680618286133e+00,2.671588182449340820e+00,2.612925291061401367e+00,2.556783199310302734e+00,2.503002882003784180e+00,2.451438426971435547e+00,2.401955842971801758e+00,2.354431390762329102e+00,2.308750629425048828e+00,2.264809131622314453e+00,2.222508907318115234e+00,2.181759834289550781e+00,2.142477989196777344e+00,2.104585647583007812e+00,2.068010568618774414e+00,2.032684803009033203e+00,1.998545885086059570e+00,1.965534567832946777e+00,1.933596253395080566e+00,1.902679085731506348e+00,1.872735023498535156e+00,1.843719005584716797e+00
5.000000000000000000e+00,5.000000000000000000e+00,5.000000000000000000e+00,5.000000000000000000e+00,5.000000000000000000e+00,5.000000000000000000e+00,5.000000000000000000e+00,5.000000000000000000e+00,5.000000000000000000e+00,5.000000000000000000e+00,5.000000000000000000e+00,5.000000000000000000e+00,5.000000000000000000e+00,5.000000000000000000e+00,5.000000000000000000e+00,5.000000000000000000e+00,5.000000000000000000e+00,5.000000000000000000e+00,5.000000000000000000e+00,5.000000000000000000e+00,5.000000000000000000e+00,5.000000000000000000e+00,5.000000000000000000e+00,5.000000000000000000e+00,4.487097740173339844e+00,4.352071285247802734e+00,4.411192417144775391e+00,4.428605556488037109e+00,4.466077804565429688e+00,5.000000000000000000e+00,4.400967597961425781e+00,5.000000000000000000e+00,5.000000000000000000e+00,5.000000000000000000e+00,5.000000000000000000e+00,5.000000000000000000e+00,5.000000000000000000e+00,5.000000000000000000e+00,5.000000000000000000e+00,4.848945617675781250e+00,4.659092903137207031e+00,4.483547687530517578e+00,4.320749282836914062e+00,4.169360160827636719e+00,4.028219699859619141e+00,3.896322965621948242e+00,3.772789478302001953e+00,3.656848192214965820e+00,3.547821044921875000e+00,3.445106267929077148e+00,3.348171949386596680e+00,3.256543159484863281e+00,3.169795751571655273e+00,3.087550401687622070e+00,3.009464740753173828e+00,2.935231208801269531e+00,2.864571571350097656e+00,2.797234296798706055e+00,2.732990264892578125e+00,2.671630620956420898e+00,2.612965822219848633e+00,2.556821823120117188e+00,2.503040075302124023e+00,2.451474189758300781e+00,2.401989936828613281e+00,2.354464292526245117e+00,2.308782339096069336e+00,2.264839649200439453e+00,2.222538232803344727e+00,2.181787967681884766e+00,2.142505407333374023e+00,2.104612112045288086e+00,2.068035840988159180e+00,2.032709360122680664e+00,1.998569607734680176e+00,1.965557575225830078e+00,1.933618307113647461e+00,1.902700662612915039e+00,1.872755885124206543e+00,1.843739151954650879e+00
5.000000000000000000e+00,5.000000000000000000e+00,5.000000000000000000e+00,5.000000000000000000e+00,5.000000000000000000e+00,5.000000000000000000e+00,5.000000000000000000e+00,5.000000000000000000e+00,5.000000000000000000e+00,5.000000000000000000e+00,5.000000000000000000e+00,5.000000000000000000e+00,5.000000000000000000e+00,5.000000000000000000e+00,5.000000000000000000e+00,5.000000000000000000e+00,5.000000000000000000e+00,5.000000000000000000e+00,5.000000000000000000e+00,5.000000000000000000e+00,5.000000000000000000e+00,5.000000000000000000e+00,5.000000000000000000e+00,5.000000000000000000e+00,4.475885868072509766e+00,4.298659801483154297e+00,4.350662231445312500e+00,4.437845230102539062e+00,4.470059871673583984e+00,5.000000000000000000e+00,4.313683509826660156e+00,5.000000000000000000e+00,5.000000000000000000e+00,5.000000000000000000e+00,5.000000000000000000e+00,5.000000000000000000e+00,5.000000000000000000e+00,5.000000000000000000e+00,5.000000000000000000e+00,4.849085330963134766e+00,4.659222126007080078e+00,4.483666896820068359e+00,4.320860385894775391e+00,4.169463157653808594e+00,4.028316497802734375e+00,3.896413087844848633e+00,3.772873878479003906e+00,3.656927585601806641e+00,3.547895669937133789e+00,3.445176839828491211e+00,3.348238468170166016e+00,3.256606340408325195e+00,3.169855356216430664e+00,3.087606906890869141e+00,3.009518384933471680e+00,2.935282230377197266e+00,2.864620685577392578e+00,2.797280788421630859e+00,2.733034372329711914e+00,2.671672821044921875e+00,2.613006353378295898e+00,2.556860923767089844e+00,2.503077268600463867e+00,2.451509952545166016e+00,2.402024269104003906e+00,2.354496955871582031e+00,2.308814048767089844e+00,2.264869928359985352e+00,2.222567558288574219e+00,2.181816339492797852e+00,2.142532587051391602e+00,2.104638338088989258e+00,2.068061113357543945e+00,2.032733917236328125e+00,1.998593211174011230e+00,1.965580582618713379e+00,1.933640599250793457e+00,1.902722001075744629e+00,1.872776746749877930e+00,1.843759417533874512e+00
5.000000000000000000e+00,5.000000000000000000e+00,5.000000000000000000e+00,5.000000000000000000e+00,5.000000000000000000e+00,5.000000000000000000e+00,5.000000000000000000e+00,5.000000000000000000e+00,5.000000000000000000e+00,5.000000000000000000e+00,5.000000000000000000e+00,5.000000000000000000e+00,5.000000000000000000e+00,5.000000000000000000e+00,5.000000000000000000e+00,5.000000000000000000e+00,5.000000000000000000e+00,5.000000000000000000e+00,5.000000000000000000e+00,5.000000000000000000e+00,5.000000000000000000e+00,5.000000000000000000e+00,5.000000000000000000e+00,5.000000000000000000e+00,4.461656093597412109e+00,4.267042160034179688e+00,4.326172351837158203e+00,4.448566436767578125e+00,4.489642143249511719e+00,5.000000000000000000e+00,5.000000000000000000e+00,5.000000000000000000e+00,5.000000000000000000e+00,5.000000000000000000e+00,5.000000000000000000e+00,5.000000000000000000e+00,5.000000000000000000e+00,5.000000000000000000e+00,5.000000000000000000e+00,4.849225044250488281e+00,4.659350872039794922e+00,4.483786106109619141e+00,4.320971012115478516e+00,4.169566631317138672e+00,4.028412818908691406e+00,3.896502971649169922e+00,3.772958278656005859e+00,3.657007217407226562e+00,3.547970294952392578e+00,3.445247411727905273e+00,3.348304986953735352e+00,3.256669044494628906e+00,3.169915437698364258e+00,3.087663173675537109e+00,3.009572029113769531e+00,2.935333490371704102e+00,2.864669322967529297e+00,2.797327280044555664e+00,2.733078718185424805e+00,2.671715497970581055e+00,2.613046884536743164e+00,2.556899547576904297e+00,2.503114700317382812e+00,2.451545476913452148e+00,2.402058601379394531e+00,2.354529857635498047e+00,2.308845520019531250e+00,2.264900684356689453e+00,2.222596883773803711e+00,2.181844711303710938e+00,2.142559766769409180e+00,2.104664564132690430e+00,2.068086624145507812e+00,2.032758474349975586e+00,1.998617053031921387e+00,1.965603470802307129e+00,1.933662891387939453e+00,1.902743577957153320e+00,1.872797489166259766e+00,1.843779683113098145e+00
5.000000000000000000e+00,5.000000000000000000e+00,5.000000000000000000e+00,5.000000000000000000e+00,5.000000000000000000e+00,5.000000000000000000e+00,5.000000000000000000e+00,5.000000000000000000e+00,5.000000000000000000e+00,5.000000000000000000e+00,5.000000000000000000e+00,5.000000000000000000e+00,5.000000000000000000e+00,5.000000000000000000e+00,5.000000000000000000e+00,5.000000000000000000e+00,5.000000000000000000e+00,5.000000000000000000e+00,5.000000000000000000e+00,5.000000000000000000e+00,5.000000000000000000e+00,5.000000000000000000e+00,5.000000000000000000e+00,5.000000000000000000e+00,4.436491489410400391e+00,4.229962825775146484e+00,4.293388366699218750e+00,4.476507186889648438e+00,4.521145343780517578e+00,5.000000000000000000e+00,5.000000000000000000e+00,5.000000000000000000e+00,5.000000000000000000e+00,5.000000000000000000e+00,5.000000000000000000e+00,5.000000000000000000e+00,5.000000000000000000e+00,5.000000000000000000e+00,5.000000000000000000e+00,4.849364757537841797e+00,4.659480094909667969e+00,4.483905315399169922e+00,4.321082115173339844e+00,4.169669628143310547e+00,4.028509140014648438e+00,3.896593570709228516e+00,3.773042678833007812e+00,3.657086610794067383e+00,3.548044919967651367e+00,3.445317745208740234e+00,3.348371744155883789e+00,3.256731986999511719e+00,3.169974565505981445e+00,3.087719678878784180e+00,3.009625911712646484e+00,2.935384750366210938e+00,2.864717960357666016e+00,2.797373771667480469e+00,2.733123064041137695e+00,2.671757698059082031e+00,2.613087654113769531e+00,2.556938409805297852e+00,2.503151655197143555e+00,2.451581239700317383e+00,2.402092695236206055e+00,2.354562997817993164e+00,2.308877229690551758e+00,2.264930963516235352e+00,2.222626209259033203e+00,2.181872844696044922e+00,2.142587184906005859e+00,2.104691028594970703e+00,2.068112134933471680e+00,2.032783031463623047e+00,1.998640894889831543e+00,1.965626478195190430e+00,1.933684945106506348e+00,1.902765154838562012e+00,1.872818350791931152e+00,1.843799710273742676e+00
5.000000000000000000e+00,5.000000000000000000e+00,5.000000000000000000e+00,5.000000000000000000e+00,5.000000000000000000e+00,5.000000000000000000e+00,5.000000000000000000e+00,5.000000000000000000e+00,5.000000000000000000e+00,5.000000000000000000e+00,5.000000000000000000e+00,5.000000000000000000e+00,5.000000000000000000e+00,5.000000000000000000e+00,5.000000000000000000e+00,5.000000000000000000e+00,5.000000000000000000e+00,5.000000000000000000e+00,5.000000000000000000e+00,5.000000000000000000e+00,5.000000000000000000e+00,5.000000000000000000e+00,5.000000000000000000e+00,5.000000000000000000e+00,5.000000000000000000e+00,4.200303077697753906e+00,4.268999099731445312e+00,4.502491950988769531e+00,5.000000000000000000e+00,5.000000000000000000e+00,5.000000000000000000e+00,5.000000000000000000e+00,5.000000000000000000e+00,5.000000000000000000e+00,5.000000000000000000e+00,5.000000000000000000e+00,5.000000000000000000e+00,5.000000000000000000e+00,5.000000000000000000e+00,4.849504470825195312e+00,4.659608840942382812e+00,4.484025001525878906e+00,4.321192741394042969e+00,4.169773101806640625e+00,4.028605461120605469e+00,3.896683692932128906e+00,3.773127555847167969e+00,3.657166004180908203e+00,3.548120021820068359e+00,3.445388078689575195e+00,3.348438262939453125e+00,3.256794929504394531e+00,3.170034170150756836e+00,3.087776422500610352e+00,3.009679555892944336e+00,2.935435771942138672e+00,2.864766836166381836e+00,2.797420263290405273e+00,2.733167648315429688e+00,2.671800136566162109e+00,2.613127946853637695e+00,2.556977272033691406e+00,2.503188848495483398e+00,2.451617002487182617e+00,2.402127027511596680e+00,2.354595899581909180e+00,2.308908939361572266e+00,2.264961481094360352e+00,2.222655534744262695e+00,2.181901216506958008e+00,2.142614364624023438e+00,2.104717254638671875e+00,2.068137407302856445e+00,2.032807588577270508e+00,1.998664379119873047e+00,1.965649485588073730e+00,1.933707237243652344e+00,1.902786493301391602e+00,1.872839331626892090e+00,1.843819975852966309e+00
5.000000000000000000e+00,5.000000000000000000e+00,5.000000000000000000e+00,5.000000000000000000e+00,5.000000000000000000e+00,5.000000000000000000e+00,5.000000000000000000e+00,5.000000000000000000e+00,5.000000000000000000e+00,5.000000000000000000e+00,5.000000000000000000e+00,5.000000000000000000e+00,5.000000000000000000e+00,5.000000000000000000e+00,5.000000000000000000e+00,5.000000000000000000e+00,5.000000000000000000e+00,5.000000000000000000e+00,5.000000000000000000e+00,5.000000000000000000e+00,5.000000000000000000e+00,5.000000000000000000e+00,5.000000000000000000e+00,5.000000000000000000e+00,5.000000000000000000e+00,4.203713893890380859e+00,4.270511150360107422e+00,4.526205539703369141e+00,5.000000000000000000e+00,5.000000000000000000e+00,5.000000000000000000e+00,5.000000000000000000e+00,5.000000000000000000e+00,5.000000000000000000e+00,5.000000000000000000e+00,5.000000000000000000e+00,5.000000000000000000e+00,5.000000000000000000e+00,5.000000000000000000e+00,4.849641799926757812e+00,4.659738063812255859e+00,4.484144210815429688e+00,4.321303844451904297e+00,4.169876098632812500e+00,4.028701782226562500e+00,3.896773576736450195e+00,3.773211956024169922e+00,3.657245397567749023e+00,3.548194646835327148e+00,3.445458889007568359e+00,3.348504543304443359e+00,3.256857872009277344e+00,3.170093774795532227e+00,3.087833166122436523e+00,3.009733438491821289e+00,2.935487031936645508e+00,2.864815473556518555e+00,2.797466516494750977e+00,2.733211994171142578e+00,2.671842575073242188e+00,2.613168478012084961e+00,2.557016134262084961e+00,2.503226041793823242e+00,2.451652765274047852e+00,2.402161359786987305e+00,2.354628801345825195e+00,2.308940649032592773e+00,2.264991760253906250e+00,2.222684860229492188e+00,2.181929349899291992e+00,2.142641544342041016e+00,2.104743719100952148e+00,2.068162679672241211e+00,2.032832145690917969e+00,1.998688220977783203e+00,1.965672254562377930e+00,1.933729529380798340e+00,1.902808070182800293e+00,1.872859954833984375e+00,1.843840003013610840e+00
5.000000000000000000e+00,5.000000000000000000e+00,5.000000000000000000e+00,5.000000000000000000e+00,5.000000000000000000e+00,5.000000000000000000e+00,5.000000000000000000e+00,5.000000000000000000e+00,5.000000000000000000e+00,5.000000000000000000e+00,5.000000000000000000e+00,5.000000000000000000e+00,5.000000000000000000e+00,5.000000000000000000e+00,5.000000000000000000e+00,5.000000000000000000e+00,5.000000000000000000e+00,5.000000000000000000e+00,5.000000000000000000e+00,5.000000000000000000e+00,5.000000000000000000e+00,5.000000000000000000e+00,5.000000000000000000e+00,5.000000000000000000e+00,5.000000000000000000e+00,4.225976943969726562e+00,4.290622234344482422e+00,4.580748081207275391e+00,5.000000000000000000e+00,5.000000000000000000e+00,5.000000000000000000e+00,5.000000000000000000e+00,5.000000000000000000e+00,5.000000000000000000e+00,5.000000000000000000e+00,5.000000000000000000e+00,5.000000000000000000e+00,5.000000000000000000e+00,5.000000000000000000e+00,4.849780082702636719e+00,4.659866809844970703e+00,4.484263896942138672e+00,4.321414947509765625e+00,4.169979572296142578e+00,4.028798103332519531e+00,3.896864175796508789e+00,3.773296594619750977e+00,3.657325029373168945e+00,3.548269271850585938e+00,3.445528984069824219e+00,3.348571062088012695e+00,3.256920814514160156e+00,3.170153856277465820e+00,3.087889671325683594e+00,3.009787321090698242e+00,2.935538053512573242e+00,2.864864110946655273e+00,2.797513246536254883e+00,2.733256101608276367e+00,2.671885013580322266e+00,2.613209009170532227e+00,2.557054996490478516e+00,2.503263473510742188e+00,2.451688289642333984e+00,2.402195692062377930e+00,2.354661703109741211e+00,2.308972358703613281e+00,2.265022516250610352e+00,2.222714185714721680e+00,2.181957721710205078e+00,2.142668724060058594e+00,2.104769945144653320e+00,2.068188190460205078e+00,2.032856702804565430e+00,1.998712062835693359e+00,1.965695261955261230e+00,1.933751583099365234e+00,1.902829647064208984e+00,1.872880935668945312e+00,1.843860268592834473e+00
5.000000000000000000e+00,5.000000000000000000e+00,5.000000000000000000e+00,5.000000000000000000e+00,5.000000000000000000e+00,5.000000000000000000e+00,5.000000000000000000e+00,5.000000000000000000e+00,5.000000000000000000e+00,5.000000000000000000e+00,5.000000000000000000e+00,5.000000000000000000e+00,5.000000000000000000e+00,5.000000000000000000e+00,5.000000000000000000e+00,5.000000000000000000e+00,5.000000000000000000e+00,5.000000000000000000e+00,5.000000000000000000e+00,5.000000000000000000e+00,5.000000000000000000e+00,5.000000000000000000e+00,5.000000000000000000e+00,5.000000000000000000e+00,5.000000000000000000e+00,4.217038631439208984e+00,4.270420551300048828e+00,4.656605720520019531e+00,5.000000000000000000e+00,5.000000000000000000e+00,5.000000000000000000e+00,5.000000000000000000e+00,5.000000000000000000e+00,5.000000000000000000e+00,5.000000000000000000e+00,5.000000000000000000e+00,5.000000000000000000e+00,5.000000000000000000e+00,5.000000000000000000e+00,4.849917888641357422e+00,4.659992694854736328e+00,4.484383106231689453e+00,4.321525573730468750e+00,4.170083045959472656e+00,4.028894424438476562e+00,3.896954298019409180e+00,3.773380994796752930e+00,3.657404422760009766e+00,3.548344135284423828e+00,3.445599555969238281e+00,3.348637819290161133e+00,3.256983757019042969e+00,3.170213460922241211e+00,3.087946414947509766e+00,3.009840965270996094e+00,2.935589313507080078e+00,2.864912748336791992e+00,2.797559738159179688e+00,2.733300685882568359e+00,2.671927452087402344e+00,2.613249778747558594e+00,2.557093620300292969e+00,2.503300666809082031e+00,2.451724052429199219e+00,2.402229785919189453e+00,2.354694604873657227e+00,2.309003829956054688e+00,2.265052795410156250e+00,2.222743511199951172e+00,2.181985855102539062e+00,2.142696142196655273e+00,2.104796171188354492e+00,2.068213701248168945e+00,2.032881021499633789e+00,1.998735547065734863e+00,1.965718388557434082e+00,1.933773875236511230e+00,1.902850985527038574e+00,1.872901558876037598e+00,1.843880534172058105e+00
5.000000000000000000e+00,5.000000000000000000e+00,5.000000000000000000e+00,5.000000000000000000e+00,5.000000000000000000e+00,5.000000000000000000e+00,5.000000000000000000e+00,5.000000000000000000e+00,5.000000000000000000e+00,5.000000000000000000e+00,5.000000000000000000e+00,5.000000000000000000e+00,5.000000000000000000e+00,5.000000000000000000e+00,5.000000000000000000e+00,5.000000000000000000e+00,5.000000000000000000e+00,5.000000000000000000e+00,5.000000000000000000e+00,5.000000000000000000e+00,5.000000000000000000e+00,5.000000000000000000e+00,5.000000000000000000e+00,5.000000000000000000e+00,5.000000000000000000e+00,4.213910102844238281e+00,4.257215023040771484e+00,4.700716972351074219e+00,5.000000000000000000e+00,5.000000000000000000e+00,5.000000000000000000e+00,5.000000000000000000e+00,5.000000000000000000e+00,5.000000000000000000e+00,5.000000000000000000e+00,5.000000000000000000e+00,5.000000000000000000e+00,5.000000000000000000e+00,5.000000000000000000e+00,4.850056171417236328e+00,4.660120010375976562e+00,4.484499931335449219e+00,4.321636676788330078e+00,4.170186042785644531e+00,4.028990745544433594e+00,3.897044181823730469e+00,3.773465871810913086e+00,3.657483577728271484e+00,3.548418760299682617e+00,3.445669889450073242e+00,3.348704338073730469e+00,3.257046937942504883e+00,3.170273065567016602e+00,3.088002920150756836e+00,3.009894609451293945e+00,2.935640573501586914e+00,2.864961862564086914e+00,2.797605991363525391e+00,2.733345031738281250e+00,2.671969652175903320e+00,2.613290309906005859e+00,2.557132720947265625e+00,2.503337860107421875e+00,2.451759815216064453e+00,2.402264118194580078e+00,2.354727506637573242e+00,2.309035778045654297e+00,2.265083312988281250e+00,2.222772836685180664e+00,2.182014226913452148e+00,2.142723321914672852e+00,2.104822397232055664e+00,2.068238973617553711e+00,2.032905817031860352e+00,1.998759388923645020e+00,1.965741157531738281e+00,1.933795928955078125e+00,1.902872681617736816e+00,1.872922539710998535e+00,1.843900561332702637e+00
5.000000000000000000e+00,5.000000000000000000e+00,5.000000000000000000e+00,5.000000000000000000e+00,5.000000000000000000e+00,5.000000000000000000e+00,5.000000000000000000e+00,5.000000000000000000e+00,5.000000000000000000e+00,5.000000000000000000e+00,5.000000000000000000e+00,5.000000000000000000e+00,5.000000000000000000e+00,5.000000000000000000e+00,5.000000000000000000e+00,5.000000000000000000e+00,5.000000000000000000e+00,5.000000000000000000e+00,5.000000000000000000e+00,5.000000000000000000e+00,5.000000000000000000e+00,5.000000000000000000e+00,5.000000000000000000e+00,5.000000000000000000e+00,5.000000000000000000e+00,4.220906734466552734e+00,4.253947257995605469e+00,4.772616386413574219e+00,5.000000000000000000e+00,5.000000000000000000e+00,5.000000000000000000e+00,5.000000000000000000e+00,5.000000000000000000e+00,5.000000000000000000e+00,5.000000000000000000e+00,5.000000000000000000e+00,5.000000000000000000e+00,5.000000000000000000e+00,5.000000000000000000e+00,4.850194454193115234e+00,4.660247802734375000e+00,4.484618186950683594e+00,4.321745872497558594e+00,4.170289516448974609e+00,4.029087543487548828e+00,3.897134304046630859e+00,3.773550033569335938e+00,3.657563209533691406e+00,3.548493385314941406e+00,3.445740699768066406e+00,3.348770856857299805e+00,3.257109880447387695e+00,3.170332670211791992e+00,3.088059663772583008e+00,3.009948730468750000e+00,2.935691595077514648e+00,2.865010499954223633e+00,2.797652482986450195e+00,2.733389377593994141e+00,2.672012329101562500e+00,2.613330841064453125e+00,2.557171583175659180e+00,2.503374814987182617e+00,2.451795339584350586e+00,2.402298450469970703e+00,2.354760408401489258e+00,2.309067249298095703e+00,2.265113592147827148e+00,2.222802162170410156e+00,2.182042598724365234e+00,2.142750740051269531e+00,2.104848861694335938e+00,2.068264484405517578e+00,2.032930374145507812e+00,1.998783230781555176e+00,1.965764164924621582e+00,1.933818221092224121e+00,1.902894020080566406e+00,1.872943401336669922e+00,1.843920826911926270e+00
5.000000000000000000e+00,5.000000000000000000e+00,5.000000000000000000e+00,5.000000000000000000e+00,5.000000000000000000e+00,5.000000000000000000e+00,5.000000000000000000e+00,5.000000000000000000e+00,5.000000000000000000e+00,5.000000000000000000e+00,5.000000000000000000e+00,5.000000000000000000e+00,5.000000000000000000e+00,5.000000000000000000e+00,5.000000000000000000e+00,5.000000000000000000e+00,5.000000000000000000e+00,5.000000000000000000e+00,5.000000000000000000e+00,5.000000000000000000e+00,5.000000000000000000e+00,5.000000000000000000e+00,5.000000000000000000e+00,5.000000000000000000e+00,5.000000000000000000e+00,5.000000000000000000e+00,5.000000000000000000e+00,4.829658985137939453e+00,5.000000000000000000e+00,5.000000000000000000e+00,5.000000000000000000e+00,5.000000000000000000e+00,5.000000000000000000e+00,5.000000000000000000e+00,5.000000000000000000e+00,5.000000000000000000e+00,5.000000000000000000e+00,5.000000000000000000e+00,5.000000000000000000e+00,4.850332260131835938e+00,4.660375118255615234e+00,4.484736442565917969e+00,4.321855545043945312e+00,4.170392513275146484e+00,4.029183864593505859e+00,3.897224664688110352e+00,3.773634433746337891e+00,3.657642602920532227e+00,3.548568248748779297e+00,3.445811033248901367e+00,3.348837614059448242e+00,3.257172822952270508e+00,3.170392513275146484e+00,3.088116168975830078e+00,3.010002374649047852e+00,2.935743093490600586e+00,2.865059137344360352e+00,2.797699213027954102e+00,2.733433723449707031e+00,2.672054529190063477e+00,2.613371133804321289e+00,2.557210206985473633e+00,2.503412246704101562e+00,2.451831102371215820e+00,2.402332782745361328e+00,2.354793310165405273e+00,2.309098958969116211e+00,2.265144348144531250e+00,2.222831487655639648e+00,2.182070732116699219e+00,2.142777919769287109e+00,2.104875087738037109e+00,2.068289756774902344e+00,2.032954692840576172e+00,1.998806834220886230e+00,1.965786933898925781e+00,1.933840513229370117e+00,1.902915596961975098e+00,1.872964143753051758e+00,1.843941092491149902e+00
4.870925903320312500e+00,4.869705200195312500e+00,4.868484497070312500e+00,4.867264747619628906e+00,4.866045951843261719e+00,4.864827156066894531e+00,4.863609313964843750e+00,4.862391948699951172e+00,4.861175060272216797e+00,4.859959125518798828e+00,4.858743667602539062e+00,4.857528686523437500e+00,4.856314659118652344e+00,4.855100631713867188e+00,4.853888034820556641e+00,4.852675914764404297e+00,4.851463794708251953e+00,4.850252628326416016e+00,4.849041938781738281e+00,4.847831726074218750e+00,4.846622467041015625e+00,4.845413684844970703e+00,4.844205379486083984e+00,4.842998027801513672e+00,4.841791152954101562e+00,4.115314483642578125e+00,4.070488929748535156e+00,4.838173866271972656e+00,4.836968898773193359e+00,4.835764884948730469e+00,4.834561824798583984e+00,4.833358764648437500e+00,4.832156658172607422e+00,4.830955028533935547e+00,4.829753875732421875e+00,4.828553676605224609e+00,4.827353477478027344e+00,4.826154232025146484e+00,4.824955940246582031e+00,4.823757648468017578e+00,4.660502910614013672e+00,4.484854698181152344e+00,4.321965217590332031e+00,4.170493602752685547e+00,4.029280185699462891e+00,3.897314786911010742e+00,3.773718833923339844e+00,3.657721996307373047e+00,3.548643112182617188e+00,3.445881366729736328e+00,3.348904132843017578e+00,3.257235765457153320e+00,3.170452117919921875e+00,3.088172912597656250e+00,3.010056257247924805e+00,2.935794115066528320e+00,2.865107774734497070e+00,2.797745466232299805e+00,2.733478307723999023e+00,2.672096967697143555e+00,2.613411903381347656e+00,2.557249069213867188e+00,2.503449440002441406e+00,2.451866865158081055e+00,2.402366876602172852e+00,2.354826450347900391e+00,2.309130430221557617e+00,2.265174627304077148e+00,2.222861051559448242e+00,2.182099103927612305e+00,2.142805337905883789e+00,2.104901313781738281e+00,2.068315267562866211e+00,2.032979249954223633e+00,1.998830556869506836e+00,1.965810060501098633e+00,1.933862566947937012e+00,1.902937173843383789e+00,1.872985005378723145e+00,1.843961238861083984e+00
3.775776624679565430e+00,3.775043010711669922e+00,3.774309635162353516e+00,3.773576498031616211e+00,3.772843837738037109e+00,3.772110939025878906e+00,3.771378755569458008e+00,3.770646810531616211e+00,3.769915103912353516e+00,3.769183874130249023e+00,3.768452644348144531e+00,3.767721652984619141e+00,3.766991138458251953e+00,3.766260862350463867e+00,3.765531063079833984e+00,3.764801263809204102e+00,3.764071941375732422e+00,3.763342380523681641e+00,3.762613534927368164e+00,3.761885166168212891e+00,3.761157035827636719e+00,3.760428905487060547e+00,3.759701251983642578e+00,3.758973598480224609e+00,3.758246421813964844e+00,3.757519483566284180e+00,3.756793022155761719e+00,3.756066799163818359e+00,3.755340337753295898e+00,3.754614591598510742e+00,3.753889322280883789e+00,3.753164052963256836e+00,3.752439260482788086e+00,3.751714706420898438e+00,3.750989913940429688e+00,3.750265836715698242e+00,3.749542236328125000e+00,3.748818635940551758e+00,3.748095512390136719e+00,3.747372627258300781e+00,3.746649503707885742e+00,3.745927333831787109e+00,3.745205163955688477e+00,3.744483470916748047e+00,3.743761777877807617e+00,3.743040561676025391e+00,3.742319345474243164e+00,3.657801389694213867e+00,3.548717975616455078e+00,3.445951938629150391e+00,3.348970651626586914e+00,3.257298946380615234e+00,3.170511722564697266e+00,3.088229417800903320e+00,3.010109901428222656e+00,2.935845136642456055e+00,2.865156650543212891e+00,2.797791957855224609e+00,2.733522415161132812e+00,2.672139167785644531e+00,2.613452434539794922e+00,2.557287931442260742e+00,2.503486633300781250e+00,2.451902627944946289e+00,2.402401208877563477e+00,2.354859352111816406e+00,2.309162378311157227e+00,2.265205144882202148e+00,2.222890377044677734e+00,2.182127237319946289e+00,2.142832517623901367e+00,2.104927778244018555e+00,2.068340539932250977e+00,2.033004045486450195e+00,1.998854160308837891e+00,1.965833067893981934e+00,1.933884859085083008e+00,1.902958512306213379e+00,1.873005986213684082e+00,1.843981504440307617e+00
3.082684755325317383e+00,3.082195758819580078e+00,3.081707000732421875e+00,3.081218004226684570e+00,3.080729484558105469e+00,3.080240964889526367e+00,3.079752683639526367e+00,3.079264640808105469e+00,3.078776597976684570e+00,3.078288555145263672e+00,3.077800989151000977e+00,3.077313423156738281e+00,3.076826095581054688e+00,3.076339006423950195e+00,3.075851917266845703e+00,3.075364828109741211e+00,3.074878215789794922e+00,3.074391603469848633e+00,3.073905229568481445e+00,3.073418855667114258e+00,3.072932481765747070e+00,3.072446584701538086e+00,3.071960687637329102e+00,3.071475267410278320e+00,3.070989608764648438e+00,3.070504426956176758e+00,3.070019006729125977e+00,3.069533824920654297e+00,3.069049119949340820e+00,3.068564414978027344e+00,3.068079710006713867e+00,3.067595481872558594e+00,3.067110776901245117e+00,3.066626787185668945e+00,3.066142797470092773e+00,3.065659046173095703e+00,3.065175533294677734e+00,3.064692020416259766e+00,3.064208269119262695e+00,3.063725233078002930e+00,3.063242197036743164e+00,3.062759160995483398e+00,3.062276601791381836e+00,3.061794042587280273e+00,3.061311244964599609e+00,3.060828924179077148e+00,3.060346841812133789e+00,3.059864997863769531e+00,3.059383153915405273e+00,3.058901071548461914e+00,3.058419704437255859e+00,3.057938337326049805e+00,3.057456970214843750e+00,3.056976079940795898e+00,3.010164022445678711e+00,2.935896396636962891e+00,2.865205526351928711e+00,2.797838687896728516e+00,2.733566761016845703e+00,2.672181844711303711e+00,2.613492965698242188e+00,2.557326793670654297e+00,2.503523826599121094e+00,2.451938152313232422e+00,2.402435541152954102e+00,2.354892253875732422e+00,2.309193849563598633e+00,2.265235662460327148e+00,2.222919702529907227e+00,2.182155609130859375e+00,2.142859697341918945e+00,2.104954004287719727e+00,2.068366050720214844e+00,2.033028364181518555e+00,1.998878002166748047e+00,1.965855836868286133e+00,1.933907151222229004e+00,1.902980089187622070e+00,1.873026609420776367e+00,1.844001770019531250e+00
2.604580879211425781e+00,2.604231595993041992e+00,2.603882551193237305e+00,2.603533506393432617e+00,2.603184700012207031e+00,2.602836132049560547e+00,2.602487325668334961e+00,2.602138757705688477e+00,2.601790189743041992e+00,2.601441860198974609e+00,2.601093530654907227e+00,2.600745439529418945e+00,2.600397348403930664e+00,2.600049018859863281e+00,2.599701166152954102e+00,2.599353313446044922e+00,2.599005699157714844e+00,2.598658084869384766e+00,2.598310232162475586e+00,2.597962856292724609e+00,2.597615480422973633e+00,2.597268342971801758e+00,2.596921205520629883e+00,2.596574068069458008e+00,2.596226930618286133e+00,2.595880031585693359e+00,2.595533370971679688e+00,2.595186710357666016e+00,2.594840049743652344e+00,2.594493627548217773e+00,2.594146966934204102e+00,2.593800544738769531e+00,2.593454360961914062e+00,2.593108177185058594e+00,2.592762231826782227e+00,2.592416286468505859e+00,2.592070102691650391e+00,2.591724395751953125e+00,2.591378688812255859e+00,2.591033220291137695e+00,2.590687751770019531e+00,2.590342283248901367e+00,2.589996814727783203e+00,2.589651584625244141e+00,2.589306592941284180e+00,2.588961362838745117e+00,2.588616609573364258e+00,2.588271379470825195e+00,2.587926626205444336e+00,2.587582111358642578e+00,2.587237596511840820e+00,2.586893081665039062e+00,2.586548566818237305e+00,2.586204290390014648e+00,2.585860013961791992e+00,2.585515975952148438e+00,2.585171937942504883e+00,2.584827899932861328e+00,2.584484100341796875e+00,2.584140300750732422e+00,2.583796501159667969e+00,2.557365655899047852e+00,2.503561258316040039e+00,2.451973915100097656e+00,2.402469873428344727e+00,2.354925155639648438e+00,2.309225559234619141e+00,2.265266180038452148e+00,2.222948789596557617e+00,2.182183980941772461e+00,2.142887115478515625e+00,2.104980468750000000e+00,2.068391561508178711e+00,2.033052921295166016e+00,1.998901844024658203e+00,1.965878844261169434e+00,1.933929204940795898e+00,1.903001666069030762e+00,1.873047590255737305e+00,1.844021797180175781e+00
2.254856586456298828e+00,2.254595518112182617e+00,2.254334211349487305e+00,2.254073143005371094e+00,2.253811836242675781e+00,2.253551006317138672e+00,2.253289937973022461e+00,2.253029108047485352e+00,2.252768278121948242e+00,2.252507448196411133e+00,2.252246618270874023e+00,2.251986026763916016e+00,2.251725435256958008e+00,2.251464843750000000e+00,2.251204252243041992e+00,2.250943899154663086e+00,2.250683546066284180e+00,2.250423192977905273e+00,2.250163078308105469e+00,2.249902725219726562e+00,2.249642610549926758e+00,2.249382495880126953e+00,2.249122619628906250e+00,2.248862504959106445e+00,2.248602390289306641e+00,2.248342037200927734e+00,2.248081922531127930e+00,2.247821807861328125e+00,2.247561693191528320e+00,2.247301816940307617e+00,2.247041940689086914e+00,2.246782064437866211e+00,2.246522188186645508e+00,2.246262550354003906e+00,2.246002674102783203e+00,2.245743036270141602e+00,2.245483398437500000e+00,2.245223999023437500e+00,2.244964599609375000e+00,2.244704961776733398e+00,2.244445800781250000e+00,2.244186401367187500e+00,2.243927240371704102e+00,2.243668317794799805e+00,2.243409156799316406e+00,2.243149995803833008e+00,2.242891073226928711e+00,2.242632150650024414e+00,2.242373228073120117e+00,2.242114543914794922e+00,2.241855859756469727e+00,2.241596937179565430e+00,2.241338491439819336e+00,2.241080045700073242e+00,2.240821361541748047e+00,2.240563154220581055e+00,2.240304708480834961e+00,2.240046262741088867e+00,2.239788055419921875e+00,2.239529848098754883e+00,2.239271640777587891e+00,2.239013671875000000e+00,2.238755464553833008e+00,2.238497734069824219e+00,2.238239765167236328e+00,2.237982034683227539e+00,2.237724304199218750e+00,2.237466573715209961e+00,2.222978353500366211e+00,2.182212114334106445e+00,2.142914295196533203e+00,2.105006694793701172e+00,2.068416833877563477e+00,2.033077478408813477e+00,1.998925447463989258e+00,1.965901970863342285e+00,1.933951497077941895e+00,1.903023123741149902e+00,1.873068451881408691e+00,1.844042062759399414e+00
1.987914323806762695e+00,1.987711310386657715e+00,1.987508058547973633e+00,1.987305164337158203e+00,1.987102270126342773e+00,1.986899375915527344e+00,1.986696362495422363e+00,1.986493587493896484e+00,1.986290931701660156e+00,1.986088156700134277e+00,1.985885381698608398e+00,1.985682725906372070e+00,1.985480189323425293e+00,1.985277652740478516e+00,1.985074996948242188e+00,1.984872460365295410e+00,1.984670162200927734e+00,1.984467506408691406e+00,1.984265208244323730e+00,1.984062910079956055e+00,1.983860731124877930e+00,1.983658194541931152e+00,1.983456134796142578e+00,1.983253955841064453e+00,1.983051896095275879e+00,1.982849717140197754e+00,1.982647657394409180e+00,1.982445716857910156e+00,1.982243895530700684e+00,1.982041716575622559e+00,1.981839895248413086e+00,1.981638193130493164e+00,1.981436133384704590e+00,1.981234431266784668e+00,1.981032848358154297e+00,1.980831146240234375e+00,1.980629444122314453e+00,1.980427861213684082e+00,1.980226397514343262e+00,1.980024933815002441e+00,1.979823231697082520e+00,1.979621887207031250e+00,1.979420542716979980e+00,1.979219079017639160e+00,1.979017734527587891e+00,1.978816509246826172e+00,1.978615403175354004e+00,1.978414058685302734e+00,1.978212952613830566e+00,1.978011965751647949e+00,1.977810859680175781e+00,1.977609634399414062e+00,1.977408766746520996e+00,1.977207899093627930e+00,1.977007031440734863e+00,1.976806044578552246e+00,1.976605296134948730e+00,1.976404547691345215e+00,1.976203680038452148e+00,1.976002931594848633e+00,1.975802421569824219e+00,1.975601792335510254e+00,1.975401043891906738e+00,1.975200653076171875e+00,1.975000143051147461e+00,1.974799752235412598e+00,1.974599242210388184e+00,1.974398851394653320e+00,1.974198579788208008e+00,1.973998427391052246e+00,1.973797917366027832e+00,1.973597764968872070e+00,1.973397731781005859e+00,1.973197460174560547e+00,1.972997426986694336e+00,1.965924739837646484e+00,1.933973789215087891e+00,1.903044700622558594e+00,1.873089194297790527e+00,1.844062089920043945e+00
1.777485847473144531e+00,1.777323365211486816e+00,1.777161002159118652e+00,1.776998758316040039e+00,1.776836514472961426e+00,1.776674151420593262e+00,1.776512026786804199e+00,1.776349902153015137e+00,1.776187658309936523e+00,1.776025533676147461e+00,1.775863409042358398e+00,1.775701403617858887e+00,1.775539278984069824e+00,1.775377273559570312e+00,1.775215387344360352e+00,1.775053501129150391e+00,1.774891376495361328e+00,1.774729609489440918e+00,1.774567723274230957e+00,1.774405837059020996e+00,1.774244070053100586e+00,1.774082303047180176e+00,1.773920655250549316e+00,1.773758769035339355e+00,1.773597121238708496e+00,1.773435473442077637e+00,1.773273944854736328e+00,1.773112177848815918e+00,1.772950649261474609e+00,1.772789239883422852e+00,1.772627711296081543e+00,1.772466182708740234e+00,1.772304773330688477e+00,1.772143363952636719e+00,1.771981835365295410e+00,1.771820545196533203e+00,1.771659255027770996e+00,1.771497964859008789e+00,1.771336555480957031e+00,1.771175384521484375e+00,1.771014213562011719e+00,1.770853042602539062e+00,1.770691752433776855e+00,1.770530700683593750e+00,1.770369648933410645e+00,1.770208597183227539e+00,1.770047426223754883e+00,1.769886493682861328e+00,1.769725561141967773e+00,1.769564390182495117e+00,1.769403576850891113e+00,1.769242763519287109e+00,1.769081950187683105e+00,1.768920898437500000e+00,1.768760204315185547e+00,1.768599390983581543e+00,1.768438816070556641e+00,1.768277883529663086e+00,1.768117308616638184e+00,1.767956614494323730e+00,1.767795920372009277e+00,1.767635345458984375e+00,1.767474770545959473e+00,1.767314314842224121e+00,1.767153620719909668e+00,1.766993284225463867e+00,1.766832828521728516e+00,1.766672492027282715e+00,1.766511917114257812e+00,1.766351580619812012e+00,1.766191363334655762e+00,1.766031026840209961e+00,1.765870690345764160e+00,1.765710473060607910e+00,1.765550255775451660e+00,1.765390038490295410e+00,1.765229821205139160e+00,1.765069842338562012e+00,1.764909744262695312e+00,1.764749526977539062e+00
1.607342243194580078e+00,1.607209444046020508e+00,1.607076764106750488e+00,1.606943964958190918e+00,1.606811285018920898e+00,1.606678605079650879e+00,1.606546044349670410e+00,1.606413245201110840e+00,1.606280684471130371e+00,1.606148123741149902e+00,1.606015443801879883e+00,1.605882883071899414e+00,1.605750441551208496e+00,1.605618000030517578e+00,1.605485439300537109e+00,1.605352997779846191e+00,1.605220556259155273e+00,1.605088233947753906e+00,1.604955673217773438e+00,1.604823350906372070e+00,1.604691028594970703e+00,1.604558706283569336e+00,1.604426264762878418e+00,1.604294061660766602e+00,1.604161858558654785e+00,1.604029417037963867e+00,1.603897333145141602e+00,1.603765130043029785e+00,1.603632926940917969e+00,1.603500723838806152e+00,1.603368639945983887e+00,1.603236556053161621e+00,1.603104472160339355e+00,1.602972269058227539e+00,1.602840304374694824e+00,1.602708339691162109e+00,1.602576136589050293e+00,1.602444291114807129e+00,1.602312326431274414e+00,1.602180480957031250e+00,1.602048397064208984e+00,1.601916551589965820e+00,1.601784706115722656e+00,1.601652860641479492e+00,1.601520895957946777e+00,1.601389169692993164e+00,1.601257443428039551e+00,1.601125717163085938e+00,1.600993871688842773e+00,1.600862145423889160e+00,1.600730538368225098e+00,1.600598692893981934e+00,1.600467085838317871e+00,1.600335478782653809e+00,1.600203990936279297e+00,1.600072264671325684e+00,1.599940657615661621e+00,1.599809169769287109e+00,1.599677681922912598e+00,1.599546074867248535e+00,1.599414587020874023e+00,1.599283218383789062e+00,1.599151730537414551e+00,1.599020242691040039e+00,1.598888874053955078e+00,1.598757505416870117e+00,1.598626136779785156e+00,1.598494768142700195e+00,1.598363518714904785e+00,1.598232269287109375e+00,1.598100900650024414e+00,1.597969651222229004e+00,1.597838521003723145e+00,1.597707271575927734e+00,1.597576022148132324e+00,1.597444891929626465e+00,1.597313761711120605e+00,1.597182631492614746e+00,1.597051501274108887e+00,1.596920490264892578e+00
1.466925978660583496e+00,1.466815352439880371e+00,1.466704726219177246e+00,1.466594219207763672e+00,1.466483712196350098e+00,1.466373085975646973e+00,1.466262698173522949e+00,1.466152191162109375e+00,1.466041803359985352e+00,1.465931177139282227e+00,1.465820789337158203e+00,1.465710401535034180e+00,1.465599894523620605e+00,1.465489506721496582e+00,1.465379238128662109e+00,1.465268850326538086e+00,1.465158462524414062e+00,1.465048193931579590e+00,1.464937925338745117e+00,1.464827656745910645e+00,1.464717268943786621e+00,1.464607119560241699e+00,1.464496850967407227e+00,1.464386701583862305e+00,1.464276432991027832e+00,1.464166164398193359e+00,1.464056134223937988e+00,1.463945865631103516e+00,1.463835716247558594e+00,1.463725686073303223e+00,1.463615536689758301e+00,1.463505387306213379e+00,1.463395357131958008e+00,1.463285326957702637e+00,1.463175296783447266e+00,1.463065147399902344e+00,1.462955236434936523e+00,1.462845325469970703e+00,1.462735295295715332e+00,1.462625265121459961e+00,1.462515354156494141e+00,1.462405443191528320e+00,1.462295532226562500e+00,1.462185621261596680e+00,1.462075829505920410e+00,1.461966037750244141e+00,1.461856007575988770e+00,1.461746215820312500e+00,1.461636543273925781e+00,1.461526751518249512e+00,1.461416840553283691e+00,1.461307168006896973e+00,1.461197495460510254e+00,1.461087584495544434e+00,1.460977911949157715e+00,1.460868239402770996e+00,1.460758686065673828e+00,1.460648894309997559e+00,1.460539340972900391e+00,1.460429668426513672e+00,1.460320115089416504e+00,1.460210442543029785e+00,1.460100889205932617e+00,1.459991335868835449e+00,1.459881901741027832e+00,1.459772229194641113e+00,1.459662795066833496e+00,1.459553241729736328e+00,1.459443688392639160e+00,1.459334254264831543e+00,1.459224939346313477e+00,1.459115505218505859e+00,1.459005951881408691e+00,1.458896636962890625e+00,1.458787322044372559e+00,1.458677887916564941e+00,1.458568453788757324e+00,1.458459258079528809e+00,1.458349943161010742e+00,1.458240628242492676e+00
1.349071860313415527e+00,1.348978400230407715e+00,1.348884940147399902e+00,1.348791360855102539e+00,1.348697900772094727e+00,1.348604440689086914e+00,1.348510980606079102e+00,1.348417401313781738e+00,1.348324060440063477e+00,1.348230600357055664e+00,1.348137259483337402e+00,1.348043799400329590e+00,1.347950339317321777e+00,1.347856998443603516e+00,1.347763657569885254e+00,1.347670316696166992e+00,1.347576975822448730e+00,1.347483634948730469e+00,1.347390294075012207e+00,1.347297072410583496e+00,1.347203731536865234e+00,1.347110509872436523e+00,1.347017168998718262e+00,1.346923947334289551e+00,1.346830725669860840e+00,1.346737623214721680e+00,1.346644282341003418e+00,1.346551179885864258e+00,1.346457958221435547e+00,1.346364736557006836e+00,1.346271634101867676e+00,1.346178531646728516e+00,1.346085429191589355e+00,1.345992207527160645e+00,1.345899105072021484e+00,1.345806002616882324e+00,1.345713019371032715e+00,1.345619797706604004e+00,1.345526814460754395e+00,1.345433831214904785e+00,1.345340847969055176e+00,1.345247745513916016e+00,1.345154762268066406e+00,1.345061779022216797e+00,1.344968676567077637e+00,1.344875812530517578e+00,1.344782829284667969e+00,1.344689965248107910e+00,1.344596982002258301e+00,1.344504117965698242e+00,1.344411134719848633e+00,1.344318270683288574e+00,1.344225406646728516e+00,1.344132542610168457e+00,1.344039678573608398e+00,1.343946933746337891e+00,1.343853950500488281e+00,1.343761205673217773e+00,1.343668460845947266e+00,1.343575596809387207e+00,1.343482851982116699e+00,1.343390107154846191e+00,1.343297362327575684e+00,1.343204617500305176e+00,1.343111872673034668e+00,1.343019247055053711e+00,1.342926502227783203e+00,1.342833757400512695e+00,1.342741131782531738e+00,1.342648506164550781e+00,1.342555761337280273e+00,1.342463135719299316e+00,1.342370629310607910e+00,1.342278003692626953e+00,1.342185378074645996e+00,1.342092752456665039e+00,1.342000246047973633e+00,1.341907739639282227e+00,1.341815114021301270e+00,1.341722607612609863e+00
1.248746633529663086e+00,1.248666524887084961e+00,1.248586297035217285e+00,1.248506307601928711e+00,1.248426198959350586e+00,1.248345971107482910e+00,1.248265981674194336e+00,1.248185873031616211e+00,1.248105883598327637e+00,1.248025774955749512e+00,1.247945666313171387e+00,1.247865676879882812e+00,1.247785687446594238e+00,1.247705578804016113e+00,1.247625589370727539e+00,1.247545599937438965e+00,1.247465729713439941e+00,1.247385621070861816e+00,1.247305750846862793e+00,1.247225761413574219e+00,1.247145771980285645e+00,1.247065901756286621e+00,1.246985912322998047e+00,1.246906042098999023e+00,1.246826052665710449e+00,1.246746182441711426e+00,1.246666431427001953e+00,1.246586561203002930e+00,1.246506571769714355e+00,1.246426820755004883e+00,1.246346950531005859e+00,1.246267199516296387e+00,1.246187210083007812e+00,1.246107459068298340e+00,1.246027708053588867e+00,1.245947837829589844e+00,1.245868086814880371e+00,1.245788335800170898e+00,1.245708584785461426e+00,1.245628833770751953e+00,1.245549082756042480e+00,1.245469331741333008e+00,1.245389699935913086e+00,1.245309948921203613e+00,1.245230197906494141e+00,1.245150566101074219e+00,1.245070815086364746e+00,1.244991183280944824e+00,1.244911551475524902e+00,1.244831919670104980e+00,1.244752168655395508e+00,1.244672656059265137e+00,1.244593024253845215e+00,1.244513392448425293e+00,1.244433760643005371e+00,1.244354248046875000e+00,1.244274616241455078e+00,1.244195103645324707e+00,1.244115471839904785e+00,1.244035959243774414e+00,1.243956446647644043e+00,1.243876814842224121e+00,1.243797421455383301e+00,1.243717908859252930e+00,1.243638396263122559e+00,1.243558883666992188e+00,1.243479490280151367e+00,1.243399977684020996e+00,1.243320584297180176e+00,1.243241071701049805e+00,1.243161678314208984e+00,1.243082284927368164e+00,1.243002891540527344e+00,1.242923378944396973e+00,1.242843985557556152e+00,1.242764711380004883e+00,1.242685198783874512e+00,1.242605924606323242e+00,1.242526531219482422e+00,1.242447257041931152e+00
1.162310123443603516e+00,1.162240743637084961e+00,1.162171244621276855e+00,1.162101864814758301e+00,1.162032485008239746e+00,1.161963105201721191e+00,1.161893725395202637e+00,1.161824345588684082e+00,1.161754965782165527e+00,1.161685585975646973e+00,1.161616206169128418e+00,1.161546826362609863e+00,1.161477565765380859e+00,1.161408185958862305e+00,1.161338925361633301e+00,1.161269545555114746e+00,1.161200284957885742e+00,1.161131024360656738e+00,1.161061763763427734e+00,1.160992383956909180e+00,1.160923123359680176e+00,1.160853862762451172e+00,1.160784602165222168e+00,1.160715341567993164e+00,1.160646080970764160e+00,1.160576939582824707e+00,1.160507678985595703e+00,1.160438418388366699e+00,1.160369277000427246e+00,1.160300016403198242e+00,1.160230875015258789e+00,1.160161614418029785e+00,1.160092473030090332e+00,1.160023331642150879e+00,1.159954190254211426e+00,1.159885048866271973e+00,1.159815907478332520e+00,1.159746766090393066e+00,1.159677624702453613e+00,1.159608483314514160e+00,1.159539461135864258e+00,1.159470319747924805e+00,1.159401178359985352e+00,1.159332156181335449e+00,1.159263134002685547e+00,1.159193992614746094e+00,1.159124970436096191e+00,1.159055948257446289e+00,1.158986926078796387e+00,1.158917784690856934e+00,1.158848762512207031e+00,1.158779740333557129e+00,1.158710718154907227e+00,1.158641695976257324e+00,1.158572793006896973e+00,1.158503770828247070e+00,1.158434748649597168e+00,1.158365845680236816e+00,1.158296942710876465e+00,1.158227920532226562e+00,1.158159017562866211e+00,1.158090114593505859e+00,1.158021211624145508e+00,1.157952189445495605e+00,1.157883286476135254e+00,1.157814383506774902e+00,1.157745599746704102e+00,1.157676577568054199e+00,1.157607793807983398e+00,1.157538890838623047e+00,1.157470107078552246e+00,1.157401204109191895e+00,1.157332301139831543e+00,1.157263517379760742e+00,1.157194733619689941e+00,1.157125830650329590e+00,1.157057046890258789e+00,1.156988263130187988e+00,1.156919360160827637e+00,1.156850695610046387e+00
1.087064981460571289e+00,1.087004303932189941e+00,1.086943507194519043e+00,1.086882829666137695e+00,1.086822032928466797e+00,1.086761355400085449e+00,1.086700677871704102e+00,1.086640000343322754e+00,1.086579322814941406e+00,1.086518645286560059e+00,1.086457967758178711e+00,1.086397290229797363e+00,1.086336612701416016e+00,1.086275935173034668e+00,1.086215376853942871e+00,1.086154699325561523e+00,1.086094141006469727e+00,1.086033463478088379e+00,1.085972785949707031e+00,1.085912227630615234e+00,1.085851669311523438e+00,1.085790991783142090e+00,1.085730433464050293e+00,1.085669875144958496e+00,1.085609316825866699e+00,1.085548758506774902e+00,1.085488200187683105e+00,1.085427641868591309e+00,1.085367083549499512e+00,1.085306525230407715e+00,1.085245966911315918e+00,1.085185527801513672e+00,1.085124969482421875e+00,1.085064411163330078e+00,1.085003972053527832e+00,1.084943413734436035e+00,1.084882974624633789e+00,1.084822416305541992e+00,1.084761977195739746e+00,1.084701418876647949e+00,1.084640979766845703e+00,1.084580540657043457e+00,1.084520101547241211e+00,1.084459662437438965e+00,1.084399223327636719e+00,1.084338784217834473e+00,1.084278345108032227e+00,1.084217905998229980e+00,1.084157586097717285e+00,1.084097146987915039e+00,1.084036707878112793e+00,1.083976268768310547e+00,1.083915948867797852e+00,1.083855628967285156e+00,1.083795189857482910e+00,1.083734869956970215e+00,1.083674430847167969e+00,1.083614110946655273e+00,1.083553791046142578e+00,1.083493471145629883e+00,1.083433151245117188e+00,1.083372831344604492e+00,1.083312392234802246e+00,1.083252191543579102e+00,1.083191871643066406e+00,1.083131551742553711e+00,1.083071231842041016e+00,1.083010911941528320e+00,1.082950711250305176e+00,1.082890391349792480e+00,1.082830190658569336e+00,1.082769870758056641e+00,1.082709670066833496e+00,1.082649350166320801e+00,1.082589149475097656e+00,1.082528948783874512e+00,1.082468748092651367e+00,1.082408428192138672e+00,1.082348227500915527e+00,1.082288026809692383e+00
1.020969867706298828e+00,1.020916223526000977e+00,1.020862698554992676e+00,1.020809173583984375e+00,1.020755529403686523e+00,1.020702004432678223e+00,1.020648479461669922e+00,1.020594954490661621e+00,1.020541429519653320e+00,1.020487904548645020e+00,1.020434379577636719e+00,1.020380854606628418e+00,1.020327329635620117e+00,1.020273804664611816e+00,1.020220398902893066e+00,1.020166873931884766e+00,1.020113348960876465e+00,1.020059943199157715e+00,1.020006418228149414e+00,1.019952893257141113e+00,1.019899487495422363e+00,1.019846081733703613e+00,1.019792675971984863e+00,1.019739151000976562e+00,1.019685745239257812e+00,1.019632339477539062e+00,1.019578814506530762e+00,1.019525408744812012e+00,1.019472002983093262e+00,1.019418597221374512e+00,1.019365191459655762e+00,1.019311785697937012e+00,1.019258379936218262e+00,1.019204974174499512e+00,1.019151568412780762e+00,1.019098162651062012e+00,1.019044876098632812e+00,1.018991470336914062e+00,1.018938064575195312e+00,1.018884778022766113e+00,1.018831372261047363e+00,1.018778085708618164e+00,1.018724679946899414e+00,1.018671393394470215e+00,1.018618106842041016e+00,1.018564701080322266e+00,1.018511414527893066e+00,1.018458127975463867e+00,1.018404841423034668e+00,1.018351435661315918e+00,1.018298149108886719e+00,1.018244862556457520e+00,1.018191695213317871e+00,1.018138289451599121e+00,1.018085122108459473e+00,1.018031835556030273e+00,1.017978549003601074e+00,1.017925262451171875e+00,1.017872095108032227e+00,1.017818808555603027e+00,1.017765522003173828e+00,1.017712354660034180e+00,1.017659068107604980e+00,1.017605900764465332e+00,1.017552614212036133e+00,1.017499446868896484e+00,1.017446279525756836e+00,1.017392992973327637e+00,1.017339825630187988e+00,1.017286658287048340e+00,1.017233490943908691e+00,1.017180204391479492e+00,1.017127037048339844e+00,1.017073988914489746e+00,1.017020821571350098e+00,1.016967535018920898e+00,1.016914486885070801e+00,1.016861319541931152e+00,1.016808152198791504e+00,1.016754984855651855e+00
9.624513983726501465e-01,9.624038338661193848e-01,9.623562097549438477e-01,9.623086452484130859e-01,9.622610807418823242e-01,9.622135162353515625e-01,9.621658325195312500e-01,9.621182680130004883e-01,9.620707035064697266e-01,9.620231389999389648e-01,9.619755744934082031e-01,9.619280695915222168e-01,9.618805050849914551e-01,9.618330001831054688e-01,9.617853164672851562e-01,9.617378115653991699e-01,9.616903066635131836e-01,9.616428017616271973e-01,9.615952968597412109e-01,9.615477919578552246e-01,9.615002870559692383e-01,9.614526629447937012e-01,9.614051580429077148e-01,9.613577127456665039e-01,9.613102078437805176e-01,9.612627029418945312e-01,9.612152576446533203e-01,9.611677527427673340e-01,9.611203074455261230e-01,9.610727429389953613e-01,9.610252976417541504e-01,9.609778523445129395e-01,9.609304070472717285e-01,9.608829617500305176e-01,9.608355164527893066e-01,9.607880711555480957e-01,9.607405662536621094e-01,9.606931209564208984e-01,9.606457352638244629e-01,9.605982899665832520e-01,9.605509042739868164e-01,9.605035185813903809e-01,9.604560732841491699e-01,9.604086875915527344e-01,9.603611826896667480e-01,9.603137969970703125e-01,9.602664113044738770e-01,9.602190852165222168e-01,9.601716995239257812e-01,9.601243138313293457e-01,9.600769877433776855e-01,9.600294828414916992e-01,9.599821567535400391e-01,9.599348306655883789e-01,9.598874449729919434e-01,9.598401188850402832e-01,9.597927927970886230e-01,9.597454667091369629e-01,9.596981406211853027e-01,9.596506953239440918e-01,9.596033692359924316e-01,9.595561027526855469e-01,9.595087766647338867e-01,9.594614505767822266e-01,9.594141840934753418e-01,9.593668580055236816e-01,9.593194723129272461e-01,9.592722058296203613e-01,9.592249393463134766e-01,9.591776728630065918e-01,9.591304063796997070e-01,9.590831398963928223e-01,9.590358734130859375e-01,9.589884877204895020e-01,9.589412808418273926e-01,9.588940143585205078e-01,9.588467478752136230e-01,9.587995409965515137e-01,9.587523341178894043e-01,9.587050676345825195e-01
9.102775454521179199e-01,9.102348685264587402e-01,9.101923108100891113e-01,9.101497530937194824e-01,9.101071953773498535e-01,9.100646376609802246e-01,9.100220799446105957e-01,9.099795222282409668e-01,9.099369049072265625e-01,9.098943471908569336e-01,9.098517894744873047e-01,9.098092913627624512e-01,9.097667336463928223e-01,9.097242355346679688e-01,9.096816778182983398e-01,9.096391797065734863e-01,9.095965623855590820e-01,9.095540642738342285e-01,9.095115661621093750e-01,9.094690680503845215e-01,9.094265699386596680e-01,9.093840718269348145e-01,9.093415737152099609e-01,9.092990159988403320e-01,9.092565178871154785e-01,9.092140793800354004e-01,9.091715812683105469e-01,9.091291427612304688e-01,9.090866446495056152e-01,9.090442061424255371e-01,9.090017676353454590e-01,9.089592099189758301e-01,9.089167118072509766e-01,9.088742733001708984e-01,9.088318347930908203e-01,9.087893962860107422e-01,9.087470173835754395e-01,9.087045788764953613e-01,9.086620211601257324e-01,9.086196422576904297e-01,9.085772037506103516e-01,9.085347652435302734e-01,9.084923863410949707e-01,9.084500074386596680e-01,9.084075689315795898e-01,9.083651900291442871e-01,9.083226919174194336e-01,9.082803130149841309e-01,9.082379341125488281e-01,9.081955552101135254e-01,9.081531763076782227e-01,9.081107974052429199e-01,9.080684185028076172e-01,9.080259799957275391e-01,9.079836010932922363e-01,9.079412221908569336e-01,9.078989028930664062e-01,9.078565239906311035e-01,9.078142046928405762e-01,9.077718257904052734e-01,9.077295064926147461e-01,9.076870679855346680e-01,9.076447486877441406e-01,9.076024293899536133e-01,9.075601100921630859e-01,9.075177907943725586e-01,9.074754714965820312e-01,9.074331521987915039e-01,9.073907732963562012e-01,9.073484539985656738e-01,9.073061943054199219e-01,9.072638750076293945e-01,9.072216153144836426e-01,9.071792960166931152e-01,9.071370363235473633e-01,9.070947766304016113e-01,9.070523977279663086e-01,9.070100784301757812e-01,9.069678187370300293e-01,9.069255590438842773e-01
8.634693026542663574e-01,8.634310364723205566e-01,8.633927106857299805e-01,8.633543252944946289e-01,8.633160591125488281e-01,8.632777333259582520e-01,8.632394671440124512e-01,8.632012009620666504e-01,8.631628751754760742e-01,8.631246089935302734e-01,8.630863428115844727e-01,8.630479574203491211e-01,8.630096912384033203e-01,8.629714250564575195e-01,8.629331588745117188e-01,8.628948926925659180e-01,8.628566861152648926e-01,8.628184199333190918e-01,8.627800941467285156e-01,8.627418279647827148e-01,8.627036213874816895e-01,8.626653552055358887e-01,8.626271486282348633e-01,8.625888824462890625e-01,8.625506758689880371e-01,8.625124692916870117e-01,8.624741435050964355e-01,8.624359369277954102e-01,8.623977303504943848e-01,8.623594641685485840e-01,8.623212575912475586e-01,8.622830510139465332e-01,8.622449040412902832e-01,8.622065782546997070e-01,8.621683716773986816e-01,8.621302247047424316e-01,8.620920181274414062e-01,8.620538115501403809e-01,8.620156645774841309e-01,8.619774580001831055e-01,8.619391918182373047e-01,8.619010448455810547e-01,8.618628978729248047e-01,8.618246912956237793e-01,8.617865443229675293e-01,8.617483973503112793e-01,8.617102503776550293e-01,8.616721034049987793e-01,8.616338372230529785e-01,8.615957498550415039e-01,8.615576028823852539e-01,8.615194559097290039e-01,8.614813089370727539e-01,8.614431619644165039e-01,8.614050745964050293e-01,8.613668680191040039e-01,8.613287210464477539e-01,8.612906336784362793e-01,8.612524867057800293e-01,8.612143993377685547e-01,8.611763119697570801e-01,8.611381649971008301e-01,8.611000776290893555e-01,8.610618710517883301e-01,8.610237836837768555e-01,8.609856963157653809e-01,8.609476089477539062e-01,8.609095215797424316e-01,8.608714938163757324e-01,8.608334064483642578e-01,8.607952594757080078e-01,8.607571721076965332e-01,8.607190847396850586e-01,8.606810569763183594e-01,8.606429696083068848e-01,8.606049418449401855e-01,8.605668544769287109e-01,8.605288267135620117e-01,8.604906797409057617e-01,8.604526519775390625e-01
8.212395906448364258e-01,8.212049603462219238e-01,8.211703300476074219e-01,8.211356997489929199e-01,8.211010098457336426e-01,8.210663199424743652e-01,8.210316896438598633e-01,8.209970593452453613e-01,8.209624290466308594e-01,8.209277987480163574e-01,8.208931684494018555e-01,8.208585381507873535e-01,8.208239078521728516e-01,8.207892179489135742e-01,8.207546472549438477e-01,8.207200169563293457e-01,8.206853866577148438e-01,8.206508159637451172e-01,8.206161856651306152e-01,8.205816149711608887e-01,8.205469250679016113e-01,8.205123543739318848e-01,8.204777836799621582e-01,8.204431533813476562e-01,8.204085826873779297e-01,8.203740119934082031e-01,8.203394412994384766e-01,8.203048706054687500e-01,8.202701807022094727e-01,8.202356696128845215e-01,8.202010989189147949e-01,8.201665282249450684e-01,8.201319575309753418e-01,8.200973868370056152e-01,8.200628161430358887e-01,8.200281858444213867e-01,8.199936747550964355e-01,8.199591040611267090e-01,8.199245929718017578e-01,8.198900222778320312e-01,8.198555111885070801e-01,8.198209404945373535e-01,8.197863698005676270e-01,8.197517991065979004e-01,8.197172880172729492e-01,8.196827769279479980e-01,8.196482658386230469e-01,8.196137547492980957e-01,8.195792436599731445e-01,8.195447325706481934e-01,8.195101618766784668e-01,8.194756507873535156e-01,8.194411396980285645e-01,8.194066286087036133e-01,8.193721175193786621e-01,8.193376660346984863e-01,8.193031549453735352e-01,8.192685842514038086e-01,8.192340731620788574e-01,8.191996216773986816e-01,8.191651105880737305e-01,8.191306591033935547e-01,8.190962076187133789e-01,8.190616965293884277e-01,8.190272450447082520e-01,8.189927339553833008e-01,8.189582228660583496e-01,8.189237713813781738e-01,8.188893198966979980e-01,8.188548684120178223e-01,8.188204169273376465e-01,8.187859654426574707e-01,8.187514543533325195e-01,8.187170028686523438e-01,8.186825513839721680e-01,8.186481595039367676e-01,8.186137080192565918e-01,8.185792565345764160e-01,8.185448646545410156e-01,8.185104131698608398e-01
7.829480171203613281e-01,7.829164862632751465e-01,7.828850150108337402e-01,7.828535437583923340e-01,7.828220129013061523e-01,7.827905416488647461e-01,7.827590703964233398e-01,7.827274799346923828e-01,7.826960086822509766e-01,7.826645374298095703e-01,7.826330661773681641e-01,7.826015949249267578e-01,7.825701236724853516e-01,7.825387120246887207e-01,7.825072407722473145e-01,7.824757099151611328e-01,7.824442386627197266e-01,7.824127674102783203e-01,7.823812961578369141e-01,7.823498845100402832e-01,7.823184132575988770e-01,7.822870016098022461e-01,7.822554707527160645e-01,7.822240591049194336e-01,7.821925878524780273e-01,7.821611762046813965e-01,7.821297049522399902e-01,7.820982933044433594e-01,7.820668816566467285e-01,7.820354700088500977e-01,7.820039391517639160e-01,7.819725275039672852e-01,7.819411158561706543e-01,7.819097042083740234e-01,7.818782925605773926e-01,7.818468809127807617e-01,7.818154692649841309e-01,7.817839980125427246e-01,7.817525863647460938e-01,7.817211747169494629e-01,7.816898226737976074e-01,7.816584110260009766e-01,7.816269993782043457e-01,7.815956473350524902e-01,7.815642356872558594e-01,7.815327644348144531e-01,7.815014123916625977e-01,7.814700007438659668e-01,7.814386487007141113e-01,7.814072966575622559e-01,7.813758850097656250e-01,7.813445329666137695e-01,7.813131213188171387e-01,7.812817096710205078e-01,7.812503576278686523e-01,7.812190055847167969e-01,7.811876535415649414e-01,7.811563014984130859e-01,7.811249494552612305e-01,7.810935378074645996e-01,7.810621857643127441e-01,7.810308337211608887e-01,7.809994816780090332e-01,7.809681892395019531e-01,7.809368371963500977e-01,7.809054851531982422e-01,7.808741927146911621e-01,7.808427810668945312e-01,7.808114290237426758e-01,7.807801365852355957e-01,7.807487845420837402e-01,7.807174921035766602e-01,7.806861400604248047e-01,7.806548476219177246e-01,7.806234955787658691e-01,7.805921435356140137e-01,7.805608510971069336e-01,7.805295586585998535e-01,7.804982662200927734e-01,7.804669737815856934e-01
7.480681538581848145e-01,7.480394244194030762e-01,7.480105757713317871e-01,7.479818463325500488e-01,7.479531168937683105e-01,7.479243278503417969e-01,7.478955984115600586e-01,7.478668689727783203e-01,7.478381395339965820e-01,7.478093504905700684e-01,7.477806210517883301e-01,7.477518916130065918e-01,7.477231621742248535e-01,7.476944327354431152e-01,7.476657032966613770e-01,7.476369738578796387e-01,7.476082444190979004e-01,7.475795149803161621e-01,7.475507855415344238e-01,7.475220561027526855e-01,7.474933266639709473e-01,7.474646568298339844e-01,7.474359273910522461e-01,7.474072575569152832e-01,7.473784685134887695e-01,7.473497986793518066e-01,7.473210692405700684e-01,7.472923994064331055e-01,7.472636699676513672e-01,7.472350001335144043e-01,7.472063302993774414e-01,7.471776008605957031e-01,7.471488714218139648e-01,7.471202015876770020e-01,7.470915317535400391e-01,7.470628619194030762e-01,7.470341920852661133e-01,7.470055222511291504e-01,7.469768524169921875e-01,7.469481229782104492e-01,7.469194531440734863e-01,7.468907833099365234e-01,7.468621134757995605e-01,7.468334436416625977e-01,7.468047738075256348e-01,7.467761635780334473e-01,7.467474937438964844e-01,7.467187643051147461e-01,7.466900944709777832e-01,7.466614842414855957e-01,7.466328144073486328e-01,7.466042041778564453e-01,7.465755343437194824e-01,7.465469241142272949e-01,7.465181946754455566e-01,7.464895844459533691e-01,7.464609742164611816e-01,7.464323043823242188e-01,7.464036941528320312e-01,7.463750839233398438e-01,7.463464736938476562e-01,7.463178634643554688e-01,7.462891340255737305e-01,7.462605237960815430e-01,7.462319135665893555e-01,7.462033033370971680e-01,7.461746931076049805e-01,7.461460828781127930e-01,7.461174726486206055e-01,7.460888028144836426e-01,7.460602521896362305e-01,7.460316419601440430e-01,7.460030317306518555e-01,7.459744215011596680e-01,7.459458708763122559e-01,7.459172606468200684e-01,7.458885908126831055e-01,7.458600401878356934e-01,7.458314299583435059e-01,7.458028793334960938e-01
7.161634564399719238e-01,7.161371111869812012e-01,7.161107659339904785e-01,7.160844206809997559e-01,7.160580158233642578e-01,7.160316705703735352e-01,7.160053253173828125e-01,7.159789800643920898e-01,7.159526348114013672e-01,7.159262895584106445e-01,7.158999443054199219e-01,7.158736586570739746e-01,7.158472537994384766e-01,7.158209085464477539e-01,7.157946228981018066e-01,7.157682776451110840e-01,7.157419323921203613e-01,7.157156467437744141e-01,7.156893014907836914e-01,7.156629562377929688e-01,7.156366109848022461e-01,7.156103253364562988e-01,7.155839800834655762e-01,7.155576944351196289e-01,7.155314087867736816e-01,7.155050635337829590e-01,7.154787182807922363e-01,7.154524326324462891e-01,7.154261469841003418e-01,7.153998017311096191e-01,7.153735160827636719e-01,7.153472304344177246e-01,7.153209447860717773e-01,7.152946591377258301e-01,7.152683138847351074e-01,7.152420282363891602e-01,7.152157425880432129e-01,7.151894569396972656e-01,7.151631712913513184e-01,7.151368856430053711e-01,7.151106595993041992e-01,7.150843143463134766e-01,7.150580286979675293e-01,7.150317430496215820e-01,7.150055170059204102e-01,7.149792313575744629e-01,7.149529457092285156e-01,7.149267196655273438e-01,7.149004340171813965e-01,7.148741483688354492e-01,7.148478627204895020e-01,7.148216366767883301e-01,7.147953510284423828e-01,7.147691249847412109e-01,7.147428393363952637e-01,7.147166132926940918e-01,7.146903276443481445e-01,7.146640419960021973e-01,7.146378159523010254e-01,7.146115899085998535e-01,7.145853638648986816e-01,7.145591378211975098e-01,7.145329117774963379e-01,7.145066261291503906e-01,7.144803404808044434e-01,7.144541144371032715e-01,7.144278883934020996e-01,7.144016623497009277e-01,7.143754363059997559e-01,7.143492698669433594e-01,7.143230438232421875e-01,7.142967581748962402e-01,7.142705321311950684e-01,7.142443060874938965e-01,7.142181396484375000e-01,7.141919136047363281e-01,7.141656875610351562e-01,7.141395211219787598e-01,7.141132950782775879e-01,7.140870094299316406e-01
6.868689060211181641e-01,6.868446469306945801e-01,6.868203878402709961e-01,6.867961883544921875e-01,6.867719292640686035e-01,6.867477297782897949e-01,6.867234110832214355e-01,6.866992115974426270e-01,6.866749525070190430e-01,6.866507530212402344e-01,6.866264939308166504e-01,6.866022944450378418e-01,6.865780949592590332e-01,6.865538358688354492e-01,6.865295767784118652e-01,6.865053772926330566e-01,6.864811778068542480e-01,6.864569187164306641e-01,6.864327192306518555e-01,6.864085197448730469e-01,6.863843202590942383e-01,6.863600611686706543e-01,6.863358616828918457e-01,6.863116621971130371e-01,6.862874627113342285e-01,6.862632632255554199e-01,6.862390637397766113e-01,6.862148642539978027e-01,6.861906647682189941e-01,6.861664056777954102e-01,6.861422061920166016e-01,6.861180663108825684e-01,6.860938668251037598e-01,6.860696673393249512e-01,6.860454678535461426e-01,6.860213279724121094e-01,6.859970688819885254e-01,6.859728693962097168e-01,6.859487295150756836e-01,6.859245300292968750e-01,6.859003901481628418e-01,6.858761906623840332e-01,6.858520507812500000e-01,6.858277916908264160e-01,6.858036518096923828e-01,6.857794523239135742e-01,6.857553124427795410e-01,6.857311725616455078e-01,6.857069730758666992e-01,6.856828331947326660e-01,6.856586933135986328e-01,6.856344938278198242e-01,6.856102943420410156e-01,6.855861544609069824e-01,6.855620145797729492e-01,6.855378746986389160e-01,6.855137348175048828e-01,6.854895949363708496e-01,6.854653954505920410e-01,6.854412555694580078e-01,6.854171156883239746e-01,6.853929758071899414e-01,6.853688359260559082e-01,6.853446960449218750e-01,6.853205561637878418e-01,6.852964162826538086e-01,6.852722764015197754e-01,6.852481365203857422e-01,6.852239966392517090e-01,6.851998567581176758e-01,6.851757764816284180e-01,6.851516366004943848e-01,6.851274967193603516e-01,6.851033568382263184e-01,6.850792169570922852e-01,6.850551366806030273e-01,6.850309967994689941e-01,6.850069165229797363e-01,6.849827766418457031e-01,6.849586963653564453e-01
6.598767638206481934e-01,6.598543524742126465e-01,6.598319411277770996e-01,6.598095893859863281e-01,6.597872376441955566e-01,6.597648859024047852e-01,6.597425341606140137e-01,6.597201228141784668e-01,6.596977114677429199e-01,6.596753597259521484e-01,6.596530079841613770e-01,6.596306562423706055e-01,6.596083045005798340e-01,6.595859527587890625e-01,6.595636010169982910e-01,6.595412492752075195e-01,6.595188379287719727e-01,6.594964861869812012e-01,6.594741344451904297e-01,6.594518423080444336e-01,6.594294905662536621e-01,6.594071388244628906e-01,6.593847870826721191e-01,6.593623757362365723e-01,6.593400835990905762e-01,6.593177318572998047e-01,6.592953801155090332e-01,6.592730879783630371e-01,6.592507362365722656e-01,6.592283844947814941e-01,6.592060923576354980e-01,6.591836810111999512e-01,6.591613888740539551e-01,6.591390371322631836e-01,6.591167449951171875e-01,6.590943932533264160e-01,6.590721011161804199e-01,6.590497493743896484e-01,6.590273976325988770e-01,6.590051054954528809e-01,6.589827537536621094e-01,6.589604616165161133e-01,6.589381694793701172e-01,6.589158773422241211e-01,6.588935256004333496e-01,6.588712334632873535e-01,6.588488817214965820e-01,6.588265895843505859e-01,6.588042974472045898e-01,6.587820053100585938e-01,6.587596535682678223e-01,6.587373614311218262e-01,6.587150692939758301e-01,6.586927771568298340e-01,6.586704850196838379e-01,6.586481928825378418e-01,6.586259007453918457e-01,6.586036086082458496e-01,6.585813164710998535e-01,6.585590243339538574e-01,6.585366725921630859e-01,6.585143804550170898e-01,6.584921479225158691e-01,6.584698557853698730e-01,6.584475636482238770e-01,6.584252715110778809e-01,6.584030389785766602e-01,6.583807468414306641e-01,6.583584547042846680e-01,6.583361625671386719e-01,6.583138704299926758e-01,6.582916378974914551e-01,6.582693457603454590e-01,6.582471132278442383e-01,6.582248210906982422e-01,6.582025289535522461e-01,6.581802964210510254e-01,6.581580042839050293e-01,6.581357717514038086e-01,6.581134796142578125e-01
6.349257826805114746e-01,6.349050998687744141e-01,6.348843574523925781e-01,6.348636150360107422e-01,6.348429322242736816e-01,6.348221898078918457e-01,6.348015069961547852e-01,6.347808241844177246e-01,6.347600817680358887e-01,6.347393989562988281e-01,6.347186565399169922e-01,6.346979737281799316e-01,6.346772313117980957e-01,6.346565485000610352e-01,6.346358656883239746e-01,6.346151828765869141e-01,6.345945000648498535e-01,6.345737576484680176e-01,6.345530748367309570e-01,6.345323920249938965e-01,6.345116496086120605e-01,6.344909667968750000e-01,6.344702839851379395e-01,6.344496011734008789e-01,6.344289183616638184e-01,6.344082355499267578e-01,6.343875527381896973e-01,6.343668699264526367e-01,6.343461871147155762e-01,6.343255043029785156e-01,6.343048214912414551e-01,6.342841982841491699e-01,6.342635154724121094e-01,6.342427730560302734e-01,6.342220902442932129e-01,6.342014670372009277e-01,6.341807842254638672e-01,6.341601014137268066e-01,6.341394782066345215e-01,6.341187953948974609e-01,6.340981125831604004e-01,6.340774297714233398e-01,6.340568065643310547e-01,6.340361237525939941e-01,6.340155005455017090e-01,6.339948177337646484e-01,6.339741945266723633e-01,6.339535117149353027e-01,6.339328289031982422e-01,6.339122056961059570e-01,6.338915228843688965e-01,6.338708996772766113e-01,6.338502168655395508e-01,6.338295936584472656e-01,6.338089704513549805e-01,6.337882876396179199e-01,6.337676644325256348e-01,6.337469816207885742e-01,6.337263584136962891e-01,6.337057352066040039e-01,6.336851119995117188e-01,6.336644887924194336e-01,6.336438059806823730e-01,6.336231827735900879e-01,6.336024999618530273e-01,6.335818767547607422e-01,6.335612535476684570e-01,6.335406303405761719e-01,6.335200071334838867e-01,6.334994435310363770e-01,6.334787607192993164e-01,6.334581375122070312e-01,6.334375143051147461e-01,6.334168910980224609e-01,6.333962678909301758e-01,6.333757042884826660e-01,6.333550810813903809e-01,6.333343982696533203e-01,6.333137750625610352e-01,6.332932114601135254e-01
6.117929816246032715e-01,6.117737889289855957e-01,6.117545366287231445e-01,6.117352843284606934e-01,6.117160916328430176e-01,6.116968393325805664e-01,6.116775870323181152e-01,6.116583943367004395e-01,6.116391420364379883e-01,6.116199493408203125e-01,6.116006970405578613e-01,6.115815043449401855e-01,6.115622520446777344e-01,6.115429997444152832e-01,6.115238070487976074e-01,6.115045547485351562e-01,6.114853620529174805e-01,6.114661693572998047e-01,6.114469766616821289e-01,6.114277243614196777e-01,6.114084720611572266e-01,6.113892793655395508e-01,6.113700866699218750e-01,6.113508939743041992e-01,6.113316416740417480e-01,6.113124489784240723e-01,6.112932562828063965e-01,6.112740039825439453e-01,6.112548112869262695e-01,6.112356185913085938e-01,6.112164258956909180e-01,6.111972332000732422e-01,6.111780405044555664e-01,6.111588478088378906e-01,6.111396551132202148e-01,6.111204028129577637e-01,6.111012697219848633e-01,6.110820770263671875e-01,6.110628843307495117e-01,6.110436916351318359e-01,6.110244989395141602e-01,6.110053062438964844e-01,6.109861135482788086e-01,6.109669208526611328e-01,6.109477281570434570e-01,6.109285354614257812e-01,6.109094023704528809e-01,6.108902096748352051e-01,6.108710169792175293e-01,6.108518838882446289e-01,6.108326315879821777e-01,6.108134984970092773e-01,6.107943058013916016e-01,6.107751131057739258e-01,6.107559800148010254e-01,6.107367873191833496e-01,6.107176542282104492e-01,6.106984615325927734e-01,6.106792688369750977e-01,6.106601357460021973e-01,6.106409430503845215e-01,6.106218099594116211e-01,6.106026172637939453e-01,6.105834841728210449e-01,6.105643510818481445e-01,6.105451583862304688e-01,6.105259656906127930e-01,6.105068325996398926e-01,6.104876995086669922e-01,6.104685068130493164e-01,6.104493737220764160e-01,6.104302406311035156e-01,6.104110479354858398e-01,6.103919148445129395e-01,6.103727817535400391e-01,6.103536486625671387e-01,6.103344559669494629e-01,6.103153228759765625e-01,6.102961897850036621e-01,6.102770566940307617e-01
5.902865529060363770e-01,5.902686119079589844e-01,5.902507305145263672e-01,5.902328491210937500e-01,5.902149081230163574e-01,5.901970267295837402e-01,5.901791453361511230e-01,5.901612043380737305e-01,5.901433229446411133e-01,5.901254415512084961e-01,5.901075005531311035e-01,5.900896191596984863e-01,5.900717377662658691e-01,5.900538563728332520e-01,5.900359749794006348e-01,5.900180339813232422e-01,5.900001525878906250e-01,5.899822711944580078e-01,5.899643898010253906e-01,5.899465084075927734e-01,5.899286270141601562e-01,5.899107456207275391e-01,5.898928046226501465e-01,5.898749232292175293e-01,5.898571014404296875e-01,5.898392200469970703e-01,5.898213386535644531e-01,5.898034572601318359e-01,5.897855758666992188e-01,5.897676944732666016e-01,5.897498130798339844e-01,5.897319316864013672e-01,5.897140502929687500e-01,5.896961688995361328e-01,5.896783471107482910e-01,5.896604657173156738e-01,5.896425843238830566e-01,5.896247029304504395e-01,5.896068215370178223e-01,5.895889997482299805e-01,5.895711183547973633e-01,5.895532369613647461e-01,5.895354151725769043e-01,5.895175337791442871e-01,5.894996523857116699e-01,5.894817709922790527e-01,5.894639492034912109e-01,5.894460678100585938e-01,5.894282460212707520e-01,5.894103646278381348e-01,5.893925428390502930e-01,5.893747210502624512e-01,5.893567800521850586e-01,5.893389582633972168e-01,5.893211364746093750e-01,5.893032550811767578e-01,5.892854332923889160e-01,5.892676115036010742e-01,5.892497301101684570e-01,5.892318487167358398e-01,5.892140269279479980e-01,5.891962051391601562e-01,5.891783833503723145e-01,5.891605019569396973e-01,5.891426801681518555e-01,5.891248583793640137e-01,5.891070365905761719e-01,5.890891551971435547e-01,5.890713334083557129e-01,5.890535116195678711e-01,5.890356898307800293e-01,5.890178680419921875e-01,5.889999866485595703e-01,5.889821648597717285e-01,5.889643430709838867e-01,5.889465212821960449e-01,5.889286994934082031e-01,5.889108777046203613e-01,5.888930559158325195e-01,5.888752341270446777e-01
5.702408552169799805e-01,5.702241063117980957e-01,5.702073574066162109e-01,5.701906681060791016e-01,5.701739788055419922e-01,5.701572895050048828e-01,5.701405405998229980e-01,5.701238512992858887e-01,5.701071619987487793e-01,5.700904130935668945e-01,5.700737237930297852e-01,5.700570344924926758e-01,5.700403451919555664e-01,5.700236558914184570e-01,5.700069665908813477e-01,5.699902772903442383e-01,5.699735283851623535e-01,5.699568390846252441e-01,5.699401497840881348e-01,5.699234604835510254e-01,5.699067711830139160e-01,5.698900818824768066e-01,5.698733925819396973e-01,5.698567032814025879e-01,5.698399543762207031e-01,5.698232650756835938e-01,5.698066353797912598e-01,5.697899460792541504e-01,5.697732567787170410e-01,5.697565674781799316e-01,5.697398781776428223e-01,5.697231888771057129e-01,5.697064995765686035e-01,5.696898102760314941e-01,5.696731209754943848e-01,5.696564912796020508e-01,5.696398019790649414e-01,5.696231126785278320e-01,5.696064829826354980e-01,5.695897340774536133e-01,5.695731043815612793e-01,5.695564150810241699e-01,5.695397257804870605e-01,5.695230960845947266e-01,5.695064067840576172e-01,5.694897770881652832e-01,5.694730281829833984e-01,5.694563984870910645e-01,5.694397091865539551e-01,5.694230794906616211e-01,5.694063901901245117e-01,5.693897604942321777e-01,5.693730711936950684e-01,5.693564414978027344e-01,5.693397521972656250e-01,5.693230628967285156e-01,5.693064332008361816e-01,5.692898035049438477e-01,5.692731142044067383e-01,5.692564845085144043e-01,5.692398548126220703e-01,5.692231655120849609e-01,5.692064762115478516e-01,5.691898465156555176e-01,5.691732168197631836e-01,5.691565871238708496e-01,5.691398978233337402e-01,5.691232681274414062e-01,5.691066384315490723e-01,5.690899491310119629e-01,5.690733194351196289e-01,5.690566897392272949e-01,5.690400600433349609e-01,5.690233707427978516e-01,5.690067410469055176e-01,5.689901113510131836e-01,5.689734816551208496e-01,5.689568519592285156e-01,5.689401626586914062e-01,5.689235329627990723e-01
