5.000000000000000000e+00,5.000000000000000000e+00,5.000000000000000000e+00,4.626511096954345703e+00,5.000000000000000000e+00,5.000000000000000000e+00,5.000000000000000000e+00,5.000000000000000000e+00,5.000000000000000000e+00,5.000000000000000000e+00,5.000000000000000000e+00,5.000000000000000000e+00,5.000000000000000000e+00,5.000000000000000000e+00,5.000000000000000000e+00,5.000000000000000000e+00,5.000000000000000000e+00,5.000000000000000000e+00,5.000000000000000000e+00,5.000000000000000000e+00,5.000000000000000000e+00,5.000000000000000000e+00,5.000000000000000000e+00,5.000000000000000000e+00,5.000000000000000000e+00,5.000000000000000000e+00,5.000000000000000000e+00,5.000000000000000000e+00,5.000000000000000000e+00,5.000000000000000000e+00,5.000000000000000000e+00,5.000000000000000000e+00,5.000000000000000000e+00,5.000000000000000000e+00,1.788023591041564941e+00,1.769339323043823242e+00,1.674152851104736328e+00,1.622862935066223145e+00,1.611050248146057129e+00,1.600360512733459473e+00,1.609223961830139160e+00,1.638263106346130371e+00,1.749834537506103516e+00,1.742415189743041992e+00,1.737273097038269043e+00,1.763798952102661133e+00,3.781966209411621094e+00,3.665394783020019531e+00,3.555795192718505859e+00,3.452559471130371094e+00,3.355149030685424805e+00,3.263084650039672852e+00,1.624186158180236816e+00,1.645825505256652832e+00,3.014899969100952148e+00,2.940354108810424805e+00,2.869405269622802734e+00,2.801800012588500977e+00,2.737307071685791016e+00,2.675716400146484375e+00,2.616836071014404297e+00,2.560491561889648438e+00,2.506522178649902344e+00,2.454780817031860352e+00,2.405132770538330078e+00,2.357453107833862305e+00,2.311626672744750977e+00,2.267548322677612305e+00,2.225119352340698242e+00,2.184249162673950195e+00,2.144853115081787109e+00,2.106853246688842773e+00,2.070175886154174805e+00,2.034754276275634766e+00,2.000524282455444336e+00,1.967426776885986328e+00,1.935406565666198730e+00,1.904412031173706055e+00,1.874394536018371582e+00,1.845308542251586914e+00
5.000000000000000000e+00,5.000000000000000000e+00,4.596733570098876953e+00,4.604622840881347656e+00,5.000000000000000000e+00,5.000000000000000000e+00,5.000000000000000000e+00,5.000000000000000000e+00,5.000000000000000000e+00,5.000000000000000000e+00,5.000000000000000000e+00,5.000000000000000000e+00,5.000000000000000000e+00,5.000000000000000000e+00,5.000000000000000000e+00,5.000000000000000000e+00,5.000000000000000000e+00,5.000000000000000000e+00,5.000000000000000000e+00,5.000000000000000000e+00,5.000000000000000000e+00,5.000000000000000000e+00,5.000000000000000000e+00,5.000000000000000000e+00,5.000000000000000000e+00,5.000000000000000000e+00,5.000000000000000000e+00,5.000000000000000000e+00,5.000000000000000000e+00,5.000000000000000000e+00,5.000000000000000000e+00,5.000000000000000000e+00,5.000000000000000000e+00,5.000000000000000000e+00,1.793058514595031738e+00,1.783175349235534668e+00,1.679956555366516113e+00,1.612379550933837891e+00,1.600135684013366699e+00,1.588619351387023926e+00,1.595618844032287598e+00,1.621857881546020508e+00,1.750628471374511719e+00,1.743510484695434570e+00,1.741010904312133789e+00,1.768660664558410645e+00,3.782049655914306641e+00,3.665473699569702148e+00,3.555869102478027344e+00,3.452629089355468750e+00,3.355215072631835938e+00,3.263147115707397461e+00,3.175996541976928711e+00,1.623612046241760254e+00,3.014953374862670898e+00,2.940404653549194336e+00,2.869453668594360352e+00,2.801846027374267578e+00,2.737350702285766602e+00,2.675758123397827148e+00,2.616876363754272461e+00,2.560529708862304688e+00,2.506558895111083984e+00,2.454816341400146484e+00,2.405166387557983398e+00,2.357485532760620117e+00,2.311658143997192383e+00,2.267578601837158203e+00,2.225148439407348633e+00,2.184277057647705078e+00,2.144880056381225586e+00,2.106879234313964844e+00,2.070201158523559570e+00,2.034778594970703125e+00,2.000547647476196289e+00,1.967449426651000977e+00,1.935428500175476074e+00,1.904433250427246094e+00,1.874415040016174316e+00,1.845328569412231445e+00
5.000000000000000000e+00,5.000000000000000000e+00,5.000000000000000000e+00,4.615355491638183594e+00,5.000000000000000000e+00,5.000000000000000000e+00,5.000000000000000000e+00,5.000000000000000000e+00,5.000000000000000000e+00,5.000000000000000000e+00,5.000000000000000000e+00,5.000000000000000000e+00,5.000000000000000000e+00,5.000000000000000000e+00,5.000000000000000000e+00,5.000000000000000000e+00,5.000000000000000000e+00,5.000000000000000000e+00,5.000000000000000000e+00,5.000000000000000000e+00,5.000000000000000000e+00,5.000000000000000000e+00,5.000000000000000000e+00,5.000000000000000000e+00,5.000000000000000000e+00,5.000000000000000000e+00,5.000000000000000000e+00,5.000000000000000000e+00,5.000000000000000000e+00,5.000000000000000000e+00,5.000000000000000000e+00,5.000000000000000000e+00,5.000000000000000000e+00,5.000000000000000000e+00,1.785202741622924805e+00,1.767929315567016602e+00,1.718613147735595703e+00,1.609456777572631836e+00,1.589942932128906250e+00,1.578036189079284668e+00,1.580801367759704590e+00,1.605650663375854492e+00,1.755875110626220703e+00,1.747755408287048340e+00,1.748410224914550781e+00,1.777377128601074219e+00,3.782133817672729492e+00,3.665552139282226562e+00,3.555943250656127930e+00,3.452699184417724609e+00,3.355280876159667969e+00,3.263209342956542969e+00,3.176055908203125000e+00,1.687360644340515137e+00,3.015006542205810547e+00,2.940455436706542969e+00,2.869501590728759766e+00,2.801892042160034180e+00,2.737394809722900391e+00,2.675800085067749023e+00,2.616916179656982422e+00,2.560568332672119141e+00,2.506595849990844727e+00,2.454851388931274414e+00,2.405200481414794922e+00,2.357518196105957031e+00,2.311689376831054688e+00,2.267608642578125000e+00,2.225177526473999023e+00,2.184304952621459961e+00,2.144906997680664062e+00,2.106905221939086914e+00,2.070226192474365234e+00,2.034802675247192383e+00,2.000571012496948242e+00,1.967472195625305176e+00,1.935450315475463867e+00,1.904454469680786133e+00,1.874435663223266602e+00,1.845348477363586426e+00
5.000000000000000000e+00,5.000000000000000000e+00,4.688694000244140625e+00,4.684774875640869141e+00,4.695503234863281250e+00,5.000000000000000000e+00,5.000000000000000000e+00,5.000000000000000000e+00,5.000000000000000000e+00,5.000000000000000000e+00,5.000000000000000000e+00,5.000000000000000000e+00,5.000000000000000000e+00,5.000000000000000000e+00,5.000000000000000000e+00,5.000000000000000000e+00,5.000000000000000000e+00,5.000000000000000000e+00,5.000000000000000000e+00,5.000000000000000000e+00,5.000000000000000000e+00,5.000000000000000000e+00,5.000000000000000000e+00,5.000000000000000000e+00,5.000000000000000000e+00,5.000000000000000000e+00,5.000000000000000000e+00,5.000000000000000000e+00,5.000000000000000000e+00,5.000000000000000000e+00,5.000000000000000000e+00,5.000000000000000000e+00,5.000000000000000000e+00,5.000000000000000000e+00,1.766883492469787598e+00,1.751150369644165039e+00,1.757712483406066895e+00,1.615988135337829590e+00,1.576376199722290039e+00,1.563791155815124512e+00,1.565944671630859375e+00,1.590024948120117188e+00,1.762898325920104980e+00,1.755049228668212891e+00,1.758958220481872559e+00,1.788738965988159180e+00,3.782217264175415039e+00,3.665631055831909180e+00,3.556017160415649414e+00,3.452768802642822266e+00,3.355346918106079102e+00,3.263271808624267578e+00,3.176114797592163086e+00,3.093492507934570312e+00,3.015059709548950195e+00,2.940505743026733398e+00,2.869549989700317383e+00,2.801938056945800781e+00,2.737438440322875977e+00,2.675842046737670898e+00,2.616956472396850586e+00,2.560606479644775391e+00,2.506632566452026367e+00,2.454886913299560547e+00,2.405234336853027344e+00,2.357550621032714844e+00,2.311720609664916992e+00,2.267638683319091797e+00,2.225206375122070312e+00,2.184333086013793945e+00,2.144933938980102539e+00,2.106931209564208984e+00,2.070251226425170898e+00,2.034826993942260742e+00,2.000594377517700195e+00,1.967494845390319824e+00,1.935472488403320312e+00,1.904475569725036621e+00,1.874456167221069336e+00,1.845368385314941406e+00
4.563248634338378906e+00,4.568088531494140625e+00,4.589409351348876953e+00,4.617385387420654297e+00,4.656522750854492188e+00,4.707935333251953125e+00,4.763611793518066406e+00,5.000000000000000000e+00,5.000000000000000000e+00,5.000000000000000000e+00,5.000000000000000000e+00,5.000000000000000000e+00,5.000000000000000000e+00,5.000000000000000000e+00,5.000000000000000000e+00,5.000000000000000000e+00,5.000000000000000000e+00,5.000000000000000000e+00,5.000000000000000000e+00,5.000000000000000000e+00,5.000000000000000000e+00,5.000000000000000000e+00,5.000000000000000000e+00,5.000000000000000000e+00,5.000000000000000000e+00,5.000000000000000000e+00,5.000000000000000000e+00,5.000000000000000000e+00,5.000000000000000000e+00,5.000000000000000000e+00,5.000000000000000000e+00,5.000000000000000000e+00,5.000000000000000000e+00,5.000000000000000000e+00,1.753994822502136230e+00,5.000000000000000000e+00,1.742160916328430176e+00,1.624143362045288086e+00,1.565766334533691406e+00,1.549622774124145508e+00,1.551437973976135254e+00,1.573779821395874023e+00,1.770655632019042969e+00,1.763283610343933105e+00,1.770419001579284668e+00,1.801848649978637695e+00,3.782301187515258789e+00,3.665709495544433594e+00,3.556091308593750000e+00,3.452838897705078125e+00,3.355412721633911133e+00,3.263334035873413086e+00,3.176173925399780273e+00,3.093548297882080078e+00,3.015112876892089844e+00,2.940556526184082031e+00,2.869598150253295898e+00,2.801983833312988281e+00,2.737482547760009766e+00,2.675884008407592773e+00,2.616996526718139648e+00,2.560645103454589844e+00,2.506669521331787109e+00,2.454921960830688477e+00,2.405268192291259766e+00,2.357583284378051758e+00,2.311751842498779297e+00,2.267668724060058594e+00,2.225235462188720703e+00,2.184360980987548828e+00,2.144960880279541016e+00,2.106957197189331055e+00,2.070276260375976562e+00,2.034851312637329102e+00,2.000617980957031250e+00,1.967517495155334473e+00,1.935494303703308105e+00,1.904497027397155762e+00,1.874476909637451172e+00,1.845388293266296387e+00
4.587242126464843750e+00,4.564331054687500000e+00,4.564472198486328125e+00,4.595459938049316406e+00,4.634194850921630859e+00,4.708009719848632812e+00,4.772791862487792969e+00,5.000000000000000000e+00,5.000000000000000000e+00,5.000000000000000000e+00,5.000000000000000000e+00,5.000000000000000000e+00,5.000000000000000000e+00,5.000000000000000000e+00,5.000000000000000000e+00,5.000000000000000000e+00,5.000000000000000000e+00,5.000000000000000000e+00,5.000000000000000000e+00,5.000000000000000000e+00,5.000000000000000000e+00,5.000000000000000000e+00,5.000000000000000000e+00,5.000000000000000000e+00,5.000000000000000000e+00,5.000000000000000000e+00,5.000000000000000000e+00,5.000000000000000000e+00,5.000000000000000000e+00,5.000000000000000000e+00,5.000000000000000000e+00,5.000000000000000000e+00,5.000000000000000000e+00,5.000000000000000000e+00,1.759987711906433105e+00,5.000000000000000000e+00,1.741403102874755859e+00,1.641644120216369629e+00,1.558477282524108887e+00,1.537021994590759277e+00,1.537197470664978027e+00,1.555872797966003418e+00,1.777537107467651367e+00,1.771595239639282227e+00,1.782029867172241211e+00,1.816540241241455078e+00,3.782384872436523438e+00,3.665788412094116211e+00,3.556165218353271484e+00,3.452908515930175781e+00,3.355478763580322266e+00,3.263396501541137695e+00,3.176232814788818359e+00,3.093604564666748047e+00,3.015166282653808594e+00,2.940607070922851562e+00,2.869646549224853516e+00,2.802030086517333984e+00,2.737526178359985352e+00,2.675925970077514648e+00,2.617036581039428711e+00,2.560683488845825195e+00,2.506706237792968750e+00,2.454957485198974609e+00,2.405302047729492188e+00,2.357615709304809570e+00,2.311783313751220703e+00,2.267699003219604492e+00,2.225264310836791992e+00,2.184388875961303711e+00,2.144987821578979492e+00,2.106983184814453125e+00,2.070301532745361328e+00,2.034875631332397461e+00,2.000641345977783203e+00,1.967540144920349121e+00,1.935516238212585449e+00,1.904518246650695801e+00,1.874497413635253906e+00,1.845408320426940918e+00
4.607275009155273438e+00,4.580401897430419922e+00,4.563933849334716797e+00,4.589853763580322266e+00,4.637984275817871094e+00,4.723637104034423828e+00,4.765944004058837891e+00,5.000000000000000000e+00,5.000000000000000000e+00,5.000000000000000000e+00,5.000000000000000000e+00,5.000000000000000000e+00,5.000000000000000000e+00,5.000000000000000000e+00,5.000000000000000000e+00,5.000000000000000000e+00,5.000000000000000000e+00,5.000000000000000000e+00,5.000000000000000000e+00,5.000000000000000000e+00,5.000000000000000000e+00,5.000000000000000000e+00,5.000000000000000000e+00,5.000000000000000000e+00,5.000000000000000000e+00,5.000000000000000000e+00,5.000000000000000000e+00,5.000000000000000000e+00,5.000000000000000000e+00,5.000000000000000000e+00,5.000000000000000000e+00,5.000000000000000000e+00,5.000000000000000000e+00,5.000000000000000000e+00,1.752249479293823242e+00,5.000000000000000000e+00,5.000000000000000000e+00,1.664234995841979980e+00,1.561369061470031738e+00,1.529721736907958984e+00,1.522039651870727539e+00,1.538539648056030273e+00,1.784472107887268066e+00,1.779348731040954590e+00,1.795647144317626953e+00,3.906731367111206055e+00,3.782468795776367188e+00,3.665866851806640625e+00,3.556239604949951172e+00,3.452978372573852539e+00,3.355544567108154297e+00,3.263458728790283203e+00,3.176292181015014648e+00,3.093660354614257812e+00,3.015219449996948242e+00,2.940657854080200195e+00,2.869694709777832031e+00,2.802075862884521484e+00,2.737570285797119141e+00,2.675967931747436523e+00,2.617076635360717773e+00,2.560721874237060547e+00,2.506742954254150391e+00,2.454992771148681641e+00,2.405335903167724609e+00,2.357648372650146484e+00,2.311814546585083008e+00,2.267729043960571289e+00,2.225293397903442383e+00,2.184416770935058594e+00,2.145014762878417969e+00,2.107009172439575195e+00,2.070326566696166992e+00,2.034899711608886719e+00,2.000664949417114258e+00,1.967562913894653320e+00,1.935538053512573242e+00,1.904539346694946289e+00,1.874517917633056641e+00,1.845428228378295898e+00
4.637756824493408203e+00,4.579383850097656250e+00,4.557955741882324219e+00,4.595509052276611328e+00,4.640485763549804688e+00,4.768938541412353516e+00,4.775396347045898438e+00,4.828189373016357422e+00,5.000000000000000000e+00,5.000000000000000000e+00,5.000000000000000000e+00,5.000000000000000000e+00,5.000000000000000000e+00,5.000000000000000000e+00,5.000000000000000000e+00,5.000000000000000000e+00,5.000000000000000000e+00,5.000000000000000000e+00,5.000000000000000000e+00,5.000000000000000000e+00,5.000000000000000000e+00,5.000000000000000000e+00,5.000000000000000000e+00,5.000000000000000000e+00,5.000000000000000000e+00,5.000000000000000000e+00,5.000000000000000000e+00,5.000000000000000000e+00,5.000000000000000000e+00,5.000000000000000000e+00,5.000000000000000000e+00,5.000000000000000000e+00,5.000000000000000000e+00,5.000000000000000000e+00,1.745707035064697266e+00,5.000000000000000000e+00,5.000000000000000000e+00,5.000000000000000000e+00,1.571512103080749512e+00,1.523634433746337891e+00,1.513341546058654785e+00,1.526335954666137695e+00,1.610720634460449219e+00,1.787037611007690430e+00,1.806096196174621582e+00,3.906820535659790039e+00,3.782552480697631836e+00,3.665945768356323242e+00,3.556313753128051758e+00,3.453047990798950195e+00,3.355610609054565430e+00,3.263521194458007812e+00,3.176351070404052734e+00,3.093716621398925781e+00,3.015272855758666992e+00,2.940708398818969727e+00,2.869742870330810547e+00,2.802121877670288086e+00,2.737613916397094727e+00,2.676009654998779297e+00,2.617116928100585938e+00,2.560760259628295898e+00,2.506779670715332031e+00,2.455028057098388672e+00,2.405369997024536133e+00,2.357680797576904297e+00,2.311846017837524414e+00,2.267759323120117188e+00,2.225322246551513672e+00,2.184444904327392578e+00,2.145041704177856445e+00,2.107035160064697266e+00,2.070351839065551758e+00,2.034924030303955078e+00,2.000688314437866211e+00,1.967585563659667969e+00,1.935560226440429688e+00,1.904560565948486328e+00,1.874538421630859375e+00,1.845448136329650879e+00
5.000000000000000000e+00,4.576633930206298828e+00,4.566168308258056641e+00,4.583199977874755859e+00,4.644253253936767578e+00,4.736513137817382812e+00,4.766731262207031250e+00,4.787955760955810547e+00,5.000000000000000000e+00,5.000000000000000000e+00,5.000000000000000000e+00,5.000000000000000000e+00,5.000000000000000000e+00,5.000000000000000000e+00,5.000000000000000000e+00,5.000000000000000000e+00,5.000000000000000000e+00,5.000000000000000000e+00,5.000000000000000000e+00,5.000000000000000000e+00,5.000000000000000000e+00,5.000000000000000000e+00,5.000000000000000000e+00,5.000000000000000000e+00,5.000000000000000000e+00,5.000000000000000000e+00,5.000000000000000000e+00,5.000000000000000000e+00,5.000000000000000000e+00,5.000000000000000000e+00,5.000000000000000000e+00,5.000000000000000000e+00,5.000000000000000000e+00,5.000000000000000000e+00,5.000000000000000000e+00,5.000000000000000000e+00,5.000000000000000000e+00,5.000000000000000000e+00,1.583290934562683105e+00,1.524113416671752930e+00,1.514000058174133301e+00,1.527699470520019531e+00,1.585395693778991699e+00,1.795195460319519043e+00,1.815149784088134766e+00,3.906910181045532227e+00,3.782636404037475586e+00,3.666024446487426758e+00,3.556387662887573242e+00,3.453118085861206055e+00,3.355676412582397461e+00,3.263583421707153320e+00,3.176410198211669922e+00,3.093772649765014648e+00,3.015325784683227539e+00,2.940759181976318359e+00,2.869791269302368164e+00,2.802167892456054688e+00,2.737658023834228516e+00,2.676051855087280273e+00,2.617156982421875000e+00,2.560798645019531250e+00,2.506816625595092773e+00,2.455063343048095703e+00,2.405403852462768555e+00,2.357713460922241211e+00,2.311877250671386719e+00,2.267789363861083984e+00,2.225351333618164062e+00,2.184472560882568359e+00,2.145068645477294922e+00,2.107061147689819336e+00,2.070376873016357422e+00,2.034948348999023438e+00,2.000711679458618164e+00,1.967608213424682617e+00,1.935582041740417480e+00,1.904582023620605469e+00,1.874559164047241211e+00,1.845468044281005859e+00
4.638569831848144531e+00,4.545148849487304688e+00,4.566258907318115234e+00,4.602572441101074219e+00,4.646780967712402344e+00,4.717451095581054688e+00,5.000000000000000000e+00,4.730086803436279297e+00,5.000000000000000000e+00,5.000000000000000000e+00,5.000000000000000000e+00,5.000000000000000000e+00,5.000000000000000000e+00,5.000000000000000000e+00,5.000000000000000000e+00,5.000000000000000000e+00,5.000000000000000000e+00,5.000000000000000000e+00,5.000000000000000000e+00,5.000000000000000000e+00,5.000000000000000000e+00,5.000000000000000000e+00,5.000000000000000000e+00,5.000000000000000000e+00,5.000000000000000000e+00,5.000000000000000000e+00,5.000000000000000000e+00,5.000000000000000000e+00,5.000000000000000000e+00,5.000000000000000000e+00,5.000000000000000000e+00,5.000000000000000000e+00,5.000000000000000000e+00,5.000000000000000000e+00,5.000000000000000000e+00,5.000000000000000000e+00,5.000000000000000000e+00,5.000000000000000000e+00,1.578756093978881836e+00,1.529639959335327148e+00,1.515566587448120117e+00,1.529294729232788086e+00,1.591915845870971680e+00,1.803428173065185547e+00,1.832506299018859863e+00,3.906999349594116211e+00,3.782720088958740234e+00,3.666103363037109375e+00,3.556461811065673828e+00,3.453187704086303711e+00,3.355742454528808594e+00,3.263645887374877930e+00,3.176469087600708008e+00,3.093828678131103516e+00,3.015379190444946289e+00,2.940809726715087891e+00,2.869839429855346680e+00,2.802213907241821289e+00,2.737701892852783203e+00,2.676093578338623047e+00,2.617197036743164062e+00,2.560837030410766602e+00,2.506853342056274414e+00,2.455098628997802734e+00,2.405437707901000977e+00,2.357745885848999023e+00,2.311908483505249023e+00,2.267819404602050781e+00,2.225380420684814453e+00,2.184500694274902344e+00,2.145095586776733398e+00,2.107087135314941406e+00,2.070401906967163086e+00,2.034972667694091797e+00,2.000735044479370117e+00,1.967630743980407715e+00,1.935603976249694824e+00,1.904603242874145508e+00,1.874579668045043945e+00,1.845488190650939941e+00
4.612360954284667969e+00,4.497426986694335938e+00,4.506063461303710938e+00,4.609764575958251953e+00,4.663441658020019531e+00,4.719915390014648438e+00,5.000000000000000000e+00,4.672916889190673828e+00,5.000000000000000000e+00,5.000000000000000000e+00,5.000000000000000000e+00,5.000000000000000000e+00,5.000000000000000000e+00,5.000000000000000000e+00,5.000000000000000000e+00,5.000000000000000000e+00,5.000000000000000000e+00,5.000000000000000000e+00,5.000000000000000000e+00,5.000000000000000000e+00,5.000000000000000000e+00,5.000000000000000000e+00,5.000000000000000000e+00,5.000000000000000000e+00,5.000000000000000000e+00,5.000000000000000000e+00,5.000000000000000000e+00,5.000000000000000000e+00,5.000000000000000000e+00,5.000000000000000000e+00,5.000000000000000000e+00,5.000000000000000000e+00,5.000000000000000000e+00,5.000000000000000000e+00,5.000000000000000000e+00,5.000000000000000000e+00,5.000000000000000000e+00,5.000000000000000000e+00,1.563750624656677246e+00,1.532225847244262695e+00,1.517136335372924805e+00,1.532697796821594238e+00,1.811642885208129883e+00,1.810925245285034180e+00,4.039818286895751953e+00,3.907088994979858398e+00,3.782804012298583984e+00,3.666181802749633789e+00,3.556535720825195312e+00,3.453257799148559570e+00,3.355808258056640625e+00,3.263708114624023438e+00,3.176528453826904297e+00,3.093884706497192383e+00,3.015432357788085938e+00,2.940860509872436523e+00,2.869887828826904297e+00,2.802259683609008789e+00,2.737745761871337891e+00,2.676135778427124023e+00,2.617237091064453125e+00,2.560875415802001953e+00,2.506890296936035156e+00,2.455133914947509766e+00,2.405471563339233398e+00,2.357778549194335938e+00,2.311939716339111328e+00,2.267849445343017578e+00,2.225409507751464844e+00,2.184528589248657227e+00,2.145122528076171875e+00,2.107113122940063477e+00,2.070427179336547852e+00,2.034996747970581055e+00,2.000758647918701172e+00,1.967653632164001465e+00,1.935625791549682617e+00,1.904624342918395996e+00,1.874600172042846680e+00,1.845507979393005371e+00
4.607961177825927734e+00,4.475474357604980469e+00,4.482528686523437500e+00,4.581786632537841797e+00,4.667287349700927734e+00,4.730869770050048828e+00,5.000000000000000000e+00,4.617450714111328125e+00,5.000000000000000000e+00,5.000000000000000000e+00,5.000000000000000000e+00,5.000000000000000000e+00,5.000000000000000000e+00,5.000000000000000000e+00,5.000000000000000000e+00,5.000000000000000000e+00,5.000000000000000000e+00,5.000000000000000000e+00,5.000000000000000000e+00,5.000000000000000000e+00,5.000000000000000000e+00,5.000000000000000000e+00,5.000000000000000000e+00,5.000000000000000000e+00,5.000000000000000000e+00,5.000000000000000000e+00,5.000000000000000000e+00,5.000000000000000000e+00,5.000000000000000000e+00,5.000000000000000000e+00,5.000000000000000000e+00,5.000000000000000000e+00,5.000000000000000000e+00,5.000000000000000000e+00,5.000000000000000000e+00,5.000000000000000000e+00,5.000000000000000000e+00,5.000000000000000000e+00,1.556715250015258789e+00,1.532335996627807617e+00,1.518709540367126465e+00,1.539250254631042480e+00,1.820210933685302734e+00,1.820117712020874023e+00,4.039913654327392578e+00,3.907178163528442383e+00,3.782887697219848633e+00,3.666260719299316406e+00,3.556610107421875000e+00,3.453327417373657227e+00,3.355874538421630859e+00,3.263770818710327148e+00,3.176587343215942383e+00,3.093940734863281250e+00,3.015485763549804688e+00,2.940911054611206055e+00,2.869935989379882812e+00,2.802305936813354492e+00,2.737789630889892578e+00,2.676177501678466797e+00,2.617277383804321289e+00,2.560913801193237305e+00,2.506927013397216797e+00,2.455169200897216797e+00,2.405505418777465820e+00,2.357810974121093750e+00,2.311971187591552734e+00,2.267879724502563477e+00,2.225438356399536133e+00,2.184556484222412109e+00,2.145149707794189453e+00,2.107139110565185547e+00,2.070452213287353516e+00,2.035021066665649414e+00,2.000782012939453125e+00,1.967676281929016113e+00,1.935647964477539062e+00,1.904645562171936035e+00,1.874620795249938965e+00,1.845527887344360352e+00
4.576692104339599609e+00,4.490737915039062500e+00,4.456867694854736328e+00,4.552817821502685547e+00,4.688646316528320312e+00,4.757456302642822266e+00,5.000000000000000000e+00,5.000000000000000000e+00,5.000000000000000000e+00,5.000000000000000000e+00,5.000000000000000000e+00,5.000000000000000000e+00,5.000000000000000000e+00,5.000000000000000000e+00,5.000000000000000000e+00,5.000000000000000000e+00,5.000000000000000000e+00,5.000000000000000000e+00,5.000000000000000000e+00,5.000000000000000000e+00,5.000000000000000000e+00,5.000000000000000000e+00,5.000000000000000000e+00,5.000000000000000000e+00,5.000000000000000000e+00,5.000000000000000000e+00,5.000000000000000000e+00,5.000000000000000000e+00,5.000000000000000000e+00,5.000000000000000000e+00,5.000000000000000000e+00,5.000000000000000000e+00,5.000000000000000000e+00,5.000000000000000000e+00,5.000000000000000000e+00,5.000000000000000000e+00,5.000000000000000000e+00,5.000000000000000000e+00,1.556578874588012695e+00,1.532446384429931641e+00,1.521880388259887695e+00,1.545858740806579590e+00,1.840996980667114258e+00,1.838070392608642578e+00,4.040009498596191406e+00,3.907267808914184570e+00,3.782971620559692383e+00,3.666339159011840820e+00,3.556684017181396484e+00,3.453397512435913086e+00,3.355940103530883789e+00,3.263833045959472656e+00,3.176646709442138672e+00,3.093996763229370117e+00,3.015538930892944336e+00,2.940961837768554688e+00,2.869984149932861328e+00,2.802351713180541992e+00,2.737833499908447266e+00,2.676219463348388672e+00,2.617317438125610352e+00,2.560952186584472656e+00,2.506963729858398438e+00,2.455204486846923828e+00,2.405539274215698242e+00,2.357843637466430664e+00,2.312002420425415039e+00,2.267909765243530273e+00,2.225467443466186523e+00,2.184584379196166992e+00,2.145176410675048828e+00,2.107165098190307617e+00,2.070477247238159180e+00,2.035045146942138672e+00,2.000805377960205078e+00,1.967698812484741211e+00,1.935669779777526855e+00,1.904667019844055176e+00,1.874641537666320801e+00,1.845547795295715332e+00
5.000000000000000000e+00,5.000000000000000000e+00,4.429834365844726562e+00,4.518237590789794922e+00,4.712729930877685547e+00,5.000000000000000000e+00,5.000000000000000000e+00,5.000000000000000000e+00,5.000000000000000000e+00,5.000000000000000000e+00,5.000000000000000000e+00,5.000000000000000000e+00,5.000000000000000000e+00,5.000000000000000000e+00,5.000000000000000000e+00,5.000000000000000000e+00,5.000000000000000000e+00,5.000000000000000000e+00,5.000000000000000000e+00,5.000000000000000000e+00,5.000000000000000000e+00,5.000000000000000000e+00,5.000000000000000000e+00,5.000000000000000000e+00,5.000000000000000000e+00,5.000000000000000000e+00,5.000000000000000000e+00,5.000000000000000000e+00,5.000000000000000000e+00,5.000000000000000000e+00,5.000000000000000000e+00,5.000000000000000000e+00,5.000000000000000000e+00,5.000000000000000000e+00,5.000000000000000000e+00,5.000000000000000000e+00,5.000000000000000000e+00,5.000000000000000000e+00,1.556176424026489258e+00,1.527286767959594727e+00,1.515016436576843262e+00,1.536674022674560547e+00,1.868832468986511230e+00,4.182190418243408203e+00,4.040104866027832031e+00,3.907356977462768555e+00,3.783055305480957031e+00,3.666418075561523438e+00,3.556758165359497070e+00,3.453467130661010742e+00,3.356006383895874023e+00,3.263895511627197266e+00,3.176705598831176758e+00,3.094053030014038086e+00,3.015592336654663086e+00,2.941012144088745117e+00,2.870032310485839844e+00,2.802397966384887695e+00,2.737877368927001953e+00,2.676261425018310547e+00,2.617357492446899414e+00,2.560990571975708008e+00,2.507000446319580078e+00,2.455239772796630859e+00,2.405573368072509766e+00,2.357876062393188477e+00,2.312033653259277344e+00,2.267940044403076172e+00,2.225496292114257812e+00,2.184612512588500977e+00,2.145203590393066406e+00,2.107191085815429688e+00,2.070502281188964844e+00,2.035069465637207031e+00,2.000828981399536133e+00,1.967721462249755859e+00,1.935691714286804199e+00,1.904688119888305664e+00,1.874662041664123535e+00,1.845567941665649414e+00
5.000000000000000000e+00,5.000000000000000000e+00,4.429471969604492188e+00,4.512971401214599609e+00,4.735837936401367188e+00,5.000000000000000000e+00,5.000000000000000000e+00,5.000000000000000000e+00,5.000000000000000000e+00,5.000000000000000000e+00,5.000000000000000000e+00,5.000000000000000000e+00,5.000000000000000000e+00,5.000000000000000000e+00,5.000000000000000000e+00,5.000000000000000000e+00,5.000000000000000000e+00,5.000000000000000000e+00,5.000000000000000000e+00,5.000000000000000000e+00,5.000000000000000000e+00,5.000000000000000000e+00,5.000000000000000000e+00,5.000000000000000000e+00,5.000000000000000000e+00,5.000000000000000000e+00,5.000000000000000000e+00,5.000000000000000000e+00,5.000000000000000000e+00,5.000000000000000000e+00,5.000000000000000000e+00,5.000000000000000000e+00,5.000000000000000000e+00,5.000000000000000000e+00,5.000000000000000000e+00,5.000000000000000000e+00,5.000000000000000000e+00,5.000000000000000000e+00,1.554870843887329102e+00,1.521552681922912598e+00,1.508151650428771973e+00,1.526634097099304199e+00,1.898966670036315918e+00,4.182292938232421875e+00,4.040200710296630859e+00,3.907446622848510742e+00,3.783139228820800781e+00,3.666496753692626953e+00,3.556832075119018555e+00,3.453537225723266602e+00,3.356072187423706055e+00,3.263957738876342773e+00,3.176764726638793945e+00,3.094108819961547852e+00,3.015645265579223633e+00,2.941063165664672852e+00,2.870080709457397461e+00,2.802443742752075195e+00,2.737921476364135742e+00,2.676303386688232422e+00,2.617397546768188477e+00,2.561029195785522461e+00,2.507037401199340820e+00,2.455275058746337891e+00,2.405606985092163086e+00,2.357908725738525391e+00,2.312064886093139648e+00,2.267970085144042969e+00,2.225525379180908203e+00,2.184640407562255859e+00,2.145230293273925781e+00,2.107217073440551758e+00,2.070527553558349609e+00,2.035093784332275391e+00,2.000852346420288086e+00,1.967744350433349609e+00,1.935713648796081543e+00,1.904709339141845703e+00,1.874682545661926270e+00,1.845587849617004395e+00
5.000000000000000000e+00,5.000000000000000000e+00,4.448780059814453125e+00,4.542933464050292969e+00,4.777302265167236328e+00,5.000000000000000000e+00,5.000000000000000000e+00,5.000000000000000000e+00,5.000000000000000000e+00,5.000000000000000000e+00,5.000000000000000000e+00,5.000000000000000000e+00,5.000000000000000000e+00,5.000000000000000000e+00,5.000000000000000000e+00,5.000000000000000000e+00,5.000000000000000000e+00,5.000000000000000000e+00,5.000000000000000000e+00,5.000000000000000000e+00,5.000000000000000000e+00,5.000000000000000000e+00,5.000000000000000000e+00,5.000000000000000000e+00,5.000000000000000000e+00,5.000000000000000000e+00,5.000000000000000000e+00,5.000000000000000000e+00,5.000000000000000000e+00,5.000000000000000000e+00,5.000000000000000000e+00,5.000000000000000000e+00,5.000000000000000000e+00,5.000000000000000000e+00,5.000000000000000000e+00,5.000000000000000000e+00,5.000000000000000000e+00,5.000000000000000000e+00,1.553567409515380859e+00,1.517946720123291016e+00,1.501348853111267090e+00,1.516416430473327637e+00,1.938303112983703613e+00,4.182394981384277344e+00,4.040296077728271484e+00,3.907536268234252930e+00,3.783222913742065430e+00,3.666575670242309570e+00,3.556906461715698242e+00,3.453606843948364258e+00,3.356138229370117188e+00,3.264020204544067383e+00,3.176823854446411133e+00,3.094165086746215820e+00,3.015698671340942383e+00,2.941113471984863281e+00,2.870128870010375977e+00,2.802489757537841797e+00,2.737965106964111328e+00,2.676345348358154297e+00,2.617437839508056641e+00,2.561067581176757812e+00,2.507074117660522461e+00,2.455310344696044922e+00,2.405641078948974609e+00,2.357941150665283203e+00,2.312096357345581055e+00,2.268000125885009766e+00,2.225554466247558594e+00,2.184668302536010742e+00,2.145257472991943359e+00,2.107243061065673828e+00,2.070552587509155273e+00,2.035118103027343750e+00,2.000875711441040039e+00,1.967767000198364258e+00,1.935735702514648438e+00,1.904730796813964844e+00,1.874703049659729004e+00,1.845607757568359375e+00
5.000000000000000000e+00,5.000000000000000000e+00,4.447150230407714844e+00,4.527580261230468750e+00,4.873172283172607422e+00,5.000000000000000000e+00,5.000000000000000000e+00,5.000000000000000000e+00,5.000000000000000000e+00,5.000000000000000000e+00,5.000000000000000000e+00,5.000000000000000000e+00,5.000000000000000000e+00,5.000000000000000000e+00,5.000000000000000000e+00,5.000000000000000000e+00,5.000000000000000000e+00,5.000000000000000000e+00,5.000000000000000000e+00,5.000000000000000000e+00,5.000000000000000000e+00,5.000000000000000000e+00,5.000000000000000000e+00,5.000000000000000000e+00,5.000000000000000000e+00,5.000000000000000000e+00,5.000000000000000000e+00,5.000000000000000000e+00,5.000000000000000000e+00,5.000000000000000000e+00,5.000000000000000000e+00,5.000000000000000000e+00,5.000000000000000000e+00,5.000000000000000000e+00,5.000000000000000000e+00,5.000000000000000000e+00,5.000000000000000000e+00,5.000000000000000000e+00,1.552266120910644531e+00,1.516779303550720215e+00,1.495067954063415527e+00,1.506021022796630859e+00,1.548303365707397461e+00,4.182497501373291016e+00,4.040391921997070312e+00,3.907625436782836914e+00,3.783306837081909180e+00,3.666654109954833984e+00,3.556980371475219727e+00,3.453676700592041016e+00,3.356204032897949219e+00,3.264082431793212891e+00,3.176882982254028320e+00,3.094221353530883789e+00,3.015751838684082031e+00,2.941164255142211914e+00,2.870177268981933594e+00,2.802535772323608398e+00,2.738009214401245117e+00,2.676387310028076172e+00,2.617477893829345703e+00,2.561105966567993164e+00,2.507111072540283203e+00,2.455345630645751953e+00,2.405674934387207031e+00,2.357973814010620117e+00,2.312127590179443359e+00,2.268030166625976562e+00,2.225583553314208984e+00,2.184696435928344727e+00,2.145284175872802734e+00,2.107269048690795898e+00,2.070577621459960938e+00,2.035142183303833008e+00,2.000899314880371094e+00,1.967789530754089355e+00,1.935757637023925781e+00,1.904751896858215332e+00,1.874723792076110840e+00,1.845627665519714355e+00
5.000000000000000000e+00,5.000000000000000000e+00,4.447276115417480469e+00,4.516275882720947266e+00,4.939172744750976562e+00,5.000000000000000000e+00,5.000000000000000000e+00,5.000000000000000000e+00,5.000000000000000000e+00,5.000000000000000000e+00,5.000000000000000000e+00,5.000000000000000000e+00,5.000000000000000000e+00,5.000000000000000000e+00,5.000000000000000000e+00,5.000000000000000000e+00,5.000000000000000000e+00,5.000000000000000000e+00,5.000000000000000000e+00,5.000000000000000000e+00,5.000000000000000000e+00,5.000000000000000000e+00,5.000000000000000000e+00,5.000000000000000000e+00,5.000000000000000000e+00,5.000000000000000000e+00,5.000000000000000000e+00,5.000000000000000000e+00,5.000000000000000000e+00,5.000000000000000000e+00,5.000000000000000000e+00,5.000000000000000000e+00,5.000000000000000000e+00,5.000000000000000000e+00,5.000000000000000000e+00,5.000000000000000000e+00,5.000000000000000000e+00,5.000000000000000000e+00,5.000000000000000000e+00,1.515613794326782227e+00,1.491133332252502441e+00,1.496088981628417969e+00,1.520530343055725098e+00,4.182600021362304688e+00,4.040487289428710938e+00,3.907715082168579102e+00,3.783390522003173828e+00,3.666733026504516602e+00,3.557054519653320312e+00,3.453746557235717773e+00,3.356270074844360352e+00,3.264145135879516602e+00,3.176941871643066406e+00,3.094277143478393555e+00,3.015805244445800781e+00,2.941214799880981445e+00,2.870225429534912109e+00,2.802581787109375000e+00,2.738053083419799805e+00,2.676429271697998047e+00,2.617517948150634766e+00,2.561144351959228516e+00,2.507147789001464844e+00,2.455381155014038086e+00,2.405708789825439453e+00,2.358006477355957031e+00,2.312159061431884766e+00,2.268060445785522461e+00,2.225612401962280273e+00,2.184724330902099609e+00,2.145311355590820312e+00,2.107295036315917969e+00,2.070602893829345703e+00,2.035166501998901367e+00,2.000922679901123047e+00,1.967812180519104004e+00,1.935779452323913574e+00,1.904773116111755371e+00,1.874744415283203125e+00,1.845647692680358887e+00
5.000000000000000000e+00,5.000000000000000000e+00,4.453653812408447266e+00,4.516876697540283203e+00,5.000000000000000000e+00,5.000000000000000000e+00,5.000000000000000000e+00,5.000000000000000000e+00,5.000000000000000000e+00,5.000000000000000000e+00,5.000000000000000000e+00,5.000000000000000000e+00,5.000000000000000000e+00,5.000000000000000000e+00,5.000000000000000000e+00,5.000000000000000000e+00,5.000000000000000000e+00,5.000000000000000000e+00,5.000000000000000000e+00,5.000000000000000000e+00,5.000000000000000000e+00,5.000000000000000000e+00,5.000000000000000000e+00,5.000000000000000000e+00,5.000000000000000000e+00,5.000000000000000000e+00,5.000000000000000000e+00,5.000000000000000000e+00,5.000000000000000000e+00,5.000000000000000000e+00,5.000000000000000000e+00,5.000000000000000000e+00,5.000000000000000000e+00,5.000000000000000000e+00,5.000000000000000000e+00,5.000000000000000000e+00,5.000000000000000000e+00,5.000000000000000000e+00,5.000000000000000000e+00,1.515112161636352539e+00,1.491355657577514648e+00,1.487289190292358398e+00,1.512217402458190918e+00,4.182702541351318359e+00,4.040583133697509766e+00,3.907804250717163086e+00,3.783474445343017578e+00,3.666811704635620117e+00,3.557128429412841797e+00,3.453816413879394531e+00,3.356335878372192383e+00,3.264207363128662109e+00,3.177001237869262695e+00,3.094333410263061523e+00,3.015858411788940430e+00,2.941265583038330078e+00,2.870273590087890625e+00,2.802627801895141602e+00,2.738097190856933594e+00,2.676471233367919922e+00,2.617558002471923828e+00,2.561182737350463867e+00,2.507184743881225586e+00,2.455416202545166016e+00,2.405742645263671875e+00,2.358039140701293945e+00,2.312190294265747070e+00,2.268090486526489258e+00,2.225641489028930664e+00,2.184752225875854492e+00,2.145338296890258789e+00,2.107321262359619141e+00,2.070627927780151367e+00,2.035190820693969727e+00,2.000946044921875000e+00,1.967835068702697754e+00,1.935801386833190918e+00,1.904794335365295410e+00,1.874764919281005859e+00,1.845667600631713867e+00
5.000000000000000000e+00,5.000000000000000000e+00,4.487250328063964844e+00,4.959041595458984375e+00,5.000000000000000000e+00,5.000000000000000000e+00,5.000000000000000000e+00,5.000000000000000000e+00,5.000000000000000000e+00,5.000000000000000000e+00,5.000000000000000000e+00,5.000000000000000000e+00,5.000000000000000000e+00,5.000000000000000000e+00,5.000000000000000000e+00,5.000000000000000000e+00,5.000000000000000000e+00,5.000000000000000000e+00,5.000000000000000000e+00,5.000000000000000000e+00,5.000000000000000000e+00,5.000000000000000000e+00,5.000000000000000000e+00,5.000000000000000000e+00,5.000000000000000000e+00,5.000000000000000000e+00,5.000000000000000000e+00,5.000000000000000000e+00,5.000000000000000000e+00,5.000000000000000000e+00,5.000000000000000000e+00,5.000000000000000000e+00,5.000000000000000000e+00,5.000000000000000000e+00,5.000000000000000000e+00,5.000000000000000000e+00,5.000000000000000000e+00,5.000000000000000000e+00,5.000000000000000000e+00,1.515125870704650879e+00,1.487272739410400391e+00,1.478592276573181152e+00,1.503994703292846680e+00,4.182804107666015625e+00,4.040678501129150391e+00,3.907893896102905273e+00,3.783558130264282227e+00,3.666890621185302734e+00,3.557202816009521484e+00,3.453886270523071289e+00,3.356402158737182617e+00,3.264269828796386719e+00,3.177060127258300781e+00,3.094389438629150391e+00,3.015911817550659180e+00,2.941316127777099609e+00,2.870321750640869141e+00,2.802673816680908203e+00,2.738140821456909180e+00,2.676512956619262695e+00,2.617598295211791992e+00,2.561221361160278320e+00,2.507221460342407227e+00,2.455451726913452148e+00,2.405776500701904297e+00,2.358071565628051758e+00,2.312221527099609375e+00,2.268120765686035156e+00,2.225670337677001953e+00,2.184780120849609375e+00,2.145365238189697266e+00,2.107347011566162109e+00,2.070652961730957031e+00,2.035215139389038086e+00,2.000969648361206055e+00,1.967857599258422852e+00,1.935823440551757812e+00,1.904815793037414551e+00,1.874785423278808594e+00,1.845687508583068848e+00
4.875885009765625000e+00,4.874673843383789062e+00,4.383936882019042969e+00,4.358823776245117188e+00,4.871044158935546875e+00,4.869835376739501953e+00,4.868627548217773438e+00,4.867420196533203125e+00,4.866212844848632812e+00,4.865006923675537109e+00,4.863801002502441406e+00,4.862596035003662109e+00,4.861391544342041016e+00,4.860187530517578125e+00,4.858984470367431641e+00,4.857781410217285156e+00,4.856579780578613281e+00,4.855378150939941406e+00,4.854177474975585938e+00,4.852977275848388672e+00,4.851777076721191406e+00,4.850578308105468750e+00,4.849379539489746094e+00,4.848181724548339844e+00,4.846984386444091797e+00,4.845787525177001953e+00,4.844591617584228516e+00,4.843396186828613281e+00,4.842200756072998047e+00,4.841006755828857422e+00,4.839812755584716797e+00,4.838619709014892578e+00,4.837426662445068359e+00,4.836234569549560547e+00,4.835043430328369141e+00,4.833852291107177734e+00,4.832662105560302734e+00,4.831472396850585938e+00,4.830283164978027344e+00,1.515139341354370117e+00,1.483516812324523926e+00,1.476033329963684082e+00,1.495860934257507324e+00,4.182906627655029297e+00,4.040774345397949219e+00,3.907983064651489258e+00,3.783642292022705078e+00,3.666969060897827148e+00,3.557276725769042969e+00,3.453956127166748047e+00,3.356467962265014648e+00,3.264332056045532227e+00,3.177119493484497070e+00,3.094445705413818359e+00,3.015964984893798828e+00,2.941366910934448242e+00,2.870370149612426758e+00,2.802719831466674805e+00,2.738184928894042969e+00,2.676555156707763672e+00,2.617638349533081055e+00,2.561259508132934570e+00,2.507258415222167969e+00,2.455486774444580078e+00,2.405810356140136719e+00,2.358104228973388672e+00,2.312252759933471680e+00,2.268150806427001953e+00,2.225699424743652344e+00,2.184808254241943359e+00,2.145392179489135742e+00,2.107373237609863281e+00,2.070678234100341797e+00,2.035239219665527344e+00,2.000993013381958008e+00,1.967880249023437500e+00,1.935845375061035156e+00,1.904836893081665039e+00,1.874806165695190430e+00,1.845707416534423828e+00
3.778701066970825195e+00,3.777973651885986328e+00,3.777246713638305664e+00,3.776519775390625000e+00,3.775793075561523438e+00,3.775067090988159180e+00,3.774341106414794922e+00,3.773615121841430664e+00,3.772889614105224609e+00,3.772164821624755859e+00,3.771439790725708008e+00,3.770714998245239258e+00,3.769990921020507812e+00,3.769266843795776367e+00,3.768543004989624023e+00,3.767819643020629883e+00,3.767096281051635742e+00,3.766373395919799805e+00,3.765650510787963867e+00,3.764928579330444336e+00,3.764206171035766602e+00,3.763484239578247070e+00,3.762763023376464844e+00,3.762041568756103516e+00,3.761320590972900391e+00,3.760600090026855469e+00,3.759879589080810547e+00,3.759159326553344727e+00,3.758439302444458008e+00,3.757719993591308594e+00,3.757000446319580078e+00,3.756281137466430664e+00,3.755562782287597656e+00,3.754843950271606445e+00,3.754125595092773438e+00,3.753407955169677734e+00,3.752690076828002930e+00,3.751972675323486328e+00,3.751255273818969727e+00,1.515153050422668457e+00,1.483597993850708008e+00,1.474307298660278320e+00,1.487814784049987793e+00,3.747673988342285156e+00,3.746958255767822266e+00,3.746243476867675781e+00,3.745528221130371094e+00,3.667047977447509766e+00,3.557350873947143555e+00,3.454025983810424805e+00,3.356534004211425781e+00,3.264394760131835938e+00,3.177178382873535156e+00,3.094501495361328125e+00,3.016018390655517578e+00,2.941417455673217773e+00,2.870418310165405273e+00,2.802765846252441406e+00,2.738228797912597656e+00,2.676596879959106445e+00,2.617678642272949219e+00,2.561298131942749023e+00,2.507295131683349609e+00,2.455522298812866211e+00,2.405844449996948242e+00,2.358136653900146484e+00,2.312284231185913086e+00,2.268180847167968750e+00,2.225728511810302734e+00,2.184836149215698242e+00,2.145419120788574219e+00,2.107399225234985352e+00,2.070703268051147461e+00,2.035263538360595703e+00,2.001016378402709961e+00,1.967902898788452148e+00,1.935867309570312500e+00,1.904858112335205078e+00,1.874826669692993164e+00,1.845727562904357910e+00
3.084597349166870117e+00,3.084112644195556641e+00,3.083628177642822266e+00,3.083143711090087891e+00,3.082659244537353516e+00,3.082175493240356445e+00,3.081691265106201172e+00,3.081207513809204102e+00,3.080724000930786133e+00,3.080240488052368164e+00,3.079756975173950195e+00,3.079273700714111328e+00,3.078790903091430664e+00,3.078307867050170898e+00,3.077825069427490234e+00,3.077342510223388672e+00,3.076859951019287109e+00,3.076377630233764648e+00,3.075895786285400391e+00,3.075413703918457031e+00,3.074931621551513672e+00,3.074449777603149414e+00,3.073968410491943359e+00,3.073487043380737305e+00,3.073005676269531250e+00,3.072524785995483398e+00,3.072043895721435547e+00,3.071563005447387695e+00,3.071082353591918945e+00,3.070601940155029297e+00,3.070121526718139648e+00,3.069641113281250000e+00,3.069161415100097656e+00,3.068681240081787109e+00,3.068201541900634766e+00,3.067722082138061523e+00,3.067242622375488281e+00,3.066763162612915039e+00,3.066284418106079102e+00,1.515166759490966797e+00,1.483679175376892090e+00,1.468489766120910645e+00,1.479854583740234375e+00,3.063890695571899414e+00,3.063412427902221680e+00,3.062934637069702148e+00,3.062456607818603516e+00,3.061978578567504883e+00,3.061501264572143555e+00,3.061023712158203125e+00,3.060546159744262695e+00,3.060068845748901367e+00,3.059592008590698242e+00,3.059114933013916016e+00,3.016071557998657227e+00,2.941468238830566406e+00,2.870466709136962891e+00,2.802811622619628906e+00,2.738272666931152344e+00,2.676639080047607422e+00,2.617718696594238281e+00,2.561336517333984375e+00,2.507331848144531250e+00,2.455557584762573242e+00,2.405878305435180664e+00,2.358169317245483398e+00,2.312315464019775391e+00,2.268210887908935547e+00,2.225757598876953125e+00,2.184864044189453125e+00,2.145446062088012695e+00,2.107425212860107422e+00,2.070728302001953125e+00,2.035287857055664062e+00,2.001039981842041016e+00,1.967925786972045898e+00,1.935889124870300293e+00,1.904879331588745117e+00,1.874847173690795898e+00,1.845747470855712891e+00
2.605919837951660156e+00,2.605574131011962891e+00,2.605228185653686523e+00,2.604882240295410156e+00,2.604536533355712891e+00,2.604191064834594727e+00,2.603845596313476562e+00,2.603500127792358398e+00,2.603154897689819336e+00,2.602809667587280273e+00,2.602464437484741211e+00,2.602119445800781250e+00,2.601774454116821289e+00,2.601429462432861328e+00,2.601084709167480469e+00,2.600740194320678711e+00,2.600395441055297852e+00,2.600050926208496094e+00,2.599706649780273438e+00,2.599362373352050781e+00,2.599018096923828125e+00,2.598674058914184570e+00,2.598329782485961914e+00,2.597985744476318359e+00,2.597641944885253906e+00,2.597298383712768555e+00,2.596954584121704102e+00,2.596610784530639648e+00,2.596267461776733398e+00,2.595924139022827148e+00,2.595580577850341797e+00,2.595237493515014648e+00,2.594894409179687500e+00,2.594551324844360352e+00,2.594208240509033203e+00,2.593865633010864258e+00,2.593522787094116211e+00,2.593179941177368164e+00,2.592837572097778320e+00,2.013877153396606445e+00,1.494935512542724609e+00,1.474138140678405762e+00,1.497760534286499023e+00,2.591125726699829102e+00,2.590783596038818359e+00,2.590441942214965820e+00,2.590100049972534180e+00,2.589758157730102539e+00,2.589416503906250000e+00,2.589074850082397461e+00,2.588733434677124023e+00,2.588392019271850586e+00,2.588050603866577148e+00,2.587709426879882812e+00,2.587368249893188477e+00,2.587027311325073242e+00,2.586686134338378906e+00,2.586345195770263672e+00,2.586004734039306641e+00,2.585664033889770508e+00,2.585323333740234375e+00,2.561374902725219727e+00,2.507368564605712891e+00,2.455592870712280273e+00,2.405912160873413086e+00,2.358201742172241211e+00,2.312346696853637695e+00,2.268241167068481445e+00,2.225786447525024414e+00,2.184891939163208008e+00,2.145473003387451172e+00,2.107451200485229492e+00,2.070753335952758789e+00,2.035312175750732422e+00,2.001063346862792969e+00,1.967948317527770996e+00,1.935911297798156738e+00,1.904900789260864258e+00,1.874867796897888184e+00,1.845767259597778320e+00
2.255845785140991211e+00,2.255586862564086914e+00,2.255327701568603516e+00,2.255068778991699219e+00,2.254810094833374023e+00,2.254551172256469727e+00,2.254292488098144531e+00,2.254033803939819336e+00,2.253775119781494141e+00,2.253516435623168945e+00,2.253257751464843750e+00,2.252999544143676758e+00,2.252741098403930664e+00,2.252482652664184570e+00,2.252224445343017578e+00,2.251966238021850586e+00,2.251708030700683594e+00,2.251450061798095703e+00,2.251191854476928711e+00,2.250933885574340820e+00,2.250675916671752930e+00,2.250417947769165039e+00,2.250160217285156250e+00,2.249902248382568359e+00,2.249644279479980469e+00,2.249386548995971680e+00,2.249128580093383789e+00,2.248871088027954102e+00,2.248613357543945312e+00,2.248355627059936523e+00,2.248098134994506836e+00,2.247840642929077148e+00,2.247583150863647461e+00,2.247325897216796875e+00,2.247068643569946289e+00,2.246811389923095703e+00,2.246554136276245117e+00,2.246296882629394531e+00,2.246039867401123047e+00,1.961932301521301270e+00,1.494424462318420410e+00,1.444287419319152832e+00,1.432283163070678711e+00,2.244755268096923828e+00,2.244498729705810547e+00,2.244241952896118164e+00,2.243985414505004883e+00,2.243728876113891602e+00,2.243472337722778320e+00,2.243216037750244141e+00,2.242959499359130859e+00,2.242703437805175781e+00,2.242447137832641602e+00,2.242190837860107422e+00,2.241934776306152344e+00,2.241678714752197266e+00,2.241422653198242188e+00,2.241166591644287109e+00,2.240910768508911133e+00,2.240654945373535156e+00,2.240399122238159180e+00,2.240143537521362305e+00,2.239887714385986328e+00,2.239632129669189453e+00,2.239376783370971680e+00,2.239121198654174805e+00,2.238865613937377930e+00,2.238610267639160156e+00,2.225815534591674805e+00,2.184920072555541992e+00,2.145499944686889648e+00,2.107477188110351562e+00,2.070778608322143555e+00,2.035336256027221680e+00,2.001086950302124023e+00,1.967970967292785645e+00,1.935933232307434082e+00,1.904921889305114746e+00,1.874888539314270020e+00,1.845787167549133301e+00
1.988680362701416016e+00,1.988479137420654297e+00,1.988277792930603027e+00,1.988076448440551758e+00,1.987875223159790039e+00,1.987674117088317871e+00,1.987473011016845703e+00,1.987272024154663086e+00,1.987070679664611816e+00,1.986869812011718750e+00,1.986668825149536133e+00,1.986467957496643066e+00,1.986267089843750000e+00,1.986066102981567383e+00,1.985865354537963867e+00,1.985664606094360352e+00,1.985463976860046387e+00,1.985263347625732422e+00,1.985062479972839355e+00,1.984861969947814941e+00,1.984661459922790527e+00,1.984460949897766113e+00,1.984260439872741699e+00,1.984060049057006836e+00,1.983859539031982422e+00,1.983659148216247559e+00,1.983458876609802246e+00,1.983258724212646484e+00,1.983058452606201172e+00,1.982858061790466309e+00,1.982658028602600098e+00,1.982457876205444336e+00,1.982257843017578125e+00,1.982057929039001465e+00,1.981857657432556152e+00,1.981657743453979492e+00,1.981457948684692383e+00,1.981258034706115723e+00,1.981058359146118164e+00,1.930841207504272461e+00,1.477719783782958984e+00,1.396736979484558105e+00,1.368852496147155762e+00,1.315149068832397461e+00,1.315657854080200195e+00,1.979660391807556152e+00,1.979460954666137695e+00,1.979261517524719238e+00,1.979062080383300781e+00,1.978862762451171875e+00,1.978663206100463867e+00,1.978464007377624512e+00,1.978264689445495605e+00,1.978065490722656250e+00,1.977866411209106445e+00,1.977667093276977539e+00,1.977468013763427734e+00,1.977268934249877930e+00,1.977069973945617676e+00,1.976871013641357422e+00,1.976671814918518066e+00,1.976472973823547363e+00,1.976274132728576660e+00,1.976075410842895508e+00,1.975876688957214355e+00,1.975677728652954102e+00,1.975479006767272949e+00,1.975280404090881348e+00,1.975081801414489746e+00,1.974883198738098145e+00,1.974684476852416992e+00,1.974485993385314941e+00,1.974287629127502441e+00,1.974089264869689941e+00,1.973890900611877441e+00,1.967993617057800293e+00,1.935955047607421875e+00,1.904943108558654785e+00,1.874909043312072754e+00,1.845807313919067383e+00
1.778095960617065430e+00,1.777935147285461426e+00,1.777774214744567871e+00,1.777613162994384766e+00,1.777452349662780762e+00,1.777291536331176758e+00,1.777130722999572754e+00,1.776970028877258301e+00,1.776809096336364746e+00,1.776648402214050293e+00,1.776487708091735840e+00,1.776327133178710938e+00,1.776166558265686035e+00,1.776005744934082031e+00,1.775845289230346680e+00,1.775684714317321777e+00,1.775524258613586426e+00,1.775363802909851074e+00,1.775203347206115723e+00,1.775042772293090820e+00,1.774882435798645020e+00,1.774722099304199219e+00,1.774561762809753418e+00,1.774401545524597168e+00,1.774241089820861816e+00,1.774080872535705566e+00,1.773920655250549316e+00,1.773760437965393066e+00,1.773600339889526367e+00,1.773440003395080566e+00,1.773279905319213867e+00,1.773119926452636719e+00,1.772959828376770020e+00,1.772799849510192871e+00,1.772639751434326172e+00,1.772479772567749023e+00,1.772319912910461426e+00,1.772160053253173828e+00,1.772000193595886230e+00,1.771840095520019531e+00,1.373756051063537598e+00,1.331879019737243652e+00,1.348216652870178223e+00,1.352152347564697266e+00,1.771041512489318848e+00,1.770881652832031250e+00,1.770722031593322754e+00,1.770562410354614258e+00,1.770402908325195312e+00,1.770243406295776367e+00,1.770083665847778320e+00,1.769924163818359375e+00,1.769764780998229980e+00,1.769605278968811035e+00,1.769445896148681641e+00,1.769286394119262695e+00,1.769127011299133301e+00,1.768967747688293457e+00,1.768808484077453613e+00,1.768649220466613770e+00,1.768489837646484375e+00,1.768330693244934082e+00,1.768171429634094238e+00,1.768012404441833496e+00,1.767853260040283203e+00,1.767693996429443359e+00,1.767534971237182617e+00,1.767375946044921875e+00,1.767216920852661133e+00,1.767058014869689941e+00,1.766899108886718750e+00,1.766739964485168457e+00,1.766581058502197266e+00,1.766422271728515625e+00,1.766263484954833984e+00,1.766104698181152344e+00,1.765945672988891602e+00,1.765787005424499512e+00,1.765628337860107422e+00,1.765469670295715332e+00
1.607839465141296387e+00,1.607707858085632324e+00,1.607576370239257812e+00,1.607444643974304199e+00,1.607313156127929688e+00,1.607181668281555176e+00,1.607050180435180664e+00,1.606918692588806152e+00,1.606787323951721191e+00,1.606655716896057129e+00,1.606524348258972168e+00,1.606392979621887207e+00,1.606261610984802246e+00,1.606130242347717285e+00,1.605998873710632324e+00,1.605867505073547363e+00,1.605736255645751953e+00,1.605605125427246094e+00,1.605473875999450684e+00,1.605342507362365723e+00,1.605211377143859863e+00,1.605080246925354004e+00,1.604949116706848145e+00,1.604817986488342285e+00,1.604686737060546875e+00,1.604555606842041016e+00,1.604424595832824707e+00,1.604293584823608398e+00,1.604162573814392090e+00,1.604031443595886230e+00,1.603900551795959473e+00,1.603769540786743164e+00,1.603638648986816406e+00,1.603507757186889648e+00,1.603376865386962891e+00,1.603245854377746582e+00,1.603115081787109375e+00,1.602984189987182617e+00,1.602853417396545410e+00,1.602722644805908203e+00,1.602591753005981445e+00,1.488433241844177246e+00,1.602330327033996582e+00,1.602199673652648926e+00,1.602069020271301270e+00,1.601938247680664062e+00,1.601807594299316406e+00,1.601677060127258301e+00,1.601546525955200195e+00,1.601415872573852539e+00,1.601285219192504883e+00,1.601154685020446777e+00,1.601024270057678223e+00,1.600893735885620117e+00,1.600763320922851562e+00,1.600632786750793457e+00,1.600502371788024902e+00,1.600371956825256348e+00,1.600241661071777344e+00,1.600111246109008789e+00,1.599980950355529785e+00,1.599850535392761230e+00,1.599720239639282227e+00,1.599589943885803223e+00,1.599459767341613770e+00,1.599329471588134766e+00,1.599199175834655762e+00,1.599068999290466309e+00,1.598938822746276855e+00,1.598808765411376953e+00,1.598678588867187500e+00,1.598548412322998047e+00,1.598418354988098145e+00,1.598288297653198242e+00,1.598158240318298340e+00,1.598028302192687988e+00,1.597898125648498535e+00,1.597768187522888184e+00,1.597638249397277832e+00,1.597508311271667480e+00
1.467338562011718750e+00,1.467229008674621582e+00,1.467119455337524414e+00,1.467009902000427246e+00,1.466900229454040527e+00,1.466790676116943359e+00,1.466681122779846191e+00,1.466571688652038574e+00,1.466462254524230957e+00,1.466352581977844238e+00,1.466243147850036621e+00,1.466133713722229004e+00,1.466024279594421387e+00,1.465914964675903320e+00,1.465805411338806152e+00,1.465696096420288086e+00,1.465586781501770020e+00,1.465477347373962402e+00,1.465368032455444336e+00,1.465258717536926270e+00,1.465149402618408203e+00,1.465040087699890137e+00,1.464930891990661621e+00,1.464821696281433105e+00,1.464712262153625488e+00,1.464603066444396973e+00,1.464493870735168457e+00,1.464384794235229492e+00,1.464275598526000977e+00,1.464166522026062012e+00,1.464057207107543945e+00,1.463948130607604980e+00,1.463839054107666016e+00,1.463729977607727051e+00,1.463620901107788086e+00,1.463511705398559570e+00,1.463402748107910156e+00,1.463293790817260742e+00,1.463184714317321777e+00,1.463075757026672363e+00,1.462966680526733398e+00,1.462857723236083984e+00,1.462748885154724121e+00,1.462639927864074707e+00,1.462531089782714844e+00,1.462422013282775879e+00,1.462313175201416016e+00,1.462204337120056152e+00,1.462095499038696289e+00,1.461986780166625977e+00,1.461877822875976562e+00,1.461769104003906250e+00,1.461660265922546387e+00,1.461551547050476074e+00,1.461442828178405762e+00,1.461334109306335449e+00,1.461225271224975586e+00,1.461116671562194824e+00,1.461007952690124512e+00,1.460899353027343750e+00,1.460790753364562988e+00,1.460681915283203125e+00,1.460573315620422363e+00,1.460464835166931152e+00,1.460356235504150391e+00,1.460247635841369629e+00,1.460139036178588867e+00,1.460030555725097656e+00,1.459921956062316895e+00,1.459813475608825684e+00,1.459704995155334473e+00,1.459596514701843262e+00,1.459488034248352051e+00,1.459379673004150391e+00,1.459271192550659180e+00,1.459162831306457520e+00,1.459054350852966309e+00,1.458945989608764648e+00,1.458837628364562988e+00,1.458729267120361328e+00
1.349419713020324707e+00,1.349326968193054199e+00,1.349234342575073242e+00,1.349141597747802734e+00,1.349048852920532227e+00,1.348956227302551270e+00,1.348863601684570312e+00,1.348770976066589355e+00,1.348678469657897949e+00,1.348585724830627441e+00,1.348493218421936035e+00,1.348400592803955078e+00,1.348308086395263672e+00,1.348215579986572266e+00,1.348122954368591309e+00,1.348030447959899902e+00,1.347937941551208496e+00,1.347845435142517090e+00,1.347752928733825684e+00,1.347660541534423828e+00,1.347568035125732422e+00,1.347475528717041016e+00,1.347383141517639160e+00,1.347290754318237305e+00,1.347198367118835449e+00,1.347105860710144043e+00,1.347013473510742188e+00,1.346921205520629883e+00,1.346828818321228027e+00,1.346736550331115723e+00,1.346644043922424316e+00,1.346551775932312012e+00,1.346459507942199707e+00,1.346367239952087402e+00,1.346274971961975098e+00,1.346182584762573242e+00,1.346090316772460938e+00,1.345998167991638184e+00,1.345905900001525879e+00,1.345813751220703125e+00,1.345721364021301270e+00,1.345629215240478516e+00,1.345537066459655762e+00,1.345444917678833008e+00,1.345352768898010254e+00,1.345260620117187500e+00,1.345168471336364746e+00,1.345076322555541992e+00,1.344984292984008789e+00,1.344892144203186035e+00,1.344800114631652832e+00,1.344707965850830078e+00,1.344615936279296875e+00,1.344523906707763672e+00,1.344431877136230469e+00,1.344339847564697266e+00,1.344247817993164062e+00,1.344155788421630859e+00,1.344063878059387207e+00,1.343971848487854004e+00,1.343879938125610352e+00,1.343787908554077148e+00,1.343695998191833496e+00,1.343604087829589844e+00,1.343512177467346191e+00,1.343420386314392090e+00,1.343328356742858887e+00,1.343236565589904785e+00,1.343144655227661133e+00,1.343052864074707031e+00,1.342961072921752930e+00,1.342869281768798828e+00,1.342777371406555176e+00,1.342685580253601074e+00,1.342593789100646973e+00,1.342502117156982422e+00,1.342410326004028320e+00,1.342318534851074219e+00,1.342226743698120117e+00,1.342135071754455566e+00
1.249043464660644531e+00,1.248964071273803711e+00,1.248884677886962891e+00,1.248805284500122070e+00,1.248725891113281250e+00,1.248646497726440430e+00,1.248567104339599609e+00,1.248487710952758789e+00,1.248408436775207520e+00,1.248329162597656250e+00,1.248249650001525879e+00,1.248170375823974609e+00,1.248091101646423340e+00,1.248011827468872070e+00,1.247932553291320801e+00,1.247853159904479980e+00,1.247773885726928711e+00,1.247694611549377441e+00,1.247615456581115723e+00,1.247536182403564453e+00,1.247456908226013184e+00,1.247377634048461914e+00,1.247298479080200195e+00,1.247219324111938477e+00,1.247140169143676758e+00,1.247060894966125488e+00,1.246981739997863770e+00,1.246902585029602051e+00,1.246823430061340332e+00,1.246744275093078613e+00,1.246665120124816895e+00,1.246585965156555176e+00,1.246506929397583008e+00,1.246427774429321289e+00,1.246348738670349121e+00,1.246269702911376953e+00,1.246190547943115234e+00,1.246111512184143066e+00,1.246032357215881348e+00,1.245953440666198730e+00,1.245874404907226562e+00,1.245795249938964844e+00,1.245716333389282227e+00,1.245637297630310059e+00,1.245558261871337891e+00,1.245479345321655273e+00,1.245400309562683105e+00,1.245321393013000488e+00,1.245242476463317871e+00,1.245163440704345703e+00,1.245084524154663086e+00,1.245005607604980469e+00,1.244926691055297852e+00,1.244847774505615234e+00,1.244768977165222168e+00,1.244690060615539551e+00,1.244611144065856934e+00,1.244532227516174316e+00,1.244453430175781250e+00,1.244374632835388184e+00,1.244295835494995117e+00,1.244217038154602051e+00,1.244138121604919434e+00,1.244059324264526367e+00,1.243980526924133301e+00,1.243901729583740234e+00,1.243823051452636719e+00,1.243744134902954102e+00,1.243665456771850586e+00,1.243586778640747070e+00,1.243507981300354004e+00,1.243429303169250488e+00,1.243350505828857422e+00,1.243271827697753906e+00,1.243193149566650391e+00,1.243114471435546875e+00,1.243035793304443359e+00,1.242957115173339844e+00,1.242878437042236328e+00,1.242799878120422363e+00
1.162566423416137695e+00,1.162497639656066895e+00,1.162428855895996094e+00,1.162360072135925293e+00,1.162291288375854492e+00,1.162222385406494141e+00,1.162153720855712891e+00,1.162084937095642090e+00,1.162016153335571289e+00,1.161947488784790039e+00,1.161878705024719238e+00,1.161809921264648438e+00,1.161741256713867188e+00,1.161672592163085938e+00,1.161603808403015137e+00,1.161535143852233887e+00,1.161466479301452637e+00,1.161397814750671387e+00,1.161329150199890137e+00,1.161260485649108887e+00,1.161191701889038086e+00,1.161123156547546387e+00,1.161054491996765137e+00,1.160985827445983887e+00,1.160917282104492188e+00,1.160848617553710938e+00,1.160779953002929688e+00,1.160711407661437988e+00,1.160642862319946289e+00,1.160574316978454590e+00,1.160505652427673340e+00,1.160437107086181641e+00,1.160368561744689941e+00,1.160300016403198242e+00,1.160231471061706543e+00,1.160162925720214844e+00,1.160094380378723145e+00,1.160025835037231445e+00,1.159957408905029297e+00,1.159888863563537598e+00,1.159820437431335449e+00,1.159751892089843750e+00,1.159683346748352051e+00,1.159614920616149902e+00,1.159546494483947754e+00,1.159478068351745605e+00,1.159409523010253906e+00,1.159341096878051758e+00,1.159272670745849609e+00,1.159204244613647461e+00,1.159135937690734863e+00,1.159067392349243164e+00,1.158999085426330566e+00,1.158930659294128418e+00,1.158862352371215820e+00,1.158793926239013672e+00,1.158725619316101074e+00,1.158657193183898926e+00,1.158588886260986328e+00,1.158520460128784180e+00,1.158452153205871582e+00,1.158383846282958984e+00,1.158315539360046387e+00,1.158247232437133789e+00,1.158178925514221191e+00,1.158110737800598145e+00,1.158042430877685547e+00,1.157974123954772949e+00,1.157905817031860352e+00,1.157837629318237305e+00,1.157769322395324707e+00,1.157701134681701660e+00,1.157632827758789062e+00,1.157564640045166016e+00,1.157496452331542969e+00,1.157428264617919922e+00,1.157360076904296875e+00,1.157291769981384277e+00,1.157223582267761230e+00,1.157155394554138184e+00
1.087288260459899902e+00,1.087228059768676758e+00,1.087167978286743164e+00,1.087107777595520020e+00,1.087047696113586426e+00,1.086987376213073730e+00,1.086927294731140137e+00,1.086867094039916992e+00,1.086807012557983398e+00,1.086746931076049805e+00,1.086686730384826660e+00,1.086626648902893066e+00,1.086566567420959473e+00,1.086506366729736328e+00,1.086446285247802734e+00,1.086386203765869141e+00,1.086326122283935547e+00,1.086266040802001953e+00,1.086205959320068359e+00,1.086145877838134766e+00,1.086085915565490723e+00,1.086025834083557129e+00,1.085965752601623535e+00,1.085905671119689941e+00,1.085845708847045898e+00,1.085785627365112305e+00,1.085725665092468262e+00,1.085665583610534668e+00,1.085605621337890625e+00,1.085545659065246582e+00,1.085485696792602539e+00,1.085425615310668945e+00,1.085365653038024902e+00,1.085305690765380859e+00,1.085245728492736816e+00,1.085185766220092773e+00,1.085125803947448730e+00,1.085065841674804688e+00,1.085005879402160645e+00,1.084946036338806152e+00,1.084886074066162109e+00,1.084826111793518066e+00,1.084766149520874023e+00,1.084706306457519531e+00,1.084646344184875488e+00,1.084586501121520996e+00,1.084526658058166504e+00,1.084466695785522461e+00,1.084406852722167969e+00,1.084347009658813477e+00,1.084287166595458984e+00,1.084227323532104492e+00,1.084167361259460449e+00,1.084107637405395508e+00,1.084047794342041016e+00,1.083987951278686523e+00,1.083928108215332031e+00,1.083868265151977539e+00,1.083808422088623047e+00,1.083748698234558105e+00,1.083688855171203613e+00,1.083629131317138672e+00,1.083569288253784180e+00,1.083509564399719238e+00,1.083449721336364746e+00,1.083389997482299805e+00,1.083330273628234863e+00,1.083270430564880371e+00,1.083210706710815430e+00,1.083150982856750488e+00,1.083091259002685547e+00,1.083031535148620605e+00,1.082971930503845215e+00,1.082912087440490723e+00,1.082852482795715332e+00,1.082792758941650391e+00,1.082733035087585449e+00,1.082673430442810059e+00,1.082613706588745117e+00,1.082553982734680176e+00
1.021166086196899414e+00,1.021113038063049316e+00,1.021059989929199219e+00,1.021006941795349121e+00,1.020953893661499023e+00,1.020900726318359375e+00,1.020847678184509277e+00,1.020794630050659180e+00,1.020741581916809082e+00,1.020688533782958984e+00,1.020635485649108887e+00,1.020582437515258789e+00,1.020529389381408691e+00,1.020476460456848145e+00,1.020423412322998047e+00,1.020370364189147949e+00,1.020317316055297852e+00,1.020264387130737305e+00,1.020211338996887207e+00,1.020158410072326660e+00,1.020105481147766113e+00,1.020052433013916016e+00,1.019999504089355469e+00,1.019946455955505371e+00,1.019893527030944824e+00,1.019840598106384277e+00,1.019787549972534180e+00,1.019734621047973633e+00,1.019681692123413086e+00,1.019628763198852539e+00,1.019575953483581543e+00,1.019522905349731445e+00,1.019469976425170898e+00,1.019417166709899902e+00,1.019364237785339355e+00,1.019311308860778809e+00,1.019258499145507812e+00,1.019205451011657715e+00,1.019152641296386719e+00,1.019099712371826172e+00,1.019046902656555176e+00,1.018994092941284180e+00,1.018941164016723633e+00,1.018888235092163086e+00,1.018835425376892090e+00,1.018782615661621094e+00,1.018729805946350098e+00,1.018676877021789551e+00,1.018624067306518555e+00,1.018571257591247559e+00,1.018518447875976562e+00,1.018465638160705566e+00,1.018412828445434570e+00,1.018360018730163574e+00,1.018307209014892578e+00,1.018254399299621582e+00,1.018201708793640137e+00,1.018148779869079590e+00,1.018096089363098145e+00,1.018043279647827148e+00,1.017990589141845703e+00,1.017937779426574707e+00,1.017884969711303711e+00,1.017832279205322266e+00,1.017779588699340820e+00,1.017726778984069824e+00,1.017674088478088379e+00,1.017621397972106934e+00,1.017568588256835938e+00,1.017515897750854492e+00,1.017463207244873047e+00,1.017410516738891602e+00,1.017357826232910156e+00,1.017305135726928711e+00,1.017252445220947266e+00,1.017199754714965820e+00,1.017147064208984375e+00,1.017094373703002930e+00,1.017041683197021484e+00,1.016988992691040039e+00
9.626252651214599609e-01,9.625781178474426270e-01,9.625309109687805176e-01,9.624837636947631836e-01,9.624366164207458496e-01,9.623894691467285156e-01,9.623422026634216309e-01,9.622950553894042969e-01,9.622479081153869629e-01,9.622008204460144043e-01,9.621536731719970703e-01,9.621065855026245117e-01,9.620594382286071777e-01,9.620123505592346191e-01,9.619652032852172852e-01,9.619181156158447266e-01,9.618709087371826172e-01,9.618238210678100586e-01,9.617767333984375000e-01,9.617296457290649414e-01,9.616825580596923828e-01,9.616355299949645996e-01,9.615884423255920410e-01,9.615413546562194824e-01,9.614943265914916992e-01,9.614472389221191406e-01,9.614000916481018066e-01,9.613530635833740234e-01,9.613060355186462402e-01,9.612590074539184570e-01,9.612119793891906738e-01,9.611648917198181152e-01,9.611179232597351074e-01,9.610708951950073242e-01,9.610238671302795410e-01,9.609768390655517578e-01,9.609298706054687500e-01,9.608827233314514160e-01,9.608357548713684082e-01,9.607887864112854004e-01,9.607417583465576172e-01,9.606947898864746094e-01,9.606478214263916016e-01,9.606008529663085938e-01,9.605538845062255859e-01,9.605069160461425781e-01,9.604599475860595703e-01,9.604128599166870117e-01,9.603659510612487793e-01,9.603189826011657715e-01,9.602720737457275391e-01,9.602251052856445312e-01,9.601781964302062988e-01,9.601312279701232910e-01,9.600843191146850586e-01,9.600374102592468262e-01,9.599905014038085938e-01,9.599435925483703613e-01,9.598965644836425781e-01,9.598496556282043457e-01,9.598028063774108887e-01,9.597558975219726562e-01,9.597089886665344238e-01,9.596621394157409668e-01,9.596152305603027344e-01,9.595683813095092773e-01,9.595215320587158203e-01,9.594746232032775879e-01,9.594276547431945801e-01,9.593808054924011230e-01,9.593339562416076660e-01,9.592871069908142090e-01,9.592403173446655273e-01,9.591934680938720703e-01,9.591466188430786133e-01,9.590997695922851562e-01,9.590529799461364746e-01,9.590061306953430176e-01,9.589592218399047852e-01,9.589124321937561035e-01
9.104324579238891602e-01,9.103901386260986328e-01,9.103479981422424316e-01,9.103057980537414551e-01,9.102635979652404785e-01,9.102214574813842773e-01,9.101792573928833008e-01,9.101371169090270996e-01,9.100949168205261230e-01,9.100527763366699219e-01,9.100106358528137207e-01,9.099683761596679688e-01,9.099262356758117676e-01,9.098840951919555664e-01,9.098419547080993652e-01,9.097998142242431641e-01,9.097576737403869629e-01,9.097155332565307617e-01,9.096733927726745605e-01,9.096313118934631348e-01,9.095891714096069336e-01,9.095470905303955078e-01,9.095048308372497559e-01,9.094627499580383301e-01,9.094206690788269043e-01,9.093785881996154785e-01,9.093364477157592773e-01,9.092943668365478516e-01,9.092522859573364258e-01,9.092102050781250000e-01,9.091681241989135742e-01,9.091260433197021484e-01,9.090839028358459473e-01,9.090418219566345215e-01,9.089997410774230957e-01,9.089577198028564453e-01,9.089156389236450195e-01,9.088736176490783691e-01,9.088315367698669434e-01,9.087895154953002930e-01,9.087474942207336426e-01,9.087054729461669922e-01,9.086633324623107910e-01,9.086213111877441406e-01,9.085792899131774902e-01,9.085372686386108398e-01,9.084952473640441895e-01,9.084532260894775391e-01,9.084112048149108887e-01,9.083692431449890137e-01,9.083272218704223633e-01,9.082852005958557129e-01,9.082432389259338379e-01,9.082011580467224121e-01,9.081591367721557617e-01,9.081171751022338867e-01,9.080752134323120117e-01,9.080332517623901367e-01,9.079912900924682617e-01,9.079493284225463867e-01,9.079073667526245117e-01,9.078654050827026367e-01,9.078234434127807617e-01,9.077813625335693359e-01,9.077394604682922363e-01,9.076974987983703613e-01,9.076555371284484863e-01,9.076136350631713867e-01,9.075716733932495117e-01,9.075297713279724121e-01,9.074878692626953125e-01,9.074459671974182129e-01,9.074040055274963379e-01,9.073621034622192383e-01,9.073200821876525879e-01,9.072781801223754883e-01,9.072363376617431641e-01,9.071944355964660645e-01,9.071525335311889648e-01,9.071106314659118652e-01
8.636081814765930176e-01,8.635702133178710938e-01,8.635322451591491699e-01,8.634942770004272461e-01,8.634563684463500977e-01,8.634184002876281738e-01,8.633803725242614746e-01,8.633424043655395508e-01,8.633044958114624023e-01,8.632665276527404785e-01,8.632286190986633301e-01,8.631907105445861816e-01,8.631527423858642578e-01,8.631148338317871094e-01,8.630769252777099609e-01,8.630390167236328125e-01,8.630011081695556641e-01,8.629630804061889648e-01,8.629251718521118164e-01,8.628872632980346680e-01,8.628494143486022949e-01,8.628115057945251465e-01,8.627735972404479980e-01,8.627356886863708496e-01,8.626978397369384766e-01,8.626599311828613281e-01,8.626220822334289551e-01,8.625841140747070312e-01,8.625462055206298828e-01,8.625083565711975098e-01,8.624705076217651367e-01,8.624326586723327637e-01,8.623947501182556152e-01,8.623569011688232422e-01,8.623190522193908691e-01,8.622812032699584961e-01,8.622433543205261230e-01,8.622055053710937500e-01,8.621675968170166016e-01,8.621297478675842285e-01,8.620919585227966309e-01,8.620541095733642578e-01,8.620162606239318848e-01,8.619784712791442871e-01,8.619406223297119141e-01,8.619028329849243164e-01,8.618649840354919434e-01,8.618271946907043457e-01,8.617892861366271973e-01,8.617514967918395996e-01,8.617137074470520020e-01,8.616759181022644043e-01,8.616381287574768066e-01,8.616003394126892090e-01,8.615625500679016113e-01,8.615247607231140137e-01,8.614869713783264160e-01,8.614491820335388184e-01,8.614113330841064453e-01,8.613735437393188477e-01,8.613358139991760254e-01,8.612980246543884277e-01,8.612602949142456055e-01,8.612225055694580078e-01,8.611847758293151855e-01,8.611470460891723633e-01,8.611092567443847656e-01,8.610715270042419434e-01,8.610337972640991211e-01,8.609959483146667480e-01,8.609582185745239258e-01,8.609204888343811035e-01,8.608827590942382812e-01,8.608450293540954590e-01,8.608073592185974121e-01,8.607696294784545898e-01,8.607318997383117676e-01,8.606941699981689453e-01,8.606564998626708984e-01,8.606187105178833008e-01
8.213648200035095215e-01,8.213303685188293457e-01,8.212960362434387207e-01,8.212617039680480957e-01,8.212273716926574707e-01,8.211930990219116211e-01,8.211587667465209961e-01,8.211244344711303711e-01,8.210901021957397461e-01,8.210557699203491211e-01,8.210214972496032715e-01,8.209871649742126465e-01,8.209527730941772461e-01,8.209185004234313965e-01,8.208841681480407715e-01,8.208498954772949219e-01,8.208155632019042969e-01,8.207812905311584473e-01,8.207470178604125977e-01,8.207126855850219727e-01,8.206784129142761230e-01,8.206441402435302734e-01,8.206098079681396484e-01,8.205755352973937988e-01,8.205412626266479492e-01,8.205069899559020996e-01,8.204727172851562500e-01,8.204384446144104004e-01,8.204041719436645508e-01,8.203698992729187012e-01,8.203356862068176270e-01,8.203014135360717773e-01,8.202671408653259277e-01,8.202328085899353027e-01,8.201985955238342285e-01,8.201643228530883789e-01,8.201301097869873047e-01,8.200958967208862305e-01,8.200616240501403809e-01,8.200274109840393066e-01,8.199931979179382324e-01,8.199589848518371582e-01,8.199247121810913086e-01,8.198904395103454590e-01,8.198562264442443848e-01,8.198220133781433105e-01,8.197878003120422363e-01,8.197535872459411621e-01,8.197193741798400879e-01,8.196851611137390137e-01,8.196510076522827148e-01,8.196167945861816406e-01,8.195825815200805664e-01,8.195483088493347168e-01,8.195141553878784180e-01,8.194799423217773438e-01,8.194457888603210449e-01,8.194115757942199707e-01,8.193774223327636719e-01,8.193432688713073730e-01,8.193090558052062988e-01,8.192749023437500000e-01,8.192407488822937012e-01,8.192065954208374023e-01,8.191723227500915527e-01,8.191381692886352539e-01,8.191040158271789551e-01,8.190698623657226562e-01,8.190357089042663574e-01,8.190015554428100586e-01,8.189674615859985352e-01,8.189333081245422363e-01,8.188991546630859375e-01,8.188650012016296387e-01,8.188308477401733398e-01,8.187966942787170410e-01,8.187625408172607422e-01,8.187284469604492188e-01,8.186942934989929199e-01,8.186601996421813965e-01
7.830613255500793457e-01,7.830301523208618164e-01,7.829989194869995117e-01,7.829677462577819824e-01,7.829365134239196777e-01,7.829053401947021484e-01,7.828741073608398438e-01,7.828428745269775391e-01,7.828116416931152344e-01,7.827804684638977051e-01,7.827492952346801758e-01,7.827180624008178711e-01,7.826868891716003418e-01,7.826557159423828125e-01,7.826245427131652832e-01,7.825933694839477539e-01,7.825621962547302246e-01,7.825309634208679199e-01,7.824997901916503906e-01,7.824686169624328613e-01,7.824374437332153320e-01,7.824062705039978027e-01,7.823750972747802734e-01,7.823439836502075195e-01,7.823128104209899902e-01,7.822816371917724609e-01,7.822505235671997070e-01,7.822193503379821777e-01,7.821881175041198730e-01,7.821570038795471191e-01,7.821258902549743652e-01,7.820947170257568359e-01,7.820636034011840820e-01,7.820324301719665527e-01,7.820013165473937988e-01,7.819702029228210449e-01,7.819390892982482910e-01,7.819079756736755371e-01,7.818767428398132324e-01,7.818456292152404785e-01,7.818145155906677246e-01,7.817834019660949707e-01,7.817522883415222168e-01,7.817211747169494629e-01,7.816901206970214844e-01,7.816590070724487305e-01,7.816278934478759766e-01,7.815967798233032227e-01,7.815657258033752441e-01,7.815345525741577148e-01,7.815034389495849609e-01,7.814723253250122070e-01,7.814412713050842285e-01,7.814101576805114746e-01,7.813791036605834961e-01,7.813480496406555176e-01,7.813169360160827637e-01,7.812858819961547852e-01,7.812548279762268066e-01,7.812236547470092773e-01,7.811926007270812988e-01,7.811615467071533203e-01,7.811304926872253418e-01,7.810994386672973633e-01,7.810683846473693848e-01,7.810373306274414062e-01,7.810062766075134277e-01,7.809752225875854492e-01,7.809441685676574707e-01,7.809130549430847168e-01,7.808820009231567383e-01,7.808510065078735352e-01,7.808199524879455566e-01,7.807888984680175781e-01,7.807579040527343750e-01,7.807268500328063965e-01,7.806958556175231934e-01,7.806648015975952148e-01,7.806338071823120117e-01,7.806027531623840332e-01
7.481712102890014648e-01,7.481427192687988281e-01,7.481141686439514160e-01,7.480856776237487793e-01,7.480571866035461426e-01,7.480287551879882812e-01,7.480002641677856445e-01,7.479717731475830078e-01,7.479432821273803711e-01,7.479147911071777344e-01,7.478863596916198730e-01,7.478578686714172363e-01,7.478293180465698242e-01,7.478008866310119629e-01,7.477723956108093262e-01,7.477439641952514648e-01,7.477154731750488281e-01,7.476870417594909668e-01,7.476585507392883301e-01,7.476301193237304688e-01,7.476016879081726074e-01,7.475731968879699707e-01,7.475447654724121094e-01,7.475162744522094727e-01,7.474878430366516113e-01,7.474594116210937500e-01,7.474309206008911133e-01,7.474024891853332520e-01,7.473740577697753906e-01,7.473456263542175293e-01,7.473171949386596680e-01,7.472887635231018066e-01,7.472603917121887207e-01,7.472319006919860840e-01,7.472034692764282227e-01,7.471750378608703613e-01,7.471466064453125000e-01,7.471181750297546387e-01,7.470898032188415527e-01,7.470613718032836914e-01,7.470329999923706055e-01,7.470045685768127441e-01,7.469761371612548828e-01,7.469477653503417969e-01,7.469192743301391602e-01,7.468909025192260742e-01,7.468625307083129883e-01,7.468340992927551270e-01,7.468057274818420410e-01,7.467773556709289551e-01,7.467489242553710938e-01,7.467205524444580078e-01,7.466921806335449219e-01,7.466638088226318359e-01,7.466353774070739746e-01,7.466070055961608887e-01,7.465786337852478027e-01,7.465502619743347168e-01,7.465218901634216309e-01,7.464935183525085449e-01,7.464651465415954590e-01,7.464367747306823730e-01,7.464084029197692871e-01,7.463800311088562012e-01,7.463516592979431152e-01,7.463232874870300293e-01,7.462949156761169434e-01,7.462666034698486328e-01,7.462382316589355469e-01,7.462098598480224609e-01,7.461815476417541504e-01,7.461531758308410645e-01,7.461248636245727539e-01,7.460965514183044434e-01,7.460681796073913574e-01,7.460398077964782715e-01,7.460114359855651855e-01,7.459831237792968750e-01,7.459548115730285645e-01,7.459264993667602539e-01
7.162575721740722656e-01,7.162314653396606445e-01,7.162053585052490234e-01,7.161792516708374023e-01,7.161531448364257812e-01,7.161270380020141602e-01,7.161009311676025391e-01,7.160748243331909180e-01,7.160486578941345215e-01,7.160225510597229004e-01,7.159964442253112793e-01,7.159703373908996582e-01,7.159442901611328125e-01,7.159181833267211914e-01,7.158920764923095703e-01,7.158660292625427246e-01,7.158399224281311035e-01,7.158138155937194824e-01,7.157877087593078613e-01,7.157616019248962402e-01,7.157355546951293945e-01,7.157094478607177734e-01,7.156834006309509277e-01,7.156572937965393066e-01,7.156312465667724609e-01,7.156051993370056152e-01,7.155790925025939941e-01,7.155530452728271484e-01,7.155269384384155273e-01,7.155008912086486816e-01,7.154747843742370605e-01,7.154487371444702148e-01,7.154226899147033691e-01,7.153966426849365234e-01,7.153705954551696777e-01,7.153445482254028320e-01,7.153185009956359863e-01,7.152924537658691406e-01,7.152664065361022949e-01,7.152402997016906738e-01,7.152142524719238281e-01,7.151882648468017578e-01,7.151622176170349121e-01,7.151361703872680664e-01,7.151101231575012207e-01,7.150841355323791504e-01,7.150580883026123047e-01,7.150320410728454590e-01,7.150060534477233887e-01,7.149799466133117676e-01,7.149539589881896973e-01,7.149279117584228516e-01,7.149019241333007812e-01,7.148758769035339355e-01,7.148498892784118652e-01,7.148238420486450195e-01,7.147978544235229492e-01,7.147718667984008789e-01,7.147458195686340332e-01,7.147198319435119629e-01,7.146937847137451172e-01,7.146677970886230469e-01,7.146418094635009766e-01,7.146157622337341309e-01,7.145897746086120605e-01,7.145637869834899902e-01,7.145377993583679199e-01,7.145118117332458496e-01,7.144858241081237793e-01,7.144598364830017090e-01,7.144337892532348633e-01,7.144078016281127930e-01,7.143818736076354980e-01,7.143558859825134277e-01,7.143298983573913574e-01,7.143039107322692871e-01,7.142779827117919922e-01,7.142519950866699219e-01,7.142260074615478516e-01,7.142000794410705566e-01
6.869551539421081543e-01,6.869311332702636719e-01,6.869071125984191895e-01,6.868830323219299316e-01,6.868590712547302246e-01,6.868350505828857422e-01,6.868110299110412598e-01,6.867870092391967773e-01,6.867629885673522949e-01,6.867389678955078125e-01,6.867150068283081055e-01,6.866909861564636230e-01,6.866669654846191406e-01,6.866429448127746582e-01,6.866189241409301758e-01,6.865949034690856934e-01,6.865709424018859863e-01,6.865469217300415039e-01,6.865229606628417969e-01,6.864989399909973145e-01,6.864749789237976074e-01,6.864509582519531250e-01,6.864269971847534180e-01,6.864030361175537109e-01,6.863789558410644531e-01,6.863549947738647461e-01,6.863310337066650391e-01,6.863070130348205566e-01,6.862830519676208496e-01,6.862590909004211426e-01,6.862351298332214355e-01,6.862111687660217285e-01,6.861872076988220215e-01,6.861631870269775391e-01,6.861391663551330566e-01,6.861152052879333496e-01,6.860912442207336426e-01,6.860672831535339355e-01,6.860433220863342285e-01,6.860194206237792969e-01,6.859954595565795898e-01,6.859714984893798828e-01,6.859475374221801758e-01,6.859235763549804688e-01,6.858995556831359863e-01,6.858756542205810547e-01,6.858516931533813477e-01,6.858277320861816406e-01,6.858038306236267090e-01,6.857798695564270020e-01,6.857559084892272949e-01,6.857320070266723633e-01,6.857080459594726562e-01,6.856841444969177246e-01,6.856601834297180176e-01,6.856362223625183105e-01,6.856122612953186035e-01,6.855883598327636719e-01,6.855643987655639648e-01,6.855404973030090332e-01,6.855165958404541016e-01,6.854926347732543945e-01,6.854687333106994629e-01,6.854448318481445312e-01,6.854209303855895996e-01,6.853969693183898926e-01,6.853730082511901855e-01,6.853491067886352539e-01,6.853252053260803223e-01,6.853013038635253906e-01,6.852774024009704590e-01,6.852535009384155273e-01,6.852295994758605957e-01,6.852056980133056641e-01,6.851817965507507324e-01,6.851578354835510254e-01,6.851339340209960938e-01,6.851100325584411621e-01,6.850861907005310059e-01,6.850622892379760742e-01
6.599560379981994629e-01,6.599338650703430176e-01,6.599116921424865723e-01,6.598895192146301270e-01,6.598673462867736816e-01,6.598452329635620117e-01,6.598230600357055664e-01,6.598008871078491211e-01,6.597786545753479004e-01,6.597565412521362305e-01,6.597343683242797852e-01,6.597121953964233398e-01,6.596900820732116699e-01,6.596679091453552246e-01,6.596457362174987793e-01,6.596236228942871094e-01,6.596014499664306641e-01,6.595793366432189941e-01,6.595571637153625488e-01,6.595349907875061035e-01,6.595128178596496582e-01,6.594907045364379883e-01,6.594685316085815430e-01,6.594464182853698730e-01,6.594243049621582031e-01,6.594021320343017578e-01,6.593800187110900879e-01,6.593579053878784180e-01,6.593357920646667480e-01,6.593135595321655273e-01,6.592914462089538574e-01,6.592693328857421875e-01,6.592472195625305176e-01,6.592251062393188477e-01,6.592029929161071777e-01,6.591808199882507324e-01,6.591587066650390625e-01,6.591365933418273926e-01,6.591144800186157227e-01,6.590923666954040527e-01,6.590702533721923828e-01,6.590481400489807129e-01,6.590260267257690430e-01,6.590039134025573730e-01,6.589818000793457031e-01,6.589596867561340332e-01,6.589375734329223633e-01,6.589154601097106934e-01,6.588934063911437988e-01,6.588712930679321289e-01,6.588491201400756836e-01,6.588270664215087891e-01,6.588049530982971191e-01,6.587828397750854492e-01,6.587607860565185547e-01,6.587386727333068848e-01,6.587166190147399902e-01,6.586945056915283203e-01,6.586724519729614258e-01,6.586503386497497559e-01,6.586282253265380859e-01,6.586061120033264160e-01,6.585840582847595215e-01,6.585619449615478516e-01,6.585398912429809570e-01,6.585178375244140625e-01,6.584957242012023926e-01,6.584736704826354980e-01,6.584516167640686035e-01,6.584295630455017090e-01,6.584074497222900391e-01,6.583853363990783691e-01,6.583632826805114746e-01,6.583412289619445801e-01,6.583191752433776855e-01,6.582971215248107910e-01,6.582750678062438965e-01,6.582530140876770020e-01,6.582309603691101074e-01,6.582089066505432129e-01
6.349989771842956543e-01,6.349784135818481445e-01,6.349579095840454102e-01,6.349373459815979004e-01,6.349168419837951660e-01,6.348962783813476562e-01,6.348757743835449219e-01,6.348552703857421875e-01,6.348347663879394531e-01,6.348142623901367188e-01,6.347936987876892090e-01,6.347731947898864746e-01,6.347526907920837402e-01,6.347321867942810059e-01,6.347116231918334961e-01,6.346911191940307617e-01,6.346706151962280273e-01,6.346501111984252930e-01,6.346296072006225586e-01,6.346091032028198242e-01,6.345885992050170898e-01,6.345680952072143555e-01,6.345476508140563965e-01,6.345271468162536621e-01,6.345065832138061523e-01,6.344860792160034180e-01,6.344656348228454590e-01,6.344451308250427246e-01,6.344246268272399902e-01,6.344041228294372559e-01,6.343836784362792969e-01,6.343631744384765625e-01,6.343426704406738281e-01,6.343222260475158691e-01,6.343017220497131348e-01,6.342812180519104004e-01,6.342607140541076660e-01,6.342402696609497070e-01,6.342197656631469727e-01,6.341993212699890137e-01,6.341788172721862793e-01,6.341583728790283203e-01,6.341378688812255859e-01,6.341174244880676270e-01,6.340969204902648926e-01,6.340764164924621582e-01,6.340559720993041992e-01,6.340355277061462402e-01,6.340150237083435059e-01,6.339945793151855469e-01,6.339741349220275879e-01,6.339536905288696289e-01,6.339331865310668945e-01,6.339127421379089355e-01,6.338922977447509766e-01,6.338717937469482422e-01,6.338513493537902832e-01,6.338309049606323242e-01,6.338104605674743652e-01,6.337900161743164062e-01,6.337695717811584473e-01,6.337491273880004883e-01,6.337286829948425293e-01,6.337082386016845703e-01,6.336877942085266113e-01,6.336673498153686523e-01,6.336468458175659180e-01,6.336264014244079590e-01,6.336059570312500000e-01,6.335855126380920410e-01,6.335651278495788574e-01,6.335446834564208984e-01,6.335242390632629395e-01,6.335037946701049805e-01,6.334834098815917969e-01,6.334629654884338379e-01,6.334425210952758789e-01,6.334220767021179199e-01,6.334016323089599609e-01,6.333812475204467773e-01
6.118606328964233398e-01,6.118416190147399902e-01,6.118225455284118652e-01,6.118034720420837402e-01,6.117843985557556152e-01,6.117653846740722656e-01,6.117463111877441406e-01,6.117272973060607910e-01,6.117082238197326660e-01,6.116891503334045410e-01,6.116700768470764160e-01,6.116510629653930664e-01,6.116319894790649414e-01,6.116129755973815918e-01,6.115939021110534668e-01,6.115748882293701172e-01,6.115558743476867676e-01,6.115368008613586426e-01,6.115177869796752930e-01,6.114987134933471680e-01,6.114796400070190430e-01,6.114606261253356934e-01,6.114416122436523438e-01,6.114225983619689941e-01,6.114035248756408691e-01,6.113845109939575195e-01,6.113654971122741699e-01,6.113464832305908203e-01,6.113274097442626953e-01,6.113083958625793457e-01,6.112893223762512207e-01,6.112703084945678711e-01,6.112512946128845215e-01,6.112322807312011719e-01,6.112132668495178223e-01,6.111942529678344727e-01,6.111752390861511230e-01,6.111562252044677734e-01,6.111372113227844238e-01,6.111181974411010742e-01,6.110991239547729492e-01,6.110801696777343750e-01,6.110611557960510254e-01,6.110421419143676758e-01,6.110231280326843262e-01,6.110041141510009766e-01,6.109851002693176270e-01,6.109661459922790527e-01,6.109471321105957031e-01,6.109281182289123535e-01,6.109090447425842285e-01,6.108900904655456543e-01,6.108710765838623047e-01,6.108520627021789551e-01,6.108331084251403809e-01,6.108140945434570312e-01,6.107951402664184570e-01,6.107761263847351074e-01,6.107571125030517578e-01,6.107381582260131836e-01,6.107191443443298340e-01,6.107001304626464844e-01,6.106811165809631348e-01,6.106621623039245605e-01,6.106432080268859863e-01,6.106241941452026367e-01,6.106052398681640625e-01,6.105862259864807129e-01,6.105672717094421387e-01,6.105483174324035645e-01,6.105293035507202148e-01,6.105102896690368652e-01,6.104913353919982910e-01,6.104723811149597168e-01,6.104533672332763672e-01,6.104344129562377930e-01,6.104154586791992188e-01,6.103965044021606445e-01,6.103774905204772949e-01,6.103585362434387207e-01
5.903493165969848633e-01,5.903315544128417969e-01,5.903138518333435059e-01,5.902960896492004395e-01,5.902783274650573730e-01,5.902605652809143066e-01,5.902428627014160156e-01,5.902251005172729492e-01,5.902073979377746582e-01,5.901896357536315918e-01,5.901719331741333008e-01,5.901541709899902344e-01,5.901364684104919434e-01,5.901187062263488770e-01,5.901009440422058105e-01,5.900832414627075195e-01,5.900655388832092285e-01,5.900477766990661621e-01,5.900300741195678711e-01,5.900123715400695801e-01,5.899946093559265137e-01,5.899769067764282227e-01,5.899592041969299316e-01,5.899415016174316406e-01,5.899237394332885742e-01,5.899060368537902832e-01,5.898882746696472168e-01,5.898705720901489258e-01,5.898528695106506348e-01,5.898351669311523438e-01,5.898174643516540527e-01,5.897997617721557617e-01,5.897820591926574707e-01,5.897643566131591797e-01,5.897466540336608887e-01,5.897288918495178223e-01,5.897111892700195312e-01,5.896934866905212402e-01,5.896757841110229492e-01,5.896580815315246582e-01,5.896403789520263672e-01,5.896227359771728516e-01,5.896050333976745605e-01,5.895873308181762695e-01,5.895696282386779785e-01,5.895519256591796875e-01,5.895342230796813965e-01,5.895165205001831055e-01,5.894988179206848145e-01,5.894811153411865234e-01,5.894634723663330078e-01,5.894457697868347168e-01,5.894280672073364258e-01,5.894103646278381348e-01,5.893927216529846191e-01,5.893750190734863281e-01,5.893573164939880371e-01,5.893396139144897461e-01,5.893219709396362305e-01,5.893042683601379395e-01,5.892865657806396484e-01,5.892689228057861328e-01,5.892512202262878418e-01,5.892335772514343262e-01,5.892158746719360352e-01,5.891982316970825195e-01,5.891805291175842285e-01,5.891628265380859375e-01,5.891451835632324219e-01,5.891274809837341309e-01,5.891098380088806152e-01,5.890921950340270996e-01,5.890744924545288086e-01,5.890568494796752930e-01,5.890392065048217773e-01,5.890215039253234863e-01,5.890038609504699707e-01,5.889861583709716797e-01,5.889685153961181641e-01,5.889508724212646484e-01
5.702991485595703125e-01,5.702825784683227539e-01,5.702660083770751953e-01,5.702494978904724121e-01,5.702329277992248535e-01,5.702163577079772949e-01,5.701997876167297363e-01,5.701832771301269531e-01,5.701667070388793945e-01,5.701501965522766113e-01,5.701335668563842773e-01,5.701170563697814941e-01,5.701004862785339355e-01,5.700839757919311523e-01,5.700674057006835938e-01,5.700508952140808105e-01,5.700343251228332520e-01,5.700178146362304688e-01,5.700012445449829102e-01,5.699847340583801270e-01,5.699681043624877930e-01,5.699515938758850098e-01,5.699350833892822266e-01,5.699185132980346680e-01,5.699020028114318848e-01,5.698854923248291016e-01,5.698689222335815430e-01,5.698524117469787598e-01,5.698359012603759766e-01,5.698193311691284180e-01,5.698027610778808594e-01,5.697862505912780762e-01,5.697697401046752930e-01,5.697532296180725098e-01,5.697366595268249512e-01,5.697201490402221680e-01,5.697036385536193848e-01,5.696871280670166016e-01,5.696706175804138184e-01,5.696540474891662598e-01,5.696375370025634766e-01,5.696210265159606934e-01,5.696044564247131348e-01,5.695879459381103516e-01,5.695714354515075684e-01,5.695549249649047852e-01,5.695384144783020020e-01,5.695219039916992188e-01,5.695053935050964355e-01,5.694888830184936523e-01,5.694723725318908691e-01,5.694558620452880859e-01,5.694393515586853027e-01,5.694228410720825195e-01,5.694063305854797363e-01,5.693898200988769531e-01,5.693733096122741699e-01,5.693567991256713867e-01,5.693403482437133789e-01,5.693238377571105957e-01,5.693073272705078125e-01,5.692908167839050293e-01,5.692743062973022461e-01,5.692577958106994629e-01,5.692412853240966797e-01,5.692248344421386719e-01,5.692083239555358887e-01,5.691918134689331055e-01,5.691753029823303223e-01,5.691588521003723145e-01,5.691423416137695312e-01,5.691258907318115234e-01,5.691093206405639648e-01,5.690928697586059570e-01,5.690763592720031738e-01,5.690598487854003906e-01,5.690433979034423828e-01,5.690268874168395996e-01,5.690104365348815918e-01,5.689939260482788086e-01
