5.000000000000000000e+00,5.000000000000000000e+00,5.000000000000000000e+00,5.000000000000000000e+00,5.000000000000000000e+00,5.000000000000000000e+00,5.000000000000000000e+00,5.000000000000000000e+00,5.000000000000000000e+00,5.000000000000000000e+00,5.000000000000000000e+00,5.000000000000000000e+00,5.000000000000000000e+00,5.000000000000000000e+00,5.000000000000000000e+00,5.000000000000000000e+00,5.000000000000000000e+00,5.000000000000000000e+00,5.000000000000000000e+00,5.000000000000000000e+00,5.000000000000000000e+00,5.000000000000000000e+00,5.000000000000000000e+00,5.000000000000000000e+00,5.000000000000000000e+00,5.000000000000000000e+00,5.000000000000000000e+00,5.000000000000000000e+00,5.000000000000000000e+00,5.000000000000000000e+00,5.000000000000000000e+00,5.000000000000000000e+00,5.000000000000000000e+00,5.000000000000000000e+00,5.000000000000000000e+00,5.000000000000000000e+00,5.000000000000000000e+00,5.000000000000000000e+00,5.000000000000000000e+00,4.858242034912109375e+00,4.667598247528076172e+00,4.491352558135986328e+00,4.327931404113769531e+00,4.175985813140869141e+00,4.034347534179687500e+00,3.902001619338989258e+00,3.778063297271728516e+00,3.661755561828613281e+00,3.552395582199096680e+00,3.449377775192260742e+00,3.352166652679443359e+00,3.260284900665283203e+00,3.173305273056030273e+00,3.090846300125122070e+00,3.012563943862915039e+00,2.938149452209472656e+00,2.867321968078613281e+00,2.799829483032226562e+00,2.735440731048583984e+00,2.673947334289550781e+00,2.615157842636108398e+00,2.558897733688354492e+00,2.505007505416870117e+00,2.453340053558349609e+00,2.403760910034179688e+00,2.356146097183227539e+00,2.310380935668945312e+00,2.266359806060791016e+00,2.223984718322753906e+00,2.183165311813354492e+00,2.143817186355590820e+00,2.105862379074096680e+00,2.069227933883666992e+00,2.033846616744995117e+00,1.999654769897460938e+00,1.966593623161315918e+00,1.934607863426208496e+00,1.903645753860473633e+00,1.873659133911132812e+00,1.844602704048156738e+00
5.000000000000000000e+00,5.000000000000000000e+00,5.000000000000000000e+00,5.000000000000000000e+00,5.000000000000000000e+00,5.000000000000000000e+00,5.000000000000000000e+00,5.000000000000000000e+00,5.000000000000000000e+00,5.000000000000000000e+00,5.000000000000000000e+00,5.000000000000000000e+00,5.000000000000000000e+00,5.000000000000000000e+00,5.000000000000000000e+00,5.000000000000000000e+00,5.000000000000000000e+00,5.000000000000000000e+00,5.000000000000000000e+00,5.000000000000000000e+00,5.000000000000000000e+00,5.000000000000000000e+00,5.000000000000000000e+00,5.000000000000000000e+00,5.000000000000000000e+00,5.000000000000000000e+00,5.000000000000000000e+00,5.000000000000000000e+00,5.000000000000000000e+00,5.000000000000000000e+00,5.000000000000000000e+00,5.000000000000000000e+00,5.000000000000000000e+00,5.000000000000000000e+00,5.000000000000000000e+00,5.000000000000000000e+00,5.000000000000000000e+00,5.000000000000000000e+00,5.000000000000000000e+00,4.858380317687988281e+00,4.667726039886474609e+00,4.491470336914062500e+00,4.328041553497314453e+00,4.176087856292724609e+00,4.034442424774169922e+00,3.902090549468994141e+00,3.778146743774414062e+00,3.661834478378295898e+00,3.552469253540039062e+00,3.449447631835937500e+00,3.352232456207275391e+00,3.260347127914428711e+00,3.173364162445068359e+00,3.090902090072631836e+00,3.012617111206054688e+00,2.938199758529663086e+00,2.867370367050170898e+00,2.799875259399414062e+00,2.735484600067138672e+00,2.673989057540893555e+00,2.615197896957397461e+00,2.558936119079589844e+00,2.505044221878051758e+00,2.453375339508056641e+00,2.403794765472412109e+00,2.356178760528564453e+00,2.310412168502807617e+00,2.266389846801757812e+00,2.224013566970825195e+00,2.183193206787109375e+00,2.143844127655029297e+00,2.105888366699218750e+00,2.069253206253051758e+00,2.033870935440063477e+00,1.999678134918212891e+00,1.966616153717041016e+00,1.934629678726196289e+00,1.903666973114013672e+00,1.873679757118225098e+00,1.844622731208801270e+00
5.000000000000000000e+00,5.000000000000000000e+00,5.000000000000000000e+00,5.000000000000000000e+00,5.000000000000000000e+00,5.000000000000000000e+00,5.000000000000000000e+00,5.000000000000000000e+00,5.000000000000000000e+00,5.000000000000000000e+00,5.000000000000000000e+00,5.000000000000000000e+00,5.000000000000000000e+00,5.000000000000000000e+00,5.000000000000000000e+00,5.000000000000000000e+00,5.000000000000000000e+00,5.000000000000000000e+00,5.000000000000000000e+00,5.000000000000000000e+00,5.000000000000000000e+00,5.000000000000000000e+00,5.000000000000000000e+00,5.000000000000000000e+00,5.000000000000000000e+00,5.000000000000000000e+00,5.000000000000000000e+00,5.000000000000000000e+00,5.000000000000000000e+00,5.000000000000000000e+00,5.000000000000000000e+00,5.000000000000000000e+00,5.000000000000000000e+00,5.000000000000000000e+00,5.000000000000000000e+00,5.000000000000000000e+00,5.000000000000000000e+00,5.000000000000000000e+00,5.000000000000000000e+00,4.858518123626708984e+00,4.667853355407714844e+00,4.491588592529296875e+00,4.328150749206542969e+00,4.176189899444580078e+00,4.034537792205810547e+00,3.902179956436157227e+00,3.778230190277099609e+00,3.661912679672241211e+00,3.552542924880981445e+00,3.449517011642456055e+00,3.352298021316528320e+00,3.260409116744995117e+00,3.173423290252685547e+00,3.090957880020141602e+00,3.012670278549194336e+00,2.938250303268432617e+00,2.867418289184570312e+00,2.799921035766601562e+00,2.735528469085693359e+00,2.674031257629394531e+00,2.615237951278686523e+00,2.558974504470825195e+00,2.505080699920654297e+00,2.453410625457763672e+00,2.403828620910644531e+00,2.356211185455322266e+00,2.310443401336669922e+00,2.266419887542724609e+00,2.224042654037475586e+00,2.183221101760864258e+00,2.143871068954467773e+00,2.105914354324340820e+00,2.069278001785278320e+00,2.033895015716552734e+00,1.999701499938964844e+00,1.966639041900634766e+00,1.934651494026184082e+00,1.903688192367553711e+00,1.873700261116027832e+00,1.844642639160156250e+00
5.000000000000000000e+00,5.000000000000000000e+00,5.000000000000000000e+00,5.000000000000000000e+00,5.000000000000000000e+00,5.000000000000000000e+00,5.000000000000000000e+00,5.000000000000000000e+00,5.000000000000000000e+00,5.000000000000000000e+00,5.000000000000000000e+00,5.000000000000000000e+00,5.000000000000000000e+00,5.000000000000000000e+00,5.000000000000000000e+00,5.000000000000000000e+00,5.000000000000000000e+00,5.000000000000000000e+00,5.000000000000000000e+00,5.000000000000000000e+00,5.000000000000000000e+00,5.000000000000000000e+00,5.000000000000000000e+00,5.000000000000000000e+00,5.000000000000000000e+00,5.000000000000000000e+00,5.000000000000000000e+00,5.000000000000000000e+00,5.000000000000000000e+00,5.000000000000000000e+00,5.000000000000000000e+00,5.000000000000000000e+00,5.000000000000000000e+00,5.000000000000000000e+00,5.000000000000000000e+00,5.000000000000000000e+00,5.000000000000000000e+00,5.000000000000000000e+00,5.000000000000000000e+00,4.858656406402587891e+00,4.667981147766113281e+00,4.491706371307373047e+00,4.328260421752929688e+00,4.176291942596435547e+00,4.034632682800292969e+00,3.902268886566162109e+00,3.778313636779785156e+00,3.661991119384765625e+00,3.552617073059082031e+00,3.449586629867553711e+00,3.352364063262939453e+00,3.260471343994140625e+00,3.173482179641723633e+00,3.091013669967651367e+00,3.012723207473754883e+00,2.938300848007202148e+00,2.867466449737548828e+00,2.799967050552368164e+00,2.735572099685668945e+00,2.674072980880737305e+00,2.615277767181396484e+00,2.559012651443481445e+00,2.505117416381835938e+00,2.453445672988891602e+00,2.403862476348876953e+00,2.356243610382080078e+00,2.310474634170532227e+00,2.266449928283691406e+00,2.224071502685546875e+00,2.183248996734619141e+00,2.143897771835327148e+00,2.105940341949462891e+00,2.069303035736083984e+00,2.033919334411621094e+00,1.999724864959716797e+00,1.966661572456359863e+00,1.934673428535461426e+00,1.903709292411804199e+00,1.873720765113830566e+00,1.844662547111511230e+00
5.000000000000000000e+00,5.000000000000000000e+00,5.000000000000000000e+00,5.000000000000000000e+00,5.000000000000000000e+00,5.000000000000000000e+00,5.000000000000000000e+00,5.000000000000000000e+00,5.000000000000000000e+00,5.000000000000000000e+00,5.000000000000000000e+00,5.000000000000000000e+00,5.000000000000000000e+00,5.000000000000000000e+00,5.000000000000000000e+00,5.000000000000000000e+00,5.000000000000000000e+00,5.000000000000000000e+00,5.000000000000000000e+00,5.000000000000000000e+00,5.000000000000000000e+00,5.000000000000000000e+00,5.000000000000000000e+00,5.000000000000000000e+00,5.000000000000000000e+00,5.000000000000000000e+00,5.000000000000000000e+00,5.000000000000000000e+00,5.000000000000000000e+00,5.000000000000000000e+00,5.000000000000000000e+00,5.000000000000000000e+00,5.000000000000000000e+00,5.000000000000000000e+00,5.000000000000000000e+00,5.000000000000000000e+00,5.000000000000000000e+00,5.000000000000000000e+00,5.000000000000000000e+00,4.858794212341308594e+00,4.668108463287353516e+00,4.491824150085449219e+00,4.328370094299316406e+00,4.176393985748291016e+00,4.034728050231933594e+00,3.902357816696166992e+00,3.778397321701049805e+00,3.662069320678710938e+00,3.552690744400024414e+00,3.449656009674072266e+00,3.352429628372192383e+00,3.260533571243286133e+00,3.173540830612182617e+00,3.091069936752319336e+00,3.012776374816894531e+00,2.938351392745971680e+00,2.867514371871948242e+00,2.800012826919555664e+00,2.735615730285644531e+00,2.674114704132080078e+00,2.615318059921264648e+00,2.559051036834716797e+00,2.505154371261596680e+00,2.453480958938598633e+00,2.403896093368530273e+00,2.356276035308837891e+00,2.310505867004394531e+00,2.266479969024658203e+00,2.224100351333618164e+00,2.183276891708374023e+00,2.143924713134765625e+00,2.105966091156005859e+00,2.069328069686889648e+00,2.033943414688110352e+00,1.999748229980468750e+00,1.966684222221374512e+00,1.934695243835449219e+00,1.903730511665344238e+00,1.873741388320922852e+00,1.844682335853576660e+00
5.000000000000000000e+00,5.000000000000000000e+00,5.000000000000000000e+00,5.000000000000000000e+00,5.000000000000000000e+00,5.000000000000000000e+00,5.000000000000000000e+00,5.000000000000000000e+00,5.000000000000000000e+00,5.000000000000000000e+00,5.000000000000000000e+00,5.000000000000000000e+00,5.000000000000000000e+00,5.000000000000000000e+00,5.000000000000000000e+00,5.000000000000000000e+00,5.000000000000000000e+00,5.000000000000000000e+00,5.000000000000000000e+00,5.000000000000000000e+00,5.000000000000000000e+00,5.000000000000000000e+00,5.000000000000000000e+00,5.000000000000000000e+00,5.000000000000000000e+00,5.000000000000000000e+00,5.000000000000000000e+00,5.000000000000000000e+00,5.000000000000000000e+00,5.000000000000000000e+00,5.000000000000000000e+00,5.000000000000000000e+00,5.000000000000000000e+00,5.000000000000000000e+00,5.000000000000000000e+00,5.000000000000000000e+00,5.000000000000000000e+00,5.000000000000000000e+00,5.000000000000000000e+00,4.858932018280029297e+00,4.668235778808593750e+00,4.491942405700683594e+00,4.328479766845703125e+00,4.176496028900146484e+00,4.034823417663574219e+00,3.902446985244750977e+00,3.778480768203735352e+00,3.662147760391235352e+00,3.552764415740966797e+00,3.449725866317749023e+00,3.352495431900024414e+00,3.260595798492431641e+00,3.173599720001220703e+00,3.091125726699829102e+00,3.012829303741455078e+00,2.938401699066162109e+00,2.867562770843505859e+00,2.800058603286743164e+00,2.735659837722778320e+00,2.674156427383422852e+00,2.615357875823974609e+00,2.559089183807373047e+00,2.505190849304199219e+00,2.453516006469726562e+00,2.403929948806762695e+00,2.356308698654174805e+00,2.310537099838256836e+00,2.266510009765625000e+00,2.224129438400268555e+00,2.183304786682128906e+00,2.143951654434204102e+00,2.105992078781127930e+00,2.069353342056274414e+00,2.033967494964599609e+00,1.999771833419799805e+00,1.966706752777099609e+00,1.934717178344726562e+00,1.903751611709594727e+00,1.873761892318725586e+00,1.844702243804931641e+00
5.000000000000000000e+00,5.000000000000000000e+00,5.000000000000000000e+00,5.000000000000000000e+00,5.000000000000000000e+00,5.000000000000000000e+00,5.000000000000000000e+00,5.000000000000000000e+00,5.000000000000000000e+00,5.000000000000000000e+00,5.000000000000000000e+00,5.000000000000000000e+00,5.000000000000000000e+00,5.000000000000000000e+00,5.000000000000000000e+00,5.000000000000000000e+00,5.000000000000000000e+00,5.000000000000000000e+00,5.000000000000000000e+00,5.000000000000000000e+00,5.000000000000000000e+00,5.000000000000000000e+00,5.000000000000000000e+00,5.000000000000000000e+00,5.000000000000000000e+00,5.000000000000000000e+00,5.000000000000000000e+00,5.000000000000000000e+00,5.000000000000000000e+00,5.000000000000000000e+00,5.000000000000000000e+00,5.000000000000000000e+00,5.000000000000000000e+00,5.000000000000000000e+00,5.000000000000000000e+00,5.000000000000000000e+00,5.000000000000000000e+00,5.000000000000000000e+00,5.000000000000000000e+00,4.859070301055908203e+00,4.668363094329833984e+00,4.492060184478759766e+00,4.328588962554931641e+00,4.176597595214843750e+00,4.034918785095214844e+00,3.902536392211914062e+00,3.778564214706420898e+00,3.662226438522338867e+00,3.552838325500488281e+00,3.449795484542846680e+00,3.352560997009277344e+00,3.260657787322998047e+00,3.173658847808837891e+00,3.091181516647338867e+00,3.012882709503173828e+00,2.938452243804931641e+00,2.867610692977905273e+00,2.800104379653930664e+00,2.735703468322753906e+00,2.674198150634765625e+00,2.615397930145263672e+00,2.559127569198608398e+00,2.505227565765380859e+00,2.453551292419433594e+00,2.403963804244995117e+00,2.356341123580932617e+00,2.310568094253540039e+00,2.266540050506591797e+00,2.224158525466918945e+00,2.183332681655883789e+00,2.143978595733642578e+00,2.106018066406250000e+00,2.069378376007080078e+00,2.033991813659667969e+00,1.999795198440551758e+00,1.966729402542114258e+00,1.934738993644714355e+00,1.903773069381713867e+00,1.873782396316528320e+00,1.844722151756286621e+00
5.000000000000000000e+00,5.000000000000000000e+00,5.000000000000000000e+00,5.000000000000000000e+00,5.000000000000000000e+00,5.000000000000000000e+00,5.000000000000000000e+00,5.000000000000000000e+00,5.000000000000000000e+00,5.000000000000000000e+00,5.000000000000000000e+00,5.000000000000000000e+00,5.000000000000000000e+00,5.000000000000000000e+00,5.000000000000000000e+00,5.000000000000000000e+00,5.000000000000000000e+00,5.000000000000000000e+00,5.000000000000000000e+00,5.000000000000000000e+00,5.000000000000000000e+00,5.000000000000000000e+00,5.000000000000000000e+00,5.000000000000000000e+00,5.000000000000000000e+00,5.000000000000000000e+00,5.000000000000000000e+00,5.000000000000000000e+00,5.000000000000000000e+00,5.000000000000000000e+00,5.000000000000000000e+00,5.000000000000000000e+00,5.000000000000000000e+00,5.000000000000000000e+00,5.000000000000000000e+00,5.000000000000000000e+00,5.000000000000000000e+00,5.000000000000000000e+00,5.000000000000000000e+00,4.859208106994628906e+00,4.668490886688232422e+00,4.492178440093994141e+00,4.328698635101318359e+00,4.176700115203857422e+00,4.035013675689697266e+00,3.902625322341918945e+00,3.778647661209106445e+00,3.662304878234863281e+00,3.552912235260009766e+00,3.449864864349365234e+00,3.352627038955688477e+00,3.260720014572143555e+00,3.173717737197875977e+00,3.091237306594848633e+00,3.012935638427734375e+00,2.938502550125122070e+00,2.867658853530883789e+00,2.800150394439697266e+00,2.735747098922729492e+00,2.674240112304687500e+00,2.615437746047973633e+00,2.559165954589843750e+00,2.505264282226562500e+00,2.453586578369140625e+00,2.403997659683227539e+00,2.356373548507690430e+00,2.310599565505981445e+00,2.266570091247558594e+00,2.224187374114990234e+00,2.183360338211059570e+00,2.144005298614501953e+00,2.106043815612792969e+00,2.069403409957885742e+00,2.034016132354736328e+00,1.999818563461303711e+00,1.966751933097839355e+00,1.934760928153991699e+00,1.903794169425964355e+00,1.873802900314331055e+00,1.844741940498352051e+00
5.000000000000000000e+00,5.000000000000000000e+00,5.000000000000000000e+00,5.000000000000000000e+00,5.000000000000000000e+00,5.000000000000000000e+00,5.000000000000000000e+00,5.000000000000000000e+00,5.000000000000000000e+00,5.000000000000000000e+00,5.000000000000000000e+00,5.000000000000000000e+00,5.000000000000000000e+00,5.000000000000000000e+00,5.000000000000000000e+00,5.000000000000000000e+00,5.000000000000000000e+00,5.000000000000000000e+00,5.000000000000000000e+00,5.000000000000000000e+00,5.000000000000000000e+00,5.000000000000000000e+00,5.000000000000000000e+00,5.000000000000000000e+00,5.000000000000000000e+00,5.000000000000000000e+00,5.000000000000000000e+00,5.000000000000000000e+00,5.000000000000000000e+00,5.000000000000000000e+00,5.000000000000000000e+00,5.000000000000000000e+00,5.000000000000000000e+00,5.000000000000000000e+00,5.000000000000000000e+00,5.000000000000000000e+00,5.000000000000000000e+00,5.000000000000000000e+00,5.000000000000000000e+00,4.859346389770507812e+00,4.668618202209472656e+00,4.492296218872070312e+00,4.328808307647705078e+00,4.176801681518554688e+00,4.035109043121337891e+00,3.902714252471923828e+00,3.778731346130371094e+00,3.662383079528808594e+00,3.552986145019531250e+00,3.449934482574462891e+00,3.352692604064941406e+00,3.260782003402709961e+00,3.173776626586914062e+00,3.091293334960937500e+00,3.012988805770874023e+00,2.938553333282470703e+00,2.867706775665283203e+00,2.800196170806884766e+00,2.735790967941284180e+00,2.674282073974609375e+00,2.615478038787841797e+00,2.559204101562500000e+00,2.505300998687744141e+00,2.453621625900268555e+00,2.404031515121459961e+00,2.356405973434448242e+00,2.310630798339843750e+00,2.266600131988525391e+00,2.224216222763061523e+00,2.183388471603393555e+00,2.144032239913940430e+00,2.106070041656494141e+00,2.069428205490112305e+00,2.034040212631225586e+00,1.999841928482055664e+00,1.966774582862854004e+00,1.934782981872558594e+00,1.903815388679504395e+00,1.873823404312133789e+00,1.844761848449707031e+00
5.000000000000000000e+00,5.000000000000000000e+00,5.000000000000000000e+00,5.000000000000000000e+00,5.000000000000000000e+00,5.000000000000000000e+00,5.000000000000000000e+00,5.000000000000000000e+00,5.000000000000000000e+00,5.000000000000000000e+00,5.000000000000000000e+00,5.000000000000000000e+00,5.000000000000000000e+00,5.000000000000000000e+00,5.000000000000000000e+00,5.000000000000000000e+00,5.000000000000000000e+00,5.000000000000000000e+00,5.000000000000000000e+00,5.000000000000000000e+00,5.000000000000000000e+00,5.000000000000000000e+00,5.000000000000000000e+00,5.000000000000000000e+00,5.000000000000000000e+00,5.000000000000000000e+00,5.000000000000000000e+00,5.000000000000000000e+00,5.000000000000000000e+00,5.000000000000000000e+00,5.000000000000000000e+00,5.000000000000000000e+00,5.000000000000000000e+00,5.000000000000000000e+00,5.000000000000000000e+00,5.000000000000000000e+00,5.000000000000000000e+00,5.000000000000000000e+00,5.000000000000000000e+00,4.859484672546386719e+00,4.668745517730712891e+00,4.492414474487304688e+00,4.328917980194091797e+00,4.176904201507568359e+00,4.035203933715820312e+00,3.902803182601928711e+00,3.778814792633056641e+00,3.662461519241333008e+00,3.553059816360473633e+00,3.450004339218139648e+00,3.352758169174194336e+00,3.260844469070434570e+00,3.173835515975952148e+00,3.091349124908447266e+00,3.013041734695434570e+00,2.938603878021240234e+00,2.867755174636840820e+00,2.800241947174072266e+00,2.735834836959838867e+00,2.674323797225952148e+00,2.615517854690551758e+00,2.559242486953735352e+00,2.505337715148925781e+00,2.453656911849975586e+00,2.404065132141113281e+00,2.356438636779785156e+00,2.310662031173706055e+00,2.266630172729492188e+00,2.224245071411132812e+00,2.183416128158569336e+00,2.144059181213378906e+00,2.106095790863037109e+00,2.069453477859497070e+00,2.034064292907714844e+00,1.999865293502807617e+00,1.966797113418579102e+00,1.934804797172546387e+00,1.903836607933044434e+00,1.873844027519226074e+00,1.844781756401062012e+00
5.000000000000000000e+00,5.000000000000000000e+00,5.000000000000000000e+00,5.000000000000000000e+00,5.000000000000000000e+00,5.000000000000000000e+00,5.000000000000000000e+00,5.000000000000000000e+00,5.000000000000000000e+00,5.000000000000000000e+00,5.000000000000000000e+00,5.000000000000000000e+00,5.000000000000000000e+00,5.000000000000000000e+00,5.000000000000000000e+00,5.000000000000000000e+00,5.000000000000000000e+00,5.000000000000000000e+00,5.000000000000000000e+00,5.000000000000000000e+00,5.000000000000000000e+00,5.000000000000000000e+00,5.000000000000000000e+00,5.000000000000000000e+00,5.000000000000000000e+00,5.000000000000000000e+00,5.000000000000000000e+00,5.000000000000000000e+00,5.000000000000000000e+00,5.000000000000000000e+00,5.000000000000000000e+00,5.000000000000000000e+00,5.000000000000000000e+00,5.000000000000000000e+00,5.000000000000000000e+00,5.000000000000000000e+00,5.000000000000000000e+00,5.000000000000000000e+00,5.000000000000000000e+00,4.859622955322265625e+00,4.668872833251953125e+00,4.492532730102539062e+00,4.329027652740478516e+00,4.177005767822265625e+00,4.035299301147460938e+00,3.902892589569091797e+00,3.778898239135742188e+00,3.662540197372436523e+00,3.553133487701416016e+00,3.450073957443237305e+00,3.352823972702026367e+00,3.260906696319580078e+00,3.173894643783569336e+00,3.091405153274536133e+00,3.013095140457153320e+00,2.938654184341430664e+00,2.867803096771240234e+00,2.800287961959838867e+00,2.735878467559814453e+00,2.674365520477294922e+00,2.615557909011840820e+00,2.559280872344970703e+00,2.505374431610107422e+00,2.453692197799682617e+00,2.404098987579345703e+00,2.356471061706542969e+00,2.310693025588989258e+00,2.266660213470458984e+00,2.224274158477783203e+00,2.183444023132324219e+00,2.144086122512817383e+00,2.106121778488159180e+00,2.069478511810302734e+00,2.034088611602783203e+00,1.999888658523559570e+00,1.966819763183593750e+00,1.934826731681823730e+00,1.903857707977294922e+00,1.873864531517028809e+00,1.844801783561706543e+00
5.000000000000000000e+00,5.000000000000000000e+00,5.000000000000000000e+00,5.000000000000000000e+00,5.000000000000000000e+00,5.000000000000000000e+00,5.000000000000000000e+00,5.000000000000000000e+00,5.000000000000000000e+00,5.000000000000000000e+00,5.000000000000000000e+00,5.000000000000000000e+00,5.000000000000000000e+00,5.000000000000000000e+00,5.000000000000000000e+00,5.000000000000000000e+00,5.000000000000000000e+00,5.000000000000000000e+00,5.000000000000000000e+00,5.000000000000000000e+00,5.000000000000000000e+00,5.000000000000000000e+00,5.000000000000000000e+00,5.000000000000000000e+00,5.000000000000000000e+00,5.000000000000000000e+00,5.000000000000000000e+00,5.000000000000000000e+00,5.000000000000000000e+00,5.000000000000000000e+00,5.000000000000000000e+00,5.000000000000000000e+00,5.000000000000000000e+00,5.000000000000000000e+00,5.000000000000000000e+00,5.000000000000000000e+00,5.000000000000000000e+00,5.000000000000000000e+00,5.000000000000000000e+00,4.859760761260986328e+00,4.669000625610351562e+00,4.492650508880615234e+00,4.329137325286865234e+00,4.177108287811279297e+00,4.035394668579101562e+00,3.902981519699096680e+00,3.778981685638427734e+00,3.662618637084960938e+00,3.553207635879516602e+00,3.450143337249755859e+00,3.352890014648437500e+00,3.260968685150146484e+00,3.173953294754028320e+00,3.091460943222045898e+00,3.013148069381713867e+00,2.938704729080200195e+00,2.867851257324218750e+00,2.800333976745605469e+00,2.735922336578369141e+00,2.674407482147216797e+00,2.615597963333129883e+00,2.559319257736206055e+00,2.505411148071289062e+00,2.453727245330810547e+00,2.404132843017578125e+00,2.356503486633300781e+00,2.310724496841430664e+00,2.266690254211425781e+00,2.224303007125854492e+00,2.183471918106079102e+00,2.144112825393676758e+00,2.106147766113281250e+00,2.069503545761108398e+00,2.034112930297851562e+00,1.999912023544311523e+00,1.966842532157897949e+00,1.934848546981811523e+00,1.903878927230834961e+00,1.873885035514831543e+00,1.844821691513061523e+00
5.000000000000000000e+00,5.000000000000000000e+00,5.000000000000000000e+00,5.000000000000000000e+00,5.000000000000000000e+00,5.000000000000000000e+00,5.000000000000000000e+00,5.000000000000000000e+00,5.000000000000000000e+00,5.000000000000000000e+00,5.000000000000000000e+00,5.000000000000000000e+00,5.000000000000000000e+00,5.000000000000000000e+00,5.000000000000000000e+00,5.000000000000000000e+00,5.000000000000000000e+00,5.000000000000000000e+00,5.000000000000000000e+00,5.000000000000000000e+00,5.000000000000000000e+00,5.000000000000000000e+00,5.000000000000000000e+00,5.000000000000000000e+00,5.000000000000000000e+00,5.000000000000000000e+00,5.000000000000000000e+00,5.000000000000000000e+00,5.000000000000000000e+00,5.000000000000000000e+00,5.000000000000000000e+00,5.000000000000000000e+00,5.000000000000000000e+00,5.000000000000000000e+00,5.000000000000000000e+00,5.000000000000000000e+00,5.000000000000000000e+00,5.000000000000000000e+00,5.000000000000000000e+00,4.859899044036865234e+00,4.669127941131591797e+00,4.492768764495849609e+00,4.329246520996093750e+00,4.177209854125976562e+00,4.035490036010742188e+00,3.903070449829101562e+00,3.779065370559692383e+00,3.662696838378906250e+00,3.553281307220458984e+00,3.450212955474853516e+00,3.352955579757690430e+00,3.261030912399291992e+00,3.174012184143066406e+00,3.091516971588134766e+00,3.013200998306274414e+00,2.938755273818969727e+00,2.867899179458618164e+00,2.800379753112792969e+00,2.735965967178344727e+00,2.674449205398559570e+00,2.615638017654418945e+00,2.559357404708862305e+00,2.505447864532470703e+00,2.453762531280517578e+00,2.404166698455810547e+00,2.356535911560058594e+00,2.310755729675292969e+00,2.266720294952392578e+00,2.224331855773925781e+00,2.183499813079833984e+00,2.144139766693115234e+00,2.106173753738403320e+00,2.069528579711914062e+00,2.034137010574340820e+00,1.999935388565063477e+00,1.966865181922912598e+00,1.934870481491088867e+00,1.903900027275085449e+00,1.873905658721923828e+00,1.844841599464416504e+00
5.000000000000000000e+00,5.000000000000000000e+00,5.000000000000000000e+00,5.000000000000000000e+00,5.000000000000000000e+00,5.000000000000000000e+00,5.000000000000000000e+00,5.000000000000000000e+00,5.000000000000000000e+00,5.000000000000000000e+00,5.000000000000000000e+00,5.000000000000000000e+00,5.000000000000000000e+00,5.000000000000000000e+00,5.000000000000000000e+00,5.000000000000000000e+00,5.000000000000000000e+00,5.000000000000000000e+00,5.000000000000000000e+00,5.000000000000000000e+00,5.000000000000000000e+00,5.000000000000000000e+00,5.000000000000000000e+00,5.000000000000000000e+00,5.000000000000000000e+00,5.000000000000000000e+00,5.000000000000000000e+00,5.000000000000000000e+00,5.000000000000000000e+00,5.000000000000000000e+00,5.000000000000000000e+00,5.000000000000000000e+00,5.000000000000000000e+00,5.000000000000000000e+00,5.000000000000000000e+00,5.000000000000000000e+00,5.000000000000000000e+00,5.000000000000000000e+00,5.000000000000000000e+00,4.860036849975585938e+00,4.669255733489990234e+00,4.492887020111083984e+00,4.329356670379638672e+00,4.177312374114990234e+00,4.035584926605224609e+00,3.903159618377685547e+00,3.779148817062377930e+00,3.662775278091430664e+00,3.553355216979980469e+00,3.450282812118530273e+00,3.353021383285522461e+00,3.261093139648437500e+00,3.174071073532104492e+00,3.091572761535644531e+00,3.013254165649414062e+00,2.938805818557739258e+00,2.867947578430175781e+00,2.800425529479980469e+00,2.736010074615478516e+00,2.674491167068481445e+00,2.615678071975708008e+00,2.559395790100097656e+00,2.505484580993652344e+00,2.453797578811645508e+00,2.404200315475463867e+00,2.356568336486816406e+00,2.310786724090576172e+00,2.266750335693359375e+00,2.224360942840576172e+00,2.183527708053588867e+00,2.144166707992553711e+00,2.106199741363525391e+00,2.069553613662719727e+00,2.034161090850830078e+00,1.999958992004394531e+00,1.966887831687927246e+00,1.934892296791076660e+00,1.903921246528625488e+00,1.873926281929016113e+00,1.844861507415771484e+00
5.000000000000000000e+00,5.000000000000000000e+00,5.000000000000000000e+00,5.000000000000000000e+00,5.000000000000000000e+00,5.000000000000000000e+00,5.000000000000000000e+00,5.000000000000000000e+00,5.000000000000000000e+00,5.000000000000000000e+00,5.000000000000000000e+00,5.000000000000000000e+00,5.000000000000000000e+00,5.000000000000000000e+00,5.000000000000000000e+00,5.000000000000000000e+00,5.000000000000000000e+00,5.000000000000000000e+00,5.000000000000000000e+00,5.000000000000000000e+00,5.000000000000000000e+00,5.000000000000000000e+00,5.000000000000000000e+00,5.000000000000000000e+00,5.000000000000000000e+00,5.000000000000000000e+00,5.000000000000000000e+00,5.000000000000000000e+00,5.000000000000000000e+00,5.000000000000000000e+00,5.000000000000000000e+00,5.000000000000000000e+00,5.000000000000000000e+00,5.000000000000000000e+00,5.000000000000000000e+00,5.000000000000000000e+00,5.000000000000000000e+00,5.000000000000000000e+00,5.000000000000000000e+00,4.860175132751464844e+00,4.669383049011230469e+00,4.493004798889160156e+00,4.329465866088867188e+00,4.177414417266845703e+00,4.035680294036865234e+00,3.903249025344848633e+00,3.779232263565063477e+00,3.662854194641113281e+00,3.553428888320922852e+00,3.450352430343627930e+00,3.353086948394775391e+00,3.261155366897583008e+00,3.174130201339721680e+00,3.091628551483154297e+00,3.013307332992553711e+00,2.938856363296508789e+00,2.867995500564575195e+00,2.800471305847167969e+00,2.736053705215454102e+00,2.674532890319824219e+00,2.615717887878417969e+00,2.559434175491333008e+00,2.505521297454833984e+00,2.453833103179931641e+00,2.404234170913696289e+00,2.356600761413574219e+00,2.310817956924438477e+00,2.266780376434326172e+00,2.224389791488647461e+00,2.183555603027343750e+00,2.144193649291992188e+00,2.106225490570068359e+00,2.069578647613525391e+00,2.034185409545898438e+00,1.999982357025146484e+00,1.966910362243652344e+00,1.934914112091064453e+00,1.903942584991455078e+00,1.873946785926818848e+00,1.844881415367126465e+00
5.000000000000000000e+00,5.000000000000000000e+00,5.000000000000000000e+00,5.000000000000000000e+00,5.000000000000000000e+00,5.000000000000000000e+00,5.000000000000000000e+00,5.000000000000000000e+00,5.000000000000000000e+00,5.000000000000000000e+00,5.000000000000000000e+00,5.000000000000000000e+00,5.000000000000000000e+00,5.000000000000000000e+00,5.000000000000000000e+00,5.000000000000000000e+00,5.000000000000000000e+00,5.000000000000000000e+00,5.000000000000000000e+00,5.000000000000000000e+00,5.000000000000000000e+00,5.000000000000000000e+00,5.000000000000000000e+00,5.000000000000000000e+00,5.000000000000000000e+00,5.000000000000000000e+00,5.000000000000000000e+00,5.000000000000000000e+00,5.000000000000000000e+00,5.000000000000000000e+00,5.000000000000000000e+00,5.000000000000000000e+00,5.000000000000000000e+00,5.000000000000000000e+00,5.000000000000000000e+00,5.000000000000000000e+00,5.000000000000000000e+00,5.000000000000000000e+00,5.000000000000000000e+00,4.860313415527343750e+00,4.669510841369628906e+00,4.493123054504394531e+00,4.329575538635253906e+00,4.177516460418701172e+00,4.035775661468505859e+00,3.903337955474853516e+00,3.779315710067749023e+00,3.662932395935058594e+00,3.553503036499023438e+00,3.450421810150146484e+00,3.353152990341186523e+00,3.261217594146728516e+00,3.174189090728759766e+00,3.091684579849243164e+00,3.013360500335693359e+00,2.938906669616699219e+00,2.868043661117553711e+00,2.800517320632934570e+00,2.736097335815429688e+00,2.674574851989746094e+00,2.615757942199707031e+00,2.559472322463989258e+00,2.505558013916015625e+00,2.453868150711059570e+00,2.404268026351928711e+00,2.356633424758911133e+00,2.310849428176879883e+00,2.266810417175292969e+00,2.224418878555297852e+00,2.183583498001098633e+00,2.144220590591430664e+00,2.106251478195190430e+00,2.069603681564331055e+00,2.034209728240966797e+00,2.000005722045898438e+00,1.966933012008666992e+00,1.934936046600341797e+00,1.903963804244995117e+00,1.873967289924621582e+00,1.844901204109191895e+00
5.000000000000000000e+00,5.000000000000000000e+00,5.000000000000000000e+00,5.000000000000000000e+00,5.000000000000000000e+00,5.000000000000000000e+00,5.000000000000000000e+00,5.000000000000000000e+00,5.000000000000000000e+00,5.000000000000000000e+00,5.000000000000000000e+00,5.000000000000000000e+00,5.000000000000000000e+00,5.000000000000000000e+00,5.000000000000000000e+00,5.000000000000000000e+00,5.000000000000000000e+00,5.000000000000000000e+00,5.000000000000000000e+00,5.000000000000000000e+00,5.000000000000000000e+00,5.000000000000000000e+00,5.000000000000000000e+00,5.000000000000000000e+00,5.000000000000000000e+00,5.000000000000000000e+00,5.000000000000000000e+00,5.000000000000000000e+00,5.000000000000000000e+00,5.000000000000000000e+00,5.000000000000000000e+00,5.000000000000000000e+00,5.000000000000000000e+00,5.000000000000000000e+00,5.000000000000000000e+00,5.000000000000000000e+00,5.000000000000000000e+00,5.000000000000000000e+00,5.000000000000000000e+00,4.860462665557861328e+00,4.669638156890869141e+00,4.493240833282470703e+00,4.329685211181640625e+00,4.177618503570556641e+00,4.035870552062988281e+00,3.903426885604858398e+00,3.779399633407592773e+00,3.663010835647583008e+00,3.553576707839965820e+00,3.450491428375244141e+00,3.353218555450439453e+00,3.261279582977294922e+00,3.174247980117797852e+00,3.091740608215332031e+00,3.013413429260253906e+00,2.938957452774047852e+00,2.868091583251953125e+00,2.800563097000122070e+00,2.736141204833984375e+00,2.674616575241088867e+00,2.615797996520996094e+00,2.559510707855224609e+00,2.505594730377197266e+00,2.453903436660766602e+00,2.404301881790161133e+00,2.356665849685668945e+00,2.310880661010742188e+00,2.266840457916259766e+00,2.224447727203369141e+00,2.183611392974853516e+00,2.144247293472290039e+00,2.106277465820312500e+00,2.069628715515136719e+00,2.034233808517456055e+00,2.000029087066650391e+00,1.966955542564392090e+00,1.934957861900329590e+00,1.903985023498535156e+00,1.873987793922424316e+00,1.844921112060546875e+00
5.000000000000000000e+00,5.000000000000000000e+00,5.000000000000000000e+00,5.000000000000000000e+00,5.000000000000000000e+00,5.000000000000000000e+00,5.000000000000000000e+00,5.000000000000000000e+00,5.000000000000000000e+00,5.000000000000000000e+00,5.000000000000000000e+00,5.000000000000000000e+00,5.000000000000000000e+00,5.000000000000000000e+00,5.000000000000000000e+00,5.000000000000000000e+00,5.000000000000000000e+00,5.000000000000000000e+00,5.000000000000000000e+00,5.000000000000000000e+00,5.000000000000000000e+00,5.000000000000000000e+00,5.000000000000000000e+00,5.000000000000000000e+00,5.000000000000000000e+00,5.000000000000000000e+00,5.000000000000000000e+00,5.000000000000000000e+00,5.000000000000000000e+00,5.000000000000000000e+00,5.000000000000000000e+00,5.000000000000000000e+00,5.000000000000000000e+00,5.000000000000000000e+00,5.000000000000000000e+00,5.000000000000000000e+00,5.000000000000000000e+00,5.000000000000000000e+00,5.000000000000000000e+00,4.860634803771972656e+00,4.669764995574951172e+00,4.493359088897705078e+00,4.329794883728027344e+00,4.177720546722412109e+00,4.035965919494628906e+00,3.903516054153442383e+00,3.779483079910278320e+00,3.663089275360107422e+00,3.553650617599487305e+00,3.450561285018920898e+00,3.353284358978271484e+00,3.261342048645019531e+00,3.174306869506835938e+00,3.091796398162841797e+00,3.013466596603393555e+00,2.939007997512817383e+00,2.868139743804931641e+00,2.800608873367309570e+00,2.736185073852539062e+00,2.674658536911010742e+00,2.615838050842285156e+00,2.559548854827880859e+00,2.505631446838378906e+00,2.453938484191894531e+00,2.404335737228393555e+00,2.356698274612426758e+00,2.310911655426025391e+00,2.266870498657226562e+00,2.224476575851440430e+00,2.183639287948608398e+00,2.144274234771728516e+00,2.106303453445434570e+00,2.069653749465942383e+00,2.034257888793945312e+00,2.000052452087402344e+00,1.966978192329406738e+00,1.934980034828186035e+00,1.904006123542785645e+00,1.874008297920227051e+00,1.844941020011901855e+00
5.000000000000000000e+00,5.000000000000000000e+00,5.000000000000000000e+00,5.000000000000000000e+00,5.000000000000000000e+00,5.000000000000000000e+00,5.000000000000000000e+00,5.000000000000000000e+00,5.000000000000000000e+00,5.000000000000000000e+00,5.000000000000000000e+00,5.000000000000000000e+00,5.000000000000000000e+00,5.000000000000000000e+00,5.000000000000000000e+00,5.000000000000000000e+00,5.000000000000000000e+00,5.000000000000000000e+00,5.000000000000000000e+00,5.000000000000000000e+00,5.000000000000000000e+00,5.000000000000000000e+00,5.000000000000000000e+00,5.000000000000000000e+00,5.000000000000000000e+00,5.000000000000000000e+00,5.000000000000000000e+00,5.000000000000000000e+00,5.000000000000000000e+00,5.000000000000000000e+00,5.000000000000000000e+00,5.000000000000000000e+00,5.000000000000000000e+00,5.000000000000000000e+00,5.000000000000000000e+00,5.000000000000000000e+00,5.000000000000000000e+00,5.000000000000000000e+00,5.000000000000000000e+00,4.860806941986083984e+00,4.669923782348632812e+00,4.493476867675781250e+00,4.329904556274414062e+00,4.177822589874267578e+00,4.036061286926269531e+00,3.903605461120605469e+00,3.779566526412963867e+00,3.663167953491210938e+00,3.553724288940429688e+00,3.450630903244018555e+00,3.353349924087524414e+00,3.261404275894165039e+00,3.174365758895874023e+00,3.091852188110351562e+00,3.013519763946533203e+00,2.939058303833007812e+00,2.868187904357910156e+00,2.800654888153076172e+00,2.736228942871093750e+00,2.674700260162353516e+00,2.615878105163574219e+00,2.559587478637695312e+00,2.505668163299560547e+00,2.453974008560180664e+00,2.404369354248046875e+00,2.356730699539184570e+00,2.310942888259887695e+00,2.266900539398193359e+00,2.224505424499511719e+00,2.183667182922363281e+00,2.144301176071166992e+00,2.106329441070556641e+00,2.069678783416748047e+00,2.034282207489013672e+00,2.000075817108154297e+00,1.967000722885131836e+00,1.935001850128173828e+00,1.904027342796325684e+00,1.874028801918029785e+00,1.844961047172546387e+00
5.000000000000000000e+00,5.000000000000000000e+00,5.000000000000000000e+00,5.000000000000000000e+00,5.000000000000000000e+00,5.000000000000000000e+00,5.000000000000000000e+00,5.000000000000000000e+00,5.000000000000000000e+00,5.000000000000000000e+00,5.000000000000000000e+00,5.000000000000000000e+00,5.000000000000000000e+00,5.000000000000000000e+00,5.000000000000000000e+00,5.000000000000000000e+00,5.000000000000000000e+00,5.000000000000000000e+00,5.000000000000000000e+00,5.000000000000000000e+00,5.000000000000000000e+00,5.000000000000000000e+00,5.000000000000000000e+00,5.000000000000000000e+00,5.000000000000000000e+00,5.000000000000000000e+00,5.000000000000000000e+00,5.000000000000000000e+00,5.000000000000000000e+00,5.000000000000000000e+00,5.000000000000000000e+00,5.000000000000000000e+00,5.000000000000000000e+00,5.000000000000000000e+00,5.000000000000000000e+00,5.000000000000000000e+00,5.000000000000000000e+00,5.000000000000000000e+00,5.000000000000000000e+00,4.860979080200195312e+00,4.670083045959472656e+00,4.493613719940185547e+00,4.330014228820800781e+00,4.177924633026123047e+00,4.036156654357910156e+00,3.903694391250610352e+00,3.779649972915649414e+00,3.663246393203735352e+00,3.553798198699951172e+00,3.450700521469116211e+00,3.353415966033935547e+00,3.261466264724731445e+00,3.174424886703491211e+00,3.091908216476440430e+00,3.013572931289672852e+00,2.939108848571777344e+00,2.868236064910888672e+00,2.800700902938842773e+00,2.736272573471069336e+00,2.674742221832275391e+00,2.615917921066284180e+00,2.559625625610351562e+00,2.505704879760742188e+00,2.454009056091308594e+00,2.404403209686279297e+00,2.356763362884521484e+00,2.310974359512329102e+00,2.266930580139160156e+00,2.224534511566162109e+00,2.183695077896118164e+00,2.144328117370605469e+00,2.106355190277099609e+00,2.069703817367553711e+00,2.034306526184082031e+00,2.000099182128906250e+00,1.967023611068725586e+00,1.935023784637451172e+00,1.904048562049865723e+00,1.874049305915832520e+00,1.844980955123901367e+00
5.000000000000000000e+00,5.000000000000000000e+00,5.000000000000000000e+00,5.000000000000000000e+00,5.000000000000000000e+00,5.000000000000000000e+00,5.000000000000000000e+00,5.000000000000000000e+00,5.000000000000000000e+00,5.000000000000000000e+00,5.000000000000000000e+00,5.000000000000000000e+00,5.000000000000000000e+00,5.000000000000000000e+00,5.000000000000000000e+00,5.000000000000000000e+00,5.000000000000000000e+00,5.000000000000000000e+00,5.000000000000000000e+00,5.000000000000000000e+00,5.000000000000000000e+00,5.000000000000000000e+00,5.000000000000000000e+00,5.000000000000000000e+00,5.000000000000000000e+00,5.000000000000000000e+00,5.000000000000000000e+00,5.000000000000000000e+00,5.000000000000000000e+00,5.000000000000000000e+00,5.000000000000000000e+00,5.000000000000000000e+00,5.000000000000000000e+00,5.000000000000000000e+00,5.000000000000000000e+00,5.000000000000000000e+00,5.000000000000000000e+00,5.000000000000000000e+00,5.000000000000000000e+00,4.861151695251464844e+00,4.670242309570312500e+00,4.493761062622070312e+00,4.330132007598876953e+00,4.178026676177978516e+00,4.036252021789550781e+00,3.903783559799194336e+00,3.779733896255493164e+00,3.663324832916259766e+00,3.553872346878051758e+00,3.450769901275634766e+00,3.353481769561767578e+00,3.261528491973876953e+00,3.174483776092529297e+00,3.091964244842529297e+00,3.013625860214233398e+00,2.939159631729125977e+00,2.868283987045288086e+00,2.800746679306030273e+00,2.736316204071044922e+00,2.674783945083618164e+00,2.615957975387573242e+00,2.559664011001586914e+00,2.505741596221923828e+00,2.454044342041015625e+00,2.404437065124511719e+00,2.356795787811279297e+00,2.311005592346191406e+00,2.266960620880126953e+00,2.224563360214233398e+00,2.183722972869873047e+00,2.144354820251464844e+00,2.106381416320800781e+00,2.069728851318359375e+00,2.034330606460571289e+00,2.000122547149658203e+00,1.967046260833740234e+00,1.935045599937438965e+00,1.904069662094116211e+00,1.874070048332214355e+00,1.845000863075256348e+00
5.000000000000000000e+00,5.000000000000000000e+00,5.000000000000000000e+00,5.000000000000000000e+00,5.000000000000000000e+00,5.000000000000000000e+00,5.000000000000000000e+00,5.000000000000000000e+00,5.000000000000000000e+00,5.000000000000000000e+00,5.000000000000000000e+00,5.000000000000000000e+00,5.000000000000000000e+00,5.000000000000000000e+00,5.000000000000000000e+00,5.000000000000000000e+00,5.000000000000000000e+00,5.000000000000000000e+00,5.000000000000000000e+00,5.000000000000000000e+00,5.000000000000000000e+00,5.000000000000000000e+00,5.000000000000000000e+00,5.000000000000000000e+00,5.000000000000000000e+00,5.000000000000000000e+00,5.000000000000000000e+00,5.000000000000000000e+00,5.000000000000000000e+00,5.000000000000000000e+00,5.000000000000000000e+00,5.000000000000000000e+00,5.000000000000000000e+00,5.000000000000000000e+00,5.000000000000000000e+00,5.000000000000000000e+00,5.000000000000000000e+00,5.000000000000000000e+00,5.000000000000000000e+00,4.861323833465576172e+00,4.670401096343994141e+00,4.493908405303955078e+00,4.330268859863281250e+00,4.178128719329833984e+00,4.036347389221191406e+00,3.903872489929199219e+00,3.779817342758178711e+00,3.663403034210205078e+00,3.553946018218994141e+00,3.450839996337890625e+00,3.353547334671020508e+00,3.261590957641601562e+00,3.174542665481567383e+00,3.092020034790039062e+00,3.013679027557373047e+00,2.939209938049316406e+00,2.868332147598266602e+00,2.800792455673217773e+00,2.736360311508178711e+00,2.674825906753540039e+00,2.615998268127441406e+00,2.559702157974243164e+00,2.505778312683105469e+00,2.454079389572143555e+00,2.404470920562744141e+00,2.356828212738037109e+00,2.311036825180053711e+00,2.266990900039672852e+00,2.224592447280883789e+00,2.183750867843627930e+00,2.144381761550903320e+00,2.106407165527343750e+00,2.069753885269165039e+00,2.034354925155639648e+00,2.000146150588989258e+00,1.967068791389465332e+00,1.935067534446716309e+00,1.904090881347656250e+00,1.874090552330017090e+00,1.845020771026611328e+00
4.874227523803710938e+00,4.873030185699462891e+00,4.871832847595214844e+00,4.870636463165283203e+00,4.869441032409667969e+00,4.868246078491210938e+00,4.867051124572753906e+00,4.865857601165771484e+00,4.864664077758789062e+00,4.863471031188964844e+00,4.862278938293457031e+00,4.861087322235107422e+00,4.859896183013916016e+00,4.858705997467041016e+00,4.857516288757324219e+00,4.856326580047607422e+00,4.855138301849365234e+00,4.853950023651123047e+00,4.852762222290039062e+00,4.851575374603271484e+00,4.850389480590820312e+00,4.849203109741210938e+00,4.848018169403076172e+00,4.846833705902099609e+00,4.845649719238281250e+00,4.844466209411621094e+00,4.843283176422119141e+00,4.842101097106933594e+00,4.840919017791748047e+00,4.839737892150878906e+00,4.838557243347167969e+00,4.837377071380615234e+00,4.836197853088378906e+00,4.835019111633300781e+00,4.833840370178222656e+00,4.832663059234619141e+00,4.831485748291015625e+00,4.830308914184570312e+00,4.829133033752441406e+00,4.827957630157470703e+00,4.670560359954833984e+00,4.494055747985839844e+00,4.330405712127685547e+00,4.178255081176757812e+00,4.036442279815673828e+00,3.903961896896362305e+00,3.779900789260864258e+00,3.663481950759887695e+00,3.554019689559936523e+00,3.450909376144409180e+00,3.353613138198852539e+00,3.261653184890747070e+00,3.174601316452026367e+00,3.092075824737548828e+00,3.013732433319091797e+00,2.939260482788085938e+00,2.868380546569824219e+00,2.800838232040405273e+00,2.736403942108154297e+00,2.674867630004882812e+00,2.616038084030151367e+00,2.559740781784057617e+00,2.505815029144287109e+00,2.454114913940429688e+00,2.404504537582397461e+00,2.356860637664794922e+00,2.311067819595336914e+00,2.267020940780639648e+00,2.224621295928955078e+00,2.183778762817382812e+00,2.144408702850341797e+00,2.106433153152465820e+00,2.069779157638549805e+00,2.034379005432128906e+00,2.000169515609741211e+00,1.967091441154479980e+00,1.935089349746704102e+00,1.904112219810485840e+00,1.874111056327819824e+00,1.845040678977966309e+00
3.777254581451416016e+00,3.776535034179687500e+00,3.775816440582275391e+00,3.775097846984863281e+00,3.774379253387451172e+00,3.773661375045776367e+00,3.772943496704101562e+00,3.772225856781005859e+00,3.771508932113647461e+00,3.770791769027709961e+00,3.770074844360351562e+00,3.769358634948730469e+00,3.768642425537109375e+00,3.767926454544067383e+00,3.767210960388183594e+00,3.766495466232299805e+00,3.765780210494995117e+00,3.765065908432006836e+00,3.764351129531860352e+00,3.763636589050292969e+00,3.762923002243041992e+00,3.762209177017211914e+00,3.761495351791381836e+00,3.760782480239868164e+00,3.760069608688354492e+00,3.759356737136840820e+00,3.758644580841064453e+00,3.757932424545288086e+00,3.757220745086669922e+00,3.756509065628051758e+00,3.755797624588012695e+00,3.755086898803710938e+00,3.754375934600830078e+00,3.753665447235107422e+00,3.752955436706542969e+00,3.752245426177978516e+00,3.751535654067993164e+00,3.750826358795166016e+00,3.750117063522338867e+00,3.749408006668090820e+00,3.748699665069580078e+00,3.747991323471069336e+00,3.747282981872558594e+00,3.746575593948364258e+00,3.745867729187011719e+00,3.745160341262817383e+00,3.744453668594360352e+00,3.663560390472412109e+00,3.554093599319458008e+00,3.450978994369506836e+00,3.353679180145263672e+00,3.261715173721313477e+00,3.174660682678222656e+00,3.092131853103637695e+00,3.013785362243652344e+00,2.939311027526855469e+00,2.868428468704223633e+00,2.800884485244750977e+00,2.736447811126708984e+00,2.674909591674804688e+00,2.616078138351440430e+00,2.559778928756713867e+00,2.505851745605468750e+00,2.454149961471557617e+00,2.404538393020629883e+00,2.356893301010131836e+00,2.311099290847778320e+00,2.267050981521606445e+00,2.224650382995605469e+00,2.183806657791137695e+00,2.144435644149780273e+00,2.106459140777587891e+00,2.069804191589355469e+00,2.034403324127197266e+00,2.000192880630493164e+00,1.967113971710205078e+00,1.935111284255981445e+00,1.904133439064025879e+00,1.874131560325622559e+00,1.845060467720031738e+00
3.083332538604736328e+00,3.082853317260742188e+00,3.082374572753906250e+00,3.081895351409912109e+00,3.081416606903076172e+00,3.080938100814819336e+00,3.080459594726562500e+00,3.079981088638305664e+00,3.079503059387207031e+00,3.079025030136108398e+00,3.078547000885009766e+00,3.078069448471069336e+00,3.077591896057128906e+00,3.077114343643188477e+00,3.076637268066406250e+00,3.076159954071044922e+00,3.075683116912841797e+00,3.075206041336059570e+00,3.074729442596435547e+00,3.074253082275390625e+00,3.073776483535766602e+00,3.073300123214721680e+00,3.072824239730834961e+00,3.072348117828369141e+00,3.071872234344482422e+00,3.071396827697753906e+00,3.070921182632446289e+00,3.070445537567138672e+00,3.069970607757568359e+00,3.069495439529418945e+00,3.069020509719848633e+00,3.068545818328857422e+00,3.068071126937866211e+00,3.067596435546875000e+00,3.067122459411621094e+00,3.066648006439208984e+00,3.066173791885375977e+00,3.065700292587280273e+00,3.065226316452026367e+00,3.064752817153930664e+00,3.064279556274414062e+00,3.063806056976318359e+00,3.063332796096801758e+00,3.062860012054443359e+00,3.062386989593505859e+00,3.061914205551147461e+00,3.061441659927368164e+00,3.060969114303588867e+00,3.060496807098388672e+00,3.060024738311767578e+00,3.059552669525146484e+00,3.059081077575683594e+00,3.058609247207641602e+00,3.058137655258178711e+00,3.013838529586791992e+00,2.939361572265625000e+00,2.868476629257202148e+00,2.800930261611938477e+00,2.736491441726684570e+00,2.674951314926147461e+00,2.616118192672729492e+00,2.559817314147949219e+00,2.505888700485229492e+00,2.454185247421264648e+00,2.404572248458862305e+00,2.356925725936889648e+00,2.311130523681640625e+00,2.267080783843994141e+00,2.224679231643676758e+00,2.183834552764892578e+00,2.144462585449218750e+00,2.106485128402709961e+00,2.069829225540161133e+00,2.034427404403686523e+00,2.000216245651245117e+00,1.967136621475219727e+00,1.935133099555969238e+00,1.904154658317565918e+00,1.874152064323425293e+00,1.845080375671386719e+00
2.604802608489990234e+00,2.604460716247558594e+00,2.604118824005126953e+00,2.603776931762695312e+00,2.603435277938842773e+00,2.603093385696411133e+00,2.602751731872558594e+00,2.602410554885864258e+00,2.602069139480590820e+00,2.601727724075317383e+00,2.601386547088623047e+00,2.601045370101928711e+00,2.600704193115234375e+00,2.600363492965698242e+00,2.600022554397583008e+00,2.599681615829467773e+00,2.599341154098510742e+00,2.599000453948974609e+00,2.598659753799438477e+00,2.598319530487060547e+00,2.597979307174682617e+00,2.597638845443725586e+00,2.597298860549926758e+00,2.596958875656127930e+00,2.596618652343750000e+00,2.596278905868530273e+00,2.595939159393310547e+00,2.595599412918090820e+00,2.595259904861450195e+00,2.594920396804809570e+00,2.594580888748168945e+00,2.594241619110107422e+00,2.593902349472045898e+00,2.593563079833984375e+00,2.593224048614501953e+00,2.592885017395019531e+00,2.592545986175537109e+00,2.592207431793212891e+00,2.591868638992309570e+00,2.591530084609985352e+00,2.591191530227661133e+00,2.590852975845336914e+00,2.590514659881591797e+00,2.590176343917846680e+00,2.589838027954101562e+00,2.589500188827514648e+00,2.589162111282348633e+00,2.588824033737182617e+00,2.588486433029174805e+00,2.588148593902587891e+00,2.587810754776000977e+00,2.587473392486572266e+00,2.587135791778564453e+00,2.586798429489135742e+00,2.586461067199707031e+00,2.586123943328857422e+00,2.585786581039428711e+00,2.585449695587158203e+00,2.585112810134887695e+00,2.584775686264038086e+00,2.584439039230346680e+00,2.559855461120605469e+00,2.505925178527832031e+00,2.454220294952392578e+00,2.404606103897094727e+00,2.356958150863647461e+00,2.311161756515502930e+00,2.267111063003540039e+00,2.224708080291748047e+00,2.183862447738647461e+00,2.144489288330078125e+00,2.106511116027832031e+00,2.069854259490966797e+00,2.034451723098754883e+00,2.000239610671997070e+00,1.967159271240234375e+00,1.935155153274536133e+00,1.904175758361816406e+00,1.874172568321228027e+00,1.845100283622741699e+00
2.254895448684692383e+00,2.254637241363525391e+00,2.254379272460937500e+00,2.254121065139770508e+00,2.253862857818603516e+00,2.253605127334594727e+00,2.253347158432006836e+00,2.253089427947998047e+00,2.252831459045410156e+00,2.252573728561401367e+00,2.252315998077392578e+00,2.252058506011962891e+00,2.251801013946533203e+00,2.251543521881103516e+00,2.251286029815673828e+00,2.251028537750244141e+00,2.250771284103393555e+00,2.250514030456542969e+00,2.250256776809692383e+00,2.249999761581420898e+00,2.249742507934570312e+00,2.249485492706298828e+00,2.249228477478027344e+00,2.248971939086914062e+00,2.248717069625854492e+00,2.248461961746215820e+00,2.248207092285156250e+00,2.247952461242675781e+00,2.247697591781616211e+00,2.247442960739135742e+00,2.247188329696655273e+00,2.246933698654174805e+00,2.246679306030273438e+00,2.246424913406372070e+00,2.246170520782470703e+00,2.245916128158569336e+00,2.245661973953247070e+00,2.245407581329345703e+00,2.245153427124023438e+00,2.244899272918701172e+00,2.244645357131958008e+00,2.244391202926635742e+00,2.244137525558471680e+00,2.243883609771728516e+00,2.243629693984985352e+00,2.243376016616821289e+00,2.243122339248657227e+00,2.242868661880493164e+00,2.242614984512329102e+00,2.242361545562744141e+00,2.242107868194580078e+00,2.241854667663574219e+00,2.241601228713989258e+00,2.241347789764404297e+00,2.241094827651977539e+00,2.240841627120971680e+00,2.240588426589965820e+00,2.240335464477539062e+00,2.240082263946533203e+00,2.239829301834106445e+00,2.239576578140258789e+00,2.239323616027832031e+00,2.239070892333984375e+00,2.238818168640136719e+00,2.238565444946289062e+00,2.238312959671020508e+00,2.238060235977172852e+00,2.237807750701904297e+00,2.224737167358398438e+00,2.183890342712402344e+00,2.144516229629516602e+00,2.106536865234375000e+00,2.069879293441772461e+00,2.034475803375244141e+00,2.000262975692749023e+00,1.967181801795959473e+00,1.935177087783813477e+00,1.904196977615356445e+00,1.874193191528320312e+00,1.845120429992675781e+00
1.987946152687072754e+00,1.987745523452758789e+00,1.987544775009155273e+00,1.987344264984130859e+00,1.987143754959106445e+00,1.986943244934082031e+00,1.986742496490478516e+00,1.986542105674743652e+00,1.986341714859008789e+00,1.986141324043273926e+00,1.985941052436828613e+00,1.985740780830383301e+00,1.985540509223937988e+00,1.985340356826782227e+00,1.985140204429626465e+00,1.984940171241760254e+00,1.984739899635314941e+00,1.984539866447448730e+00,1.984339833259582520e+00,1.984139800071716309e+00,1.983940005302429199e+00,1.983740091323852539e+00,1.983540296554565430e+00,1.983340501785278320e+00,1.983140826225280762e+00,1.982941031455993652e+00,1.982741355895996094e+00,1.982541561126708984e+00,1.982342004776000977e+00,1.982142448425292969e+00,1.981942892074584961e+00,1.981743454933166504e+00,1.981544017791748047e+00,1.981344699859619141e+00,1.981145381927490234e+00,1.980946063995361328e+00,1.980746746063232422e+00,1.980547308921813965e+00,1.980348110198974609e+00,1.980149030685424805e+00,1.979949831962585449e+00,1.979750871658325195e+00,1.979551792144775391e+00,1.979352831840515137e+00,1.979153871536254883e+00,1.978955030441284180e+00,1.978756070137023926e+00,1.978557109832763672e+00,1.978358268737792969e+00,1.978159546852111816e+00,1.977960824966430664e+00,1.977762222290039062e+00,1.977563500404357910e+00,1.977365016937255859e+00,1.977166414260864258e+00,1.976967930793762207e+00,1.976769447326660156e+00,1.976571083068847656e+00,1.976372361183166504e+00,1.976174116134643555e+00,1.975975751876831055e+00,1.975777506828308105e+00,1.975579261779785156e+00,1.975381135940551758e+00,1.975182890892028809e+00,1.974984884262084961e+00,1.974786758422851562e+00,1.974588751792907715e+00,1.974390506744384766e+00,1.974192619323730469e+00,1.973994612693786621e+00,1.973796844482421875e+00,1.973598957061767578e+00,1.973401188850402832e+00,1.973203420639038086e+00,1.967204689979553223e+00,1.935198903083801270e+00,1.904218196868896484e+00,1.874213695526123047e+00,1.845140218734741211e+00
1.777512550354003906e+00,1.777352094650268555e+00,1.777191758155822754e+00,1.777031183242797852e+00,1.776870846748352051e+00,1.776710510253906250e+00,1.776550173759460449e+00,1.776389956474304199e+00,1.776229739189147949e+00,1.776069521903991699e+00,1.775909304618835449e+00,1.775749206542968750e+00,1.775589108467102051e+00,1.775428771972656250e+00,1.775268793106079102e+00,1.775108695030212402e+00,1.774948716163635254e+00,1.774788737297058105e+00,1.774628758430480957e+00,1.774468898773193359e+00,1.774308919906616211e+00,1.774149060249328613e+00,1.773989319801330566e+00,1.773829460144042969e+00,1.773669481277465820e+00,1.773509740829467773e+00,1.773350000381469727e+00,1.773190379142761230e+00,1.773030757904052734e+00,1.772871017456054688e+00,1.772711515426635742e+00,1.772551894187927246e+00,1.772392392158508301e+00,1.772232770919799805e+00,1.772073149681091309e+00,1.771913647651672363e+00,1.771754264831542969e+00,1.771594882011413574e+00,1.771435499191284180e+00,1.771276116371154785e+00,1.771116852760314941e+00,1.770957589149475098e+00,1.770798325538635254e+00,1.770639061927795410e+00,1.770479679107666016e+00,1.770320534706115723e+00,1.770161390304565430e+00,1.770002245903015137e+00,1.769843101501464844e+00,1.769684076309204102e+00,1.769525051116943359e+00,1.769366025924682617e+00,1.769207119941711426e+00,1.769048094749450684e+00,1.768889188766479492e+00,1.768730163574218750e+00,1.768571257591247559e+00,1.768412470817565918e+00,1.768253684043884277e+00,1.768094897270202637e+00,1.767936110496520996e+00,1.767777442932128906e+00,1.767618775367736816e+00,1.767460107803344727e+00,1.767301440238952637e+00,1.767142653465270996e+00,1.766984105110168457e+00,1.766825556755065918e+00,1.766667008399963379e+00,1.766508579254150391e+00,1.766350150108337402e+00,1.766191720962524414e+00,1.766033291816711426e+00,1.765874862670898438e+00,1.765716552734375000e+00,1.765558123588562012e+00,1.765399813652038574e+00,1.765241622924804688e+00,1.765083312988281250e+00,1.764925122261047363e+00
1.607365131378173828e+00,1.607234001159667969e+00,1.607102751731872559e+00,1.606971621513366699e+00,1.606840491294860840e+00,1.606709361076354980e+00,1.606578350067138672e+00,1.606447219848632812e+00,1.606316208839416504e+00,1.606185197830200195e+00,1.606054067611694336e+00,1.605923056602478027e+00,1.605792045593261719e+00,1.605661153793334961e+00,1.605530261993408203e+00,1.605399370193481445e+00,1.605268478393554688e+00,1.605137586593627930e+00,1.605006814002990723e+00,1.604876041412353516e+00,1.604745030403137207e+00,1.604614257812500000e+00,1.604483485221862793e+00,1.604352831840515137e+00,1.604222059249877930e+00,1.604091405868530273e+00,1.603960752487182617e+00,1.603830099105834961e+00,1.603699445724487305e+00,1.603568911552429199e+00,1.603438377380371094e+00,1.603307604789733887e+00,1.603177070617675781e+00,1.603046536445617676e+00,1.602916121482849121e+00,1.602785587310791016e+00,1.602655172348022461e+00,1.602524757385253906e+00,1.602394342422485352e+00,1.602263927459716797e+00,1.602133631706237793e+00,1.602003097534179688e+00,1.601872801780700684e+00,1.601742506027221680e+00,1.601612210273742676e+00,1.601481914520263672e+00,1.601351737976074219e+00,1.601221561431884766e+00,1.601091384887695312e+00,1.600961208343505859e+00,1.600831031799316406e+00,1.600700736045837402e+00,1.600570678710937500e+00,1.600440502166748047e+00,1.600310444831848145e+00,1.600180387496948242e+00,1.600050449371337891e+00,1.599920392036437988e+00,1.599790334701538086e+00,1.599660396575927734e+00,1.599530458450317383e+00,1.599400520324707031e+00,1.599270462989807129e+00,1.599140644073486328e+00,1.599010825157165527e+00,1.598881006240844727e+00,1.598751187324523926e+00,1.598621368408203125e+00,1.598491549491882324e+00,1.598361849784851074e+00,1.598232150077819824e+00,1.598102450370788574e+00,1.597972512245178223e+00,1.597842931747436523e+00,1.597713232040405273e+00,1.597583651542663574e+00,1.597454071044921875e+00,1.597324490547180176e+00,1.597194910049438477e+00,1.597065329551696777e+00
1.466946005821228027e+00,1.466836690902709961e+00,1.466727495193481445e+00,1.466618180274963379e+00,1.466508984565734863e+00,1.466399788856506348e+00,1.466290593147277832e+00,1.466181278228759766e+00,1.466072082519531250e+00,1.465963006019592285e+00,1.465853810310363770e+00,1.465744733810424805e+00,1.465635657310485840e+00,1.465526580810546875e+00,1.465417504310607910e+00,1.465308427810668945e+00,1.465199470520019531e+00,1.465090274810791016e+00,1.464981317520141602e+00,1.464872241020202637e+00,1.464763283729553223e+00,1.464654326438903809e+00,1.464545488357543945e+00,1.464436531066894531e+00,1.464327573776245117e+00,1.464218735694885254e+00,1.464109897613525391e+00,1.464000940322875977e+00,1.463892102241516113e+00,1.463783264160156250e+00,1.463674426078796387e+00,1.463565587997436523e+00,1.463456869125366211e+00,1.463348150253295898e+00,1.463239431381225586e+00,1.463130593299865723e+00,1.463021993637084961e+00,1.462913274765014648e+00,1.462804436683654785e+00,1.462695837020874023e+00,1.462587118148803711e+00,1.462478518486022949e+00,1.462369918823242188e+00,1.462261319160461426e+00,1.462152719497680664e+00,1.462044239044189453e+00,1.461935639381408691e+00,1.461827158927917480e+00,1.461718559265136719e+00,1.461609959602355957e+00,1.461501479148864746e+00,1.461393117904663086e+00,1.461284637451171875e+00,1.461176156997680664e+00,1.461067795753479004e+00,1.460959434509277344e+00,1.460850954055786133e+00,1.460742592811584473e+00,1.460634112358093262e+00,1.460525870323181152e+00,1.460417509078979492e+00,1.460309147834777832e+00,1.460200905799865723e+00,1.460092663764953613e+00,1.459984421730041504e+00,1.459876179695129395e+00,1.459767937660217285e+00,1.459659695625305176e+00,1.459551572799682617e+00,1.459443211555480957e+00,1.459335088729858398e+00,1.459226965904235840e+00,1.459118843078613281e+00,1.459010720252990723e+00,1.458902597427368164e+00,1.458794474601745605e+00,1.458686470985412598e+00,1.458578348159790039e+00,1.458470344543457031e+00,1.458362221717834473e+00
1.349089622497558594e+00,1.348997235298156738e+00,1.348904848098754883e+00,1.348812460899353027e+00,1.348719954490661621e+00,1.348627567291259766e+00,1.348535180091857910e+00,1.348442912101745605e+00,1.348350524902343750e+00,1.348258256912231445e+00,1.348165988922119141e+00,1.348073601722717285e+00,1.347981333732604980e+00,1.347889065742492676e+00,1.347796678543090820e+00,1.347704529762268066e+00,1.347612261772155762e+00,1.347519993782043457e+00,1.347427845001220703e+00,1.347335696220397949e+00,1.347243547439575195e+00,1.347151279449462891e+00,1.347059130668640137e+00,1.346966981887817383e+00,1.346874833106994629e+00,1.346782684326171875e+00,1.346690535545349121e+00,1.346598505973815918e+00,1.346506357192993164e+00,1.346414327621459961e+00,1.346322298049926758e+00,1.346230268478393555e+00,1.346138238906860352e+00,1.346046209335327148e+00,1.345954179763793945e+00,1.345862030982971191e+00,1.345770120620727539e+00,1.345678091049194336e+00,1.345586180686950684e+00,1.345494270324707031e+00,1.345402359962463379e+00,1.345310449600219727e+00,1.345218539237976074e+00,1.345126628875732422e+00,1.345034718513488770e+00,1.344942688941955566e+00,1.344850897789001465e+00,1.344758987426757812e+00,1.344667196273803711e+00,1.344575405120849609e+00,1.344483613967895508e+00,1.344391822814941406e+00,1.344300031661987305e+00,1.344208240509033203e+00,1.344116449356079102e+00,1.344024658203125000e+00,1.343932867050170898e+00,1.343841195106506348e+00,1.343749523162841797e+00,1.343657851219177246e+00,1.343566179275512695e+00,1.343474507331848145e+00,1.343382835388183594e+00,1.343291163444519043e+00,1.343199491500854492e+00,1.343107938766479492e+00,1.343016147613525391e+00,1.342924594879150391e+00,1.342833042144775391e+00,1.342741489410400391e+00,1.342649936676025391e+00,1.342558383941650391e+00,1.342466831207275391e+00,1.342375278472900391e+00,1.342283844947814941e+00,1.342192292213439941e+00,1.342100739479064941e+00,1.342009305953979492e+00,1.341917753219604492e+00,1.341826319694519043e+00
1.248762488365173340e+00,1.248683333396911621e+00,1.248604059219360352e+00,1.248524904251098633e+00,1.248445749282836914e+00,1.248366594314575195e+00,1.248287439346313477e+00,1.248208403587341309e+00,1.248129248619079590e+00,1.248050093650817871e+00,1.247971057891845703e+00,1.247891902923583984e+00,1.247812747955322266e+00,1.247733712196350098e+00,1.247654676437377930e+00,1.247575640678405762e+00,1.247496604919433594e+00,1.247417569160461426e+00,1.247338533401489258e+00,1.247259497642517090e+00,1.247180581092834473e+00,1.247101426124572754e+00,1.247022509574890137e+00,1.246943473815917969e+00,1.246864557266235352e+00,1.246785640716552734e+00,1.246706724166870117e+00,1.246627807617187500e+00,1.246548891067504883e+00,1.246469974517822266e+00,1.246391057968139648e+00,1.246312022209167480e+00,1.246233224868774414e+00,1.246154308319091797e+00,1.246075391769409180e+00,1.245996594429016113e+00,1.245917797088623047e+00,1.245838999748229980e+00,1.245760083198547363e+00,1.245681285858154297e+00,1.245602488517761230e+00,1.245523691177368164e+00,1.245444893836975098e+00,1.245366096496582031e+00,1.245287299156188965e+00,1.245208621025085449e+00,1.245129823684692383e+00,1.245051145553588867e+00,1.244972467422485352e+00,1.244893670082092285e+00,1.244814991950988770e+00,1.244736313819885254e+00,1.244657516479492188e+00,1.244578838348388672e+00,1.244500279426574707e+00,1.244421601295471191e+00,1.244342923164367676e+00,1.244264364242553711e+00,1.244185686111450195e+00,1.244107127189636230e+00,1.244028449058532715e+00,1.243949890136718750e+00,1.243871212005615234e+00,1.243792653083801270e+00,1.243714094161987305e+00,1.243635535240173340e+00,1.243557095527648926e+00,1.243478536605834961e+00,1.243399977684020996e+00,1.243321537971496582e+00,1.243242979049682617e+00,1.243164539337158203e+00,1.243085980415344238e+00,1.243007421493530273e+00,1.242928981781005859e+00,1.242850542068481445e+00,1.242772102355957031e+00,1.242693662643432617e+00,1.242615342140197754e+00,1.242536902427673340e+00
1.162324428558349609e+00,1.162255883216857910e+00,1.162187218666076660e+00,1.162118673324584961e+00,1.162050008773803711e+00,1.161981463432312012e+00,1.161912918090820312e+00,1.161844253540039062e+00,1.161775708198547363e+00,1.161707162857055664e+00,1.161638736724853516e+00,1.161570191383361816e+00,1.161501646041870117e+00,1.161433100700378418e+00,1.161364674568176270e+00,1.161296129226684570e+00,1.161227703094482422e+00,1.161159157752990723e+00,1.161090612411499023e+00,1.161022186279296875e+00,1.160953760147094727e+00,1.160885334014892578e+00,1.160816907882690430e+00,1.160748481750488281e+00,1.160680055618286133e+00,1.160611629486083984e+00,1.160543203353881836e+00,1.160474777221679688e+00,1.160406351089477539e+00,1.160337924957275391e+00,1.160269618034362793e+00,1.160201191902160645e+00,1.160132884979248047e+00,1.160064458847045898e+00,1.159996151924133301e+00,1.159927845001220703e+00,1.159859538078308105e+00,1.159791231155395508e+00,1.159722805023193359e+00,1.159654498100280762e+00,1.159586191177368164e+00,1.159518003463745117e+00,1.159449696540832520e+00,1.159381389617919922e+00,1.159313201904296875e+00,1.159244894981384277e+00,1.159176707267761230e+00,1.159108400344848633e+00,1.159040212631225586e+00,1.158971905708312988e+00,1.158903717994689941e+00,1.158835530281066895e+00,1.158767342567443848e+00,1.158699154853820801e+00,1.158630967140197754e+00,1.158562779426574707e+00,1.158494591712951660e+00,1.158426403999328613e+00,1.158358335494995117e+00,1.158290147781372070e+00,1.158221960067749023e+00,1.158153891563415527e+00,1.158085703849792480e+00,1.158017635345458984e+00,1.157949566841125488e+00,1.157881498336791992e+00,1.157813429832458496e+00,1.157745361328125000e+00,1.157677292823791504e+00,1.157609105110168457e+00,1.157541036605834961e+00,1.157472968101501465e+00,1.157405018806457520e+00,1.157336950302124023e+00,1.157269001007080078e+00,1.157200932502746582e+00,1.157132983207702637e+00,1.157064914703369141e+00,1.156996965408325195e+00,1.156929016113281250e+00
1.087077975273132324e+00,1.087018013000488281e+00,1.086957931518554688e+00,1.086897969245910645e+00,1.086837887763977051e+00,1.086777925491333008e+00,1.086717963218688965e+00,1.086658000946044922e+00,1.086598038673400879e+00,1.086538076400756836e+00,1.086478114128112793e+00,1.086418151855468750e+00,1.086358308792114258e+00,1.086298346519470215e+00,1.086238384246826172e+00,1.086178421974182129e+00,1.086118459701538086e+00,1.086058616638183594e+00,1.085998654365539551e+00,1.085938811302185059e+00,1.085878968238830566e+00,1.085819005966186523e+00,1.085759162902832031e+00,1.085699319839477539e+00,1.085639476776123047e+00,1.085579514503479004e+00,1.085519671440124512e+00,1.085459828376770020e+00,1.085400104522705078e+00,1.085340261459350586e+00,1.085280418395996094e+00,1.085220575332641602e+00,1.085160851478576660e+00,1.085101008415222168e+00,1.085041165351867676e+00,1.084981322288513184e+00,1.084921598434448242e+00,1.084861755371093750e+00,1.084802031517028809e+00,1.084742307662963867e+00,1.084682464599609375e+00,1.084622740745544434e+00,1.084563016891479492e+00,1.084503293037414551e+00,1.084443569183349609e+00,1.084383845329284668e+00,1.084324121475219727e+00,1.084264397621154785e+00,1.084204673767089844e+00,1.084144949913024902e+00,1.084085345268249512e+00,1.084025621414184570e+00,1.083965897560119629e+00,1.083906292915344238e+00,1.083846688270568848e+00,1.083786964416503906e+00,1.083727240562438965e+00,1.083667635917663574e+00,1.083608031272888184e+00,1.083548307418823242e+00,1.083488702774047852e+00,1.083429098129272461e+00,1.083369493484497070e+00,1.083309888839721680e+00,1.083250284194946289e+00,1.083190798759460449e+00,1.083131074905395508e+00,1.083071470260620117e+00,1.083011984825134277e+00,1.082952380180358887e+00,1.082892775535583496e+00,1.082833290100097656e+00,1.082773685455322266e+00,1.082714200019836426e+00,1.082654714584350586e+00,1.082595109939575195e+00,1.082535624504089355e+00,1.082476019859313965e+00,1.082416534423828125e+00,1.082357048988342285e+00
1.020981788635253906e+00,1.020928859710693359e+00,1.020875930786132812e+00,1.020823001861572266e+00,1.020770072937011719e+00,1.020717144012451172e+00,1.020664215087890625e+00,1.020611286163330078e+00,1.020558476448059082e+00,1.020505547523498535e+00,1.020452618598937988e+00,1.020399689674377441e+00,1.020346879959106445e+00,1.020293951034545898e+00,1.020241141319274902e+00,1.020188212394714355e+00,1.020135402679443359e+00,1.020082592964172363e+00,1.020029664039611816e+00,1.019976854324340820e+00,1.019924044609069824e+00,1.019871234893798828e+00,1.019818305969238281e+00,1.019765496253967285e+00,1.019712686538696289e+00,1.019659876823425293e+00,1.019607067108154297e+00,1.019554376602172852e+00,1.019501566886901855e+00,1.019448757171630859e+00,1.019395947456359863e+00,1.019343256950378418e+00,1.019290447235107422e+00,1.019237637519836426e+00,1.019184947013854980e+00,1.019132137298583984e+00,1.019079446792602539e+00,1.019026637077331543e+00,1.018973946571350098e+00,1.018921256065368652e+00,1.018868446350097656e+00,1.018815755844116211e+00,1.018762946128845215e+00,1.018710255622863770e+00,1.018657565116882324e+00,1.018604874610900879e+00,1.018552184104919434e+00,1.018499493598937988e+00,1.018446803092956543e+00,1.018394231796264648e+00,1.018341541290283203e+00,1.018288850784301758e+00,1.018236160278320312e+00,1.018183469772338867e+00,1.018130898475646973e+00,1.018078207969665527e+00,1.018025636672973633e+00,1.017972946166992188e+00,1.017920374870300293e+00,1.017867684364318848e+00,1.017815113067626953e+00,1.017762541770935059e+00,1.017709851264953613e+00,1.017657279968261719e+00,1.017604708671569824e+00,1.017552018165588379e+00,1.017499446868896484e+00,1.017446875572204590e+00,1.017394304275512695e+00,1.017341732978820801e+00,1.017289280891418457e+00,1.017236709594726562e+00,1.017184138298034668e+00,1.017131567001342773e+00,1.017078995704650879e+00,1.017026424407958984e+00,1.016973972320556641e+00,1.016921401023864746e+00,1.016868948936462402e+00,1.016816377639770508e+00
9.624624848365783691e-01,9.624153971672058105e-01,9.623683691024780273e-01,9.623213410377502441e-01,9.622743129730224609e-01,9.622272849082946777e-01,9.621802568435668945e-01,9.621332883834838867e-01,9.620861411094665527e-01,9.620391130447387695e-01,9.619921445846557617e-01,9.619451761245727539e-01,9.618981480598449707e-01,9.618511795997619629e-01,9.618042111396789551e-01,9.617572426795959473e-01,9.617102742195129395e-01,9.616633057594299316e-01,9.616163372993469238e-01,9.615693688392639160e-01,9.615224003791809082e-01,9.614754915237426758e-01,9.614285230636596680e-01,9.613816142082214355e-01,9.613346457481384277e-01,9.612877368927001953e-01,9.612408280372619629e-01,9.611938595771789551e-01,9.611469507217407227e-01,9.610999226570129395e-01,9.610530138015747070e-01,9.610061645507812500e-01,9.609592556953430176e-01,9.609123468399047852e-01,9.608654379844665527e-01,9.608185887336730957e-01,9.607716798782348633e-01,9.607248306274414062e-01,9.606779217720031738e-01,9.606310725212097168e-01,9.605842232704162598e-01,9.605373740196228027e-01,9.604905247688293457e-01,9.604436755180358887e-01,9.603968262672424316e-01,9.603499770164489746e-01,9.603031873703002930e-01,9.602563381195068359e-01,9.602094888687133789e-01,9.601625800132751465e-01,9.601157307624816895e-01,9.600689411163330078e-01,9.600221514701843262e-01,9.599753618240356445e-01,9.599285125732421875e-01,9.598817229270935059e-01,9.598349332809448242e-01,9.597882032394409180e-01,9.597414135932922363e-01,9.596946239471435547e-01,9.596478343009948730e-01,9.596011042594909668e-01,9.595543146133422852e-01,9.595075845718383789e-01,9.594607949256896973e-01,9.594140648841857910e-01,9.593673348426818848e-01,9.593206048011779785e-01,9.592738747596740723e-01,9.592271447181701660e-01,9.591802954673767090e-01,9.591335654258728027e-01,9.590868353843688965e-01,9.590401649475097656e-01,9.589934349060058594e-01,9.589467644691467285e-01,9.589000344276428223e-01,9.588533639907836914e-01,9.588066339492797852e-01,9.587599635124206543e-01
9.102877378463745117e-01,9.102456569671630859e-01,9.102035760879516602e-01,9.101614952087402344e-01,9.101194143295288086e-01,9.100772738456726074e-01,9.100351929664611816e-01,9.099931716918945312e-01,9.099510908126831055e-01,9.099090695381164551e-01,9.098669886589050293e-01,9.098249673843383789e-01,9.097829461097717285e-01,9.097409248352050781e-01,9.096988439559936523e-01,9.096568226814270020e-01,9.096148014068603516e-01,9.095727801322937012e-01,9.095308184623718262e-01,9.094887971878051758e-01,9.094467759132385254e-01,9.094048142433166504e-01,9.093627929687500000e-01,9.093207716941833496e-01,9.092788100242614746e-01,9.092368483543395996e-01,9.091947674751281738e-01,9.091527462005615234e-01,9.091107845306396484e-01,9.090688228607177734e-01,9.090268611907958984e-01,9.089848995208740234e-01,9.089429378509521484e-01,9.089009761810302734e-01,9.088590145111083984e-01,9.088171124458312988e-01,9.087751507759094238e-01,9.087331891059875488e-01,9.086912870407104492e-01,9.086493253707885742e-01,9.086074233055114746e-01,9.085655212402343750e-01,9.085235595703125000e-01,9.084816575050354004e-01,9.084397554397583008e-01,9.083978533744812012e-01,9.083558320999145508e-01,9.083139300346374512e-01,9.082720279693603516e-01,9.082301259040832520e-01,9.081882834434509277e-01,9.081463813781738281e-01,9.081044793128967285e-01,9.080626368522644043e-01,9.080207347869873047e-01,9.079788923263549805e-01,9.079370498657226562e-01,9.078951478004455566e-01,9.078533053398132324e-01,9.078114628791809082e-01,9.077696204185485840e-01,9.077277779579162598e-01,9.076859354972839355e-01,9.076440930366516113e-01,9.076022505760192871e-01,9.075604081153869629e-01,9.075185656547546387e-01,9.074766635894775391e-01,9.074348211288452148e-01,9.073930382728576660e-01,9.073511958122253418e-01,9.073094129562377930e-01,9.072676301002502441e-01,9.072257876396179199e-01,9.071840047836303711e-01,9.071422219276428223e-01,9.071004390716552734e-01,9.070586562156677246e-01,9.070168733596801758e-01,9.069750905036926270e-01
8.634788393974304199e-01,8.634409904479980469e-01,8.634030222892761230e-01,8.633651733398437500e-01,8.633273243904113770e-01,8.632894754409790039e-01,8.632516264915466309e-01,8.632137775421142578e-01,8.631759285926818848e-01,8.631381392478942871e-01,8.631002902984619141e-01,8.630624413490295410e-01,8.630246520042419434e-01,8.629868030548095703e-01,8.629490137100219727e-01,8.629111647605895996e-01,8.628733754158020020e-01,8.628355264663696289e-01,8.627977371215820312e-01,8.627599477767944336e-01,8.627221584320068359e-01,8.626843690872192383e-01,8.626464605331420898e-01,8.626086711883544922e-01,8.625708818435668945e-01,8.625330924987792969e-01,8.624953031539916992e-01,8.624575734138488770e-01,8.624197840690612793e-01,8.623819947242736816e-01,8.623442649841308594e-01,8.623064756393432617e-01,8.622687458992004395e-01,8.622309565544128418e-01,8.621932268142700195e-01,8.621554374694824219e-01,8.621177077293395996e-01,8.620799779891967773e-01,8.620422482490539551e-01,8.620045185089111328e-01,8.619667887687683105e-01,8.619290590286254883e-01,8.618913292884826660e-01,8.618534803390502930e-01,8.618157505989074707e-01,8.617780804634094238e-01,8.617403507232666016e-01,8.617026209831237793e-01,8.616649508476257324e-01,8.616272211074829102e-01,8.615895509719848633e-01,8.615518212318420410e-01,8.615141510963439941e-01,8.614764213562011719e-01,8.614387512207031250e-01,8.614010810852050781e-01,8.613634109497070312e-01,8.613257408142089844e-01,8.612880706787109375e-01,8.612504005432128906e-01,8.612127304077148438e-01,8.611750602722167969e-01,8.611373901367187500e-01,8.610997200012207031e-01,8.610619902610778809e-01,8.610243201255798340e-01,8.609867095947265625e-01,8.609490394592285156e-01,8.609114289283752441e-01,8.608737587928771973e-01,8.608361482620239258e-01,8.607984781265258789e-01,8.607608675956726074e-01,8.607232570648193359e-01,8.606856465339660645e-01,8.606480360031127930e-01,8.606104254722595215e-01,8.605728149414062500e-01,8.605352044105529785e-01,8.604975938796997070e-01
8.212484717369079590e-01,8.212141990661621094e-01,8.211799860000610352e-01,8.211457133293151855e-01,8.211115002632141113e-01,8.210772275924682617e-01,8.210430145263671875e-01,8.210088014602661133e-01,8.209745287895202637e-01,8.209403157234191895e-01,8.209061026573181152e-01,8.208718895912170410e-01,8.208376765251159668e-01,8.208034634590148926e-01,8.207692503929138184e-01,8.207350373268127441e-01,8.207008242607116699e-01,8.206666111946105957e-01,8.206323981285095215e-01,8.205981254577636719e-01,8.205639719963073730e-01,8.205297589302062988e-01,8.204956054687500000e-01,8.204613924026489258e-01,8.204272389411926270e-01,8.203930258750915527e-01,8.203588724136352539e-01,8.203246593475341797e-01,8.202905058860778809e-01,8.202563524246215820e-01,8.202221989631652832e-01,8.201879858970642090e-01,8.201538324356079102e-01,8.201196789741516113e-01,8.200855255126953125e-01,8.200513720512390137e-01,8.200172185897827148e-01,8.199830651283264160e-01,8.199489116668701172e-01,8.199148178100585938e-01,8.198806047439575195e-01,8.198464512825012207e-01,8.198122978210449219e-01,8.197782039642333984e-01,8.197440505027770996e-01,8.197099566459655762e-01,8.196758031845092773e-01,8.196417093276977539e-01,8.196075558662414551e-01,8.195734620094299316e-01,8.195393681526184082e-01,8.195052742958068848e-01,8.194711208343505859e-01,8.194370269775390625e-01,8.194029331207275391e-01,8.193688392639160156e-01,8.193347454071044922e-01,8.193006515502929688e-01,8.192665576934814453e-01,8.192325234413146973e-01,8.191983103752136230e-01,8.191642761230468750e-01,8.191301822662353516e-01,8.190960884094238281e-01,8.190620541572570801e-01,8.190279603004455566e-01,8.189939260482788086e-01,8.189598321914672852e-01,8.189257979393005371e-01,8.188917040824890137e-01,8.188576698303222656e-01,8.188236355781555176e-01,8.187896013259887695e-01,8.187555074691772461e-01,8.187214732170104980e-01,8.186874389648437500e-01,8.186534047126770020e-01,8.186193704605102539e-01,8.185853362083435059e-01,8.185513019561767578e-01
7.829563021659851074e-01,7.829251885414123535e-01,7.828940749168395996e-01,7.828629612922668457e-01,7.828318476676940918e-01,7.828006744384765625e-01,7.827695608139038086e-01,7.827384471893310547e-01,7.827073335647583008e-01,7.826762199401855469e-01,7.826451063156127930e-01,7.826140522956848145e-01,7.825829386711120605e-01,7.825518250465393066e-01,7.825207114219665527e-01,7.824896574020385742e-01,7.824584841728210449e-01,7.824273705482482910e-01,7.823962569236755371e-01,7.823652029037475586e-01,7.823340892791748047e-01,7.823030352592468262e-01,7.822719812393188477e-01,7.822408676147460938e-01,7.822098135948181152e-01,7.821787595748901367e-01,7.821476459503173828e-01,7.821165919303894043e-01,7.820855379104614258e-01,7.820544838905334473e-01,7.820234298706054688e-01,7.819923758506774902e-01,7.819613218307495117e-01,7.819302678108215332e-01,7.818992137908935547e-01,7.818681597709655762e-01,7.818370461463928223e-01,7.818059921264648438e-01,7.817749381065368652e-01,7.817439436912536621e-01,7.817128896713256836e-01,7.816818356513977051e-01,7.816508412361145020e-01,7.816197872161865234e-01,7.815887928009033203e-01,7.815577387809753418e-01,7.815267443656921387e-01,7.814957499504089355e-01,7.814646959304809570e-01,7.814337015151977539e-01,7.814027070999145508e-01,7.813717126846313477e-01,7.813406586647033691e-01,7.813096642494201660e-01,7.812786698341369629e-01,7.812476754188537598e-01,7.812166810035705566e-01,7.811856269836425781e-01,7.811546325683593750e-01,7.811236381530761719e-01,7.810926437377929688e-01,7.810616493225097656e-01,7.810307145118713379e-01,7.809997200965881348e-01,7.809687256813049316e-01,7.809377908706665039e-01,7.809067964553833008e-01,7.808758616447448730e-01,7.808448672294616699e-01,7.808139324188232422e-01,7.807829380035400391e-01,7.807520031929016113e-01,7.807210087776184082e-01,7.806900739669799805e-01,7.806591391563415527e-01,7.806282043457031250e-01,7.805972695350646973e-01,7.805662751197814941e-01,7.805352807044982910e-01,7.805043458938598633e-01
7.480759620666503906e-01,7.480475306510925293e-01,7.480190992355346680e-01,7.479907274246215820e-01,7.479622960090637207e-01,7.479338645935058594e-01,7.479054927825927734e-01,7.478770613670349121e-01,7.478486895561218262e-01,7.478202581405639648e-01,7.477918863296508789e-01,7.477634549140930176e-01,7.477350831031799316e-01,7.477066516876220703e-01,7.476782202720642090e-01,7.476498484611511230e-01,7.476214766502380371e-01,7.475931048393249512e-01,7.475646734237670898e-01,7.475363016128540039e-01,7.475079298019409180e-01,7.474795579910278320e-01,7.474511861801147461e-01,7.474228143692016602e-01,7.473944425582885742e-01,7.473660707473754883e-01,7.473376989364624023e-01,7.473093867301940918e-01,7.472810149192810059e-01,7.472526431083679199e-01,7.472242712974548340e-01,7.471959590911865234e-01,7.471675872802734375e-01,7.471391558647155762e-01,7.471108436584472656e-01,7.470824718475341797e-01,7.470541000366210938e-01,7.470257878303527832e-01,7.469974756240844727e-01,7.469691038131713867e-01,7.469407916069030762e-01,7.469124197959899902e-01,7.468841075897216797e-01,7.468557953834533691e-01,7.468274831771850586e-01,7.467991113662719727e-01,7.467707991600036621e-01,7.467424869537353516e-01,7.467141747474670410e-01,7.466858625411987305e-01,7.466575503349304199e-01,7.466292381286621094e-01,7.466009259223937988e-01,7.465726137161254883e-01,7.465442419052124023e-01,7.465159296989440918e-01,7.464876770973205566e-01,7.464593648910522461e-01,7.464310526847839355e-01,7.464027404785156250e-01,7.463744878768920898e-01,7.463461756706237793e-01,7.463179230690002441e-01,7.462896108627319336e-01,7.462613582611083984e-01,7.462330460548400879e-01,7.462047934532165527e-01,7.461764812469482422e-01,7.461482286453247070e-01,7.461199760437011719e-01,7.460916638374328613e-01,7.460634112358093262e-01,7.460351586341857910e-01,7.460069060325622559e-01,7.459786534309387207e-01,7.459502816200256348e-01,7.459220290184020996e-01,7.458937764167785645e-01,7.458655238151550293e-01,7.458372712135314941e-01
7.161708474159240723e-01,7.161448001861572266e-01,7.161187529563903809e-01,7.160927057266235352e-01,7.160666584968566895e-01,7.160406708717346191e-01,7.160146236419677734e-01,7.159885764122009277e-01,7.159625291824340820e-01,7.159364223480224609e-01,7.159104347229003906e-01,7.158843874931335449e-01,7.158583402633666992e-01,7.158323526382446289e-01,7.158063054084777832e-01,7.157803177833557129e-01,7.157542705535888672e-01,7.157282829284667969e-01,7.157022356986999512e-01,7.156762480735778809e-01,7.156502604484558105e-01,7.156242132186889648e-01,7.155982255935668945e-01,7.155722379684448242e-01,7.155461907386779785e-01,7.155202031135559082e-01,7.154942154884338379e-01,7.154682278633117676e-01,7.154422402381896973e-01,7.154162526130676270e-01,7.153902053833007812e-01,7.153642177581787109e-01,7.153382301330566406e-01,7.153122425079345703e-01,7.152862548828125000e-01,7.152602672576904297e-01,7.152342796325683594e-01,7.152082920074462891e-01,7.151823043823242188e-01,7.151563763618469238e-01,7.151303887367248535e-01,7.151044011116027832e-01,7.150784730911254883e-01,7.150524854660034180e-01,7.150264978408813477e-01,7.150005698204040527e-01,7.149745821952819824e-01,7.149486541748046875e-01,7.149226665496826172e-01,7.148967385292053223e-01,7.148707509040832520e-01,7.148447632789611816e-01,7.148188352584838867e-01,7.147928476333618164e-01,7.147669196128845215e-01,7.147409915924072266e-01,7.147150039672851562e-01,7.146890759468078613e-01,7.146631479263305664e-01,7.146372199058532715e-01,7.146112918853759766e-01,7.145853638648986816e-01,7.145594358444213867e-01,7.145335078239440918e-01,7.145075798034667969e-01,7.144816517829895020e-01,7.144557237625122070e-01,7.144297957420349121e-01,7.144038677215576172e-01,7.143779397010803223e-01,7.143520712852478027e-01,7.143260836601257324e-01,7.143001556396484375e-01,7.142742276191711426e-01,7.142483592033386230e-01,7.142224311828613281e-01,7.141965031623840332e-01,7.141706347465515137e-01,7.141447067260742188e-01,7.141188383102416992e-01
6.868759393692016602e-01,6.868519783020019531e-01,6.868280172348022461e-01,6.868040561676025391e-01,6.867800951004028320e-01,6.867561340332031250e-01,6.867321133613586426e-01,6.867082118988037109e-01,6.866842508316040039e-01,6.866602897644042969e-01,6.866363286972045898e-01,6.866124272346496582e-01,6.865884661674499512e-01,6.865645051002502441e-01,6.865406036376953125e-01,6.865166425704956055e-01,6.864927411079406738e-01,6.864687800407409668e-01,6.864448785781860352e-01,6.864209175109863281e-01,6.863970160484313965e-01,6.863730549812316895e-01,6.863491535186767578e-01,6.863252520561218262e-01,6.863012909889221191e-01,6.862773895263671875e-01,6.862534880638122559e-01,6.862295269966125488e-01,6.862055659294128418e-01,6.861816644668579102e-01,6.861577630043029785e-01,6.861338615417480469e-01,6.861099600791931152e-01,6.860860586166381836e-01,6.860621571540832520e-01,6.860382556915283203e-01,6.860143542289733887e-01,6.859904527664184570e-01,6.859665513038635254e-01,6.859426498413085938e-01,6.859187483787536621e-01,6.858948469161987305e-01,6.858710050582885742e-01,6.858471035957336426e-01,6.858232021331787109e-01,6.857993006706237793e-01,6.857754588127136230e-01,6.857514977455139160e-01,6.857275962829589844e-01,6.857037544250488281e-01,6.856798529624938965e-01,6.856560111045837402e-01,6.856321096420288086e-01,6.856082677841186523e-01,6.855843663215637207e-01,6.855605244636535645e-01,6.855366230010986328e-01,6.855127811431884766e-01,6.854888796806335449e-01,6.854650378227233887e-01,6.854411959648132324e-01,6.854172945022583008e-01,6.853934526443481445e-01,6.853696107864379883e-01,6.853457689285278320e-01,6.853219270706176758e-01,6.852980852127075195e-01,6.852741837501525879e-01,6.852502822875976562e-01,6.852264404296875000e-01,6.852025985717773438e-01,6.851787567138671875e-01,6.851549148559570312e-01,6.851310729980468750e-01,6.851072311401367188e-01,6.850834488868713379e-01,6.850596070289611816e-01,6.850357651710510254e-01,6.850119233131408691e-01,6.849880814552307129e-01
6.598833799362182617e-01,6.598612666130065918e-01,6.598392128944396973e-01,6.598170399665832520e-01,6.597949266433715820e-01,6.597728133201599121e-01,6.597506999969482422e-01,6.597285866737365723e-01,6.597064733505249023e-01,6.596844196319580078e-01,6.596623063087463379e-01,6.596401929855346680e-01,6.596180796623229980e-01,6.595960259437561035e-01,6.595739126205444336e-01,6.595518589019775391e-01,6.595297455787658691e-01,6.595076322555541992e-01,6.594855785369873047e-01,6.594634652137756348e-01,6.594414114952087402e-01,6.594192981719970703e-01,6.593972444534301758e-01,6.593751311302185059e-01,6.593530178070068359e-01,6.593309640884399414e-01,6.593088507652282715e-01,6.592867970466613770e-01,6.592647433280944824e-01,6.592426300048828125e-01,6.592205762863159180e-01,6.591985225677490234e-01,6.591764688491821289e-01,6.591543555259704590e-01,6.591323018074035645e-01,6.591102480888366699e-01,6.590881943702697754e-01,6.590661406517028809e-01,6.590440869331359863e-01,6.590220332145690918e-01,6.589999794960021973e-01,6.589779257774353027e-01,6.589558720588684082e-01,6.589338183403015137e-01,6.589117050170898438e-01,6.588896512985229492e-01,6.588675975799560547e-01,6.588455438613891602e-01,6.588235497474670410e-01,6.588014960289001465e-01,6.587794423103332520e-01,6.587573885917663574e-01,6.587353944778442383e-01,6.587133407592773438e-01,6.586912870407104492e-01,6.586692929267883301e-01,6.586472392082214355e-01,6.586251854896545410e-01,6.586031913757324219e-01,6.585811376571655273e-01,6.585591435432434082e-01,6.585370898246765137e-01,6.585150957107543945e-01,6.584930419921875000e-01,6.584710478782653809e-01,6.584489941596984863e-01,6.584269404411315918e-01,6.584049463272094727e-01,6.583828926086425781e-01,6.583608984947204590e-01,6.583389043807983398e-01,6.583169102668762207e-01,6.582948565483093262e-01,6.582728624343872070e-01,6.582508683204650879e-01,6.582288742065429688e-01,6.582068800926208496e-01,6.581848859786987305e-01,6.581628918647766113e-01,6.581408381462097168e-01
6.349321007728576660e-01,6.349115967750549316e-01,6.348911523818969727e-01,6.348707079887390137e-01,6.348502039909362793e-01,6.348297595977783203e-01,6.348093152046203613e-01,6.347888112068176270e-01,6.347683668136596680e-01,6.347479224205017090e-01,6.347274184226989746e-01,6.347069740295410156e-01,6.346865296363830566e-01,6.346660852432250977e-01,6.346455812454223633e-01,6.346251368522644043e-01,6.346046924591064453e-01,6.345842480659484863e-01,6.345638036727905273e-01,6.345433592796325684e-01,6.345228552818298340e-01,6.345024108886718750e-01,6.344819664955139160e-01,6.344615221023559570e-01,6.344410777091979980e-01,6.344206333160400391e-01,6.344001889228820801e-01,6.343797445297241211e-01,6.343593597412109375e-01,6.343389153480529785e-01,6.343184709548950195e-01,6.342980265617370605e-01,6.342775821685791016e-01,6.342571973800659180e-01,6.342367529869079590e-01,6.342163085937500000e-01,6.341958642005920410e-01,6.341754794120788574e-01,6.341550350189208984e-01,6.341346502304077148e-01,6.341142058372497559e-01,6.340937614440917969e-01,6.340733170509338379e-01,6.340528726577758789e-01,6.340324878692626953e-01,6.340120434761047363e-01,6.339916586875915527e-01,6.339712738990783691e-01,6.339508295059204102e-01,6.339304447174072266e-01,6.339100003242492676e-01,6.338896155357360840e-01,6.338692307472229004e-01,6.338487863540649414e-01,6.338284015655517578e-01,6.338080167770385742e-01,6.337876319885253906e-01,6.337671875953674316e-01,6.337468028068542480e-01,6.337264180183410645e-01,6.337060332298278809e-01,6.336856484413146973e-01,6.336652040481567383e-01,6.336447596549987793e-01,6.336243748664855957e-01,6.336039900779724121e-01,6.335836052894592285e-01,6.335632205009460449e-01,6.335428357124328613e-01,6.335224509239196777e-01,6.335020661354064941e-01,6.334817409515380859e-01,6.334613561630249023e-01,6.334409713745117188e-01,6.334205865859985352e-01,6.334002017974853516e-01,6.333798170089721680e-01,6.333594918251037598e-01,6.333391070365905762e-01,6.333187222480773926e-01
6.117990016937255859e-01,6.117799878120422363e-01,6.117610335350036621e-01,6.117420196533203125e-01,6.117230057716369629e-01,6.117039918899536133e-01,6.116849780082702637e-01,6.116659641265869141e-01,6.116470098495483398e-01,6.116279959678649902e-01,6.116089820861816406e-01,6.115900278091430664e-01,6.115710139274597168e-01,6.115520000457763672e-01,6.115330457687377930e-01,6.115140318870544434e-01,6.114950180053710938e-01,6.114760041236877441e-01,6.114570498466491699e-01,6.114380359649658203e-01,6.114190220832824707e-01,6.114000678062438965e-01,6.113810539245605469e-01,6.113620996475219727e-01,6.113431453704833984e-01,6.113241314888000488e-01,6.113051772117614746e-01,6.112861633300781250e-01,6.112672090530395508e-01,6.112482547760009766e-01,6.112292408943176270e-01,6.112102866172790527e-01,6.111913323402404785e-01,6.111723184585571289e-01,6.111533641815185547e-01,6.111344099044799805e-01,6.111154556274414062e-01,6.110965013504028320e-01,6.110774874687194824e-01,6.110585331916809082e-01,6.110395193099975586e-01,6.110205650329589844e-01,6.110016107559204102e-01,6.109826564788818359e-01,6.109637022018432617e-01,6.109447479248046875e-01,6.109257936477661133e-01,6.109068393707275391e-01,6.108878850936889648e-01,6.108689308166503906e-01,6.108499765396118164e-01,6.108310222625732422e-01,6.108121275901794434e-01,6.107931733131408691e-01,6.107742190361022949e-01,6.107552647590637207e-01,6.107363104820251465e-01,6.107173562049865723e-01,6.106984019279479980e-01,6.106794476509094238e-01,6.106604933738708496e-01,6.106415987014770508e-01,6.106226444244384766e-01,6.106036901473999023e-01,6.105847954750061035e-01,6.105658411979675293e-01,6.105468869209289551e-01,6.105279922485351562e-01,6.105090379714965820e-01,6.104901432991027832e-01,6.104711890220642090e-01,6.104522943496704102e-01,6.104333400726318359e-01,6.104144454002380371e-01,6.103954911231994629e-01,6.103765964508056641e-01,6.103576421737670898e-01,6.103387475013732910e-01,6.103198528289794922e-01,6.103008985519409180e-01
