5.000000000000000000e+00,5.000000000000000000e+00,5.000000000000000000e+00,5.000000000000000000e+00,5.000000000000000000e+00,5.000000000000000000e+00,5.000000000000000000e+00,5.000000000000000000e+00,5.000000000000000000e+00,5.000000000000000000e+00,5.000000000000000000e+00,5.000000000000000000e+00,5.000000000000000000e+00,5.000000000000000000e+00,5.000000000000000000e+00,5.000000000000000000e+00,5.000000000000000000e+00,5.000000000000000000e+00,5.000000000000000000e+00,5.000000000000000000e+00,5.000000000000000000e+00,5.000000000000000000e+00,5.000000000000000000e+00,5.000000000000000000e+00,5.000000000000000000e+00,5.000000000000000000e+00,5.000000000000000000e+00,5.000000000000000000e+00,5.000000000000000000e+00,5.000000000000000000e+00,5.000000000000000000e+00,5.000000000000000000e+00,5.000000000000000000e+00,5.000000000000000000e+00,5.000000000000000000e+00,5.000000000000000000e+00,5.000000000000000000e+00,5.000000000000000000e+00,5.000000000000000000e+00,5.000000000000000000e+00,5.000000000000000000e+00,5.000000000000000000e+00,5.000000000000000000e+00,4.180064201354980469e+00,4.038118362426757812e+00,3.905496835708618164e+00,3.781308889389038086e+00,3.664775609970092773e+00,3.555210113525390625e+00,3.452006101608276367e+00,3.354624748229980469e+00,3.262586832046508789e+00,3.175464630126953125e+00,3.092874050140380859e+00,3.014470577239990234e+00,2.939944505691528320e+00,2.869014024734497070e+00,2.801425457000732422e+00,2.736948490142822266e+00,2.675372362136840820e+00,2.616506099700927734e+00,2.560174703598022461e+00,2.506217479705810547e+00,2.454487562179565430e+00,2.404850244522094727e+00,2.357180833816528320e+00,2.311364173889160156e+00,2.267294645309448242e+00,2.224874496459960938e+00,2.184012413024902344e+00,2.144623994827270508e+00,2.106631517410278320e+00,2.069961309432983398e+00,2.034546136856079102e+00,2.000322341918945312e+00,1.967230796813964844e+00,1.935216307640075684e+00,1.904227495193481445e+00,1.874215126037597656e+00,1.845134139060974121e+00
5.000000000000000000e+00,5.000000000000000000e+00,5.000000000000000000e+00,5.000000000000000000e+00,5.000000000000000000e+00,5.000000000000000000e+00,5.000000000000000000e+00,5.000000000000000000e+00,5.000000000000000000e+00,5.000000000000000000e+00,5.000000000000000000e+00,5.000000000000000000e+00,5.000000000000000000e+00,5.000000000000000000e+00,5.000000000000000000e+00,5.000000000000000000e+00,5.000000000000000000e+00,5.000000000000000000e+00,5.000000000000000000e+00,5.000000000000000000e+00,5.000000000000000000e+00,5.000000000000000000e+00,5.000000000000000000e+00,5.000000000000000000e+00,5.000000000000000000e+00,5.000000000000000000e+00,5.000000000000000000e+00,5.000000000000000000e+00,5.000000000000000000e+00,5.000000000000000000e+00,5.000000000000000000e+00,5.000000000000000000e+00,5.000000000000000000e+00,5.000000000000000000e+00,5.000000000000000000e+00,5.000000000000000000e+00,5.000000000000000000e+00,5.000000000000000000e+00,5.000000000000000000e+00,5.000000000000000000e+00,5.000000000000000000e+00,5.000000000000000000e+00,4.332463264465332031e+00,4.180167198181152344e+00,4.038214206695556641e+00,3.905586481094360352e+00,3.781392812728881836e+00,3.664854288101196289e+00,3.555284738540649414e+00,3.452076196670532227e+00,3.354690790176391602e+00,3.262649536132812500e+00,3.175523757934570312e+00,3.092930078506469727e+00,3.014524221420288086e+00,2.939995288848876953e+00,2.869062185287475586e+00,2.801471471786499023e+00,2.736992359161376953e+00,2.675414562225341797e+00,2.616546392440795898e+00,2.560213088989257812e+00,2.506254434585571289e+00,2.454523086547851562e+00,2.404884338378906250e+00,2.357213497161865234e+00,2.311395645141601562e+00,2.267325162887573242e+00,2.224903583526611328e+00,2.184040307998657227e+00,2.144651174545288086e+00,2.106657505035400391e+00,2.069986343383789062e+00,2.034570455551147461e+00,2.000345945358276367e+00,1.967253684997558594e+00,1.935238480567932129e+00,1.904248595237731934e+00,1.874235630035400391e+00,1.845154047012329102e+00
5.000000000000000000e+00,5.000000000000000000e+00,5.000000000000000000e+00,5.000000000000000000e+00,5.000000000000000000e+00,5.000000000000000000e+00,5.000000000000000000e+00,5.000000000000000000e+00,5.000000000000000000e+00,5.000000000000000000e+00,5.000000000000000000e+00,5.000000000000000000e+00,5.000000000000000000e+00,5.000000000000000000e+00,5.000000000000000000e+00,5.000000000000000000e+00,5.000000000000000000e+00,5.000000000000000000e+00,5.000000000000000000e+00,5.000000000000000000e+00,5.000000000000000000e+00,5.000000000000000000e+00,5.000000000000000000e+00,5.000000000000000000e+00,5.000000000000000000e+00,5.000000000000000000e+00,5.000000000000000000e+00,5.000000000000000000e+00,5.000000000000000000e+00,5.000000000000000000e+00,5.000000000000000000e+00,5.000000000000000000e+00,5.000000000000000000e+00,5.000000000000000000e+00,5.000000000000000000e+00,5.000000000000000000e+00,5.000000000000000000e+00,5.000000000000000000e+00,5.000000000000000000e+00,5.000000000000000000e+00,5.000000000000000000e+00,4.496395111083984375e+00,4.332573413848876953e+00,4.180269718170166016e+00,4.038310527801513672e+00,3.905676126480102539e+00,3.781476974487304688e+00,3.664933681488037109e+00,3.555358886718750000e+00,3.452146053314208984e+00,3.354756832122802734e+00,3.262712001800537109e+00,3.175582885742187500e+00,3.092986345291137695e+00,3.014577627182006836e+00,2.940045833587646484e+00,2.869110584259033203e+00,2.801517963409423828e+00,2.737036228179931641e+00,2.675456523895263672e+00,2.616586685180664062e+00,2.560251712799072266e+00,2.506291151046752930e+00,2.454558610916137695e+00,2.404918193817138672e+00,2.357245922088623047e+00,2.311426877975463867e+00,2.267355203628540039e+00,2.224932670593261719e+00,2.184068441390991211e+00,2.144678115844726562e+00,2.106683731079101562e+00,2.070011615753173828e+00,2.034594535827636719e+00,2.000369071960449219e+00,1.967276334762573242e+00,1.935260534286499023e+00,1.904270052909851074e+00,1.874256372451782227e+00,1.845174193382263184e+00
5.000000000000000000e+00,5.000000000000000000e+00,5.000000000000000000e+00,5.000000000000000000e+00,5.000000000000000000e+00,5.000000000000000000e+00,5.000000000000000000e+00,5.000000000000000000e+00,5.000000000000000000e+00,5.000000000000000000e+00,5.000000000000000000e+00,5.000000000000000000e+00,5.000000000000000000e+00,5.000000000000000000e+00,5.000000000000000000e+00,5.000000000000000000e+00,5.000000000000000000e+00,5.000000000000000000e+00,5.000000000000000000e+00,5.000000000000000000e+00,5.000000000000000000e+00,5.000000000000000000e+00,5.000000000000000000e+00,5.000000000000000000e+00,5.000000000000000000e+00,5.000000000000000000e+00,5.000000000000000000e+00,5.000000000000000000e+00,5.000000000000000000e+00,5.000000000000000000e+00,5.000000000000000000e+00,5.000000000000000000e+00,5.000000000000000000e+00,5.000000000000000000e+00,5.000000000000000000e+00,5.000000000000000000e+00,5.000000000000000000e+00,5.000000000000000000e+00,5.000000000000000000e+00,5.000000000000000000e+00,4.673220634460449219e+00,4.496513843536376953e+00,4.332684040069580078e+00,4.180372238159179688e+00,4.038405895233154297e+00,3.905765533447265625e+00,3.781560897827148438e+00,3.665012598037719727e+00,3.555433034896850586e+00,3.452216148376464844e+00,3.354823112487792969e+00,3.262774467468261719e+00,3.175642251968383789e+00,3.093042850494384766e+00,3.014631032943725586e+00,2.940096616744995117e+00,2.869159221649169922e+00,2.801563978195190430e+00,2.737080335617065430e+00,2.675498485565185547e+00,2.616626977920532227e+00,2.560290098190307617e+00,2.506328105926513672e+00,2.454593896865844727e+00,2.404952287673950195e+00,2.357278585433959961e+00,2.311458349227905273e+00,2.267385482788085938e+00,2.224961757659912109e+00,2.184096574783325195e+00,2.144705295562744141e+00,2.106709718704223633e+00,2.070036888122558594e+00,2.034618854522705078e+00,2.000392675399780273e+00,1.967299103736877441e+00,1.935282468795776367e+00,1.904291272163391113e+00,1.874276876449584961e+00,1.845194220542907715e+00
5.000000000000000000e+00,5.000000000000000000e+00,5.000000000000000000e+00,5.000000000000000000e+00,5.000000000000000000e+00,5.000000000000000000e+00,5.000000000000000000e+00,5.000000000000000000e+00,5.000000000000000000e+00,5.000000000000000000e+00,5.000000000000000000e+00,5.000000000000000000e+00,5.000000000000000000e+00,5.000000000000000000e+00,5.000000000000000000e+00,5.000000000000000000e+00,5.000000000000000000e+00,5.000000000000000000e+00,5.000000000000000000e+00,5.000000000000000000e+00,5.000000000000000000e+00,5.000000000000000000e+00,5.000000000000000000e+00,5.000000000000000000e+00,5.000000000000000000e+00,5.000000000000000000e+00,5.000000000000000000e+00,5.000000000000000000e+00,5.000000000000000000e+00,5.000000000000000000e+00,5.000000000000000000e+00,5.000000000000000000e+00,5.000000000000000000e+00,5.000000000000000000e+00,5.000000000000000000e+00,5.000000000000000000e+00,5.000000000000000000e+00,5.000000000000000000e+00,5.000000000000000000e+00,4.864522933959960938e+00,4.673348903656005859e+00,4.496633052825927734e+00,4.332794189453125000e+00,4.180475234985351562e+00,4.038501739501953125e+00,3.905855178833007812e+00,3.781645298004150391e+00,3.665091276168823242e+00,3.555507421493530273e+00,3.452286481857299805e+00,3.354889392852783203e+00,3.262836933135986328e+00,3.175701379776000977e+00,3.093098878860473633e+00,3.014684438705444336e+00,2.940147399902343750e+00,2.869207620620727539e+00,2.801609992980957031e+00,2.737124204635620117e+00,2.675540685653686523e+00,2.616667032241821289e+00,2.560328483581542969e+00,2.506365060806274414e+00,2.454629421234130859e+00,2.404986143112182617e+00,2.357311487197875977e+00,2.311489820480346680e+00,2.267415523529052734e+00,2.224990844726562500e+00,2.184124469757080078e+00,2.144732236862182617e+00,2.106735706329345703e+00,2.070061922073364258e+00,2.034643173217773438e+00,2.000416278839111328e+00,1.967321991920471191e+00,1.935304522514343262e+00,1.904312610626220703e+00,1.874297618865966797e+00,1.845214128494262695e+00
5.000000000000000000e+00,5.000000000000000000e+00,5.000000000000000000e+00,5.000000000000000000e+00,5.000000000000000000e+00,5.000000000000000000e+00,5.000000000000000000e+00,5.000000000000000000e+00,5.000000000000000000e+00,5.000000000000000000e+00,5.000000000000000000e+00,5.000000000000000000e+00,5.000000000000000000e+00,5.000000000000000000e+00,5.000000000000000000e+00,5.000000000000000000e+00,5.000000000000000000e+00,5.000000000000000000e+00,5.000000000000000000e+00,5.000000000000000000e+00,5.000000000000000000e+00,5.000000000000000000e+00,5.000000000000000000e+00,5.000000000000000000e+00,5.000000000000000000e+00,5.000000000000000000e+00,5.000000000000000000e+00,5.000000000000000000e+00,3.002957820892333984e+00,3.017391443252563477e+00,5.000000000000000000e+00,5.000000000000000000e+00,5.000000000000000000e+00,5.000000000000000000e+00,5.000000000000000000e+00,5.000000000000000000e+00,5.000000000000000000e+00,5.000000000000000000e+00,5.000000000000000000e+00,4.864662170410156250e+00,4.673477172851562500e+00,4.496751785278320312e+00,4.332904338836669922e+00,4.180577754974365234e+00,4.038598060607910156e+00,3.905944824218750000e+00,3.781729221343994141e+00,3.665170192718505859e+00,3.555581569671630859e+00,3.452356338500976562e+00,3.354955434799194336e+00,3.262899637222290039e+00,3.175760984420776367e+00,3.093155145645141602e+00,3.014737606048583984e+00,2.940198421478271484e+00,2.869255781173706055e+00,2.801656007766723633e+00,2.737168312072753906e+00,2.675582885742187500e+00,2.616707324981689453e+00,2.560367107391357422e+00,2.506402015686035156e+00,2.454664707183837891e+00,2.405020236968994141e+00,2.357344150543212891e+00,2.311521291732788086e+00,2.267445802688598633e+00,2.225019931793212891e+00,2.184152603149414062e+00,2.144759178161621094e+00,2.106761693954467773e+00,2.070086956024169922e+00,2.034667491912841797e+00,2.000439643859863281e+00,1.967344522476196289e+00,1.935326457023620605e+00,1.904333829879760742e+00,1.874318361282348633e+00,1.845234274864196777e+00
5.000000000000000000e+00,5.000000000000000000e+00,5.000000000000000000e+00,5.000000000000000000e+00,5.000000000000000000e+00,5.000000000000000000e+00,5.000000000000000000e+00,5.000000000000000000e+00,5.000000000000000000e+00,5.000000000000000000e+00,5.000000000000000000e+00,5.000000000000000000e+00,5.000000000000000000e+00,5.000000000000000000e+00,5.000000000000000000e+00,5.000000000000000000e+00,5.000000000000000000e+00,5.000000000000000000e+00,5.000000000000000000e+00,5.000000000000000000e+00,5.000000000000000000e+00,5.000000000000000000e+00,5.000000000000000000e+00,5.000000000000000000e+00,5.000000000000000000e+00,5.000000000000000000e+00,5.000000000000000000e+00,5.000000000000000000e+00,3.020709514617919922e+00,3.028115987777709961e+00,3.120270490646362305e+00,5.000000000000000000e+00,5.000000000000000000e+00,5.000000000000000000e+00,5.000000000000000000e+00,5.000000000000000000e+00,5.000000000000000000e+00,5.000000000000000000e+00,5.000000000000000000e+00,4.864800930023193359e+00,4.673605442047119141e+00,4.496870517730712891e+00,4.333014965057373047e+00,4.180680751800537109e+00,4.038693428039550781e+00,3.906034708023071289e+00,3.781813144683837891e+00,3.665249109268188477e+00,3.555656194686889648e+00,3.452426433563232422e+00,3.355021476745605469e+00,3.262962102890014648e+00,3.175820112228393555e+00,3.093211174011230469e+00,3.014791011810302734e+00,2.940249204635620117e+00,2.869304180145263672e+00,2.801702260971069336e+00,2.737212419509887695e+00,2.675624847412109375e+00,2.616747379302978516e+00,2.560405731201171875e+00,2.506438970565795898e+00,2.454699993133544922e+00,2.405054330825805664e+00,2.357376813888549805e+00,2.311552524566650391e+00,2.267476081848144531e+00,2.225049018859863281e+00,2.184180498123168945e+00,2.144786119461059570e+00,2.106787681579589844e+00,2.070112228393554688e+00,2.034691810607910156e+00,2.000463247299194336e+00,1.967367410659790039e+00,1.935348510742187500e+00,1.904355168342590332e+00,1.874338865280151367e+00,1.845254063606262207e+00
5.000000000000000000e+00,5.000000000000000000e+00,5.000000000000000000e+00,5.000000000000000000e+00,5.000000000000000000e+00,5.000000000000000000e+00,5.000000000000000000e+00,5.000000000000000000e+00,5.000000000000000000e+00,5.000000000000000000e+00,5.000000000000000000e+00,5.000000000000000000e+00,5.000000000000000000e+00,5.000000000000000000e+00,5.000000000000000000e+00,5.000000000000000000e+00,5.000000000000000000e+00,5.000000000000000000e+00,5.000000000000000000e+00,5.000000000000000000e+00,5.000000000000000000e+00,5.000000000000000000e+00,5.000000000000000000e+00,5.000000000000000000e+00,5.000000000000000000e+00,5.000000000000000000e+00,5.000000000000000000e+00,5.000000000000000000e+00,3.021151542663574219e+00,3.033381938934326172e+00,5.000000000000000000e+00,5.000000000000000000e+00,5.000000000000000000e+00,5.000000000000000000e+00,5.000000000000000000e+00,5.000000000000000000e+00,5.000000000000000000e+00,5.000000000000000000e+00,5.000000000000000000e+00,4.864939689636230469e+00,4.673733711242675781e+00,4.496989250183105469e+00,4.333125114440917969e+00,4.180783271789550781e+00,4.038789272308349609e+00,3.906124353408813477e+00,3.781897068023681641e+00,3.665328025817871094e+00,3.555730342864990234e+00,3.452496290206909180e+00,3.355087518692016602e+00,3.263024806976318359e+00,3.175879240036010742e+00,3.093267440795898438e+00,3.014844655990600586e+00,2.940299987792968750e+00,2.869352579116821289e+00,2.801748514175415039e+00,2.737256526947021484e+00,2.675666809082031250e+00,2.616787672042846680e+00,2.560444116592407227e+00,2.506475925445556641e+00,2.454735517501831055e+00,2.405088186264038086e+00,2.357409238815307617e+00,2.311583995819091797e+00,2.267506361007690430e+00,2.225078105926513672e+00,2.184208393096923828e+00,2.144813060760498047e+00,2.106813907623291016e+00,2.070137262344360352e+00,2.034716367721557617e+00,2.000486850738525391e+00,1.967390060424804688e+00,1.935370445251464844e+00,1.904376626014709473e+00,1.874359607696533203e+00,1.845274209976196289e+00
5.000000000000000000e+00,5.000000000000000000e+00,5.000000000000000000e+00,5.000000000000000000e+00,5.000000000000000000e+00,5.000000000000000000e+00,5.000000000000000000e+00,5.000000000000000000e+00,5.000000000000000000e+00,5.000000000000000000e+00,5.000000000000000000e+00,5.000000000000000000e+00,5.000000000000000000e+00,5.000000000000000000e+00,5.000000000000000000e+00,5.000000000000000000e+00,5.000000000000000000e+00,5.000000000000000000e+00,5.000000000000000000e+00,5.000000000000000000e+00,5.000000000000000000e+00,5.000000000000000000e+00,5.000000000000000000e+00,5.000000000000000000e+00,5.000000000000000000e+00,5.000000000000000000e+00,5.000000000000000000e+00,5.000000000000000000e+00,3.049311161041259766e+00,3.054678678512573242e+00,5.000000000000000000e+00,5.000000000000000000e+00,5.000000000000000000e+00,5.000000000000000000e+00,5.000000000000000000e+00,5.000000000000000000e+00,5.000000000000000000e+00,5.000000000000000000e+00,5.000000000000000000e+00,4.865079402923583984e+00,4.673861980438232422e+00,4.497107982635498047e+00,4.333235740661621094e+00,4.180886268615722656e+00,4.038885593414306641e+00,3.906213998794555664e+00,3.781980991363525391e+00,3.665407180786132812e+00,3.555804729461669922e+00,3.452566385269165039e+00,3.355154037475585938e+00,3.263087511062622070e+00,3.175938606262207031e+00,3.093323707580566406e+00,3.014898061752319336e+00,2.940350770950317383e+00,2.869400739669799805e+00,2.801794528961181641e+00,2.737300395965576172e+00,2.675708770751953125e+00,2.616828203201293945e+00,2.560482740402221680e+00,2.506512641906738281e+00,2.454771041870117188e+00,2.405122280120849609e+00,2.357441902160644531e+00,2.311615467071533203e+00,2.267536640167236328e+00,2.225106954574584961e+00,2.184236288070678711e+00,2.144840240478515625e+00,2.106839895248413086e+00,2.070162534713745117e+00,2.034740686416625977e+00,2.000510215759277344e+00,1.967412829399108887e+00,1.935392498970031738e+00,1.904397845268249512e+00,1.874380111694335938e+00,1.845294237136840820e+00
5.000000000000000000e+00,5.000000000000000000e+00,5.000000000000000000e+00,5.000000000000000000e+00,5.000000000000000000e+00,5.000000000000000000e+00,5.000000000000000000e+00,5.000000000000000000e+00,5.000000000000000000e+00,5.000000000000000000e+00,5.000000000000000000e+00,5.000000000000000000e+00,5.000000000000000000e+00,5.000000000000000000e+00,5.000000000000000000e+00,5.000000000000000000e+00,5.000000000000000000e+00,5.000000000000000000e+00,5.000000000000000000e+00,5.000000000000000000e+00,5.000000000000000000e+00,5.000000000000000000e+00,5.000000000000000000e+00,5.000000000000000000e+00,5.000000000000000000e+00,5.000000000000000000e+00,5.000000000000000000e+00,3.053705692291259766e+00,3.108216047286987305e+00,3.041689634323120117e+00,3.081573486328125000e+00,3.121014356613159180e+00,5.000000000000000000e+00,5.000000000000000000e+00,5.000000000000000000e+00,5.000000000000000000e+00,5.000000000000000000e+00,5.000000000000000000e+00,5.000000000000000000e+00,4.865218162536621094e+00,4.673990726470947266e+00,4.497226715087890625e+00,4.333345890045166016e+00,4.180988788604736328e+00,4.038980960845947266e+00,3.906303405761718750e+00,3.782065153121948242e+00,3.665486097335815430e+00,3.555878877639770508e+00,3.452636241912841797e+00,3.355220079421997070e+00,3.263149976730346680e+00,3.175997734069824219e+00,3.093379974365234375e+00,3.014951467514038086e+00,2.940401554107666016e+00,2.869449377059936523e+00,2.801840782165527344e+00,2.737344503402709961e+00,2.675751209259033203e+00,2.616868257522583008e+00,2.560521125793457031e+00,2.506549596786499023e+00,2.454806327819824219e+00,2.405156135559082031e+00,2.357474565505981445e+00,2.311646938323974609e+00,2.267566442489624023e+00,2.225136041641235352e+00,2.184264421463012695e+00,2.144867181777954102e+00,2.106865882873535156e+00,2.070187807083129883e+00,2.034765005111694336e+00,2.000533819198608398e+00,1.967435717582702637e+00,1.935414552688598633e+00,1.904419183731079102e+00,1.874400854110717773e+00,1.845314145088195801e+00
5.000000000000000000e+00,5.000000000000000000e+00,5.000000000000000000e+00,5.000000000000000000e+00,5.000000000000000000e+00,5.000000000000000000e+00,5.000000000000000000e+00,5.000000000000000000e+00,5.000000000000000000e+00,5.000000000000000000e+00,5.000000000000000000e+00,5.000000000000000000e+00,5.000000000000000000e+00,5.000000000000000000e+00,5.000000000000000000e+00,5.000000000000000000e+00,5.000000000000000000e+00,5.000000000000000000e+00,5.000000000000000000e+00,5.000000000000000000e+00,5.000000000000000000e+00,5.000000000000000000e+00,5.000000000000000000e+00,5.000000000000000000e+00,3.064385890960693359e+00,3.055688381195068359e+00,3.048581838607788086e+00,3.034965753555297852e+00,3.031621694564819336e+00,3.038439512252807617e+00,3.050137996673583984e+00,3.071052074432373047e+00,3.099400043487548828e+00,3.119817972183227539e+00,5.000000000000000000e+00,5.000000000000000000e+00,5.000000000000000000e+00,5.000000000000000000e+00,5.000000000000000000e+00,4.865357398986816406e+00,4.674118995666503906e+00,4.497345924377441406e+00,4.333456039428710938e+00,4.181091785430908203e+00,4.039077281951904297e+00,3.906393051147460938e+00,3.782149553298950195e+00,3.665565013885498047e+00,3.555953025817871094e+00,3.452706575393676758e+00,3.355286121368408203e+00,3.263212442398071289e+00,3.176057338714599609e+00,3.093436241149902344e+00,3.015004873275756836e+00,2.940452337265014648e+00,2.869497776031494141e+00,2.801886796951293945e+00,2.737388372421264648e+00,2.675793170928955078e+00,2.616908550262451172e+00,2.560559749603271484e+00,2.506586790084838867e+00,2.454841852188110352e+00,2.405189990997314453e+00,2.357507467269897461e+00,2.311677932739257812e+00,2.267596721649169922e+00,2.225165367126464844e+00,2.184292554855346680e+00,2.144894123077392578e+00,2.106892108917236328e+00,2.070212841033935547e+00,2.034789085388183594e+00,2.000557184219360352e+00,1.967458248138427734e+00,1.935436487197875977e+00,1.904440402984619141e+00,1.874421596527099609e+00,1.845334291458129883e+00
5.000000000000000000e+00,5.000000000000000000e+00,5.000000000000000000e+00,5.000000000000000000e+00,5.000000000000000000e+00,5.000000000000000000e+00,5.000000000000000000e+00,5.000000000000000000e+00,5.000000000000000000e+00,5.000000000000000000e+00,5.000000000000000000e+00,5.000000000000000000e+00,5.000000000000000000e+00,5.000000000000000000e+00,5.000000000000000000e+00,5.000000000000000000e+00,5.000000000000000000e+00,5.000000000000000000e+00,5.000000000000000000e+00,5.000000000000000000e+00,5.000000000000000000e+00,5.000000000000000000e+00,5.000000000000000000e+00,5.000000000000000000e+00,3.062273502349853516e+00,3.056811571121215820e+00,3.014562129974365234e+00,2.994258642196655273e+00,2.993124723434448242e+00,3.002369403839111328e+00,3.020503759384155273e+00,3.062782287597656250e+00,3.124805212020874023e+00,3.118332147598266602e+00,5.000000000000000000e+00,5.000000000000000000e+00,5.000000000000000000e+00,5.000000000000000000e+00,5.000000000000000000e+00,4.865496635437011719e+00,4.674247264862060547e+00,4.497464656829833984e+00,4.333566665649414062e+00,4.181194305419921875e+00,4.039173126220703125e+00,3.906482696533203125e+00,3.782233476638793945e+00,3.665643930435180664e+00,3.556027412414550781e+00,3.452776670455932617e+00,3.355352163314819336e+00,3.263274908065795898e+00,3.176116466522216797e+00,3.093492507934570312e+00,3.015058279037475586e+00,2.940503358840942383e+00,2.869546175003051758e+00,2.801932811737060547e+00,2.737432718276977539e+00,2.675835132598876953e+00,2.616948604583740234e+00,2.560598134994506836e+00,2.506623506546020508e+00,2.454877138137817383e+00,2.405224084854125977e+00,2.357539892196655273e+00,2.311709403991699219e+00,2.267626762390136719e+00,2.225194215774536133e+00,2.184320449829101562e+00,2.144921302795410156e+00,2.106918096542358398e+00,2.070238113403320312e+00,2.034813404083251953e+00,2.000580787658691406e+00,1.967481136322021484e+00,1.935458540916442871e+00,1.904461741447448730e+00,1.874442100524902344e+00,1.845354199409484863e+00
5.000000000000000000e+00,5.000000000000000000e+00,5.000000000000000000e+00,5.000000000000000000e+00,5.000000000000000000e+00,5.000000000000000000e+00,5.000000000000000000e+00,5.000000000000000000e+00,5.000000000000000000e+00,5.000000000000000000e+00,5.000000000000000000e+00,5.000000000000000000e+00,5.000000000000000000e+00,5.000000000000000000e+00,5.000000000000000000e+00,5.000000000000000000e+00,5.000000000000000000e+00,5.000000000000000000e+00,5.000000000000000000e+00,5.000000000000000000e+00,5.000000000000000000e+00,5.000000000000000000e+00,5.000000000000000000e+00,5.000000000000000000e+00,3.105310201644897461e+00,3.077031135559082031e+00,3.017782449722290039e+00,2.998436689376831055e+00,2.996891736984252930e+00,3.004334211349487305e+00,3.023633003234863281e+00,3.061296224594116211e+00,3.109848976135253906e+00,3.120215892791748047e+00,5.000000000000000000e+00,5.000000000000000000e+00,5.000000000000000000e+00,5.000000000000000000e+00,5.000000000000000000e+00,4.865635395050048828e+00,4.674376010894775391e+00,4.497583389282226562e+00,4.333677291870117188e+00,4.181297302246093750e+00,4.039268970489501953e+00,3.906572818756103516e+00,3.782317399978637695e+00,3.665722846984863281e+00,3.556102037429809570e+00,3.452846527099609375e+00,3.355418443679809570e+00,3.263337850570678711e+00,3.176175832748413086e+00,3.093548536300659180e+00,3.015111446380615234e+00,2.940553903579711914e+00,2.869594573974609375e+00,2.801979064941406250e+00,2.737476587295532227e+00,2.675877332687377930e+00,2.616988897323608398e+00,2.560636997222900391e+00,2.506660461425781250e+00,2.454912662506103516e+00,2.405257940292358398e+00,2.357572317123413086e+00,2.311740636825561523e+00,2.267657279968261719e+00,2.225223302841186523e+00,2.184348583221435547e+00,2.144948244094848633e+00,2.106944322586059570e+00,2.070263147354125977e+00,2.034837722778320312e+00,2.000604391098022461e+00,1.967503786087036133e+00,1.935480475425720215e+00,1.904483199119567871e+00,1.874462842941284180e+00,1.845374226570129395e+00
5.000000000000000000e+00,5.000000000000000000e+00,5.000000000000000000e+00,5.000000000000000000e+00,5.000000000000000000e+00,5.000000000000000000e+00,5.000000000000000000e+00,5.000000000000000000e+00,5.000000000000000000e+00,5.000000000000000000e+00,5.000000000000000000e+00,5.000000000000000000e+00,5.000000000000000000e+00,5.000000000000000000e+00,5.000000000000000000e+00,5.000000000000000000e+00,5.000000000000000000e+00,5.000000000000000000e+00,5.000000000000000000e+00,5.000000000000000000e+00,5.000000000000000000e+00,5.000000000000000000e+00,5.000000000000000000e+00,5.000000000000000000e+00,5.000000000000000000e+00,3.090426445007324219e+00,3.030135631561279297e+00,2.999469280242919922e+00,2.988292932510375977e+00,2.996520280838012695e+00,3.027853727340698242e+00,3.070113897323608398e+00,3.106918334960937500e+00,3.111993789672851562e+00,5.000000000000000000e+00,5.000000000000000000e+00,5.000000000000000000e+00,5.000000000000000000e+00,5.000000000000000000e+00,4.865774631500244141e+00,4.674504280090332031e+00,4.497702598571777344e+00,4.333787441253662109e+00,4.181399822235107422e+00,4.039364814758300781e+00,3.906662225723266602e+00,3.782401561737060547e+00,3.665801763534545898e+00,3.556176185607910156e+00,3.452916622161865234e+00,3.355484485626220703e+00,3.263400316238403320e+00,3.176234960556030273e+00,3.093604803085327148e+00,3.015165090560913086e+00,2.940604686737060547e+00,2.869642734527587891e+00,2.802025318145751953e+00,2.737520694732666016e+00,2.675919294357299805e+00,2.617029428482055664e+00,2.560675382614135742e+00,2.506697416305541992e+00,2.454947710037231445e+00,2.405292034149169922e+00,2.357604980468750000e+00,2.311772108078002930e+00,2.267687320709228516e+00,2.225252389907836914e+00,2.184376478195190430e+00,2.144975423812866211e+00,2.106970310211181641e+00,2.070288419723510742e+00,2.034862279891967773e+00,2.000627756118774414e+00,1.967526555061340332e+00,1.935502529144287109e+00,1.904504418373107910e+00,1.874483346939086914e+00,1.845394134521484375e+00
5.000000000000000000e+00,5.000000000000000000e+00,5.000000000000000000e+00,5.000000000000000000e+00,5.000000000000000000e+00,5.000000000000000000e+00,5.000000000000000000e+00,5.000000000000000000e+00,5.000000000000000000e+00,5.000000000000000000e+00,5.000000000000000000e+00,5.000000000000000000e+00,5.000000000000000000e+00,5.000000000000000000e+00,5.000000000000000000e+00,5.000000000000000000e+00,5.000000000000000000e+00,5.000000000000000000e+00,5.000000000000000000e+00,5.000000000000000000e+00,5.000000000000000000e+00,5.000000000000000000e+00,5.000000000000000000e+00,5.000000000000000000e+00,5.000000000000000000e+00,3.100497245788574219e+00,3.046367406845092773e+00,2.997989892959594727e+00,2.990914583206176758e+00,2.999566793441772461e+00,3.024319648742675781e+00,3.085907936096191406e+00,3.117346048355102539e+00,3.109165906906127930e+00,5.000000000000000000e+00,5.000000000000000000e+00,5.000000000000000000e+00,5.000000000000000000e+00,5.000000000000000000e+00,4.865913867950439453e+00,4.674632549285888672e+00,4.497821331024169922e+00,4.333898067474365234e+00,4.181502342224121094e+00,4.039460659027099609e+00,3.906751871109008789e+00,3.782485485076904297e+00,3.665880918502807617e+00,3.556250333786010742e+00,3.452986717224121094e+00,3.355551004409790039e+00,3.263462781906127930e+00,3.176294088363647461e+00,3.093661308288574219e+00,3.015218496322631836e+00,2.940655469894409180e+00,2.869691133499145508e+00,2.802071332931518555e+00,2.737564563751220703e+00,2.675961256027221680e+00,2.617069482803344727e+00,2.560713768005371094e+00,2.506733894348144531e+00,2.454983234405517578e+00,2.405325889587402344e+00,2.357637643814086914e+00,2.311803579330444336e+00,2.267717599868774414e+00,2.225281476974487305e+00,2.184404850006103516e+00,2.145002365112304688e+00,2.106996297836303711e+00,2.070313453674316406e+00,2.034886598587036133e+00,2.000651359558105469e+00,1.967549204826354980e+00,1.935524702072143555e+00,1.904525756835937500e+00,1.874504089355468750e+00,1.845414280891418457e+00
5.000000000000000000e+00,5.000000000000000000e+00,5.000000000000000000e+00,5.000000000000000000e+00,5.000000000000000000e+00,5.000000000000000000e+00,5.000000000000000000e+00,5.000000000000000000e+00,5.000000000000000000e+00,5.000000000000000000e+00,5.000000000000000000e+00,5.000000000000000000e+00,5.000000000000000000e+00,5.000000000000000000e+00,5.000000000000000000e+00,5.000000000000000000e+00,5.000000000000000000e+00,5.000000000000000000e+00,5.000000000000000000e+00,5.000000000000000000e+00,5.000000000000000000e+00,5.000000000000000000e+00,5.000000000000000000e+00,5.000000000000000000e+00,5.000000000000000000e+00,3.109279632568359375e+00,3.042446374893188477e+00,2.986791133880615234e+00,2.990542650222778320e+00,2.999587059020996094e+00,3.019611358642578125e+00,3.104101896286010742e+00,5.000000000000000000e+00,3.113578557968139648e+00,5.000000000000000000e+00,5.000000000000000000e+00,5.000000000000000000e+00,5.000000000000000000e+00,5.000000000000000000e+00,4.866053104400634766e+00,4.674761295318603516e+00,4.497940063476562500e+00,4.334008216857910156e+00,4.181605339050292969e+00,4.039556503295898438e+00,3.906841516494750977e+00,3.782569885253906250e+00,3.665959835052490234e+00,3.556324720382690430e+00,3.453056573867797852e+00,3.355617046356201172e+00,3.263525247573852539e+00,3.176353454589843750e+00,3.093717575073242188e+00,3.015271902084350586e+00,2.940706253051757812e+00,2.869739770889282227e+00,2.802117586135864258e+00,2.737608671188354492e+00,2.676003456115722656e+00,2.617109775543212891e+00,2.560752391815185547e+00,2.506771087646484375e+00,2.455018758773803711e+00,2.405359983444213867e+00,2.357670307159423828e+00,2.311835050582885742e+00,2.267747879028320312e+00,2.225310564041137695e+00,2.184432744979858398e+00,2.145029306411743164e+00,2.107022285461425781e+00,2.070338964462280273e+00,2.034910917282104492e+00,2.000674962997436523e+00,1.967572093009948730e+00,1.935546517372131348e+00,1.904546976089477539e+00,1.874524831771850586e+00,1.845434308052062988e+00
5.000000000000000000e+00,5.000000000000000000e+00,5.000000000000000000e+00,5.000000000000000000e+00,5.000000000000000000e+00,5.000000000000000000e+00,5.000000000000000000e+00,5.000000000000000000e+00,5.000000000000000000e+00,5.000000000000000000e+00,5.000000000000000000e+00,5.000000000000000000e+00,5.000000000000000000e+00,5.000000000000000000e+00,5.000000000000000000e+00,5.000000000000000000e+00,5.000000000000000000e+00,5.000000000000000000e+00,5.000000000000000000e+00,5.000000000000000000e+00,5.000000000000000000e+00,5.000000000000000000e+00,5.000000000000000000e+00,5.000000000000000000e+00,5.000000000000000000e+00,3.126708507537841797e+00,3.028182029724121094e+00,2.979598760604858398e+00,2.981666088104248047e+00,2.990906000137329102e+00,3.006606101989746094e+00,3.079294204711914062e+00,5.000000000000000000e+00,3.092467308044433594e+00,3.117156982421875000e+00,5.000000000000000000e+00,5.000000000000000000e+00,5.000000000000000000e+00,5.000000000000000000e+00,4.866191864013671875e+00,4.674889564514160156e+00,4.498059272766113281e+00,4.334118366241455078e+00,4.181707859039306641e+00,4.039652347564697266e+00,3.906931161880493164e+00,3.782653808593750000e+00,3.666038751602172852e+00,3.556398868560791016e+00,3.453126907348632812e+00,3.355683088302612305e+00,3.263587951660156250e+00,3.176413059234619141e+00,3.093773603439331055e+00,3.015325307846069336e+00,2.940757036209106445e+00,2.869788169860839844e+00,2.802163600921630859e+00,2.737652778625488281e+00,2.676045656204223633e+00,2.617149829864501953e+00,2.560790538787841797e+00,2.506808042526245117e+00,2.455054044723510742e+00,2.405393838882446289e+00,2.357703208923339844e+00,2.311866283416748047e+00,2.267777919769287109e+00,2.225339889526367188e+00,2.184460878372192383e+00,2.145056486129760742e+00,2.107048511505126953e+00,2.070363998413085938e+00,2.034935235977172852e+00,2.000698328018188477e+00,1.967594861984252930e+00,1.935568690299987793e+00,1.904568314552307129e+00,1.874545335769653320e+00,1.845454216003417969e+00
5.000000000000000000e+00,5.000000000000000000e+00,5.000000000000000000e+00,5.000000000000000000e+00,5.000000000000000000e+00,5.000000000000000000e+00,5.000000000000000000e+00,5.000000000000000000e+00,5.000000000000000000e+00,5.000000000000000000e+00,5.000000000000000000e+00,5.000000000000000000e+00,5.000000000000000000e+00,5.000000000000000000e+00,5.000000000000000000e+00,5.000000000000000000e+00,5.000000000000000000e+00,5.000000000000000000e+00,5.000000000000000000e+00,5.000000000000000000e+00,5.000000000000000000e+00,5.000000000000000000e+00,5.000000000000000000e+00,5.000000000000000000e+00,5.000000000000000000e+00,3.119360923767089844e+00,3.033782958984375000e+00,3.001008987426757812e+00,2.995747804641723633e+00,3.000672578811645508e+00,3.020788431167602539e+00,3.065258502960205078e+00,5.000000000000000000e+00,3.064250707626342773e+00,3.074949741363525391e+00,5.000000000000000000e+00,5.000000000000000000e+00,5.000000000000000000e+00,5.000000000000000000e+00,4.866331100463867188e+00,4.675017833709716797e+00,4.498178005218505859e+00,4.334228992462158203e+00,4.181810855865478516e+00,4.039748191833496094e+00,3.907021284103393555e+00,3.782737970352172852e+00,3.666117668151855469e+00,3.556473255157470703e+00,3.453197002410888672e+00,3.355749130249023438e+00,3.263650417327880859e+00,3.176472187042236328e+00,3.093829870223999023e+00,3.015378713607788086e+00,2.940808057785034180e+00,2.869836568832397461e+00,2.802209615707397461e+00,2.737696886062622070e+00,2.676087617874145508e+00,2.617189884185791016e+00,2.560829401016235352e+00,2.506844758987426758e+00,2.455089330673217773e+00,2.405427694320678711e+00,2.357735633850097656e+00,2.311897754669189453e+00,2.267808198928833008e+00,2.225368976593017578e+00,2.184488773345947266e+00,2.145083427429199219e+00,2.107074737548828125e+00,2.070389270782470703e+00,2.034959554672241211e+00,2.000721931457519531e+00,1.967617511749267578e+00,1.935590505599975586e+00,1.904589772224426270e+00,1.874566078186035156e+00,1.845474362373352051e+00
5.000000000000000000e+00,5.000000000000000000e+00,5.000000000000000000e+00,5.000000000000000000e+00,5.000000000000000000e+00,5.000000000000000000e+00,5.000000000000000000e+00,5.000000000000000000e+00,5.000000000000000000e+00,5.000000000000000000e+00,5.000000000000000000e+00,5.000000000000000000e+00,5.000000000000000000e+00,5.000000000000000000e+00,5.000000000000000000e+00,5.000000000000000000e+00,5.000000000000000000e+00,5.000000000000000000e+00,5.000000000000000000e+00,5.000000000000000000e+00,5.000000000000000000e+00,5.000000000000000000e+00,5.000000000000000000e+00,5.000000000000000000e+00,5.000000000000000000e+00,3.102371215820312500e+00,3.006343841552734375e+00,2.989636659622192383e+00,3.016064167022705078e+00,3.020941257476806641e+00,3.031897068023681641e+00,3.059510231018066406e+00,5.000000000000000000e+00,3.051675081253051758e+00,3.029764890670776367e+00,5.000000000000000000e+00,5.000000000000000000e+00,5.000000000000000000e+00,5.000000000000000000e+00,4.866470336914062500e+00,4.675146579742431641e+00,4.498296737670898438e+00,4.334339141845703125e+00,4.181913375854492188e+00,4.039844036102294922e+00,3.907110929489135742e+00,3.782821893692016602e+00,3.666196584701538086e+00,3.556547880172729492e+00,3.453267097473144531e+00,3.355815410614013672e+00,3.263713359832763672e+00,3.176531553268432617e+00,3.093886137008666992e+00,3.015432357788085938e+00,2.940858840942382812e+00,2.869884729385375977e+00,2.802255868911743164e+00,2.737740755081176758e+00,2.676129341125488281e+00,2.617230176925659180e+00,2.560867786407470703e+00,2.506881713867187500e+00,2.455124855041503906e+00,2.405462026596069336e+00,2.357768297195434570e+00,2.311929225921630859e+00,2.267838478088378906e+00,2.225398063659667969e+00,2.184516906738281250e+00,2.145110607147216797e+00,2.107100725173950195e+00,2.070414304733276367e+00,2.034983873367309570e+00,2.000745534896850586e+00,1.967640399932861328e+00,1.935612678527832031e+00,1.904610991477966309e+00,1.874586582183837891e+00,1.845494270324707031e+00
5.000000000000000000e+00,5.000000000000000000e+00,5.000000000000000000e+00,5.000000000000000000e+00,5.000000000000000000e+00,5.000000000000000000e+00,5.000000000000000000e+00,5.000000000000000000e+00,5.000000000000000000e+00,5.000000000000000000e+00,5.000000000000000000e+00,5.000000000000000000e+00,5.000000000000000000e+00,5.000000000000000000e+00,5.000000000000000000e+00,5.000000000000000000e+00,5.000000000000000000e+00,5.000000000000000000e+00,5.000000000000000000e+00,5.000000000000000000e+00,5.000000000000000000e+00,5.000000000000000000e+00,5.000000000000000000e+00,5.000000000000000000e+00,5.000000000000000000e+00,3.088638067245483398e+00,2.944223403930664062e+00,2.927815914154052734e+00,2.962757110595703125e+00,3.060064554214477539e+00,3.031775951385498047e+00,3.055396318435668945e+00,5.000000000000000000e+00,5.000000000000000000e+00,2.998330116271972656e+00,5.000000000000000000e+00,5.000000000000000000e+00,5.000000000000000000e+00,5.000000000000000000e+00,4.866609573364257812e+00,4.675274848937988281e+00,4.498415946960449219e+00,4.334449768066406250e+00,4.182016372680664062e+00,4.039940357208251953e+00,3.907200574874877930e+00,3.782905817031860352e+00,3.666275978088378906e+00,3.556622028350830078e+00,3.453336954116821289e+00,3.355881452560424805e+00,3.263775825500488281e+00,3.176590681076049805e+00,3.093942165374755859e+00,3.015485763549804688e+00,2.940909624099731445e+00,2.869933128356933594e+00,2.802302122116088867e+00,2.737784624099731445e+00,2.676171541213989258e+00,2.617270469665527344e+00,2.560906410217285156e+00,2.506918668746948242e+00,2.455160379409790039e+00,2.405495882034301758e+00,2.357800960540771484e+00,2.311960458755493164e+00,2.267868757247924805e+00,2.225427150726318359e+00,2.184544801712036133e+00,2.145137548446655273e+00,2.107126712799072266e+00,2.070439577102661133e+00,2.035008192062377930e+00,2.000768899917602539e+00,1.967662930488586426e+00,1.935634732246398926e+00,1.904632329940795898e+00,1.874607324600219727e+00,1.845514297485351562e+00
5.000000000000000000e+00,5.000000000000000000e+00,5.000000000000000000e+00,5.000000000000000000e+00,5.000000000000000000e+00,5.000000000000000000e+00,5.000000000000000000e+00,5.000000000000000000e+00,5.000000000000000000e+00,5.000000000000000000e+00,5.000000000000000000e+00,5.000000000000000000e+00,5.000000000000000000e+00,5.000000000000000000e+00,5.000000000000000000e+00,5.000000000000000000e+00,5.000000000000000000e+00,5.000000000000000000e+00,5.000000000000000000e+00,5.000000000000000000e+00,5.000000000000000000e+00,5.000000000000000000e+00,5.000000000000000000e+00,5.000000000000000000e+00,5.000000000000000000e+00,3.067969322204589844e+00,2.915211200714111328e+00,2.904811143875122070e+00,2.939026355743408203e+00,3.039358615875244141e+00,3.021048307418823242e+00,3.050382375717163086e+00,5.000000000000000000e+00,5.000000000000000000e+00,2.950155735015869141e+00,5.000000000000000000e+00,5.000000000000000000e+00,5.000000000000000000e+00,5.000000000000000000e+00,4.866748809814453125e+00,4.675403594970703125e+00,4.498534679412841797e+00,4.334560394287109375e+00,4.182118892669677734e+00,4.040035724639892578e+00,3.907289981842041016e+00,3.782989978790283203e+00,3.666354894638061523e+00,3.556696414947509766e+00,3.453407049179077148e+00,3.355947971343994141e+00,3.263838291168212891e+00,3.176650047302246094e+00,3.093998670578002930e+00,3.015539169311523438e+00,2.940960407257080078e+00,2.869981765747070312e+00,2.802347898483276367e+00,2.737828731536865234e+00,2.676213502883911133e+00,2.617310762405395508e+00,2.560944795608520508e+00,2.506955623626708984e+00,2.455195665359497070e+00,2.405529975891113281e+00,2.357833623886108398e+00,2.311992168426513672e+00,2.267899036407470703e+00,2.225456237792968750e+00,2.184572935104370117e+00,2.145164489746093750e+00,2.107152938842773438e+00,2.070464849472045898e+00,2.035032510757446289e+00,2.000792503356933594e+00,1.967685818672180176e+00,1.935656666755676270e+00,1.904653549194335938e+00,1.874627828598022461e+00,1.845534443855285645e+00
5.000000000000000000e+00,5.000000000000000000e+00,5.000000000000000000e+00,5.000000000000000000e+00,5.000000000000000000e+00,5.000000000000000000e+00,5.000000000000000000e+00,5.000000000000000000e+00,5.000000000000000000e+00,5.000000000000000000e+00,5.000000000000000000e+00,5.000000000000000000e+00,5.000000000000000000e+00,5.000000000000000000e+00,5.000000000000000000e+00,5.000000000000000000e+00,5.000000000000000000e+00,5.000000000000000000e+00,5.000000000000000000e+00,5.000000000000000000e+00,5.000000000000000000e+00,5.000000000000000000e+00,5.000000000000000000e+00,5.000000000000000000e+00,5.000000000000000000e+00,3.064020156860351562e+00,2.890033483505249023e+00,2.882567405700683594e+00,2.923350334167480469e+00,3.041322946548461914e+00,3.023449182510375977e+00,3.057070970535278320e+00,5.000000000000000000e+00,5.000000000000000000e+00,5.000000000000000000e+00,5.000000000000000000e+00,5.000000000000000000e+00,5.000000000000000000e+00,5.000000000000000000e+00,4.866888046264648438e+00,4.675531864166259766e+00,4.498653411865234375e+00,4.334670543670654297e+00,4.182221889495849609e+00,4.040131568908691406e+00,3.907379627227783203e+00,3.783074378967285156e+00,3.666433811187744141e+00,3.556770563125610352e+00,3.453477144241333008e+00,3.356014013290405273e+00,3.263900995254516602e+00,3.176709175109863281e+00,3.094054937362670898e+00,3.015592575073242188e+00,2.941011190414428711e+00,2.870029926300048828e+00,2.802394151687622070e+00,2.737872600555419922e+00,2.676255702972412109e+00,2.617351055145263672e+00,2.560983419418334961e+00,2.506992578506469727e+00,2.455231189727783203e+00,2.405563831329345703e+00,2.357866287231445312e+00,2.312023401260375977e+00,2.267929077148437500e+00,2.225485086441040039e+00,2.184601068496704102e+00,2.145191669464111328e+00,2.107178926467895508e+00,2.070489883422851562e+00,2.035056829452514648e+00,2.000816106796264648e+00,1.967708706855773926e+00,1.935678720474243164e+00,1.904675006866455078e+00,1.874648571014404297e+00,1.845554351806640625e+00
5.000000000000000000e+00,5.000000000000000000e+00,5.000000000000000000e+00,5.000000000000000000e+00,5.000000000000000000e+00,5.000000000000000000e+00,5.000000000000000000e+00,5.000000000000000000e+00,5.000000000000000000e+00,5.000000000000000000e+00,5.000000000000000000e+00,5.000000000000000000e+00,5.000000000000000000e+00,5.000000000000000000e+00,5.000000000000000000e+00,5.000000000000000000e+00,5.000000000000000000e+00,5.000000000000000000e+00,5.000000000000000000e+00,5.000000000000000000e+00,5.000000000000000000e+00,5.000000000000000000e+00,5.000000000000000000e+00,5.000000000000000000e+00,5.000000000000000000e+00,3.041770935058593750e+00,2.859100580215454102e+00,2.858271598815917969e+00,2.905817985534667969e+00,3.048134803771972656e+00,3.032927751541137695e+00,3.067766427993774414e+00,5.000000000000000000e+00,5.000000000000000000e+00,5.000000000000000000e+00,5.000000000000000000e+00,5.000000000000000000e+00,5.000000000000000000e+00,5.000000000000000000e+00,4.867027282714843750e+00,4.675660133361816406e+00,4.498772621154785156e+00,4.334780693054199219e+00,4.182324409484863281e+00,4.040227890014648438e+00,3.907469272613525391e+00,3.783158302307128906e+00,3.666512727737426758e+00,3.556844949722290039e+00,3.453547477722167969e+00,3.356080293655395508e+00,3.263963460922241211e+00,3.176768779754638672e+00,3.094111204147338867e+00,3.015645980834960938e+00,2.941061973571777344e+00,2.870078325271606445e+00,2.802440166473388672e+00,2.737916707992553711e+00,2.676297903060913086e+00,2.617391347885131836e+00,2.561021804809570312e+00,2.507029533386230469e+00,2.455266475677490234e+00,2.405597925186157227e+00,2.357899188995361328e+00,2.312054872512817383e+00,2.267959356307983398e+00,2.225514411926269531e+00,2.184628963470458984e+00,2.145218610763549805e+00,2.107205152511596680e+00,2.070515155792236328e+00,2.035081148147583008e+00,2.000839471817016602e+00,1.967731237411499023e+00,1.935700654983520508e+00,1.904696106910705566e+00,1.874669313430786133e+00,1.845574378967285156e+00
5.000000000000000000e+00,5.000000000000000000e+00,5.000000000000000000e+00,5.000000000000000000e+00,5.000000000000000000e+00,5.000000000000000000e+00,5.000000000000000000e+00,5.000000000000000000e+00,5.000000000000000000e+00,5.000000000000000000e+00,5.000000000000000000e+00,5.000000000000000000e+00,5.000000000000000000e+00,5.000000000000000000e+00,5.000000000000000000e+00,5.000000000000000000e+00,5.000000000000000000e+00,5.000000000000000000e+00,5.000000000000000000e+00,5.000000000000000000e+00,5.000000000000000000e+00,5.000000000000000000e+00,5.000000000000000000e+00,5.000000000000000000e+00,5.000000000000000000e+00,5.000000000000000000e+00,2.828910589218139648e+00,2.831545829772949219e+00,2.884954452514648438e+00,3.054543256759643555e+00,3.042465925216674805e+00,3.080852508544921875e+00,5.000000000000000000e+00,5.000000000000000000e+00,5.000000000000000000e+00,5.000000000000000000e+00,5.000000000000000000e+00,5.000000000000000000e+00,5.000000000000000000e+00,4.867166519165039062e+00,4.675788879394531250e+00,4.498891353607177734e+00,4.334891319274902344e+00,4.182427406311035156e+00,4.040323734283447266e+00,3.907559394836425781e+00,3.783242464065551758e+00,3.666591644287109375e+00,3.556919574737548828e+00,3.453617572784423828e+00,3.356146335601806641e+00,3.264025926589965820e+00,3.176827907562255859e+00,3.094167470932006836e+00,3.015699148178100586e+00,2.941112756729125977e+00,2.870126724243164062e+00,2.802486419677734375e+00,2.737960815429687500e+00,2.676339864730834961e+00,2.617431402206420898e+00,2.561060428619384766e+00,2.507066488265991211e+00,2.455302000045776367e+00,2.405632019042968750e+00,2.357931852340698242e+00,2.312086105346679688e+00,2.267989635467529297e+00,2.225543498992919922e+00,2.184657096862792969e+00,2.145245552062988281e+00,2.107231140136718750e+00,2.070540428161621094e+00,2.035105466842651367e+00,2.000863075256347656e+00,1.967754125595092773e+00,1.935722827911376953e+00,1.904717564582824707e+00,1.874689936637878418e+00,1.845594286918640137e+00
5.000000000000000000e+00,5.000000000000000000e+00,5.000000000000000000e+00,5.000000000000000000e+00,5.000000000000000000e+00,5.000000000000000000e+00,5.000000000000000000e+00,5.000000000000000000e+00,5.000000000000000000e+00,5.000000000000000000e+00,5.000000000000000000e+00,5.000000000000000000e+00,5.000000000000000000e+00,5.000000000000000000e+00,5.000000000000000000e+00,5.000000000000000000e+00,5.000000000000000000e+00,5.000000000000000000e+00,5.000000000000000000e+00,5.000000000000000000e+00,5.000000000000000000e+00,5.000000000000000000e+00,5.000000000000000000e+00,5.000000000000000000e+00,5.000000000000000000e+00,5.000000000000000000e+00,2.808685541152954102e+00,2.808000564575195312e+00,2.867979288101196289e+00,3.059747934341430664e+00,3.050573348999023438e+00,3.092630624771118164e+00,5.000000000000000000e+00,5.000000000000000000e+00,5.000000000000000000e+00,5.000000000000000000e+00,5.000000000000000000e+00,5.000000000000000000e+00,5.000000000000000000e+00,4.867305278778076172e+00,4.675917148590087891e+00,4.499010562896728516e+00,4.335001945495605469e+00,4.182530403137207031e+00,4.040419578552246094e+00,3.907649040222167969e+00,3.783326387405395508e+00,3.666670560836791992e+00,3.556993961334228516e+00,3.453687429428100586e+00,3.356212377548217773e+00,3.264088869094848633e+00,3.176887273788452148e+00,3.094223260879516602e+00,3.015752792358398438e+00,2.941163539886474609e+00,2.870174884796142578e+00,2.802532672882080078e+00,2.738005161285400391e+00,2.676382064819335938e+00,2.617471694946289062e+00,2.561099052429199219e+00,2.507103443145751953e+00,2.455337285995483398e+00,2.405665874481201172e+00,2.357964277267456055e+00,2.312117576599121094e+00,2.268019914627075195e+00,2.225572586059570312e+00,2.184684991836547852e+00,2.145272731781005859e+00,2.107257366180419922e+00,2.070565462112426758e+00,2.035130023956298828e+00,2.000886678695678711e+00,1.967776775360107422e+00,1.935744643211364746e+00,1.904739022254943848e+00,1.874710679054260254e+00,1.845614433288574219e+00
5.000000000000000000e+00,5.000000000000000000e+00,5.000000000000000000e+00,5.000000000000000000e+00,5.000000000000000000e+00,5.000000000000000000e+00,5.000000000000000000e+00,5.000000000000000000e+00,5.000000000000000000e+00,5.000000000000000000e+00,5.000000000000000000e+00,5.000000000000000000e+00,5.000000000000000000e+00,5.000000000000000000e+00,5.000000000000000000e+00,5.000000000000000000e+00,5.000000000000000000e+00,5.000000000000000000e+00,5.000000000000000000e+00,5.000000000000000000e+00,5.000000000000000000e+00,5.000000000000000000e+00,5.000000000000000000e+00,5.000000000000000000e+00,5.000000000000000000e+00,5.000000000000000000e+00,2.817752122879028320e+00,2.811526775360107422e+00,2.865404844284057617e+00,3.065588235855102539e+00,3.058916807174682617e+00,5.000000000000000000e+00,5.000000000000000000e+00,5.000000000000000000e+00,5.000000000000000000e+00,5.000000000000000000e+00,5.000000000000000000e+00,5.000000000000000000e+00,5.000000000000000000e+00,4.867444992065429688e+00,4.676045417785644531e+00,4.499129295349121094e+00,4.335112571716308594e+00,4.182632923126220703e+00,4.040515422821044922e+00,3.907738685607910156e+00,3.783410549163818359e+00,3.666749954223632812e+00,3.557068109512329102e+00,3.453757524490356445e+00,3.356278896331787109e+00,3.264151334762573242e+00,3.176946163177490234e+00,3.094279527664184570e+00,3.015806198120117188e+00,2.941214323043823242e+00,2.870223283767700195e+00,2.802578687667846680e+00,2.738049030303955078e+00,2.676424026489257812e+00,2.617512226104736328e+00,2.561137676239013672e+00,2.507140159606933594e+00,2.455372810363769531e+00,2.405699968338012695e+00,2.357996940612792969e+00,2.312149047851562500e+00,2.268049955368041992e+00,2.225601673126220703e+00,2.184713125228881836e+00,2.145299911499023438e+00,2.107283353805541992e+00,2.070590734481811523e+00,2.035154342651367188e+00,2.000910043716430664e+00,1.967799544334411621e+00,1.935766816139221191e+00,1.904760122299194336e+00,1.874731183052062988e+00,1.845634460449218750e+00
5.000000000000000000e+00,5.000000000000000000e+00,5.000000000000000000e+00,5.000000000000000000e+00,5.000000000000000000e+00,5.000000000000000000e+00,5.000000000000000000e+00,5.000000000000000000e+00,5.000000000000000000e+00,5.000000000000000000e+00,5.000000000000000000e+00,5.000000000000000000e+00,5.000000000000000000e+00,5.000000000000000000e+00,5.000000000000000000e+00,5.000000000000000000e+00,5.000000000000000000e+00,5.000000000000000000e+00,5.000000000000000000e+00,5.000000000000000000e+00,5.000000000000000000e+00,5.000000000000000000e+00,5.000000000000000000e+00,5.000000000000000000e+00,5.000000000000000000e+00,5.000000000000000000e+00,2.833094835281372070e+00,2.821752309799194336e+00,2.881576538085937500e+00,3.076074361801147461e+00,3.067373037338256836e+00,5.000000000000000000e+00,5.000000000000000000e+00,5.000000000000000000e+00,5.000000000000000000e+00,5.000000000000000000e+00,5.000000000000000000e+00,5.000000000000000000e+00,5.000000000000000000e+00,4.867583751678466797e+00,4.676174163818359375e+00,4.499248027801513672e+00,4.335222721099853516e+00,4.182735919952392578e+00,4.040611267089843750e+00,3.907828330993652344e+00,3.783494472503662109e+00,3.666828870773315430e+00,3.557142496109008789e+00,3.453827619552612305e+00,3.356344938278198242e+00,3.264213800430297852e+00,3.177005529403686523e+00,3.094336032867431641e+00,3.015859603881835938e+00,2.941265106201171875e+00,2.870271921157836914e+00,2.802624940872192383e+00,2.738093137741088867e+00,2.676466226577758789e+00,2.617552280426025391e+00,2.561176061630249023e+00,2.507177114486694336e+00,2.455408334732055664e+00,2.405733823776245117e+00,2.358029603958129883e+00,2.312180519104003906e+00,2.268080234527587891e+00,2.225630760192871094e+00,2.184741258621215820e+00,2.145326852798461914e+00,2.107309341430664062e+00,2.070616006851196289e+00,2.035178661346435547e+00,2.000933647155761719e+00,1.967822432518005371e+00,1.935788869857788086e+00,1.904781579971313477e+00,1.874751925468444824e+00,1.845654368400573730e+00
5.000000000000000000e+00,5.000000000000000000e+00,5.000000000000000000e+00,5.000000000000000000e+00,5.000000000000000000e+00,5.000000000000000000e+00,5.000000000000000000e+00,5.000000000000000000e+00,5.000000000000000000e+00,5.000000000000000000e+00,5.000000000000000000e+00,5.000000000000000000e+00,5.000000000000000000e+00,5.000000000000000000e+00,5.000000000000000000e+00,5.000000000000000000e+00,5.000000000000000000e+00,5.000000000000000000e+00,5.000000000000000000e+00,5.000000000000000000e+00,5.000000000000000000e+00,5.000000000000000000e+00,5.000000000000000000e+00,5.000000000000000000e+00,5.000000000000000000e+00,5.000000000000000000e+00,2.842666864395141602e+00,2.836064577102661133e+00,2.895230531692504883e+00,3.114039659500122070e+00,3.098154067993164062e+00,5.000000000000000000e+00,5.000000000000000000e+00,5.000000000000000000e+00,5.000000000000000000e+00,5.000000000000000000e+00,5.000000000000000000e+00,5.000000000000000000e+00,5.000000000000000000e+00,4.867722034454345703e+00,4.676302433013916016e+00,4.499367237091064453e+00,4.335332870483398438e+00,4.182838439941406250e+00,4.040707111358642578e+00,3.907917976379394531e+00,3.783579111099243164e+00,3.666907787322998047e+00,3.557216644287109375e+00,3.453897953033447266e+00,3.356410980224609375e+00,3.264276266098022461e+00,3.177064657211303711e+00,3.094392299652099609e+00,3.015913009643554688e+00,2.941315889358520508e+00,2.870320320129394531e+00,2.802670955657958984e+00,2.738137006759643555e+00,2.676508426666259766e+00,2.617592573165893555e+00,2.561214685440063477e+00,2.507214307785034180e+00,2.455443620681762695e+00,2.405767917633056641e+00,2.358062505722045898e+00,2.312211990356445312e+00,2.268110513687133789e+00,2.225659847259521484e+00,2.184769153594970703e+00,2.145353794097900391e+00,2.107335567474365234e+00,2.070641040802001953e+00,2.035202980041503906e+00,2.000957250595092773e+00,1.967845082283020020e+00,1.935810804367065430e+00,1.904802799224853516e+00,1.874772667884826660e+00,1.845674514770507812e+00
5.000000000000000000e+00,5.000000000000000000e+00,5.000000000000000000e+00,5.000000000000000000e+00,5.000000000000000000e+00,5.000000000000000000e+00,5.000000000000000000e+00,5.000000000000000000e+00,5.000000000000000000e+00,5.000000000000000000e+00,5.000000000000000000e+00,5.000000000000000000e+00,5.000000000000000000e+00,5.000000000000000000e+00,5.000000000000000000e+00,5.000000000000000000e+00,5.000000000000000000e+00,5.000000000000000000e+00,5.000000000000000000e+00,5.000000000000000000e+00,5.000000000000000000e+00,5.000000000000000000e+00,5.000000000000000000e+00,5.000000000000000000e+00,5.000000000000000000e+00,5.000000000000000000e+00,2.843336343765258789e+00,2.830286979675292969e+00,2.885738372802734375e+00,3.171214818954467773e+00,3.160163402557373047e+00,5.000000000000000000e+00,5.000000000000000000e+00,5.000000000000000000e+00,5.000000000000000000e+00,5.000000000000000000e+00,5.000000000000000000e+00,5.000000000000000000e+00,5.000000000000000000e+00,4.867860794067382812e+00,4.676430225372314453e+00,4.499486446380615234e+00,4.335443496704101562e+00,4.182941436767578125e+00,4.040803432464599609e+00,3.908007621765136719e+00,3.783663034439086914e+00,3.666986703872680664e+00,3.557291030883789062e+00,3.453967809677124023e+00,3.356477022171020508e+00,3.264338731765747070e+00,3.177124261856079102e+00,3.094448566436767578e+00,3.015966415405273438e+00,2.941366910934448242e+00,2.870368719100952148e+00,2.802717208862304688e+00,2.738181352615356445e+00,2.676550388336181641e+00,2.617632865905761719e+00,2.561253070831298828e+00,2.507251262664794922e+00,2.455479145050048828e+00,2.405801773071289062e+00,2.358095169067382812e+00,2.312243223190307617e+00,2.268140792846679688e+00,2.225689172744750977e+00,2.184797286987304688e+00,2.145380973815917969e+00,2.107361793518066406e+00,2.070666313171386719e+00,2.035227298736572266e+00,2.000980854034423828e+00,1.967867851257324219e+00,1.935832858085632324e+00,1.904824137687683105e+00,1.874793171882629395e+00,1.845694422721862793e+00
5.000000000000000000e+00,5.000000000000000000e+00,5.000000000000000000e+00,5.000000000000000000e+00,5.000000000000000000e+00,5.000000000000000000e+00,5.000000000000000000e+00,5.000000000000000000e+00,5.000000000000000000e+00,5.000000000000000000e+00,5.000000000000000000e+00,5.000000000000000000e+00,5.000000000000000000e+00,5.000000000000000000e+00,5.000000000000000000e+00,5.000000000000000000e+00,5.000000000000000000e+00,5.000000000000000000e+00,5.000000000000000000e+00,5.000000000000000000e+00,5.000000000000000000e+00,5.000000000000000000e+00,5.000000000000000000e+00,5.000000000000000000e+00,5.000000000000000000e+00,5.000000000000000000e+00,2.853261709213256836e+00,2.824134349822998047e+00,2.875835895538330078e+00,3.191088438034057617e+00,3.189818859100341797e+00,5.000000000000000000e+00,5.000000000000000000e+00,5.000000000000000000e+00,5.000000000000000000e+00,5.000000000000000000e+00,5.000000000000000000e+00,5.000000000000000000e+00,5.000000000000000000e+00,4.867999553680419922e+00,4.676558017730712891e+00,4.499605178833007812e+00,4.335554122924804688e+00,4.183044433593750000e+00,4.040899276733398438e+00,3.908097743988037109e+00,3.783747196197509766e+00,3.667065620422363281e+00,3.557365417480468750e+00,3.454037666320800781e+00,3.356543302536010742e+00,3.264401674270629883e+00,3.177183628082275391e+00,3.094504833221435547e+00,3.016019821166992188e+00,2.941417932510375977e+00,2.870417118072509766e+00,2.802763223648071289e+00,2.738225460052490234e+00,2.676592350006103516e+00,2.617672920227050781e+00,2.561291694641113281e+00,2.507287979125976562e+00,2.455514430999755859e+00,2.405836105346679688e+00,2.358127832412719727e+00,2.312274694442749023e+00,2.268171072006225586e+00,2.225718021392822266e+00,2.184825420379638672e+00,2.145407915115356445e+00,2.107387781143188477e+00,2.070691585540771484e+00,2.035251617431640625e+00,2.001004219055175781e+00,1.967890501022338867e+00,1.935854792594909668e+00,1.904845595359802246e+00,1.874813914299011230e+00,1.845714569091796875e+00
5.000000000000000000e+00,5.000000000000000000e+00,5.000000000000000000e+00,5.000000000000000000e+00,5.000000000000000000e+00,5.000000000000000000e+00,5.000000000000000000e+00,5.000000000000000000e+00,5.000000000000000000e+00,5.000000000000000000e+00,5.000000000000000000e+00,5.000000000000000000e+00,5.000000000000000000e+00,5.000000000000000000e+00,5.000000000000000000e+00,5.000000000000000000e+00,5.000000000000000000e+00,5.000000000000000000e+00,5.000000000000000000e+00,5.000000000000000000e+00,5.000000000000000000e+00,5.000000000000000000e+00,5.000000000000000000e+00,5.000000000000000000e+00,5.000000000000000000e+00,5.000000000000000000e+00,2.863322019577026367e+00,2.818070411682128906e+00,2.872270107269287109e+00,3.210435628890991211e+00,3.220695734024047852e+00,5.000000000000000000e+00,5.000000000000000000e+00,5.000000000000000000e+00,5.000000000000000000e+00,5.000000000000000000e+00,5.000000000000000000e+00,5.000000000000000000e+00,5.000000000000000000e+00,4.868138790130615234e+00,4.676686286926269531e+00,4.499723434448242188e+00,4.335664272308349609e+00,4.183146953582763672e+00,4.040995597839355469e+00,3.908187389373779297e+00,3.783831119537353516e+00,3.667144298553466797e+00,3.557439804077148438e+00,3.454107761383056641e+00,3.356609344482421875e+00,3.264464378356933594e+00,3.177242755889892578e+00,3.094560861587524414e+00,3.016073465347290039e+00,2.941468715667724609e+00,2.870465517044067383e+00,2.802809715270996094e+00,2.738269329071044922e+00,2.676634550094604492e+00,2.617713451385498047e+00,2.561330318450927734e+00,2.507324934005737305e+00,2.455549955368041992e+00,2.405869960784912109e+00,2.358160495758056641e+00,2.312306165695190430e+00,2.268201351165771484e+00,2.225747108459472656e+00,2.184853315353393555e+00,2.145435094833374023e+00,2.107413768768310547e+00,2.070716619491577148e+00,2.035275936126708984e+00,2.001027822494506836e+00,1.967913389205932617e+00,1.935876846313476562e+00,1.904866814613342285e+00,1.874834418296813965e+00,1.845734477043151855e+00
5.000000000000000000e+00,5.000000000000000000e+00,5.000000000000000000e+00,5.000000000000000000e+00,5.000000000000000000e+00,5.000000000000000000e+00,5.000000000000000000e+00,5.000000000000000000e+00,5.000000000000000000e+00,5.000000000000000000e+00,5.000000000000000000e+00,5.000000000000000000e+00,5.000000000000000000e+00,5.000000000000000000e+00,5.000000000000000000e+00,5.000000000000000000e+00,5.000000000000000000e+00,5.000000000000000000e+00,5.000000000000000000e+00,5.000000000000000000e+00,5.000000000000000000e+00,5.000000000000000000e+00,5.000000000000000000e+00,5.000000000000000000e+00,5.000000000000000000e+00,5.000000000000000000e+00,5.000000000000000000e+00,2.813106775283813477e+00,2.872542381286621094e+00,3.231669902801513672e+00,3.272627592086791992e+00,5.000000000000000000e+00,5.000000000000000000e+00,5.000000000000000000e+00,5.000000000000000000e+00,5.000000000000000000e+00,5.000000000000000000e+00,5.000000000000000000e+00,5.000000000000000000e+00,4.868277072906494141e+00,4.676814079284667969e+00,4.499841690063476562e+00,4.335773944854736328e+00,4.183249950408935547e+00,4.041091442108154297e+00,3.908277273178100586e+00,3.783915042877197266e+00,3.667223691940307617e+00,3.557513952255249023e+00,3.454177856445312500e+00,3.356675863265991211e+00,3.264526844024658203e+00,3.177302122116088867e+00,3.094617366790771484e+00,3.016126871109008789e+00,2.941519498825073242e+00,2.870513916015625000e+00,2.802855730056762695e+00,2.738313436508178711e+00,2.676676511764526367e+00,2.617753744125366211e+00,2.561368942260742188e+00,2.507361888885498047e+00,2.455585479736328125e+00,2.405904054641723633e+00,2.358193159103393555e+00,2.312337636947631836e+00,2.268231391906738281e+00,2.225776195526123047e+00,2.184881448745727539e+00,2.145462036132812500e+00,2.107439994812011719e+00,2.070741891860961914e+00,2.035300254821777344e+00,2.001051187515258789e+00,1.967936038970947266e+00,1.935899019241333008e+00,1.904888153076171875e+00,1.874855160713195801e+00,1.845754504203796387e+00
5.000000000000000000e+00,5.000000000000000000e+00,5.000000000000000000e+00,5.000000000000000000e+00,5.000000000000000000e+00,5.000000000000000000e+00,5.000000000000000000e+00,5.000000000000000000e+00,5.000000000000000000e+00,5.000000000000000000e+00,5.000000000000000000e+00,5.000000000000000000e+00,5.000000000000000000e+00,5.000000000000000000e+00,5.000000000000000000e+00,5.000000000000000000e+00,5.000000000000000000e+00,5.000000000000000000e+00,5.000000000000000000e+00,5.000000000000000000e+00,5.000000000000000000e+00,5.000000000000000000e+00,5.000000000000000000e+00,5.000000000000000000e+00,5.000000000000000000e+00,5.000000000000000000e+00,5.000000000000000000e+00,2.814672708511352539e+00,2.872814893722534180e+00,3.253681659698486328e+00,5.000000000000000000e+00,5.000000000000000000e+00,5.000000000000000000e+00,5.000000000000000000e+00,5.000000000000000000e+00,5.000000000000000000e+00,5.000000000000000000e+00,5.000000000000000000e+00,5.000000000000000000e+00,4.868415832519531250e+00,4.676942348480224609e+00,4.499960422515869141e+00,4.335884094238281250e+00,4.183351993560791016e+00,4.041187286376953125e+00,3.908366680145263672e+00,3.783998966217041016e+00,3.667302608489990234e+00,3.557588338851928711e+00,3.454247951507568359e+00,3.356741905212402344e+00,3.264589309692382812e+00,3.177361488342285156e+00,3.094673633575439453e+00,3.016180276870727539e+00,2.941570281982421875e+00,2.870562553405761719e+00,2.802901744842529297e+00,2.738357305526733398e+00,2.676718950271606445e+00,2.617794036865234375e+00,2.561407327651977539e+00,2.507398843765258789e+00,2.455621004104614258e+00,2.405937910079956055e+00,2.358225822448730469e+00,2.312369108200073242e+00,2.268261671066284180e+00,2.225805282592773438e+00,2.184909582138061523e+00,2.145489215850830078e+00,2.107465982437133789e+00,2.070767164230346680e+00,2.035324573516845703e+00,2.001074790954589844e+00,1.967958807945251465e+00,1.935920834541320801e+00,1.904909372329711914e+00,1.874875664710998535e+00,1.845774650573730469e+00
4.875535964965820312e+00,4.874324321746826172e+00,4.873114109039306641e+00,4.871903419494628906e+00,4.870694160461425781e+00,4.869484901428222656e+00,4.868276596069335938e+00,4.867068767547607422e+00,4.865861415863037109e+00,4.864655017852783203e+00,4.863449096679687500e+00,4.862243652343750000e+00,4.861038684844970703e+00,4.859834671020507812e+00,4.858631134033203125e+00,4.857428073883056641e+00,4.856225967407226562e+00,4.855023860931396484e+00,4.853822708129882812e+00,4.852622509002685547e+00,4.851422309875488281e+00,4.850222587585449219e+00,4.849023818969726562e+00,4.847825527191162109e+00,4.846628189086914062e+00,4.845430850982666016e+00,4.844234466552734375e+00,2.821940898895263672e+00,4.841843605041503906e+00,3.289931297302246094e+00,4.839454650878906250e+00,4.838261127471923828e+00,4.837068080902099609e+00,4.835875988006591797e+00,4.834683895111083984e+00,4.833492755889892578e+00,4.832302093505859375e+00,4.831112384796142578e+00,4.829922676086425781e+00,4.828733921051025391e+00,4.677070617675781250e+00,4.500078678131103516e+00,4.335994243621826172e+00,4.183454513549804688e+00,4.041283130645751953e+00,3.908456325531005859e+00,3.784083604812622070e+00,3.667381525039672852e+00,3.557662725448608398e+00,3.454318284988403320e+00,3.356808185577392578e+00,3.264652013778686523e+00,3.177421092987060547e+00,3.094729900360107422e+00,3.016233682632446289e+00,2.941621065139770508e+00,2.870610713958740234e+00,2.802947998046875000e+00,2.738401412963867188e+00,2.676760911941528320e+00,2.617834091186523438e+00,2.561445951461791992e+00,2.507435798645019531e+00,2.455656290054321289e+00,2.405972003936767578e+00,2.358258485794067383e+00,2.312400341033935547e+00,2.268291950225830078e+00,2.225834608078002930e+00,2.184937477111816406e+00,2.145516157150268555e+00,2.107491970062255859e+00,2.070792198181152344e+00,2.035348892211914062e+00,2.001098394393920898e+00,1.967981696128845215e+00,1.935943007469177246e+00,1.904930830001831055e+00,1.874896407127380371e+00,1.845794558525085449e+00
3.778333663940429688e+00,3.777606248855590820e+00,3.776879072189331055e+00,3.776151895523071289e+00,3.775425195693969727e+00,3.774698495864868164e+00,3.773972511291503906e+00,3.773246765136718750e+00,3.772521018981933594e+00,3.771795749664306641e+00,3.771070480346679688e+00,3.770345926284790039e+00,3.769621610641479492e+00,3.768897294998168945e+00,3.768173456192016602e+00,3.767450094223022461e+00,3.766726255416870117e+00,3.766003370285034180e+00,3.765280485153198242e+00,3.764558076858520508e+00,3.763835906982421875e+00,3.763113737106323242e+00,3.762392044067382812e+00,3.761670589447021484e+00,3.760949611663818359e+00,3.760228872299194336e+00,3.759507894515991211e+00,2.738354444503784180e+00,3.758067846298217773e+00,3.226997375488281250e+00,3.756628513336181641e+00,3.755909204483032227e+00,3.755190372467041016e+00,3.754471778869628906e+00,3.753753185272216797e+00,3.753035306930541992e+00,3.752317190170288086e+00,3.751599788665771484e+00,3.750882625579833984e+00,3.750165224075317383e+00,3.749448776245117188e+00,3.748732089996337891e+00,3.748015880584716797e+00,3.747300148010253906e+00,3.746584415435791016e+00,3.745869159698486328e+00,3.745154142379760742e+00,3.667460680007934570e+00,3.557736873626708984e+00,3.454388380050659180e+00,3.356874227523803711e+00,3.264714479446411133e+00,3.177480220794677734e+00,3.094786167144775391e+00,3.016287088394165039e+00,2.941672086715698242e+00,2.870659112930297852e+00,2.802994012832641602e+00,2.738445758819580078e+00,2.676803112030029297e+00,2.617874383926391602e+00,2.561484575271606445e+00,2.507472753524780273e+00,2.455691576004028320e+00,2.406005859375000000e+00,2.358291149139404297e+00,2.312431812286376953e+00,2.268321990966796875e+00,2.225863695144653320e+00,2.184965610504150391e+00,2.145543098449707031e+00,2.107518196105957031e+00,2.070817470550537109e+00,2.035373210906982422e+00,2.001121997833251953e+00,1.968004345893859863e+00,1.935964941978454590e+00,1.904952168464660645e+00,1.874917149543762207e+00,1.845814585685729980e+00
3.084247112274169922e+00,3.083762407302856445e+00,3.083277940750122070e+00,3.082793235778808594e+00,3.082309007644653320e+00,3.081824779510498047e+00,3.081340789794921875e+00,3.080857038497924805e+00,3.080373048782348633e+00,3.079889535903930664e+00,3.079406023025512695e+00,3.078922748565673828e+00,3.078439712524414062e+00,3.077956438064575195e+00,3.077473878860473633e+00,3.076991319656372070e+00,3.076508522033691406e+00,3.076026201248168945e+00,3.075543880462646484e+00,3.075061798095703125e+00,3.074579954147338867e+00,3.074098110198974609e+00,3.073616504669189453e+00,3.073134899139404297e+00,3.072653770446777344e+00,3.072172641754150391e+00,2.743914604187011719e+00,3.071210622787475586e+00,3.070729970932006836e+00,3.070249319076538086e+00,3.069768905639648438e+00,3.069288492202758789e+00,3.068808555603027344e+00,3.068328619003295898e+00,3.067848682403564453e+00,3.067368984222412109e+00,3.066889286041259766e+00,3.066410064697265625e+00,3.065931081771850586e+00,3.065451860427856445e+00,3.064973115921020508e+00,3.064494132995605469e+00,3.064015626907348633e+00,3.063537120819091797e+00,3.063058614730834961e+00,3.062580585479736328e+00,3.062102794647216797e+00,3.061624765396118164e+00,3.061146974563598633e+00,3.060669183731079102e+00,3.060191869735717773e+00,3.059714794158935547e+00,3.059237480163574219e+00,3.058760643005371094e+00,3.016340732574462891e+00,2.941722869873046875e+00,2.870707511901855469e+00,2.803040266036987305e+00,2.738489627838134766e+00,2.676845073699951172e+00,2.617914676666259766e+00,2.561523199081420898e+00,2.507509708404541016e+00,2.455727100372314453e+00,2.406040191650390625e+00,2.358323812484741211e+00,2.312463283538818359e+00,2.268352508544921875e+00,2.225892782211303711e+00,2.184993505477905273e+00,2.145570278167724609e+00,2.107544422149658203e+00,2.070842742919921875e+00,2.035397529602050781e+00,2.001145362854003906e+00,1.968027234077453613e+00,1.935986995697021484e+00,1.904973387718200684e+00,1.874937772750854492e+00,1.845834493637084961e+00
2.605594873428344727e+00,2.605248928070068359e+00,2.604903221130371094e+00,2.604557275772094727e+00,2.604211568832397461e+00,2.603865861892700195e+00,2.603520154953002930e+00,2.603174924850463867e+00,2.602829456329345703e+00,2.602484226226806641e+00,2.602138757705688477e+00,2.601793766021728516e+00,2.601448774337768555e+00,2.601103782653808594e+00,2.600759029388427734e+00,2.600414514541625977e+00,2.600069761276245117e+00,2.599725246429443359e+00,2.599380731582641602e+00,2.599036216735839844e+00,2.598692178726196289e+00,2.598347663879394531e+00,2.598003625869750977e+00,2.597659587860107422e+00,2.597315788269042969e+00,2.596971988677978516e+00,2.596628189086914062e+00,2.596284627914428711e+00,2.595941066741943359e+00,2.595597505569458008e+00,2.595254182815551758e+00,2.594910860061645508e+00,2.594567775726318359e+00,2.594224691390991211e+00,2.593881607055664062e+00,2.593538761138916016e+00,2.593195915222167969e+00,2.592853069305419922e+00,2.592510700225830078e+00,2.592167854309082031e+00,2.591825485229492188e+00,2.591483116149902344e+00,2.591140747070312500e+00,2.590798616409301758e+00,2.590456485748291016e+00,2.590114593505859375e+00,2.589772701263427734e+00,2.589430809020996094e+00,2.589089155197143555e+00,2.588747262954711914e+00,2.588405847549438477e+00,2.588064432144165039e+00,2.587723016738891602e+00,2.587381839752197266e+00,2.587040424346923828e+00,2.586699485778808594e+00,2.586358547210693359e+00,2.586017370223999023e+00,2.585676670074462891e+00,2.585335731506347656e+00,2.584995269775390625e+00,2.561561584472656250e+00,2.507546663284301758e+00,2.455762624740600586e+00,2.406074047088623047e+00,2.358356475830078125e+00,2.312494516372680664e+00,2.268382549285888672e+00,2.225921869277954102e+00,2.185021638870239258e+00,2.145597457885742188e+00,2.107570409774780273e+00,2.070867776870727539e+00,2.035422086715698242e+00,2.001168966293334961e+00,1.968049764633178711e+00,1.936009168624877930e+00,1.904994845390319824e+00,1.874958515167236328e+00,1.845854640007019043e+00
2.255562305450439453e+00,2.255302429199218750e+00,2.255042552947998047e+00,2.254782915115356445e+00,2.254523277282714844e+00,2.254263639450073242e+00,2.254004001617431641e+00,2.253744602203369141e+00,2.253485202789306641e+00,2.253226041793823242e+00,2.252966642379760742e+00,2.252707481384277344e+00,2.252448320388793945e+00,2.252189159393310547e+00,2.251929998397827148e+00,2.251671075820922852e+00,2.251412153244018555e+00,2.251153230667114258e+00,2.250894308090209961e+00,2.250635623931884766e+00,2.250376939773559570e+00,2.250118255615234375e+00,2.249859809875488281e+00,2.249601602554321289e+00,2.249343633651733398e+00,2.249085903167724609e+00,2.248827934265136719e+00,2.248570203781127930e+00,2.248312473297119141e+00,2.248054742813110352e+00,2.247797250747680664e+00,2.247539758682250977e+00,2.247282266616821289e+00,2.247025012969970703e+00,2.246767520904541016e+00,2.246510267257690430e+00,2.246253013610839844e+00,2.245995998382568359e+00,2.245738983154296875e+00,2.245481729507446289e+00,2.245224714279174805e+00,2.244967699050903320e+00,2.244710922241210938e+00,2.244454145431518555e+00,2.244197368621826172e+00,2.243940591812133789e+00,2.243684053421020508e+00,2.243427515029907227e+00,2.243170976638793945e+00,2.242914438247680664e+00,2.242658138275146484e+00,2.242401838302612305e+00,2.242145299911499023e+00,2.241889238357543945e+00,2.241632938385009766e+00,2.241376876831054688e+00,2.241121053695678711e+00,2.240864753723144531e+00,2.240608930587768555e+00,2.240353107452392578e+00,2.240097284317016602e+00,2.239841461181640625e+00,2.239585876464843750e+00,2.239330291748046875e+00,2.239074707031250000e+00,2.238819122314453125e+00,2.238563537597656250e+00,2.238308191299438477e+00,2.225950956344604492e+00,2.185049772262573242e+00,2.145624399185180664e+00,2.107596397399902344e+00,2.070893049240112305e+00,2.035446405410766602e+00,2.001192569732666016e+00,1.968072652816772461e+00,1.936030983924865723e+00,1.905016064643859863e+00,1.874979019165039062e+00,1.845874786376953125e+00
1.988461375236511230e+00,1.988259434700012207e+00,1.988057494163513184e+00,1.987855672836303711e+00,1.987653851509094238e+00,1.987452030181884766e+00,1.987250328063964844e+00,1.987048625946044922e+00,1.986846923828125000e+00,1.986645340919494629e+00,1.986443758010864258e+00,1.986242175102233887e+00,1.986040711402893066e+00,1.985839247703552246e+00,1.985637784004211426e+00,1.985436439514160156e+00,1.985235095024108887e+00,1.985033869743347168e+00,1.984832644462585449e+00,1.984631657600402832e+00,1.984430432319641113e+00,1.984229326248168945e+00,1.984028220176696777e+00,1.983827114105224609e+00,1.983626127243041992e+00,1.983425140380859375e+00,1.983224272727966309e+00,1.983023285865783691e+00,1.982822537422180176e+00,1.982621669769287109e+00,1.982420921325683594e+00,1.982220172882080078e+00,1.982019543647766113e+00,1.981818795204162598e+00,1.981618285179138184e+00,1.981417655944824219e+00,1.981217145919799805e+00,1.981016635894775391e+00,1.980816245079040527e+00,1.980615854263305664e+00,1.980415463447570801e+00,1.980215072631835938e+00,1.980015039443969727e+00,1.979814887046813965e+00,1.979614615440368652e+00,1.979414463043212891e+00,1.979214310646057129e+00,1.979014277458190918e+00,1.978814244270324707e+00,1.978614211082458496e+00,1.978414297103881836e+00,1.978214383125305176e+00,1.978014469146728516e+00,1.977814674377441406e+00,1.977614879608154297e+00,1.977415084838867188e+00,1.977215290069580078e+00,1.977015614509582520e+00,1.976816058158874512e+00,1.976616382598876953e+00,1.976416826248168945e+00,1.976217389106750488e+00,1.976017832756042480e+00,1.975818395614624023e+00,1.975619316101074219e+00,1.975419878959655762e+00,1.975220561027526855e+00,1.975021362304687500e+00,1.974822044372558594e+00,1.974622964859008789e+00,1.974423766136169434e+00,1.974224686622619629e+00,1.974025607109069824e+00,1.973826527595520020e+00,1.973627567291259766e+00,1.968095541000366211e+00,1.936053156852722168e+00,1.905037403106689453e+00,1.874999761581420898e+00,1.845894694328308105e+00
1.777922153472900391e+00,1.777760624885559082e+00,1.777599215507507324e+00,1.777437806129455566e+00,1.777276396751403809e+00,1.777115106582641602e+00,1.776953816413879395e+00,1.776792526245117188e+00,1.776631236076354980e+00,1.776470065116882324e+00,1.776308894157409668e+00,1.776147723197937012e+00,1.775986552238464355e+00,1.775825500488281250e+00,1.775664448738098145e+00,1.775503396987915039e+00,1.775342345237731934e+00,1.775181412696838379e+00,1.775020480155944824e+00,1.774859666824340820e+00,1.774698734283447266e+00,1.774537920951843262e+00,1.774377107620239258e+00,1.774216294288635254e+00,1.774055480957031250e+00,1.773894786834716797e+00,1.773733973503112793e+00,1.773573279380798340e+00,1.773412704467773438e+00,1.773252010345458984e+00,1.773091435432434082e+00,1.772930860519409180e+00,1.772770285606384277e+00,1.772609710693359375e+00,1.772449254989624023e+00,1.772288799285888672e+00,1.772128343582153320e+00,1.771968007087707520e+00,1.771807551383972168e+00,1.771647214889526367e+00,1.771486878395080566e+00,1.771326661109924316e+00,1.771166563034057617e+00,1.771006345748901367e+00,1.770846128463745117e+00,1.770685911178588867e+00,1.770525813102722168e+00,1.770365715026855469e+00,1.770205616950988770e+00,1.770045518875122070e+00,1.769885540008544922e+00,1.769725561141967773e+00,1.769565582275390625e+00,1.769405603408813477e+00,1.769245743751525879e+00,1.769085764884948730e+00,1.768926024436950684e+00,1.768766164779663086e+00,1.768606305122375488e+00,1.768446564674377441e+00,1.768286824226379395e+00,1.768127083778381348e+00,1.767967462539672852e+00,1.767807841300964355e+00,1.767648339271545410e+00,1.767488837242126465e+00,1.767329216003417969e+00,1.767169713973999023e+00,1.767010211944580078e+00,1.766850709915161133e+00,1.766691207885742188e+00,1.766531825065612793e+00,1.766372442245483398e+00,1.766213059425354004e+00,1.766053795814514160e+00,1.765894412994384766e+00,1.765735149383544922e+00,1.765575885772705078e+00,1.765416741371154785e+00,1.765257596969604492e+00
1.607698202133178711e+00,1.607566118240356445e+00,1.607434153556823730e+00,1.607302188873291016e+00,1.607170224189758301e+00,1.607038259506225586e+00,1.606906414031982422e+00,1.606774449348449707e+00,1.606642603874206543e+00,1.606510758399963379e+00,1.606378912925720215e+00,1.606247186660766602e+00,1.606115341186523438e+00,1.605983614921569824e+00,1.605851888656616211e+00,1.605720162391662598e+00,1.605588436126708984e+00,1.605456829071044922e+00,1.605325102806091309e+00,1.605193734169006348e+00,1.605062127113342285e+00,1.604930520057678223e+00,1.604798913002014160e+00,1.604667425155639648e+00,1.604535818099975586e+00,1.604404330253601074e+00,1.604272842407226562e+00,1.604141473770141602e+00,1.604009985923767090e+00,1.603878617286682129e+00,1.603747129440307617e+00,1.603615760803222656e+00,1.603484511375427246e+00,1.603353142738342285e+00,1.603221774101257324e+00,1.603090524673461914e+00,1.602959275245666504e+00,1.602828025817871094e+00,1.602696776390075684e+00,1.602565646171569824e+00,1.602434396743774414e+00,1.602303266525268555e+00,1.602172255516052246e+00,1.602041244506835938e+00,1.601910114288330078e+00,1.601779103279113770e+00,1.601647973060607910e+00,1.601516962051391602e+00,1.601385951042175293e+00,1.601254940032958984e+00,1.601124048233032227e+00,1.600993037223815918e+00,1.600862145423889160e+00,1.600731253623962402e+00,1.600600361824035645e+00,1.600469589233398438e+00,1.600338697433471680e+00,1.600207924842834473e+00,1.600077152252197266e+00,1.599946260452270508e+00,1.599815487861633301e+00,1.599684834480285645e+00,1.599554061889648438e+00,1.599423408508300781e+00,1.599292874336242676e+00,1.599162340164184570e+00,1.599031686782836914e+00,1.598901033401489258e+00,1.598770499229431152e+00,1.598639965057373047e+00,1.598509430885314941e+00,1.598378896713256836e+00,1.598248362541198730e+00,1.598117947578430176e+00,1.597987532615661621e+00,1.597856998443603516e+00,1.597726702690124512e+00,1.597596287727355957e+00,1.597465872764587402e+00,1.597335577011108398e+00
1.467221736907958984e+00,1.467111706733703613e+00,1.467001795768737793e+00,1.466891884803771973e+00,1.466781973838806152e+00,1.466672062873840332e+00,1.466562151908874512e+00,1.466452360153198242e+00,1.466342449188232422e+00,1.466232657432556152e+00,1.466122865676879883e+00,1.466013073921203613e+00,1.465903282165527344e+00,1.465793490409851074e+00,1.465683817863464355e+00,1.465574026107788086e+00,1.465464353561401367e+00,1.465354681015014648e+00,1.465245008468627930e+00,1.465135455131530762e+00,1.465025782585144043e+00,1.464916110038757324e+00,1.464806556701660156e+00,1.464697003364562988e+00,1.464587330818176270e+00,1.464477777481079102e+00,1.464368224143981934e+00,1.464258790016174316e+00,1.464149236679077148e+00,1.464039683341979980e+00,1.463930249214172363e+00,1.463820815086364746e+00,1.463711380958557129e+00,1.463601946830749512e+00,1.463492512702941895e+00,1.463383078575134277e+00,1.463273644447326660e+00,1.463164329528808594e+00,1.463055014610290527e+00,1.462945699691772461e+00,1.462836384773254395e+00,1.462727069854736328e+00,1.462617874145507812e+00,1.462508678436279297e+00,1.462399363517761230e+00,1.462290167808532715e+00,1.462180972099304199e+00,1.462071776390075684e+00,1.461962580680847168e+00,1.461853384971618652e+00,1.461744189262390137e+00,1.461635112762451172e+00,1.461525917053222656e+00,1.461416840553283691e+00,1.461307764053344727e+00,1.461198687553405762e+00,1.461089611053466797e+00,1.460980653762817383e+00,1.460871577262878418e+00,1.460762619972229004e+00,1.460653543472290039e+00,1.460544586181640625e+00,1.460435628890991211e+00,1.460326671600341797e+00,1.460217952728271484e+00,1.460108995437622070e+00,1.460000157356262207e+00,1.459891200065612793e+00,1.459782361984252930e+00,1.459673523902893066e+00,1.459564685821533203e+00,1.459455966949462891e+00,1.459347128868103027e+00,1.459238290786743164e+00,1.459129571914672852e+00,1.459020853042602539e+00,1.458912134170532227e+00,1.458803415298461914e+00,1.458694696426391602e+00,1.458585977554321289e+00
1.349321484565734863e+00,1.349228501319885254e+00,1.349135518074035645e+00,1.349042534828186035e+00,1.348949551582336426e+00,1.348856568336486816e+00,1.348763704299926758e+00,1.348670721054077148e+00,1.348577857017517090e+00,1.348484992980957031e+00,1.348392009735107422e+00,1.348299145698547363e+00,1.348206400871276855e+00,1.348113536834716797e+00,1.348020672798156738e+00,1.347927808761596680e+00,1.347835063934326172e+00,1.347742319107055664e+00,1.347649455070495605e+00,1.347556829452514648e+00,1.347464084625244141e+00,1.347371339797973633e+00,1.347278594970703125e+00,1.347185969352722168e+00,1.347093224525451660e+00,1.347000598907470703e+00,1.346907854080200195e+00,1.346815228462219238e+00,1.346722602844238281e+00,1.346629977226257324e+00,1.346537351608276367e+00,1.346444725990295410e+00,1.346352100372314453e+00,1.346259474754333496e+00,1.346166968345642090e+00,1.346074342727661133e+00,1.345981836318969727e+00,1.345889329910278320e+00,1.345796823501586914e+00,1.345704197883605957e+00,1.345611810684204102e+00,1.345519304275512695e+00,1.345426917076110840e+00,1.345334410667419434e+00,1.345242023468017578e+00,1.345149517059326172e+00,1.345057129859924316e+00,1.344964742660522461e+00,1.344872355461120605e+00,1.344779968261718750e+00,1.344687581062316895e+00,1.344595193862915039e+00,1.344502925872802734e+00,1.344410538673400879e+00,1.344318270683288574e+00,1.344225883483886719e+00,1.344133615493774414e+00,1.344041347503662109e+00,1.343949079513549805e+00,1.343856811523437500e+00,1.343764543533325195e+00,1.343672275543212891e+00,1.343580126762390137e+00,1.343487858772277832e+00,1.343395829200744629e+00,1.343303680419921875e+00,1.343211412429809570e+00,1.343119263648986816e+00,1.343027114868164062e+00,1.342935085296630859e+00,1.342842936515808105e+00,1.342750787734985352e+00,1.342658758163452148e+00,1.342566609382629395e+00,1.342474579811096191e+00,1.342382550239562988e+00,1.342290520668029785e+00,1.342198491096496582e+00,1.342106461524963379e+00,1.342014431953430176e+00
1.248959898948669434e+00,1.248880147933959961e+00,1.248800516128540039e+00,1.248720884323120117e+00,1.248641252517700195e+00,1.248561620712280273e+00,1.248481988906860352e+00,1.248402357101440430e+00,1.248322844505310059e+00,1.248243212699890137e+00,1.248163580894470215e+00,1.248084068298339844e+00,1.248004436492919922e+00,1.247924923896789551e+00,1.247845411300659180e+00,1.247765779495239258e+00,1.247686266899108887e+00,1.247606754302978516e+00,1.247527241706848145e+00,1.247447848320007324e+00,1.247368454933166504e+00,1.247288942337036133e+00,1.247209429740905762e+00,1.247130036354064941e+00,1.247050523757934570e+00,1.246971130371093750e+00,1.246891736984252930e+00,1.246812343597412109e+00,1.246732950210571289e+00,1.246653556823730469e+00,1.246574163436889648e+00,1.246494770050048828e+00,1.246415376663208008e+00,1.246335983276367188e+00,1.246256709098815918e+00,1.246177315711975098e+00,1.246098041534423828e+00,1.246018767356872559e+00,1.245939373970031738e+00,1.245860099792480469e+00,1.245780825614929199e+00,1.245701551437377930e+00,1.245622396469116211e+00,1.245543122291564941e+00,1.245463967323303223e+00,1.245384693145751953e+00,1.245305418968200684e+00,1.245226263999938965e+00,1.245146989822387695e+00,1.245067834854125977e+00,1.244988679885864258e+00,1.244909524917602539e+00,1.244830369949340820e+00,1.244751214981079102e+00,1.244672060012817383e+00,1.244592905044555664e+00,1.244513750076293945e+00,1.244434714317321777e+00,1.244355559349060059e+00,1.244276523590087891e+00,1.244197368621826172e+00,1.244118332862854004e+00,1.244039297103881836e+00,1.243960261344909668e+00,1.243881344795227051e+00,1.243802309036254883e+00,1.243723273277282715e+00,1.243644237518310547e+00,1.243565201759338379e+00,1.243486285209655762e+00,1.243407249450683594e+00,1.243328332901000977e+00,1.243249297142028809e+00,1.243170380592346191e+00,1.243091464042663574e+00,1.243012547492980957e+00,1.242933630943298340e+00,1.242854714393615723e+00,1.242775797843933105e+00,1.242696881294250488e+00
1.162494421005249023e+00,1.162425398826599121e+00,1.162356376647949219e+00,1.162287354469299316e+00,1.162218332290649414e+00,1.162149429321289062e+00,1.162080407142639160e+00,1.162011384963989258e+00,1.161942481994628906e+00,1.161873459815979004e+00,1.161804556846618652e+00,1.161735653877258301e+00,1.161666631698608398e+00,1.161597728729248047e+00,1.161528825759887695e+00,1.161459922790527344e+00,1.161391019821166992e+00,1.161322116851806641e+00,1.161253213882446289e+00,1.161184430122375488e+00,1.161115527153015137e+00,1.161046624183654785e+00,1.160977840423583984e+00,1.160908937454223633e+00,1.160840153694152832e+00,1.160771369934082031e+00,1.160702466964721680e+00,1.160633683204650879e+00,1.160564899444580078e+00,1.160496115684509277e+00,1.160427331924438477e+00,1.160358548164367676e+00,1.160289764404296875e+00,1.160220980644226074e+00,1.160152196884155273e+00,1.160083413124084473e+00,1.160014748573303223e+00,1.159945964813232422e+00,1.159877300262451172e+00,1.159808516502380371e+00,1.159739851951599121e+00,1.159671068191528320e+00,1.159602522850036621e+00,1.159533858299255371e+00,1.159465193748474121e+00,1.159396409988403320e+00,1.159327864646911621e+00,1.159259200096130371e+00,1.159190535545349121e+00,1.159121870994567871e+00,1.159053206443786621e+00,1.158984661102294922e+00,1.158915996551513672e+00,1.158847451210021973e+00,1.158778786659240723e+00,1.158710241317749023e+00,1.158641695976257324e+00,1.158573031425476074e+00,1.158504486083984375e+00,1.158435940742492676e+00,1.158367395401000977e+00,1.158298850059509277e+00,1.158230423927307129e+00,1.158161878585815430e+00,1.158093452453613281e+00,1.158024907112121582e+00,1.157956480979919434e+00,1.157887935638427734e+00,1.157819509506225586e+00,1.157750964164733887e+00,1.157682538032531738e+00,1.157614111900329590e+00,1.157545566558837891e+00,1.157477140426635742e+00,1.157408714294433594e+00,1.157340288162231445e+00,1.157271862030029297e+00,1.157203555107116699e+00,1.157135128974914551e+00,1.157066702842712402e+00
1.087225794792175293e+00,1.087165355682373047e+00,1.087105035781860352e+00,1.087044715881347656e+00,1.086984276771545410e+00,1.086923956871032715e+00,1.086863636970520020e+00,1.086803317070007324e+00,1.086742997169494629e+00,1.086682677268981934e+00,1.086622357368469238e+00,1.086562037467956543e+00,1.086501717567443848e+00,1.086441397666931152e+00,1.086381077766418457e+00,1.086320877075195312e+00,1.086260557174682617e+00,1.086200237274169922e+00,1.086140036582946777e+00,1.086079835891723633e+00,1.086019635200500488e+00,1.085959315299987793e+00,1.085899114608764648e+00,1.085838913917541504e+00,1.085778713226318359e+00,1.085718393325805664e+00,1.085658192634582520e+00,1.085597991943359375e+00,1.085537791252136230e+00,1.085477590560913086e+00,1.085417509078979492e+00,1.085357308387756348e+00,1.085297107696533203e+00,1.085236907005310059e+00,1.085176825523376465e+00,1.085116624832153320e+00,1.085056543350219727e+00,1.084996342658996582e+00,1.084936261177062988e+00,1.084876179695129395e+00,1.084815979003906250e+00,1.084755897521972656e+00,1.084695816040039062e+00,1.084635734558105469e+00,1.084575653076171875e+00,1.084515571594238281e+00,1.084455490112304688e+00,1.084395408630371094e+00,1.084335327148437500e+00,1.084275364875793457e+00,1.084215283393859863e+00,1.084155201911926270e+00,1.084095239639282227e+00,1.084035158157348633e+00,1.083975076675415039e+00,1.083915114402770996e+00,1.083855152130126953e+00,1.083795070648193359e+00,1.083735108375549316e+00,1.083675146102905273e+00,1.083615183830261230e+00,1.083555102348327637e+00,1.083495140075683594e+00,1.083435177803039551e+00,1.083375334739685059e+00,1.083315372467041016e+00,1.083255410194396973e+00,1.083195447921752930e+00,1.083135604858398438e+00,1.083075642585754395e+00,1.083015680313110352e+00,1.082955837249755859e+00,1.082895874977111816e+00,1.082836031913757324e+00,1.082776069641113281e+00,1.082716226577758789e+00,1.082656383514404297e+00,1.082596421241760254e+00,1.082536578178405762e+00,1.082476735115051270e+00
1.021111369132995605e+00,1.021058082580566406e+00,1.021004796028137207e+00,1.020951628684997559e+00,1.020898342132568359e+00,1.020845174789428711e+00,1.020791888236999512e+00,1.020738720893859863e+00,1.020685434341430664e+00,1.020632266998291016e+00,1.020578980445861816e+00,1.020525813102722168e+00,1.020472645759582520e+00,1.020419478416442871e+00,1.020366311073303223e+00,1.020313024520874023e+00,1.020259857177734375e+00,1.020206689834594727e+00,1.020153522491455078e+00,1.020100474357604980e+00,1.020047307014465332e+00,1.019994139671325684e+00,1.019941091537475586e+00,1.019887924194335938e+00,1.019834756851196289e+00,1.019781589508056641e+00,1.019728541374206543e+00,1.019675374031066895e+00,1.019622325897216797e+00,1.019569158554077148e+00,1.019516110420227051e+00,1.019463062286376953e+00,1.019409894943237305e+00,1.019356846809387207e+00,1.019303798675537109e+00,1.019250750541687012e+00,1.019197702407836914e+00,1.019144535064697266e+00,1.019091486930847168e+00,1.019038438796997070e+00,1.018985390663146973e+00,1.018932461738586426e+00,1.018879413604736328e+00,1.018826365470886230e+00,1.018773436546325684e+00,1.018720388412475586e+00,1.018667340278625488e+00,1.018614411354064941e+00,1.018561363220214844e+00,1.018508434295654297e+00,1.018455386161804199e+00,1.018402457237243652e+00,1.018349409103393555e+00,1.018296480178833008e+00,1.018243551254272461e+00,1.018190503120422363e+00,1.018137574195861816e+00,1.018084645271301270e+00,1.018031716346740723e+00,1.017978787422180176e+00,1.017925858497619629e+00,1.017872929573059082e+00,1.017820000648498535e+00,1.017767071723937988e+00,1.017714262008666992e+00,1.017661333084106445e+00,1.017608404159545898e+00,1.017555475234985352e+00,1.017502665519714355e+00,1.017449736595153809e+00,1.017396926879882812e+00,1.017343997955322266e+00,1.017291188240051270e+00,1.017238259315490723e+00,1.017185449600219727e+00,1.017132520675659180e+00,1.017079710960388184e+00,1.017026901245117188e+00,1.016974091529846191e+00,1.016921281814575195e+00
