5.000000000000000000e+00,5.000000000000000000e+00,5.000000000000000000e+00,5.000000000000000000e+00,5.000000000000000000e+00,5.000000000000000000e+00,5.000000000000000000e+00,5.000000000000000000e+00,5.000000000000000000e+00,5.000000000000000000e+00,5.000000000000000000e+00,5.000000000000000000e+00,5.000000000000000000e+00,5.000000000000000000e+00,5.000000000000000000e+00,5.000000000000000000e+00,5.000000000000000000e+00,5.000000000000000000e+00,5.000000000000000000e+00,5.000000000000000000e+00,5.000000000000000000e+00,5.000000000000000000e+00,5.000000000000000000e+00,5.000000000000000000e+00,5.000000000000000000e+00,5.000000000000000000e+00,5.000000000000000000e+00,5.000000000000000000e+00,5.000000000000000000e+00,5.000000000000000000e+00,5.000000000000000000e+00,5.000000000000000000e+00,5.000000000000000000e+00,5.000000000000000000e+00,5.000000000000000000e+00,5.000000000000000000e+00,5.000000000000000000e+00,5.000000000000000000e+00,5.000000000000000000e+00,5.000000000000000000e+00,4.673897743225097656e+00,4.497138023376464844e+00,4.333260536193847656e+00,4.180906772613525391e+00,4.038902282714843750e+00,3.906227588653564453e+00,3.781991720199584961e+00,3.665415287017822266e+00,3.555810213088989258e+00,3.452569961547851562e+00,3.355155706405639648e+00,3.263087511062622070e+00,3.175937414169311523e+00,3.093321084976196289e+00,3.014894008636474609e+00,2.940345764160156250e+00,2.869395017623901367e+00,2.801787614822387695e+00,2.737292766571044922e+00,2.675700426101684570e+00,2.616819143295288086e+00,2.560473203659057617e+00,2.506502628326416016e+00,2.454760551452636719e+00,2.405111074447631836e+00,2.357430458068847656e+00,2.311603784561157227e+00,2.267524480819702148e+00,2.225095033645629883e+00,2.184224128723144531e+00,2.144827604293823242e+00,2.106827259063720703e+00,2.070149421691894531e+00,2.034727096557617188e+00,2.000496864318847656e+00,1.967399239540100098e+00,1.935378909111022949e+00,1.904383897781372070e+00,1.874366283416748047e+00,1.845280289649963379e+00
5.000000000000000000e+00,5.000000000000000000e+00,5.000000000000000000e+00,5.000000000000000000e+00,5.000000000000000000e+00,5.000000000000000000e+00,5.000000000000000000e+00,5.000000000000000000e+00,5.000000000000000000e+00,5.000000000000000000e+00,5.000000000000000000e+00,5.000000000000000000e+00,5.000000000000000000e+00,5.000000000000000000e+00,5.000000000000000000e+00,5.000000000000000000e+00,5.000000000000000000e+00,5.000000000000000000e+00,5.000000000000000000e+00,5.000000000000000000e+00,5.000000000000000000e+00,5.000000000000000000e+00,5.000000000000000000e+00,5.000000000000000000e+00,5.000000000000000000e+00,5.000000000000000000e+00,5.000000000000000000e+00,5.000000000000000000e+00,5.000000000000000000e+00,5.000000000000000000e+00,5.000000000000000000e+00,5.000000000000000000e+00,5.000000000000000000e+00,5.000000000000000000e+00,5.000000000000000000e+00,5.000000000000000000e+00,5.000000000000000000e+00,5.000000000000000000e+00,5.000000000000000000e+00,4.865261077880859375e+00,4.674026966094970703e+00,4.497257709503173828e+00,4.333371639251708984e+00,4.181010246276855469e+00,4.038998603820800781e+00,3.906317472457885742e+00,3.782076120376586914e+00,3.665494441986083984e+00,3.555884838104248047e+00,3.452640533447265625e+00,3.355221986770629883e+00,3.263150215148925781e+00,3.175996780395507812e+00,3.093377590179443359e+00,3.014947652816772461e+00,2.940396785736083984e+00,2.869443655014038086e+00,2.801834106445312500e+00,2.737337112426757812e+00,2.675742864608764648e+00,2.616859436035156250e+00,2.560511827468872070e+00,2.506539583206176758e+00,2.454796075820922852e+00,2.405145168304443359e+00,2.357463598251342773e+00,2.311635255813598633e+00,2.267554759979248047e+00,2.225124120712280273e+00,2.184252262115478516e+00,2.144854545593261719e+00,2.106853246688842773e+00,2.070174694061279297e+00,2.034751653671264648e+00,2.000520467758178711e+00,1.967422127723693848e+00,1.935400962829589844e+00,1.904405355453491211e+00,1.874387025833129883e+00,1.845300436019897461e+00
5.000000000000000000e+00,5.000000000000000000e+00,5.000000000000000000e+00,5.000000000000000000e+00,5.000000000000000000e+00,5.000000000000000000e+00,5.000000000000000000e+00,5.000000000000000000e+00,5.000000000000000000e+00,5.000000000000000000e+00,5.000000000000000000e+00,5.000000000000000000e+00,5.000000000000000000e+00,5.000000000000000000e+00,5.000000000000000000e+00,5.000000000000000000e+00,5.000000000000000000e+00,5.000000000000000000e+00,5.000000000000000000e+00,5.000000000000000000e+00,5.000000000000000000e+00,5.000000000000000000e+00,5.000000000000000000e+00,5.000000000000000000e+00,5.000000000000000000e+00,5.000000000000000000e+00,5.000000000000000000e+00,5.000000000000000000e+00,5.000000000000000000e+00,5.000000000000000000e+00,5.000000000000000000e+00,5.000000000000000000e+00,5.000000000000000000e+00,5.000000000000000000e+00,5.000000000000000000e+00,5.000000000000000000e+00,5.000000000000000000e+00,5.000000000000000000e+00,5.000000000000000000e+00,4.865400791168212891e+00,4.674155712127685547e+00,4.497376918792724609e+00,4.333482742309570312e+00,4.181113243103027344e+00,4.039094924926757812e+00,3.906407594680786133e+00,3.782160997390747070e+00,3.665573835372924805e+00,3.555959463119506836e+00,3.452710866928100586e+00,3.355288505554199219e+00,3.263213157653808594e+00,3.176056385040283203e+00,3.093434095382690430e+00,3.015001535415649414e+00,2.940447807312011719e+00,2.869492053985595703e+00,2.801880359649658203e+00,2.737381219863891602e+00,2.675785064697265625e+00,2.616899967193603516e+00,2.560550451278686523e+00,2.506577014923095703e+00,2.454831600189208984e+00,2.405179500579833984e+00,2.357496261596679688e+00,2.311666727066040039e+00,2.267585039138793945e+00,2.225153446197509766e+00,2.184280395507812500e+00,2.144881963729858398e+00,2.106879234313964844e+00,2.070199966430664062e+00,2.034776210784912109e+00,2.000544071197509766e+00,1.967444896697998047e+00,1.935423135757446289e+00,1.904426813125610352e+00,1.874407768249511719e+00,1.845320463180541992e+00
5.000000000000000000e+00,5.000000000000000000e+00,5.000000000000000000e+00,5.000000000000000000e+00,5.000000000000000000e+00,5.000000000000000000e+00,5.000000000000000000e+00,5.000000000000000000e+00,5.000000000000000000e+00,5.000000000000000000e+00,5.000000000000000000e+00,5.000000000000000000e+00,5.000000000000000000e+00,5.000000000000000000e+00,5.000000000000000000e+00,5.000000000000000000e+00,5.000000000000000000e+00,5.000000000000000000e+00,5.000000000000000000e+00,5.000000000000000000e+00,5.000000000000000000e+00,5.000000000000000000e+00,5.000000000000000000e+00,5.000000000000000000e+00,5.000000000000000000e+00,5.000000000000000000e+00,5.000000000000000000e+00,5.000000000000000000e+00,5.000000000000000000e+00,5.000000000000000000e+00,5.000000000000000000e+00,5.000000000000000000e+00,5.000000000000000000e+00,5.000000000000000000e+00,5.000000000000000000e+00,5.000000000000000000e+00,5.000000000000000000e+00,5.000000000000000000e+00,5.000000000000000000e+00,4.865540504455566406e+00,4.674284934997558594e+00,4.497496604919433594e+00,4.333593368530273438e+00,4.181216716766357422e+00,4.039191246032714844e+00,3.906497716903686523e+00,3.782245397567749023e+00,3.665652990341186523e+00,3.556034088134765625e+00,3.452781200408935547e+00,3.355355024337768555e+00,3.263276100158691406e+00,3.176115989685058594e+00,3.093490362167358398e+00,3.015055179595947266e+00,2.940498828887939453e+00,2.869540691375732422e+00,2.801926851272583008e+00,2.737425565719604492e+00,2.675827503204345703e+00,2.616940259933471680e+00,2.560589313507080078e+00,2.506613969802856445e+00,2.454867124557495117e+00,2.405213594436645508e+00,2.357529163360595703e+00,2.311698198318481445e+00,2.267615556716918945e+00,2.225182533264160156e+00,2.184308528900146484e+00,2.144908905029296875e+00,2.106905460357666016e+00,2.070225238800048828e+00,2.034800529479980469e+00,2.000567674636840820e+00,1.967467784881591797e+00,1.935445189476013184e+00,1.904448151588439941e+00,1.874428510665893555e+00,1.845340609550476074e+00
5.000000000000000000e+00,5.000000000000000000e+00,5.000000000000000000e+00,5.000000000000000000e+00,5.000000000000000000e+00,5.000000000000000000e+00,5.000000000000000000e+00,5.000000000000000000e+00,5.000000000000000000e+00,5.000000000000000000e+00,5.000000000000000000e+00,5.000000000000000000e+00,5.000000000000000000e+00,5.000000000000000000e+00,5.000000000000000000e+00,5.000000000000000000e+00,5.000000000000000000e+00,5.000000000000000000e+00,5.000000000000000000e+00,5.000000000000000000e+00,5.000000000000000000e+00,5.000000000000000000e+00,5.000000000000000000e+00,5.000000000000000000e+00,5.000000000000000000e+00,5.000000000000000000e+00,5.000000000000000000e+00,5.000000000000000000e+00,5.000000000000000000e+00,5.000000000000000000e+00,5.000000000000000000e+00,5.000000000000000000e+00,5.000000000000000000e+00,5.000000000000000000e+00,5.000000000000000000e+00,5.000000000000000000e+00,5.000000000000000000e+00,5.000000000000000000e+00,5.000000000000000000e+00,4.865680217742919922e+00,4.674414157867431641e+00,4.497615814208984375e+00,4.333703994750976562e+00,4.181319713592529297e+00,4.039287567138671875e+00,3.906587600708007812e+00,3.782329797744750977e+00,3.665732383728027344e+00,3.556109189987182617e+00,3.452851533889770508e+00,3.355421304702758789e+00,3.263339042663574219e+00,3.176175355911254883e+00,3.093546867370605469e+00,3.015108823776245117e+00,2.940549850463867188e+00,2.869589567184448242e+00,2.801973104476928711e+00,2.737469673156738281e+00,2.675869703292846680e+00,2.616980791091918945e+00,2.560627937316894531e+00,2.506651163101196289e+00,2.454902648925781250e+00,2.405247926712036133e+00,2.357561826705932617e+00,2.311729907989501953e+00,2.267645835876464844e+00,2.225211858749389648e+00,2.184336423873901367e+00,2.144936084747314453e+00,2.106931686401367188e+00,2.070250511169433594e+00,2.034825086593627930e+00,2.000591278076171875e+00,1.967490553855895996e+00,1.935467362403869629e+00,1.904469609260559082e+00,1.874449253082275391e+00,1.845360636711120605e+00
5.000000000000000000e+00,5.000000000000000000e+00,5.000000000000000000e+00,5.000000000000000000e+00,5.000000000000000000e+00,5.000000000000000000e+00,5.000000000000000000e+00,5.000000000000000000e+00,5.000000000000000000e+00,5.000000000000000000e+00,5.000000000000000000e+00,5.000000000000000000e+00,5.000000000000000000e+00,5.000000000000000000e+00,5.000000000000000000e+00,5.000000000000000000e+00,5.000000000000000000e+00,5.000000000000000000e+00,5.000000000000000000e+00,5.000000000000000000e+00,5.000000000000000000e+00,5.000000000000000000e+00,5.000000000000000000e+00,5.000000000000000000e+00,5.000000000000000000e+00,5.000000000000000000e+00,5.000000000000000000e+00,5.000000000000000000e+00,5.000000000000000000e+00,5.000000000000000000e+00,5.000000000000000000e+00,5.000000000000000000e+00,5.000000000000000000e+00,5.000000000000000000e+00,5.000000000000000000e+00,5.000000000000000000e+00,5.000000000000000000e+00,5.000000000000000000e+00,5.000000000000000000e+00,4.865819931030273438e+00,4.674542903900146484e+00,4.497735500335693359e+00,4.333815097808837891e+00,4.181422710418701172e+00,4.039383888244628906e+00,3.906678199768066406e+00,3.782414197921752930e+00,3.665811777114868164e+00,3.556183815002441406e+00,3.452921867370605469e+00,3.355487823486328125e+00,3.263401985168457031e+00,3.176234960556030273e+00,3.093603610992431641e+00,3.015162467956542969e+00,2.940600872039794922e+00,2.869638204574584961e+00,2.802019357681274414e+00,2.737514019012451172e+00,2.675911903381347656e+00,2.617021083831787109e+00,2.560666799545288086e+00,2.506688117980957031e+00,2.454938173294067383e+00,2.405282020568847656e+00,2.357594728469848633e+00,2.311761379241943359e+00,2.267676353454589844e+00,2.225240707397460938e+00,2.184364795684814453e+00,2.144963026046752930e+00,2.106957912445068359e+00,2.070275783538818359e+00,2.034849405288696289e+00,2.000614881515502930e+00,1.967513442039489746e+00,1.935489416122436523e+00,1.904491186141967773e+00,1.874469995498657227e+00,1.845380783081054688e+00
5.000000000000000000e+00,5.000000000000000000e+00,5.000000000000000000e+00,5.000000000000000000e+00,5.000000000000000000e+00,5.000000000000000000e+00,5.000000000000000000e+00,5.000000000000000000e+00,5.000000000000000000e+00,5.000000000000000000e+00,5.000000000000000000e+00,5.000000000000000000e+00,5.000000000000000000e+00,5.000000000000000000e+00,5.000000000000000000e+00,5.000000000000000000e+00,5.000000000000000000e+00,5.000000000000000000e+00,5.000000000000000000e+00,5.000000000000000000e+00,5.000000000000000000e+00,5.000000000000000000e+00,5.000000000000000000e+00,5.000000000000000000e+00,5.000000000000000000e+00,5.000000000000000000e+00,5.000000000000000000e+00,5.000000000000000000e+00,5.000000000000000000e+00,5.000000000000000000e+00,5.000000000000000000e+00,5.000000000000000000e+00,5.000000000000000000e+00,5.000000000000000000e+00,5.000000000000000000e+00,5.000000000000000000e+00,5.000000000000000000e+00,5.000000000000000000e+00,5.000000000000000000e+00,4.865959644317626953e+00,4.674671649932861328e+00,4.497854709625244141e+00,4.333926200866699219e+00,4.181526184082031250e+00,4.039480209350585938e+00,3.906768321990966797e+00,3.782498598098754883e+00,3.665890932083129883e+00,3.556258440017700195e+00,3.452992200851440430e+00,3.355554580688476562e+00,3.263464689254760742e+00,3.176294565200805664e+00,3.093660116195678711e+00,3.015216112136840820e+00,2.940651893615722656e+00,2.869686841964721680e+00,2.802065849304199219e+00,2.737558364868164062e+00,2.675954341888427734e+00,2.617061614990234375e+00,2.560705423355102539e+00,2.506725311279296875e+00,2.454973697662353516e+00,2.405316114425659180e+00,2.357627391815185547e+00,2.311793088912963867e+00,2.267706394195556641e+00,2.225270032882690430e+00,2.184392929077148438e+00,2.144990205764770508e+00,2.106984138488769531e+00,2.070301055908203125e+00,2.034873962402343750e+00,2.000638723373413086e+00,1.967536330223083496e+00,1.935511469841003418e+00,1.904512643814086914e+00,1.874490737915039062e+00,1.845400810241699219e+00
5.000000000000000000e+00,5.000000000000000000e+00,5.000000000000000000e+00,5.000000000000000000e+00,5.000000000000000000e+00,5.000000000000000000e+00,5.000000000000000000e+00,5.000000000000000000e+00,5.000000000000000000e+00,5.000000000000000000e+00,5.000000000000000000e+00,5.000000000000000000e+00,5.000000000000000000e+00,5.000000000000000000e+00,5.000000000000000000e+00,5.000000000000000000e+00,5.000000000000000000e+00,5.000000000000000000e+00,5.000000000000000000e+00,5.000000000000000000e+00,5.000000000000000000e+00,5.000000000000000000e+00,5.000000000000000000e+00,5.000000000000000000e+00,5.000000000000000000e+00,5.000000000000000000e+00,5.000000000000000000e+00,5.000000000000000000e+00,5.000000000000000000e+00,5.000000000000000000e+00,5.000000000000000000e+00,5.000000000000000000e+00,5.000000000000000000e+00,5.000000000000000000e+00,5.000000000000000000e+00,5.000000000000000000e+00,5.000000000000000000e+00,5.000000000000000000e+00,5.000000000000000000e+00,4.866099834442138672e+00,4.674800872802734375e+00,4.497974395751953125e+00,4.334036827087402344e+00,4.181629657745361328e+00,4.039576530456542969e+00,3.906858444213867188e+00,3.782582998275756836e+00,3.665970802307128906e+00,3.556333065032958984e+00,3.453062772750854492e+00,3.355621099472045898e+00,3.263527631759643555e+00,3.176353931427001953e+00,3.093716621398925781e+00,3.015269756317138672e+00,2.940703153610229492e+00,2.869735240936279297e+00,2.802112102508544922e+00,2.737602710723876953e+00,2.675996541976928711e+00,2.617101907730102539e+00,2.560744047164916992e+00,2.506762266159057617e+00,2.455009460449218750e+00,2.405350208282470703e+00,2.357660293579101562e+00,2.311824321746826172e+00,2.267736673355102539e+00,2.225299358367919922e+00,2.184421062469482422e+00,2.145017385482788086e+00,2.107010364532470703e+00,2.070326566696166992e+00,2.034898281097412109e+00,2.000662326812744141e+00,1.967559099197387695e+00,1.935533642768859863e+00,1.904533982276916504e+00,1.874511480331420898e+00,1.845420956611633301e+00
5.000000000000000000e+00,5.000000000000000000e+00,5.000000000000000000e+00,5.000000000000000000e+00,5.000000000000000000e+00,5.000000000000000000e+00,5.000000000000000000e+00,5.000000000000000000e+00,5.000000000000000000e+00,5.000000000000000000e+00,5.000000000000000000e+00,5.000000000000000000e+00,5.000000000000000000e+00,5.000000000000000000e+00,5.000000000000000000e+00,5.000000000000000000e+00,5.000000000000000000e+00,5.000000000000000000e+00,5.000000000000000000e+00,5.000000000000000000e+00,5.000000000000000000e+00,5.000000000000000000e+00,5.000000000000000000e+00,5.000000000000000000e+00,5.000000000000000000e+00,5.000000000000000000e+00,5.000000000000000000e+00,5.000000000000000000e+00,5.000000000000000000e+00,5.000000000000000000e+00,5.000000000000000000e+00,5.000000000000000000e+00,5.000000000000000000e+00,5.000000000000000000e+00,5.000000000000000000e+00,5.000000000000000000e+00,5.000000000000000000e+00,5.000000000000000000e+00,5.000000000000000000e+00,4.866239547729492188e+00,4.674930095672607422e+00,4.498093605041503906e+00,4.334147930145263672e+00,4.181732654571533203e+00,4.039673328399658203e+00,3.906948328018188477e+00,3.782667636871337891e+00,3.666049957275390625e+00,3.556407690048217773e+00,3.453133106231689453e+00,3.355687379837036133e+00,3.263590335845947266e+00,3.176413774490356445e+00,3.093773126602172852e+00,3.015323400497436523e+00,2.940754175186157227e+00,2.869783878326416016e+00,2.802158355712890625e+00,2.737646818161010742e+00,2.676038742065429688e+00,2.617142677307128906e+00,2.560782909393310547e+00,2.506799459457397461e+00,2.455045223236083984e+00,2.405384540557861328e+00,2.357692956924438477e+00,2.311855792999267578e+00,2.267767190933227539e+00,2.225328683853149414e+00,2.184449195861816406e+00,2.145044565200805664e+00,2.107036590576171875e+00,2.070351839065551758e+00,2.034922599792480469e+00,2.000685930252075195e+00,1.967581987380981445e+00,1.935555696487426758e+00,1.904555439949035645e+00,1.874532222747802734e+00,1.845441102981567383e+00
5.000000000000000000e+00,5.000000000000000000e+00,5.000000000000000000e+00,5.000000000000000000e+00,5.000000000000000000e+00,5.000000000000000000e+00,5.000000000000000000e+00,5.000000000000000000e+00,5.000000000000000000e+00,5.000000000000000000e+00,5.000000000000000000e+00,5.000000000000000000e+00,5.000000000000000000e+00,5.000000000000000000e+00,5.000000000000000000e+00,5.000000000000000000e+00,5.000000000000000000e+00,5.000000000000000000e+00,5.000000000000000000e+00,5.000000000000000000e+00,5.000000000000000000e+00,5.000000000000000000e+00,5.000000000000000000e+00,5.000000000000000000e+00,5.000000000000000000e+00,5.000000000000000000e+00,5.000000000000000000e+00,5.000000000000000000e+00,5.000000000000000000e+00,5.000000000000000000e+00,5.000000000000000000e+00,5.000000000000000000e+00,5.000000000000000000e+00,5.000000000000000000e+00,5.000000000000000000e+00,5.000000000000000000e+00,5.000000000000000000e+00,5.000000000000000000e+00,5.000000000000000000e+00,4.866379261016845703e+00,4.675059318542480469e+00,4.498213291168212891e+00,4.334258556365966797e+00,4.181836128234863281e+00,4.039769172668457031e+00,3.907038450241088867e+00,3.782752037048339844e+00,3.666129350662231445e+00,3.556482315063476562e+00,3.453203678131103516e+00,3.355753898620605469e+00,3.263653278350830078e+00,3.176473379135131836e+00,3.093829631805419922e+00,3.015377044677734375e+00,2.940805196762084961e+00,2.869832515716552734e+00,2.802205085754394531e+00,2.737691164016723633e+00,2.676080942153930664e+00,2.617182970046997070e+00,2.560821533203125000e+00,2.506836414337158203e+00,2.455080747604370117e+00,2.405418395996093750e+00,2.357725858688354492e+00,2.311887502670288086e+00,2.267797470092773438e+00,2.225357770919799805e+00,2.184477329254150391e+00,2.145071744918823242e+00,2.107062816619873047e+00,2.070377111434936523e+00,2.034947395324707031e+00,2.000709533691406250e+00,1.967604875564575195e+00,1.935577869415283203e+00,1.904576778411865234e+00,1.874552845954895020e+00,1.845461130142211914e+00
5.000000000000000000e+00,5.000000000000000000e+00,5.000000000000000000e+00,5.000000000000000000e+00,5.000000000000000000e+00,5.000000000000000000e+00,5.000000000000000000e+00,5.000000000000000000e+00,5.000000000000000000e+00,5.000000000000000000e+00,5.000000000000000000e+00,5.000000000000000000e+00,5.000000000000000000e+00,5.000000000000000000e+00,5.000000000000000000e+00,5.000000000000000000e+00,5.000000000000000000e+00,5.000000000000000000e+00,5.000000000000000000e+00,5.000000000000000000e+00,5.000000000000000000e+00,5.000000000000000000e+00,5.000000000000000000e+00,5.000000000000000000e+00,4.605585575103759766e+00,4.616662025451660156e+00,5.000000000000000000e+00,5.000000000000000000e+00,5.000000000000000000e+00,5.000000000000000000e+00,5.000000000000000000e+00,5.000000000000000000e+00,5.000000000000000000e+00,5.000000000000000000e+00,5.000000000000000000e+00,5.000000000000000000e+00,5.000000000000000000e+00,5.000000000000000000e+00,5.000000000000000000e+00,4.866518974304199219e+00,4.675188064575195312e+00,4.498332500457763672e+00,4.334369659423828125e+00,4.181939125061035156e+00,4.039865493774414062e+00,3.907128572463989258e+00,3.782836437225341797e+00,3.666208505630493164e+00,3.556556940078735352e+00,3.453274011611938477e+00,3.355820417404174805e+00,3.263716220855712891e+00,3.176532983779907227e+00,3.093886137008666992e+00,3.015430688858032227e+00,2.940856218338012695e+00,2.869881153106689453e+00,2.802251338958740234e+00,2.737735271453857422e+00,2.676123380661010742e+00,2.617223501205444336e+00,2.560860157012939453e+00,2.506873607635498047e+00,2.455116033554077148e+00,2.405452489852905273e+00,2.357758522033691406e+00,2.311918973922729492e+00,2.267827749252319336e+00,2.225387096405029297e+00,2.184505462646484375e+00,2.145098924636840820e+00,2.107089042663574219e+00,2.070402383804321289e+00,2.034971714019775391e+00,2.000733137130737305e+00,1.967627644538879395e+00,1.935599923133850098e+00,1.904598236083984375e+00,1.874573588371276855e+00,1.845481276512145996e+00
5.000000000000000000e+00,5.000000000000000000e+00,5.000000000000000000e+00,5.000000000000000000e+00,5.000000000000000000e+00,5.000000000000000000e+00,5.000000000000000000e+00,5.000000000000000000e+00,5.000000000000000000e+00,5.000000000000000000e+00,5.000000000000000000e+00,5.000000000000000000e+00,5.000000000000000000e+00,5.000000000000000000e+00,5.000000000000000000e+00,5.000000000000000000e+00,5.000000000000000000e+00,5.000000000000000000e+00,5.000000000000000000e+00,5.000000000000000000e+00,5.000000000000000000e+00,5.000000000000000000e+00,5.000000000000000000e+00,5.000000000000000000e+00,4.609893798828125000e+00,4.618335247039794922e+00,5.000000000000000000e+00,5.000000000000000000e+00,5.000000000000000000e+00,5.000000000000000000e+00,5.000000000000000000e+00,5.000000000000000000e+00,5.000000000000000000e+00,5.000000000000000000e+00,5.000000000000000000e+00,5.000000000000000000e+00,5.000000000000000000e+00,5.000000000000000000e+00,5.000000000000000000e+00,4.866658687591552734e+00,4.675316810607910156e+00,4.498452186584472656e+00,4.334480762481689453e+00,4.182042121887207031e+00,4.039961814880371094e+00,3.907218694686889648e+00,3.782921314239501953e+00,3.666287899017333984e+00,3.556631565093994141e+00,3.453344583511352539e+00,3.355886936187744141e+00,3.263778924942016602e+00,3.176592588424682617e+00,3.093942642211914062e+00,3.015484571456909180e+00,2.940907239913940430e+00,2.869929790496826172e+00,2.802297592163085938e+00,2.737779617309570312e+00,2.676165580749511719e+00,2.617263793945312500e+00,2.560899019241333008e+00,2.506910562515258789e+00,2.455151557922363281e+00,2.405486583709716797e+00,2.357791423797607422e+00,2.311950445175170898e+00,2.267858028411865234e+00,2.225416183471679688e+00,2.184533834457397461e+00,2.145126104354858398e+00,2.107115030288696289e+00,2.070427656173706055e+00,2.034996032714843750e+00,2.000756740570068359e+00,1.967650532722473145e+00,1.935622096061706543e+00,1.904619574546813965e+00,1.874594569206237793e+00,1.845501303672790527e+00
5.000000000000000000e+00,5.000000000000000000e+00,5.000000000000000000e+00,5.000000000000000000e+00,5.000000000000000000e+00,5.000000000000000000e+00,5.000000000000000000e+00,5.000000000000000000e+00,5.000000000000000000e+00,5.000000000000000000e+00,5.000000000000000000e+00,5.000000000000000000e+00,5.000000000000000000e+00,5.000000000000000000e+00,5.000000000000000000e+00,5.000000000000000000e+00,5.000000000000000000e+00,5.000000000000000000e+00,5.000000000000000000e+00,5.000000000000000000e+00,5.000000000000000000e+00,5.000000000000000000e+00,5.000000000000000000e+00,5.000000000000000000e+00,5.000000000000000000e+00,4.633088111877441406e+00,5.000000000000000000e+00,5.000000000000000000e+00,5.000000000000000000e+00,5.000000000000000000e+00,5.000000000000000000e+00,5.000000000000000000e+00,5.000000000000000000e+00,5.000000000000000000e+00,5.000000000000000000e+00,5.000000000000000000e+00,5.000000000000000000e+00,5.000000000000000000e+00,5.000000000000000000e+00,4.866798877716064453e+00,4.675446033477783203e+00,4.498571395874023438e+00,4.334591388702392578e+00,4.182145595550537109e+00,4.040058135986328125e+00,3.907308816909790039e+00,3.783005714416503906e+00,3.666367292404174805e+00,3.556706190109252930e+00,3.453414916992187500e+00,3.355953216552734375e+00,3.263842105865478516e+00,3.176651954650878906e+00,3.093999147415161133e+00,3.015538215637207031e+00,2.940958499908447266e+00,2.869978427886962891e+00,2.802344083786010742e+00,2.737823724746704102e+00,2.676208019256591797e+00,2.617304325103759766e+00,2.560937643051147461e+00,2.506947755813598633e+00,2.455187082290649414e+00,2.405520677566528320e+00,2.357824325561523438e+00,2.311981916427612305e+00,2.267888545989990234e+00,2.225445508956909180e+00,2.184561967849731445e+00,2.145153284072875977e+00,2.107141256332397461e+00,2.070452928543090820e+00,2.035020589828491211e+00,2.000780344009399414e+00,1.967673540115356445e+00,1.935644149780273438e+00,1.904641032218933105e+00,1.874615311622619629e+00,1.845521450042724609e+00
5.000000000000000000e+00,5.000000000000000000e+00,5.000000000000000000e+00,5.000000000000000000e+00,5.000000000000000000e+00,5.000000000000000000e+00,5.000000000000000000e+00,5.000000000000000000e+00,5.000000000000000000e+00,5.000000000000000000e+00,5.000000000000000000e+00,5.000000000000000000e+00,5.000000000000000000e+00,5.000000000000000000e+00,5.000000000000000000e+00,5.000000000000000000e+00,5.000000000000000000e+00,5.000000000000000000e+00,5.000000000000000000e+00,5.000000000000000000e+00,5.000000000000000000e+00,5.000000000000000000e+00,4.622267723083496094e+00,4.641240119934082031e+00,4.600532531738281250e+00,4.673335075378417969e+00,4.699947357177734375e+00,4.719013214111328125e+00,5.000000000000000000e+00,5.000000000000000000e+00,5.000000000000000000e+00,5.000000000000000000e+00,5.000000000000000000e+00,5.000000000000000000e+00,5.000000000000000000e+00,5.000000000000000000e+00,5.000000000000000000e+00,5.000000000000000000e+00,5.000000000000000000e+00,4.866938591003417969e+00,4.675575256347656250e+00,4.498691082000732422e+00,4.334702491760253906e+00,4.182249069213867188e+00,4.040154933929443359e+00,3.907398939132690430e+00,3.783090114593505859e+00,3.666446685791015625e+00,3.556781291961669922e+00,3.453485250473022461e+00,3.356019735336303711e+00,3.263905048370361328e+00,3.176711559295654297e+00,3.094055652618408203e+00,3.015592098236083984e+00,2.941009521484375000e+00,2.870027303695678711e+00,2.802390336990356445e+00,2.737868070602416992e+00,2.676250219345092773e+00,2.617344379425048828e+00,2.560976028442382812e+00,2.506984710693359375e+00,2.455222606658935547e+00,2.405555009841918945e+00,2.357856988906860352e+00,2.312013626098632812e+00,2.267919063568115234e+00,2.225474834442138672e+00,2.184590101242065430e+00,2.145180463790893555e+00,2.107167482376098633e+00,2.070478439331054688e+00,2.035044908523559570e+00,2.000803947448730469e+00,1.967696428298950195e+00,1.935666322708129883e+00,1.904662370681762695e+00,1.874636054039001465e+00,1.845541477203369141e+00
5.000000000000000000e+00,5.000000000000000000e+00,5.000000000000000000e+00,5.000000000000000000e+00,5.000000000000000000e+00,5.000000000000000000e+00,5.000000000000000000e+00,5.000000000000000000e+00,5.000000000000000000e+00,5.000000000000000000e+00,5.000000000000000000e+00,5.000000000000000000e+00,5.000000000000000000e+00,5.000000000000000000e+00,5.000000000000000000e+00,5.000000000000000000e+00,5.000000000000000000e+00,5.000000000000000000e+00,5.000000000000000000e+00,5.000000000000000000e+00,5.000000000000000000e+00,5.000000000000000000e+00,4.608806610107421875e+00,4.579698562622070312e+00,4.571452140808105469e+00,4.588230609893798828e+00,4.631460189819335938e+00,4.719219684600830078e+00,5.000000000000000000e+00,5.000000000000000000e+00,5.000000000000000000e+00,5.000000000000000000e+00,5.000000000000000000e+00,5.000000000000000000e+00,5.000000000000000000e+00,5.000000000000000000e+00,5.000000000000000000e+00,5.000000000000000000e+00,5.000000000000000000e+00,4.867078304290771484e+00,4.675704479217529297e+00,4.498810768127441406e+00,4.334813117980957031e+00,4.182352066040039062e+00,4.040251255035400391e+00,3.907489299774169922e+00,3.783174514770507812e+00,3.666525840759277344e+00,3.556855916976928711e+00,3.453555583953857422e+00,3.356086254119873047e+00,3.263967990875244141e+00,3.176771163940429688e+00,3.094112396240234375e+00,3.015645742416381836e+00,2.941060543060302734e+00,2.870075702667236328e+00,2.802436590194702148e+00,2.737912178039550781e+00,2.676292657852172852e+00,2.617384910583496094e+00,2.561014890670776367e+00,2.507021903991699219e+00,2.455258369445800781e+00,2.405589342117309570e+00,2.357889890670776367e+00,2.312045097351074219e+00,2.267949342727661133e+00,2.225503921508789062e+00,2.184618234634399414e+00,2.145207643508911133e+00,2.107193708419799805e+00,2.070503711700439453e+00,2.035069465637207031e+00,2.000827550888061523e+00,1.967719316482543945e+00,1.935688376426696777e+00,1.904683828353881836e+00,1.874656796455383301e+00,1.845561623573303223e+00
5.000000000000000000e+00,5.000000000000000000e+00,5.000000000000000000e+00,5.000000000000000000e+00,5.000000000000000000e+00,5.000000000000000000e+00,5.000000000000000000e+00,5.000000000000000000e+00,5.000000000000000000e+00,5.000000000000000000e+00,5.000000000000000000e+00,5.000000000000000000e+00,5.000000000000000000e+00,5.000000000000000000e+00,5.000000000000000000e+00,5.000000000000000000e+00,5.000000000000000000e+00,5.000000000000000000e+00,5.000000000000000000e+00,5.000000000000000000e+00,5.000000000000000000e+00,5.000000000000000000e+00,4.621786594390869141e+00,4.586775779724121094e+00,4.566008090972900391e+00,4.584680557250976562e+00,4.634689807891845703e+00,4.735106468200683594e+00,5.000000000000000000e+00,5.000000000000000000e+00,5.000000000000000000e+00,5.000000000000000000e+00,5.000000000000000000e+00,5.000000000000000000e+00,5.000000000000000000e+00,5.000000000000000000e+00,5.000000000000000000e+00,5.000000000000000000e+00,5.000000000000000000e+00,4.867218017578125000e+00,4.675833225250244141e+00,4.498929977416992188e+00,4.334924221038818359e+00,4.182455539703369141e+00,4.040347576141357422e+00,3.907579421997070312e+00,3.783259153366088867e+00,3.666605234146118164e+00,3.556930541992187500e+00,3.453625917434692383e+00,3.356153011322021484e+00,3.264030694961547852e+00,3.176830768585205078e+00,3.094168901443481445e+00,3.015699386596679688e+00,2.941111564636230469e+00,2.870124340057373047e+00,2.802483081817626953e+00,2.737956523895263672e+00,2.676334619522094727e+00,2.617425441741943359e+00,2.561053752899169922e+00,2.507058858871459961e+00,2.455293893814086914e+00,2.405623435974121094e+00,2.357922554016113281e+00,2.312076807022094727e+00,2.267979621887207031e+00,2.225533246994018555e+00,2.184646606445312500e+00,2.145234823226928711e+00,2.107219934463500977e+00,2.070528984069824219e+00,2.035093784332275391e+00,2.000851392745971680e+00,1.967742085456848145e+00,1.935710430145263672e+00,1.904705286026000977e+00,1.874677538871765137e+00,1.845581769943237305e+00
5.000000000000000000e+00,5.000000000000000000e+00,5.000000000000000000e+00,5.000000000000000000e+00,5.000000000000000000e+00,5.000000000000000000e+00,5.000000000000000000e+00,5.000000000000000000e+00,5.000000000000000000e+00,5.000000000000000000e+00,5.000000000000000000e+00,5.000000000000000000e+00,5.000000000000000000e+00,5.000000000000000000e+00,5.000000000000000000e+00,5.000000000000000000e+00,5.000000000000000000e+00,5.000000000000000000e+00,5.000000000000000000e+00,5.000000000000000000e+00,5.000000000000000000e+00,5.000000000000000000e+00,4.628919124603271484e+00,4.610934734344482422e+00,4.567757129669189453e+00,4.580401897430419922e+00,4.631042480468750000e+00,4.738324642181396484e+00,5.000000000000000000e+00,5.000000000000000000e+00,5.000000000000000000e+00,5.000000000000000000e+00,5.000000000000000000e+00,5.000000000000000000e+00,5.000000000000000000e+00,5.000000000000000000e+00,5.000000000000000000e+00,5.000000000000000000e+00,5.000000000000000000e+00,4.867358207702636719e+00,4.675962448120117188e+00,4.499049663543701172e+00,4.335035324096679688e+00,4.182559013366699219e+00,4.040443897247314453e+00,3.907669544219970703e+00,3.783343553543090820e+00,3.666684865951538086e+00,3.557005167007446289e+00,3.453696250915527344e+00,3.356219530105590820e+00,3.264093637466430664e+00,3.176890134811401367e+00,3.094225406646728516e+00,3.015753030776977539e+00,2.941162824630737305e+00,2.870172977447509766e+00,2.802529335021972656e+00,2.738000869750976562e+00,2.676376819610595703e+00,2.617465734481811523e+00,2.561092376708984375e+00,2.507096052169799805e+00,2.455329656600952148e+00,2.405657529830932617e+00,2.357955455780029297e+00,2.312108278274536133e+00,2.268010139465332031e+00,2.225562334060668945e+00,2.184674739837646484e+00,2.145262002944946289e+00,2.107246160507202148e+00,2.070554256439208984e+00,2.035118341445922852e+00,2.000874996185302734e+00,1.967764973640441895e+00,1.935732603073120117e+00,1.904726624488830566e+00,1.874698281288146973e+00,1.845602035522460938e+00
5.000000000000000000e+00,5.000000000000000000e+00,5.000000000000000000e+00,5.000000000000000000e+00,5.000000000000000000e+00,5.000000000000000000e+00,5.000000000000000000e+00,5.000000000000000000e+00,5.000000000000000000e+00,5.000000000000000000e+00,5.000000000000000000e+00,5.000000000000000000e+00,5.000000000000000000e+00,5.000000000000000000e+00,5.000000000000000000e+00,5.000000000000000000e+00,5.000000000000000000e+00,5.000000000000000000e+00,5.000000000000000000e+00,5.000000000000000000e+00,5.000000000000000000e+00,5.000000000000000000e+00,4.641079902648925781e+00,4.603651523590087891e+00,4.559974193572998047e+00,4.573412895202636719e+00,4.619791984558105469e+00,4.771339893341064453e+00,5.000000000000000000e+00,5.000000000000000000e+00,5.000000000000000000e+00,5.000000000000000000e+00,5.000000000000000000e+00,5.000000000000000000e+00,5.000000000000000000e+00,5.000000000000000000e+00,5.000000000000000000e+00,5.000000000000000000e+00,5.000000000000000000e+00,4.867498397827148438e+00,4.676091670989990234e+00,4.499168872833251953e+00,4.335146427154541016e+00,4.182662010192871094e+00,4.040540218353271484e+00,3.907759666442871094e+00,3.783427953720092773e+00,3.666764259338378906e+00,3.557079792022705078e+00,3.453766822814941406e+00,3.356286048889160156e+00,3.264156579971313477e+00,3.176950216293334961e+00,3.094281911849975586e+00,3.015806674957275391e+00,2.941213846206665039e+00,2.870221614837646484e+00,2.802575588226318359e+00,2.738044977188110352e+00,2.676419019699096680e+00,2.617506504058837891e+00,2.561131000518798828e+00,2.507133245468139648e+00,2.455365180969238281e+00,2.405691623687744141e+00,2.357988357543945312e+00,2.312139987945556641e+00,2.268040418624877930e+00,2.225591659545898438e+00,2.184702873229980469e+00,2.145289182662963867e+00,2.107272386550903320e+00,2.070579528808593750e+00,2.035142898559570312e+00,2.000898599624633789e+00,1.967787861824035645e+00,1.935754895210266113e+00,1.904748082160949707e+00,1.874719023704528809e+00,1.845622181892395020e+00
5.000000000000000000e+00,5.000000000000000000e+00,5.000000000000000000e+00,5.000000000000000000e+00,5.000000000000000000e+00,5.000000000000000000e+00,5.000000000000000000e+00,5.000000000000000000e+00,5.000000000000000000e+00,5.000000000000000000e+00,5.000000000000000000e+00,5.000000000000000000e+00,5.000000000000000000e+00,5.000000000000000000e+00,5.000000000000000000e+00,5.000000000000000000e+00,5.000000000000000000e+00,5.000000000000000000e+00,5.000000000000000000e+00,5.000000000000000000e+00,5.000000000000000000e+00,5.000000000000000000e+00,4.600768089294433594e+00,4.598667144775390625e+00,4.567837715148925781e+00,4.579468727111816406e+00,4.624890327453613281e+00,4.775201320648193359e+00,5.000000000000000000e+00,5.000000000000000000e+00,5.000000000000000000e+00,5.000000000000000000e+00,5.000000000000000000e+00,5.000000000000000000e+00,5.000000000000000000e+00,5.000000000000000000e+00,5.000000000000000000e+00,5.000000000000000000e+00,5.000000000000000000e+00,4.867638111114501953e+00,4.676220417022705078e+00,4.499288558959960938e+00,4.335257053375244141e+00,4.182765483856201172e+00,4.040637016296386719e+00,3.907849788665771484e+00,3.783512592315673828e+00,3.666843652725219727e+00,3.557154417037963867e+00,3.453837394714355469e+00,3.356352329254150391e+00,3.264219284057617188e+00,3.177009582519531250e+00,3.094338417053222656e+00,3.015860319137573242e+00,2.941264867782592773e+00,2.870270013809204102e+00,2.802622079849243164e+00,2.738089323043823242e+00,2.676461458206176758e+00,2.617546796798706055e+00,2.561169862747192383e+00,2.507170200347900391e+00,2.455400705337524414e+00,2.405725717544555664e+00,2.358021259307861328e+00,2.312171459197998047e+00,2.268070697784423828e+00,2.225620985031127930e+00,2.184731006622314453e+00,2.145316362380981445e+00,2.107298612594604492e+00,2.070604801177978516e+00,2.035167455673217773e+00,2.000922203063964844e+00,1.967810630798339844e+00,1.935777068138122559e+00,1.904769420623779297e+00,1.874739766120910645e+00,1.845642209053039551e+00
5.000000000000000000e+00,5.000000000000000000e+00,5.000000000000000000e+00,5.000000000000000000e+00,5.000000000000000000e+00,5.000000000000000000e+00,5.000000000000000000e+00,5.000000000000000000e+00,5.000000000000000000e+00,5.000000000000000000e+00,5.000000000000000000e+00,5.000000000000000000e+00,5.000000000000000000e+00,5.000000000000000000e+00,5.000000000000000000e+00,5.000000000000000000e+00,5.000000000000000000e+00,5.000000000000000000e+00,5.000000000000000000e+00,5.000000000000000000e+00,5.000000000000000000e+00,5.000000000000000000e+00,4.554018974304199219e+00,4.580983161926269531e+00,4.588556766510009766e+00,4.609898567199707031e+00,4.596708297729492188e+00,4.775762557983398438e+00,5.000000000000000000e+00,5.000000000000000000e+00,5.000000000000000000e+00,5.000000000000000000e+00,5.000000000000000000e+00,5.000000000000000000e+00,5.000000000000000000e+00,5.000000000000000000e+00,5.000000000000000000e+00,5.000000000000000000e+00,5.000000000000000000e+00,4.867777824401855469e+00,4.676349639892578125e+00,4.499408245086669922e+00,4.335368156433105469e+00,4.182868480682373047e+00,4.040733337402343750e+00,3.907939910888671875e+00,3.783597469329833984e+00,3.666923046112060547e+00,3.557229042053222656e+00,3.453907966613769531e+00,3.356418848037719727e+00,3.264282226562500000e+00,3.177069187164306641e+00,3.094394922256469727e+00,3.015914201736450195e+00,2.941315650939941406e+00,2.870318651199340820e+00,2.802668333053588867e+00,2.738133430480957031e+00,2.676503658294677734e+00,2.617587327957153320e+00,2.561208486557006836e+00,2.507207393646240234e+00,2.455436229705810547e+00,2.405760049819946289e+00,2.358053922653198242e+00,2.312202930450439453e+00,2.268101215362548828e+00,2.225650310516357422e+00,2.184759140014648438e+00,2.145343542098999023e+00,2.107324838638305664e+00,2.070630073547363281e+00,2.035191774368286133e+00,2.000945806503295898e+00,1.967833518981933594e+00,1.935799121856689453e+00,1.904790878295898438e+00,1.874760508537292480e+00,1.845662355422973633e+00
5.000000000000000000e+00,5.000000000000000000e+00,5.000000000000000000e+00,5.000000000000000000e+00,5.000000000000000000e+00,5.000000000000000000e+00,5.000000000000000000e+00,5.000000000000000000e+00,5.000000000000000000e+00,5.000000000000000000e+00,5.000000000000000000e+00,5.000000000000000000e+00,5.000000000000000000e+00,5.000000000000000000e+00,5.000000000000000000e+00,5.000000000000000000e+00,5.000000000000000000e+00,5.000000000000000000e+00,5.000000000000000000e+00,5.000000000000000000e+00,5.000000000000000000e+00,5.000000000000000000e+00,4.521182060241699219e+00,4.549448966979980469e+00,4.559206485748291016e+00,4.557607173919677734e+00,4.560034275054931641e+00,5.000000000000000000e+00,5.000000000000000000e+00,5.000000000000000000e+00,5.000000000000000000e+00,5.000000000000000000e+00,5.000000000000000000e+00,5.000000000000000000e+00,5.000000000000000000e+00,5.000000000000000000e+00,5.000000000000000000e+00,5.000000000000000000e+00,5.000000000000000000e+00,4.867918014526367188e+00,4.676478862762451172e+00,4.499527454376220703e+00,4.335479259490966797e+00,4.182971954345703125e+00,4.040829658508300781e+00,3.908030033111572266e+00,3.783681869506835938e+00,3.667002439498901367e+00,3.557303905487060547e+00,3.453978300094604492e+00,3.356485366821289062e+00,3.264345407485961914e+00,3.177128791809082031e+00,3.094451189041137695e+00,3.015967607498168945e+00,2.941366672515869141e+00,2.870367288589477539e+00,2.802714824676513672e+00,2.738177776336669922e+00,2.676546096801757812e+00,2.617627620697021484e+00,2.561247348785400391e+00,2.507244586944580078e+00,2.455471992492675781e+00,2.405794143676757812e+00,2.358086824417114258e+00,2.312234640121459961e+00,2.268131732940673828e+00,2.225679397583007812e+00,2.184787273406982422e+00,2.145370721817016602e+00,2.107351064682006836e+00,2.070655345916748047e+00,2.035216331481933594e+00,2.000969409942626953e+00,1.967856407165527344e+00,1.935821294784545898e+00,1.904812335968017578e+00,1.874781250953674316e+00,1.845682382583618164e+00
5.000000000000000000e+00,5.000000000000000000e+00,5.000000000000000000e+00,5.000000000000000000e+00,5.000000000000000000e+00,5.000000000000000000e+00,5.000000000000000000e+00,5.000000000000000000e+00,5.000000000000000000e+00,5.000000000000000000e+00,5.000000000000000000e+00,5.000000000000000000e+00,5.000000000000000000e+00,5.000000000000000000e+00,5.000000000000000000e+00,5.000000000000000000e+00,5.000000000000000000e+00,5.000000000000000000e+00,5.000000000000000000e+00,5.000000000000000000e+00,5.000000000000000000e+00,5.000000000000000000e+00,5.000000000000000000e+00,4.541493892669677734e+00,4.553647994995117188e+00,4.538206100463867188e+00,4.544009208679199219e+00,5.000000000000000000e+00,5.000000000000000000e+00,5.000000000000000000e+00,5.000000000000000000e+00,5.000000000000000000e+00,5.000000000000000000e+00,5.000000000000000000e+00,5.000000000000000000e+00,5.000000000000000000e+00,5.000000000000000000e+00,5.000000000000000000e+00,5.000000000000000000e+00,4.868057727813720703e+00,4.676608085632324219e+00,4.499647140502929688e+00,4.335590362548828125e+00,4.183075428009033203e+00,4.040925979614257812e+00,3.908120155334472656e+00,3.783766269683837891e+00,3.667081594467163086e+00,3.557378768920898438e+00,3.454048633575439453e+00,3.356551885604858398e+00,3.264408349990844727e+00,3.177188396453857422e+00,3.094507694244384766e+00,3.016021251678466797e+00,2.941417932510375977e+00,2.870416164398193359e+00,2.802761077880859375e+00,2.738221883773803711e+00,2.676588296890258789e+00,2.617668151855468750e+00,2.561285972595214844e+00,2.507281780242919922e+00,2.455507516860961914e+00,2.405828475952148438e+00,2.358119726181030273e+00,2.312266111373901367e+00,2.268162012100219727e+00,2.225708723068237305e+00,2.184815406799316406e+00,2.145397901535034180e+00,2.107377290725708008e+00,2.070680856704711914e+00,2.035240650177001953e+00,2.000993013381958008e+00,1.967879176139831543e+00,1.935843348503112793e+00,1.904833674430847168e+00,1.874801993370056152e+00,1.845702528953552246e+00
5.000000000000000000e+00,5.000000000000000000e+00,5.000000000000000000e+00,5.000000000000000000e+00,5.000000000000000000e+00,5.000000000000000000e+00,5.000000000000000000e+00,5.000000000000000000e+00,5.000000000000000000e+00,5.000000000000000000e+00,5.000000000000000000e+00,5.000000000000000000e+00,5.000000000000000000e+00,5.000000000000000000e+00,5.000000000000000000e+00,5.000000000000000000e+00,5.000000000000000000e+00,5.000000000000000000e+00,5.000000000000000000e+00,5.000000000000000000e+00,5.000000000000000000e+00,5.000000000000000000e+00,5.000000000000000000e+00,4.537360191345214844e+00,4.548275470733642578e+00,4.517329216003417969e+00,4.526359558105468750e+00,5.000000000000000000e+00,4.783204555511474609e+00,5.000000000000000000e+00,5.000000000000000000e+00,5.000000000000000000e+00,5.000000000000000000e+00,5.000000000000000000e+00,5.000000000000000000e+00,5.000000000000000000e+00,5.000000000000000000e+00,5.000000000000000000e+00,5.000000000000000000e+00,4.868197441101074219e+00,4.676737308502197266e+00,4.499766349792480469e+00,4.335700988769531250e+00,4.183178424835205078e+00,4.041022300720214844e+00,3.908210277557373047e+00,3.783850908279418945e+00,3.667160987854003906e+00,3.557453632354736328e+00,3.454118967056274414e+00,3.356618404388427734e+00,3.264471292495727539e+00,3.177247762680053711e+00,3.094564199447631836e+00,3.016075134277343750e+00,2.941468954086303711e+00,2.870464801788330078e+00,2.802807569503784180e+00,2.738266229629516602e+00,2.676630735397338867e+00,2.617708444595336914e+00,2.561324596405029297e+00,2.507318735122680664e+00,2.455543041229248047e+00,2.405862569808959961e+00,2.358152389526367188e+00,2.312297582626342773e+00,2.268192291259765625e+00,2.225737810134887695e+00,2.184843778610229492e+00,2.145425081253051758e+00,2.107403516769409180e+00,2.070706129074096680e+00,2.035265207290649414e+00,2.001016616821289062e+00,1.967902064323425293e+00,1.935865521430969238e+00,1.904855132102966309e+00,1.874822735786437988e+00,1.845722675323486328e+00
5.000000000000000000e+00,5.000000000000000000e+00,5.000000000000000000e+00,5.000000000000000000e+00,5.000000000000000000e+00,5.000000000000000000e+00,5.000000000000000000e+00,5.000000000000000000e+00,5.000000000000000000e+00,5.000000000000000000e+00,5.000000000000000000e+00,5.000000000000000000e+00,5.000000000000000000e+00,5.000000000000000000e+00,5.000000000000000000e+00,5.000000000000000000e+00,5.000000000000000000e+00,5.000000000000000000e+00,5.000000000000000000e+00,5.000000000000000000e+00,5.000000000000000000e+00,5.000000000000000000e+00,5.000000000000000000e+00,4.528738021850585938e+00,4.542453765869140625e+00,4.496989727020263672e+00,4.510826587677001953e+00,5.000000000000000000e+00,5.000000000000000000e+00,5.000000000000000000e+00,5.000000000000000000e+00,5.000000000000000000e+00,5.000000000000000000e+00,5.000000000000000000e+00,5.000000000000000000e+00,5.000000000000000000e+00,5.000000000000000000e+00,5.000000000000000000e+00,5.000000000000000000e+00,4.868337631225585938e+00,4.676866054534912109e+00,4.499886512756347656e+00,4.335812091827392578e+00,4.183281898498535156e+00,4.041118621826171875e+00,3.908300876617431641e+00,3.783935308456420898e+00,3.667240381240844727e+00,3.557528257369995117e+00,3.454189538955688477e+00,3.356684923171997070e+00,3.264533758163452148e+00,3.177307367324829102e+00,3.094620943069458008e+00,3.016128778457641602e+00,2.941519975662231445e+00,2.870513439178466797e+00,2.802853822708129883e+00,2.738310575485229492e+00,2.676672935485839844e+00,2.617748975753784180e+00,2.561363458633422852e+00,2.507355928421020508e+00,2.455578565597534180e+00,2.405896663665771484e+00,2.358185291290283203e+00,2.312329292297363281e+00,2.268222808837890625e+00,2.225767135620117188e+00,2.184871912002563477e+00,2.145452260971069336e+00,2.107429742813110352e+00,2.070731401443481445e+00,2.035289525985717773e+00,2.001040220260620117e+00,1.967924952507019043e+00,1.935887575149536133e+00,1.904876708984375000e+00,1.874843478202819824e+00,1.845742702484130859e+00
5.000000000000000000e+00,5.000000000000000000e+00,5.000000000000000000e+00,5.000000000000000000e+00,5.000000000000000000e+00,5.000000000000000000e+00,5.000000000000000000e+00,5.000000000000000000e+00,5.000000000000000000e+00,5.000000000000000000e+00,5.000000000000000000e+00,5.000000000000000000e+00,5.000000000000000000e+00,5.000000000000000000e+00,5.000000000000000000e+00,5.000000000000000000e+00,5.000000000000000000e+00,5.000000000000000000e+00,5.000000000000000000e+00,5.000000000000000000e+00,5.000000000000000000e+00,5.000000000000000000e+00,5.000000000000000000e+00,4.534976005554199219e+00,4.541240692138671875e+00,4.506120681762695312e+00,4.531250476837158203e+00,5.000000000000000000e+00,5.000000000000000000e+00,5.000000000000000000e+00,5.000000000000000000e+00,5.000000000000000000e+00,5.000000000000000000e+00,5.000000000000000000e+00,5.000000000000000000e+00,5.000000000000000000e+00,5.000000000000000000e+00,5.000000000000000000e+00,5.000000000000000000e+00,4.868475437164306641e+00,4.676995277404785156e+00,4.500005722045898438e+00,4.335923194885253906e+00,4.183385372161865234e+00,4.041214942932128906e+00,3.908390998840332031e+00,3.784019708633422852e+00,3.667319774627685547e+00,3.557602882385253906e+00,3.454259872436523438e+00,3.356751441955566406e+00,3.264596700668334961e+00,3.177366733551025391e+00,3.094677448272705078e+00,3.016182422637939453e+00,2.941570997238159180e+00,2.870562076568603516e+00,2.802900314331054688e+00,2.738354921340942383e+00,2.676715135574340820e+00,2.617789506912231445e+00,2.561402320861816406e+00,2.507392883300781250e+00,2.455614328384399414e+00,2.405930995941162109e+00,2.358218193054199219e+00,2.312361001968383789e+00,2.268253087997436523e+00,2.225796461105346680e+00,2.184900045394897461e+00,2.145479440689086914e+00,2.107455968856811523e+00,2.070756673812866211e+00,2.035314083099365234e+00,2.001064062118530273e+00,1.967947721481323242e+00,1.935909748077392578e+00,1.904898166656494141e+00,1.874864220619201660e+00,1.845762848854064941e+00
5.000000000000000000e+00,5.000000000000000000e+00,5.000000000000000000e+00,5.000000000000000000e+00,5.000000000000000000e+00,5.000000000000000000e+00,5.000000000000000000e+00,5.000000000000000000e+00,5.000000000000000000e+00,5.000000000000000000e+00,5.000000000000000000e+00,5.000000000000000000e+00,5.000000000000000000e+00,5.000000000000000000e+00,5.000000000000000000e+00,5.000000000000000000e+00,5.000000000000000000e+00,5.000000000000000000e+00,5.000000000000000000e+00,5.000000000000000000e+00,5.000000000000000000e+00,5.000000000000000000e+00,5.000000000000000000e+00,5.000000000000000000e+00,4.640412807464599609e+00,4.553165435791015625e+00,4.565217018127441406e+00,5.000000000000000000e+00,5.000000000000000000e+00,5.000000000000000000e+00,5.000000000000000000e+00,5.000000000000000000e+00,5.000000000000000000e+00,5.000000000000000000e+00,5.000000000000000000e+00,5.000000000000000000e+00,5.000000000000000000e+00,5.000000000000000000e+00,5.000000000000000000e+00,4.868614673614501953e+00,4.677123069763183594e+00,4.500125408172607422e+00,4.336034297943115234e+00,4.183488845825195312e+00,4.041311740875244141e+00,3.908481121063232422e+00,3.784104347229003906e+00,3.667399406433105469e+00,3.557677507400512695e+00,3.454329967498779297e+00,3.356817960739135742e+00,3.264659643173217773e+00,3.177426338195800781e+00,3.094733953475952148e+00,3.016236066818237305e+00,2.941622257232666016e+00,2.870610475540161133e+00,2.802946567535400391e+00,2.738399267196655273e+00,2.676757574081420898e+00,2.617829799652099609e+00,2.561440944671630859e+00,2.507430076599121094e+00,2.455650091171264648e+00,2.405965089797973633e+00,2.358250856399536133e+00,2.312392473220825195e+00,2.268283367156982422e+00,2.225825548171997070e+00,2.184928417205810547e+00,2.145506620407104492e+00,2.107482194900512695e+00,2.070782184600830078e+00,2.035338401794433594e+00,2.001087665557861328e+00,1.967970609664916992e+00,1.935931801795959473e+00,1.904919505119323730e+00,1.874884963035583496e+00,1.845782995223999023e+00
5.000000000000000000e+00,5.000000000000000000e+00,5.000000000000000000e+00,5.000000000000000000e+00,5.000000000000000000e+00,5.000000000000000000e+00,5.000000000000000000e+00,5.000000000000000000e+00,5.000000000000000000e+00,5.000000000000000000e+00,5.000000000000000000e+00,5.000000000000000000e+00,5.000000000000000000e+00,5.000000000000000000e+00,5.000000000000000000e+00,5.000000000000000000e+00,5.000000000000000000e+00,5.000000000000000000e+00,5.000000000000000000e+00,5.000000000000000000e+00,5.000000000000000000e+00,5.000000000000000000e+00,5.000000000000000000e+00,5.000000000000000000e+00,4.768454074859619141e+00,4.559471130371093750e+00,4.592804908752441406e+00,5.000000000000000000e+00,5.000000000000000000e+00,5.000000000000000000e+00,5.000000000000000000e+00,5.000000000000000000e+00,5.000000000000000000e+00,5.000000000000000000e+00,5.000000000000000000e+00,5.000000000000000000e+00,5.000000000000000000e+00,5.000000000000000000e+00,5.000000000000000000e+00,4.868753910064697266e+00,4.677251338958740234e+00,4.500244617462158203e+00,4.336144924163818359e+00,4.183591842651367188e+00,4.041408061981201172e+00,3.908571243286132812e+00,3.784188747406005859e+00,3.667478799819946289e+00,3.557752132415771484e+00,3.454400539398193359e+00,3.356884479522705078e+00,3.264722585678100586e+00,3.177486181259155273e+00,3.094790458679199219e+00,3.016289710998535156e+00,2.941673278808593750e+00,2.870659112930297852e+00,2.802992820739746094e+00,2.738443374633789062e+00,2.676799774169921875e+00,2.617870569229125977e+00,2.561479806900024414e+00,2.507467269897460938e+00,2.455685615539550781e+00,2.405999183654785156e+00,2.358283758163452148e+00,2.312423944473266602e+00,2.268313884735107422e+00,2.225855112075805664e+00,2.184956550598144531e+00,2.145533800125122070e+00,2.107508420944213867e+00,2.070807456970214844e+00,2.035362958908081055e+00,2.001111268997192383e+00,1.967993497848510742e+00,1.935953974723815918e+00,1.904940962791442871e+00,1.874905705451965332e+00,1.845803022384643555e+00
5.000000000000000000e+00,5.000000000000000000e+00,5.000000000000000000e+00,5.000000000000000000e+00,5.000000000000000000e+00,5.000000000000000000e+00,5.000000000000000000e+00,5.000000000000000000e+00,5.000000000000000000e+00,5.000000000000000000e+00,5.000000000000000000e+00,5.000000000000000000e+00,5.000000000000000000e+00,5.000000000000000000e+00,5.000000000000000000e+00,5.000000000000000000e+00,5.000000000000000000e+00,5.000000000000000000e+00,5.000000000000000000e+00,5.000000000000000000e+00,5.000000000000000000e+00,5.000000000000000000e+00,5.000000000000000000e+00,5.000000000000000000e+00,4.895327568054199219e+00,4.564738750457763672e+00,4.625076770782470703e+00,5.000000000000000000e+00,5.000000000000000000e+00,5.000000000000000000e+00,5.000000000000000000e+00,5.000000000000000000e+00,5.000000000000000000e+00,5.000000000000000000e+00,5.000000000000000000e+00,5.000000000000000000e+00,5.000000000000000000e+00,5.000000000000000000e+00,5.000000000000000000e+00,4.868893146514892578e+00,4.677379608154296875e+00,4.500362873077392578e+00,4.336256027221679688e+00,4.183695316314697266e+00,4.041504383087158203e+00,3.908661365509033203e+00,3.784273386001586914e+00,3.667557954788208008e+00,3.557826757431030273e+00,3.454471349716186523e+00,3.356950998306274414e+00,3.264785289764404297e+00,3.177545785903930664e+00,3.094846963882446289e+00,3.016343355178833008e+00,2.941724538803100586e+00,2.870707750320434570e+00,2.803039550781250000e+00,2.738487720489501953e+00,2.676841974258422852e+00,2.617910861968994141e+00,2.561518430709838867e+00,2.507504224777221680e+00,2.455721139907836914e+00,2.406033515930175781e+00,2.358316659927368164e+00,2.312455654144287109e+00,2.268344163894653320e+00,2.225884199142456055e+00,2.184984683990478516e+00,2.145560741424560547e+00,2.107534646987915039e+00,2.070832729339599609e+00,2.035387516021728516e+00,2.001134872436523438e+00,1.968016386032104492e+00,1.935976028442382812e+00,1.904962420463562012e+00,1.874926447868347168e+00,1.845823168754577637e+00
5.000000000000000000e+00,5.000000000000000000e+00,5.000000000000000000e+00,5.000000000000000000e+00,5.000000000000000000e+00,5.000000000000000000e+00,5.000000000000000000e+00,5.000000000000000000e+00,5.000000000000000000e+00,5.000000000000000000e+00,5.000000000000000000e+00,5.000000000000000000e+00,5.000000000000000000e+00,5.000000000000000000e+00,5.000000000000000000e+00,5.000000000000000000e+00,5.000000000000000000e+00,5.000000000000000000e+00,5.000000000000000000e+00,5.000000000000000000e+00,5.000000000000000000e+00,5.000000000000000000e+00,5.000000000000000000e+00,5.000000000000000000e+00,4.954187870025634766e+00,4.572509288787841797e+00,5.000000000000000000e+00,5.000000000000000000e+00,5.000000000000000000e+00,5.000000000000000000e+00,5.000000000000000000e+00,5.000000000000000000e+00,5.000000000000000000e+00,5.000000000000000000e+00,5.000000000000000000e+00,5.000000000000000000e+00,5.000000000000000000e+00,5.000000000000000000e+00,5.000000000000000000e+00,4.869032382965087891e+00,4.677508354187011719e+00,4.500481605529785156e+00,4.336365699768066406e+00,4.183798313140869141e+00,4.041600704193115234e+00,3.908751726150512695e+00,3.784358024597167969e+00,3.667637348175048828e+00,3.557901382446289062e+00,3.454541683197021484e+00,3.357017517089843750e+00,3.264848232269287109e+00,3.177605390548706055e+00,3.094903469085693359e+00,3.016397476196289062e+00,2.941775560379028320e+00,2.870756387710571289e+00,2.803085803985595703e+00,2.738532066345214844e+00,2.676884412765502930e+00,2.617951393127441406e+00,2.561557054519653320e+00,2.507541656494140625e+00,2.455756664276123047e+00,2.406067609786987305e+00,2.358349561691284180e+00,2.312487125396728516e+00,2.268374443054199219e+00,2.225913524627685547e+00,2.185012817382812500e+00,2.145588159561157227e+00,2.107560873031616211e+00,2.070858001708984375e+00,2.035411834716796875e+00,2.001158475875854492e+00,1.968039155006408691e+00,1.935998201370239258e+00,1.904983758926391602e+00,1.874947428703308105e+00,1.845843315124511719e+00
5.000000000000000000e+00,5.000000000000000000e+00,5.000000000000000000e+00,5.000000000000000000e+00,5.000000000000000000e+00,5.000000000000000000e+00,5.000000000000000000e+00,5.000000000000000000e+00,5.000000000000000000e+00,5.000000000000000000e+00,5.000000000000000000e+00,5.000000000000000000e+00,5.000000000000000000e+00,5.000000000000000000e+00,5.000000000000000000e+00,5.000000000000000000e+00,5.000000000000000000e+00,5.000000000000000000e+00,5.000000000000000000e+00,5.000000000000000000e+00,5.000000000000000000e+00,5.000000000000000000e+00,5.000000000000000000e+00,5.000000000000000000e+00,5.000000000000000000e+00,4.581454753875732422e+00,5.000000000000000000e+00,5.000000000000000000e+00,5.000000000000000000e+00,5.000000000000000000e+00,5.000000000000000000e+00,5.000000000000000000e+00,5.000000000000000000e+00,5.000000000000000000e+00,5.000000000000000000e+00,5.000000000000000000e+00,5.000000000000000000e+00,5.000000000000000000e+00,5.000000000000000000e+00,4.869171142578125000e+00,4.677636623382568359e+00,4.500600337982177734e+00,4.336475849151611328e+00,4.183900356292724609e+00,4.041697502136230469e+00,3.908841609954833984e+00,3.784442424774169922e+00,3.667716741561889648e+00,3.557976007461547852e+00,3.454612016677856445e+00,3.357083797454833984e+00,3.264911413192749023e+00,3.177664995193481445e+00,3.094959974288940430e+00,3.016451120376586914e+00,2.941826581954956055e+00,2.870805025100708008e+00,2.803132295608520508e+00,2.738576173782348633e+00,2.676926851272583008e+00,2.617991924285888672e+00,2.561595916748046875e+00,2.507578611373901367e+00,2.455792427062988281e+00,2.406101703643798828e+00,2.358382463455200195e+00,2.312518596649169922e+00,2.268404960632324219e+00,2.225942611694335938e+00,2.185040950775146484e+00,2.145615339279174805e+00,2.107587099075317383e+00,2.070883274078369141e+00,2.035436391830444336e+00,2.001182079315185547e+00,1.968062281608581543e+00,1.936020255088806152e+00,1.905005216598510742e+00,1.874968171119689941e+00,1.845863342285156250e+00
4.875475883483886719e+00,4.874264717102050781e+00,4.873053550720214844e+00,4.871843338012695312e+00,4.870634078979492188e+00,4.869425296783447266e+00,4.868216514587402344e+00,4.867009162902832031e+00,4.865801811218261719e+00,4.864595413208007812e+00,4.863389492034912109e+00,4.862184047698974609e+00,4.860979557037353516e+00,4.859775066375732422e+00,4.858571529388427734e+00,4.857368946075439453e+00,4.856166362762451172e+00,4.854964733123779297e+00,4.853763580322265625e+00,4.852562904357910156e+00,4.851363182067871094e+00,4.850163459777832031e+00,4.848965167999267578e+00,4.847766876220703125e+00,4.846569061279296875e+00,4.471761703491210938e+00,4.844175815582275391e+00,4.842979907989501953e+00,4.841784477233886719e+00,4.840590000152587891e+00,4.839395999908447266e+00,4.838202476501464844e+00,4.837009429931640625e+00,4.835817337036132812e+00,4.834625244140625000e+00,4.833434104919433594e+00,4.832243919372558594e+00,4.831053733825683594e+00,4.829864501953125000e+00,4.828675746917724609e+00,4.677765369415283203e+00,4.500719547271728516e+00,4.336585998535156250e+00,4.184003353118896484e+00,4.041793823242187500e+00,3.908931732177734375e+00,3.784527063369750977e+00,3.667796134948730469e+00,3.558051109313964844e+00,3.454682588577270508e+00,3.357150316238403320e+00,3.264974355697631836e+00,3.177724599838256836e+00,3.095016479492187500e+00,3.016504764556884766e+00,2.941877603530883789e+00,2.870853900909423828e+00,2.803178548812866211e+00,2.738620519638061523e+00,2.676969051361083984e+00,2.618032217025756836e+00,2.561634540557861328e+00,2.507615804672241211e+00,2.455827951431274414e+00,2.406136035919189453e+00,2.358415126800537109e+00,2.312550306320190430e+00,2.268435478210449219e+00,2.225971937179565430e+00,2.185069084167480469e+00,2.145642518997192383e+00,2.107613325119018555e+00,2.070908784866333008e+00,2.035460710525512695e+00,2.001205921173095703e+00,1.968085169792175293e+00,1.936042428016662598e+00,1.905026674270629883e+00,1.874988913536071777e+00,1.845883488655090332e+00
3.778264522552490234e+00,3.777536869049072266e+00,3.776809692382812500e+00,3.776082992553710938e+00,3.775356054306030273e+00,3.774629831314086914e+00,3.773903846740722656e+00,3.773177623748779297e+00,3.772452354431152344e+00,3.771727085113525391e+00,3.771001815795898438e+00,3.770277261734008789e+00,3.769552707672119141e+00,3.768828630447387695e+00,3.768105030059814453e+00,3.767380952835083008e+00,3.766657829284667969e+00,3.765934944152832031e+00,3.765212059020996094e+00,3.764489650726318359e+00,3.763767480850219727e+00,3.763045310974121094e+00,3.762323856353759766e+00,3.761602640151977539e+00,3.760881185531616211e+00,3.760160446166992188e+00,3.759439706802368164e+00,3.758719682693481445e+00,3.757999658584594727e+00,3.757279872894287109e+00,3.756560325622558594e+00,3.755841493606567383e+00,3.755122184753417969e+00,3.754403829574584961e+00,3.753685474395751953e+00,3.752967119216918945e+00,3.752249479293823242e+00,3.751531839370727539e+00,3.750814676284790039e+00,3.750097751617431641e+00,3.749380826950073242e+00,3.748664617538452148e+00,3.747948646545410156e+00,3.747232437133789062e+00,3.746516942977905273e+00,3.745801687240600586e+00,3.745086431503295898e+00,3.667875528335571289e+00,3.558125972747802734e+00,3.454752922058105469e+00,3.357216835021972656e+00,3.265037298202514648e+00,3.177784204483032227e+00,3.095073223114013672e+00,3.016558408737182617e+00,2.941928625106811523e+00,2.870902538299560547e+00,2.803225040435791016e+00,2.738664627075195312e+00,2.677011489868164062e+00,2.618072748184204102e+00,2.561673402786254883e+00,2.507652997970581055e+00,2.455863475799560547e+00,2.406170129776000977e+00,2.358448028564453125e+00,2.312581777572631836e+00,2.268465757369995117e+00,2.226001262664794922e+00,2.185097455978393555e+00,2.145669698715209961e+00,2.107639551162719727e+00,2.070934057235717773e+00,2.035485267639160156e+00,2.001229524612426758e+00,1.968107938766479492e+00,1.936064481735229492e+00,1.905048012733459473e+00,1.875009655952453613e+00,1.845903635025024414e+00
3.084179162979125977e+00,3.083694458007812500e+00,3.083209753036499023e+00,3.082725286483764648e+00,3.082241058349609375e+00,3.081756830215454102e+00,3.081272840499877930e+00,3.080789089202880859e+00,3.080305099487304688e+00,3.079821586608886719e+00,3.079338073730468750e+00,3.078855037689208984e+00,3.078372001647949219e+00,3.077888727188110352e+00,3.077406167984008789e+00,3.076923608779907227e+00,3.076440811157226562e+00,3.075958490371704102e+00,3.075476408004760742e+00,3.074994325637817383e+00,3.074512481689453125e+00,3.074030399322509766e+00,3.073549032211303711e+00,3.073067665100097656e+00,3.072586059570312500e+00,3.072105169296264648e+00,3.071624279022216797e+00,3.071143150329589844e+00,3.070662498474121094e+00,3.070182085037231445e+00,3.069701433181762695e+00,3.069221496582031250e+00,3.068741321563720703e+00,3.068261384963989258e+00,3.067781686782836914e+00,3.067301750183105469e+00,3.066822290420532227e+00,3.066343069076538086e+00,3.065863847732543945e+00,3.065384864807128906e+00,3.064906120300292969e+00,3.064427137374877930e+00,3.063948631286621094e+00,3.063470363616943359e+00,3.062991857528686523e+00,3.062513828277587891e+00,3.062035560607910156e+00,3.061558008193969727e+00,3.061080217361450195e+00,3.060602664947509766e+00,3.060125350952148438e+00,3.059648036956787109e+00,3.059170722961425781e+00,3.058693885803222656e+00,3.016612291336059570e+00,2.941979646682739258e+00,2.870951175689697266e+00,2.803271293640136719e+00,2.738709211349487305e+00,2.677053689956665039e+00,2.618113279342651367e+00,2.561712265014648438e+00,2.507689952850341797e+00,2.455899000167846680e+00,2.406204462051391602e+00,2.358480930328369141e+00,2.312613487243652344e+00,2.268496036529541016e+00,2.226030349731445312e+00,2.185125589370727539e+00,2.145696878433227539e+00,2.107665777206420898e+00,2.070959329605102539e+00,2.035509586334228516e+00,2.001253128051757812e+00,1.968130826950073242e+00,1.936086654663085938e+00,1.905069470405578613e+00,1.875030398368835449e+00,1.845923662185668945e+00
2.605530500411987305e+00,2.605184793472290039e+00,2.604838848114013672e+00,2.604492902755737305e+00,2.604147195816040039e+00,2.603801488876342773e+00,2.603456020355224609e+00,2.603110551834106445e+00,2.602765083312988281e+00,2.602419853210449219e+00,2.602074861526489258e+00,2.601729631423950195e+00,2.601384639739990234e+00,2.601039886474609375e+00,2.600694894790649414e+00,2.600350379943847656e+00,2.600005865097045898e+00,2.599661111831665039e+00,2.599316835403442383e+00,2.598972320556640625e+00,2.598628044128417969e+00,2.598284006118774414e+00,2.597939729690551758e+00,2.597595930099487305e+00,2.597252130508422852e+00,2.596908092498779297e+00,2.596564531326293945e+00,2.596220970153808594e+00,2.595877170562744141e+00,2.595533847808837891e+00,2.595190525054931641e+00,2.594847202301025391e+00,2.594504117965698242e+00,2.594161033630371094e+00,2.593817949295043945e+00,2.593475103378295898e+00,2.593132257461547852e+00,2.592789649963378906e+00,2.592447042465209961e+00,2.592104434967041016e+00,2.591762065887451172e+00,2.591419696807861328e+00,2.591077327728271484e+00,2.590735197067260742e+00,2.590393066406250000e+00,2.590051174163818359e+00,2.589709281921386719e+00,2.589367389678955078e+00,2.589025735855102539e+00,2.588684320449829102e+00,2.588342666625976562e+00,2.588001251220703125e+00,2.587659835815429688e+00,2.587318420410156250e+00,2.586977481842041016e+00,2.586636304855346680e+00,2.586295366287231445e+00,2.585954427719116211e+00,2.585613489151000977e+00,2.585272789001464844e+00,2.584932327270507812e+00,2.561750888824462891e+00,2.507727146148681641e+00,2.455934762954711914e+00,2.406238555908203125e+00,2.358513593673706055e+00,2.312645196914672852e+00,2.268526554107666016e+00,2.226059675216674805e+00,2.185153722763061523e+00,2.145724058151245117e+00,2.107692003250122070e+00,2.070984601974487305e+00,2.035534143447875977e+00,2.001276731491088867e+00,1.968153715133666992e+00,1.936108827590942383e+00,1.905090928077697754e+00,1.875051140785217285e+00,1.845944046974182129e+00
2.255505323410034180e+00,2.255245447158813477e+00,2.254985570907592773e+00,2.254725694656372070e+00,2.254466056823730469e+00,2.254206180572509766e+00,2.253946542739868164e+00,2.253686904907226562e+00,2.253427267074584961e+00,2.253167867660522461e+00,2.252908468246459961e+00,2.252649068832397461e+00,2.252389669418334961e+00,2.252130508422851562e+00,2.251871109008789062e+00,2.251612186431884766e+00,2.251353025436401367e+00,2.251094102859497070e+00,2.250835180282592773e+00,2.250576257705688477e+00,2.250317335128784180e+00,2.250058650970458984e+00,2.249799966812133789e+00,2.249541997909545898e+00,2.249284029006958008e+00,2.249026298522949219e+00,2.248768329620361328e+00,2.248510599136352539e+00,2.248252868652343750e+00,2.247995376586914062e+00,2.247737884521484375e+00,2.247480154037475586e+00,2.247222900390625000e+00,2.246965646743774414e+00,2.246708154678344727e+00,2.246450901031494141e+00,2.246193885803222656e+00,2.245936632156372070e+00,2.245679378509521484e+00,2.245422363281250000e+00,2.245165348052978516e+00,2.244908571243286133e+00,2.244651556015014648e+00,2.244394779205322266e+00,2.244138240814208984e+00,2.243881464004516602e+00,2.243624925613403320e+00,2.243368387222290039e+00,2.243111848831176758e+00,2.242855310440063477e+00,2.242599010467529297e+00,2.242342710494995117e+00,2.242086410522460938e+00,2.241830110549926758e+00,2.241574048995971680e+00,2.241317987442016602e+00,2.241061925888061523e+00,2.240805864334106445e+00,2.240550041198730469e+00,2.240293979644775391e+00,2.240038394927978516e+00,2.239782571792602539e+00,2.239526987075805664e+00,2.239271402359008789e+00,2.239015579223632812e+00,2.238760232925415039e+00,2.238504886627197266e+00,2.238249301910400391e+00,2.226089239120483398e+00,2.185182094573974609e+00,2.145751237869262695e+00,2.107718229293823242e+00,2.071009874343872070e+00,2.035558700561523438e+00,2.001300573348999023e+00,1.968176603317260742e+00,1.936131119728088379e+00,1.905112266540527344e+00,1.875071883201599121e+00,1.845964074134826660e+00
1.988417863845825195e+00,1.988215684890747070e+00,1.988013744354248047e+00,1.987811684608459473e+00,1.987609863281250000e+00,1.987407803535461426e+00,1.987206101417541504e+00,1.987004160881042480e+00,1.986802458763122559e+00,1.986600637435913086e+00,1.986399054527282715e+00,1.986197590827941895e+00,1.985995769500732422e+00,1.985794425010681152e+00,1.985592722892761230e+00,1.985391378402709961e+00,1.985189795494079590e+00,1.984988451004028320e+00,1.984786987304687500e+00,1.984585881233215332e+00,1.984384417533874512e+00,1.984183311462402344e+00,1.983981966972351074e+00,1.983780860900878906e+00,1.983579874038696289e+00,1.983378767967224121e+00,1.983177781105041504e+00,1.982976675033569336e+00,1.982775807380676270e+00,1.982574820518493652e+00,1.982374072074890137e+00,1.982173085212707520e+00,1.981972455978393555e+00,1.981771588325500488e+00,1.981570959091186523e+00,1.981370210647583008e+00,1.981169700622558594e+00,1.980969190597534180e+00,1.980768561363220215e+00,1.980568170547485352e+00,1.980367541313171387e+00,1.980167269706726074e+00,1.979966759681701660e+00,1.979766488075256348e+00,1.979566097259521484e+00,1.979365944862365723e+00,1.979165554046630859e+00,1.978965520858764648e+00,1.978765249252319336e+00,1.978565216064453125e+00,1.978365302085876465e+00,1.978165149688720703e+00,1.977965235710144043e+00,1.977765202522277832e+00,1.977565407752990723e+00,1.977365374565124512e+00,1.977165699005126953e+00,1.976965785026550293e+00,1.976766228675842285e+00,1.976566314697265625e+00,1.976366877555847168e+00,1.976167082786560059e+00,1.975967645645141602e+00,1.975768208503723145e+00,1.975568532943725586e+00,1.975369215011596680e+00,1.975169658660888672e+00,1.974970459938049316e+00,1.974771022796630859e+00,1.974571824073791504e+00,1.974372386932373047e+00,1.974173307418823242e+00,1.973973989486694336e+00,1.973775029182434082e+00,1.973575711250305176e+00,1.968199372291564941e+00,1.936153292655944824e+00,1.905133724212646484e+00,1.875092625617980957e+00,1.845984220504760742e+00
1.777887582778930664e+00,1.777725934982299805e+00,1.777564525604248047e+00,1.777403116226196289e+00,1.777241587638854980e+00,1.777080297470092773e+00,1.776918768882751465e+00,1.776757597923278809e+00,1.776596069335937500e+00,1.776434898376464844e+00,1.776273488998413086e+00,1.776112437248229980e+00,1.775951027870178223e+00,1.775789976119995117e+00,1.775628685951232910e+00,1.775467634201049805e+00,1.775306463241577148e+00,1.775145530700683594e+00,1.774984598159790039e+00,1.774823427200317383e+00,1.774662613868713379e+00,1.774501562118530273e+00,1.774340629577636719e+00,1.774179697036743164e+00,1.774018883705139160e+00,1.773857951164245605e+00,1.773697257041931152e+00,1.773536443710327148e+00,1.773375749588012695e+00,1.773214936256408691e+00,1.773054361343383789e+00,1.772893786430358887e+00,1.772732973098754883e+00,1.772572517395019531e+00,1.772411823272705078e+00,1.772251367568969727e+00,1.772090792655944824e+00,1.771930336952209473e+00,1.771769762039184570e+00,1.771609425544738770e+00,1.771448969841003418e+00,1.771288633346557617e+00,1.771128296852111816e+00,1.770967960357666016e+00,1.770807862281799316e+00,1.770647525787353516e+00,1.770487308502197266e+00,1.770327091217041016e+00,1.770166993141174316e+00,1.770006775856018066e+00,1.769846677780151367e+00,1.769686579704284668e+00,1.769526600837707520e+00,1.769366383552551270e+00,1.769206523895263672e+00,1.769046425819396973e+00,1.768886566162109375e+00,1.768726825714111328e+00,1.768566846847534180e+00,1.768407106399536133e+00,1.768247127532958984e+00,1.768087506294250488e+00,1.767927646636962891e+00,1.767767906188964844e+00,1.767608165740966797e+00,1.767448544502258301e+00,1.767288804054260254e+00,1.767129302024841309e+00,1.766969561576843262e+00,1.766810178756713867e+00,1.766650676727294922e+00,1.766491055488586426e+00,1.766331672668457031e+00,1.766172170639038086e+00,1.766012787818908691e+00,1.765853404998779297e+00,1.765694141387939453e+00,1.765534639358520508e+00,1.765375494956970215e+00,1.765216112136840820e+00
1.607670307159423828e+00,1.607538223266601562e+00,1.607406139373779297e+00,1.607274174690246582e+00,1.607142090797424316e+00,1.607010126113891602e+00,1.606878042221069336e+00,1.606746196746826172e+00,1.606614112854003906e+00,1.606482386589050293e+00,1.606350541114807129e+00,1.606218576431274414e+00,1.606086730957031250e+00,1.605954885482788086e+00,1.605823159217834473e+00,1.605691313743591309e+00,1.605559587478637695e+00,1.605427742004394531e+00,1.605296134948730469e+00,1.605164289474487305e+00,1.605032682418823242e+00,1.604900956153869629e+00,1.604769468307495117e+00,1.604637861251831055e+00,1.604506254196166992e+00,1.604374766349792480e+00,1.604243159294128418e+00,1.604111671447753906e+00,1.603980064392089844e+00,1.603848695755004883e+00,1.603717088699340820e+00,1.603585720062255859e+00,1.603454232215881348e+00,1.603322982788085938e+00,1.603191494941711426e+00,1.603060245513916016e+00,1.602928757667541504e+00,1.602797627449035645e+00,1.602666378021240234e+00,1.602535009384155273e+00,1.602403879165649414e+00,1.602272510528564453e+00,1.602141380310058594e+00,1.602010130882263184e+00,1.601879000663757324e+00,1.601747870445251465e+00,1.601616859436035156e+00,1.601485610008239746e+00,1.601354598999023438e+00,1.601223468780517578e+00,1.601092576980590820e+00,1.600961565971374512e+00,1.600830554962158203e+00,1.600699663162231445e+00,1.600568652153015137e+00,1.600437760353088379e+00,1.600306868553161621e+00,1.600175976753234863e+00,1.600045084953308105e+00,1.599914312362670898e+00,1.599783301353454590e+00,1.599652647972106934e+00,1.599521756172180176e+00,1.599391102790832520e+00,1.599260449409484863e+00,1.599129676818847656e+00,1.598999023437500000e+00,1.598868250846862793e+00,1.598737716674804688e+00,1.598607063293457031e+00,1.598476529121398926e+00,1.598345875740051270e+00,1.598215341567993164e+00,1.598084807395935059e+00,1.597954273223876953e+00,1.597823739051818848e+00,1.597693324089050293e+00,1.597562909126281738e+00,1.597432494163513184e+00,1.597302079200744629e+00
1.467198729515075684e+00,1.467088818550109863e+00,1.466978669166564941e+00,1.466868758201599121e+00,1.466758847236633301e+00,1.466648817062377930e+00,1.466539025306701660e+00,1.466428995132446289e+00,1.466319203376770020e+00,1.466209173202514648e+00,1.466099381446838379e+00,1.465989470481872559e+00,1.465879678726196289e+00,1.465769886970520020e+00,1.465660095214843750e+00,1.465550184249877930e+00,1.465440511703491211e+00,1.465330839157104492e+00,1.465221047401428223e+00,1.465111374855041504e+00,1.465001583099365234e+00,1.464892029762268066e+00,1.464782238006591797e+00,1.464672684669494629e+00,1.464563012123107910e+00,1.464453339576721191e+00,1.464343786239624023e+00,1.464234232902526855e+00,1.464124560356140137e+00,1.464015126228332520e+00,1.463905572891235352e+00,1.463796019554138184e+00,1.463686585426330566e+00,1.463577032089233398e+00,1.463467597961425781e+00,1.463358044624328613e+00,1.463248729705810547e+00,1.463139176368713379e+00,1.463029861450195312e+00,1.462920427322387695e+00,1.462811112403869629e+00,1.462701678276062012e+00,1.462592363357543945e+00,1.462483167648315430e+00,1.462373733520507812e+00,1.462264537811279297e+00,1.462155222892761230e+00,1.462046027183532715e+00,1.461936712265014648e+00,1.461827516555786133e+00,1.461718201637268066e+00,1.461609125137329102e+00,1.461499929428100586e+00,1.461390733718872070e+00,1.461281538009643555e+00,1.461172461509704590e+00,1.461063265800476074e+00,1.460954308509826660e+00,1.460845232009887695e+00,1.460736155509948730e+00,1.460627198219299316e+00,1.460518002510070801e+00,1.460409045219421387e+00,1.460300087928771973e+00,1.460191130638122559e+00,1.460082054138183594e+00,1.459973216056823730e+00,1.459864139556884766e+00,1.459755301475524902e+00,1.459646344184875488e+00,1.459537506103515625e+00,1.459428787231445312e+00,1.459319829940795898e+00,1.459210991859436035e+00,1.459102153778076172e+00,1.458993434906005859e+00,1.458884596824645996e+00,1.458775877952575684e+00,1.458667039871215820e+00,1.458558320999145508e+00
1.349302291870117188e+00,1.349209189414978027e+00,1.349116206169128418e+00,1.349023222923278809e+00,1.348930239677429199e+00,1.348837137222290039e+00,1.348744273185729980e+00,1.348651170730590820e+00,1.348558306694030762e+00,1.348465323448181152e+00,1.348372459411621094e+00,1.348279595375061035e+00,1.348186612129211426e+00,1.348093748092651367e+00,1.348000884056091309e+00,1.347908020019531250e+00,1.347815155982971191e+00,1.347722291946411133e+00,1.347629427909851074e+00,1.347536683082580566e+00,1.347443819046020508e+00,1.347351193428039551e+00,1.347258329391479492e+00,1.347165584564208984e+00,1.347072958946228027e+00,1.346980094909667969e+00,1.346887469291687012e+00,1.346794724464416504e+00,1.346701979637145996e+00,1.346609234809875488e+00,1.346516609191894531e+00,1.346423983573913574e+00,1.346331357955932617e+00,1.346238613128662109e+00,1.346146106719970703e+00,1.346053361892700195e+00,1.345960855484008789e+00,1.345868349075317383e+00,1.345775723457336426e+00,1.345683217048645020e+00,1.345590591430664062e+00,1.345498085021972656e+00,1.345405578613281250e+00,1.345313072204589844e+00,1.345220565795898438e+00,1.345128059387207031e+00,1.345035552978515625e+00,1.344943165779113770e+00,1.344850659370422363e+00,1.344758272171020508e+00,1.344665884971618652e+00,1.344573497772216797e+00,1.344481110572814941e+00,1.344388723373413086e+00,1.344296336174011230e+00,1.344203948974609375e+00,1.344111680984497070e+00,1.344019293785095215e+00,1.343927025794982910e+00,1.343834638595581055e+00,1.343742370605468750e+00,1.343650102615356445e+00,1.343557834625244141e+00,1.343465685844421387e+00,1.343373298645019531e+00,1.343281149864196777e+00,1.343188881874084473e+00,1.343096733093261719e+00,1.343004465103149414e+00,1.342912316322326660e+00,1.342820167541503906e+00,1.342728018760681152e+00,1.342635869979858398e+00,1.342543721199035645e+00,1.342451572418212891e+00,1.342359542846679688e+00,1.342267394065856934e+00,1.342175364494323730e+00,1.342083334922790527e+00,1.341991186141967773e+00
1.248943686485290527e+00,1.248863935470581055e+00,1.248784303665161133e+00,1.248704671859741211e+00,1.248624920845031738e+00,1.248545289039611816e+00,1.248465538024902344e+00,1.248385906219482422e+00,1.248306274414062500e+00,1.248226642608642578e+00,1.248147010803222656e+00,1.248067378997802734e+00,1.247987747192382812e+00,1.247908234596252441e+00,1.247828602790832520e+00,1.247749090194702148e+00,1.247669458389282227e+00,1.247589945793151855e+00,1.247510433197021484e+00,1.247430801391601562e+00,1.247351288795471191e+00,1.247271776199340820e+00,1.247192263603210449e+00,1.247112751007080078e+00,1.247033357620239258e+00,1.246953845024108887e+00,1.246874332427978516e+00,1.246794939041137695e+00,1.246715426445007324e+00,1.246636033058166504e+00,1.246556639671325684e+00,1.246477246284484863e+00,1.246397733688354492e+00,1.246318459510803223e+00,1.246239066123962402e+00,1.246159672737121582e+00,1.246080279350280762e+00,1.246001005172729492e+00,1.245921611785888672e+00,1.245842218399047852e+00,1.245762944221496582e+00,1.245683670043945312e+00,1.245604276657104492e+00,1.245525002479553223e+00,1.245445847511291504e+00,1.245366454124450684e+00,1.245287299156188965e+00,1.245207905769348145e+00,1.245128750801086426e+00,1.245049476623535156e+00,1.244970321655273438e+00,1.244891047477722168e+00,1.244811892509460449e+00,1.244732618331909180e+00,1.244653463363647461e+00,1.244574308395385742e+00,1.244495153427124023e+00,1.244415998458862305e+00,1.244336843490600586e+00,1.244257807731628418e+00,1.244178652763366699e+00,1.244099497795104980e+00,1.244020342826843262e+00,1.243941307067871094e+00,1.243862152099609375e+00,1.243783235549926758e+00,1.243704080581665039e+00,1.243625044822692871e+00,1.243546009063720703e+00,1.243466973304748535e+00,1.243388056755065918e+00,1.243308901786804199e+00,1.243229985237121582e+00,1.243150949478149414e+00,1.243072032928466797e+00,1.242992997169494629e+00,1.242914080619812012e+00,1.242835044860839844e+00,1.242756247520446777e+00,1.242677211761474609e+00
1.162480592727661133e+00,1.162411570549011230e+00,1.162342429161071777e+00,1.162273406982421875e+00,1.162204384803771973e+00,1.162135362625122070e+00,1.162066340446472168e+00,1.161997318267822266e+00,1.161928296089172363e+00,1.161859393119812012e+00,1.161790370941162109e+00,1.161721348762512207e+00,1.161652445793151855e+00,1.161583423614501953e+00,1.161514520645141602e+00,1.161445498466491699e+00,1.161376595497131348e+00,1.161307692527770996e+00,1.161238789558410645e+00,1.161169767379760742e+00,1.161100864410400391e+00,1.161031961441040039e+00,1.160963177680969238e+00,1.160894274711608887e+00,1.160825371742248535e+00,1.160756587982177734e+00,1.160687685012817383e+00,1.160618782043457031e+00,1.160549879074096680e+00,1.160481095314025879e+00,1.160412311553955078e+00,1.160343527793884277e+00,1.160274624824523926e+00,1.160205841064453125e+00,1.160137057304382324e+00,1.160068273544311523e+00,1.159999489784240723e+00,1.159930706024169922e+00,1.159862041473388672e+00,1.159793257713317871e+00,1.159724473953247070e+00,1.159655690193176270e+00,1.159587025642395020e+00,1.159518241882324219e+00,1.159449577331542969e+00,1.159380793571472168e+00,1.159312129020690918e+00,1.159243464469909668e+00,1.159174799919128418e+00,1.159106135368347168e+00,1.159037470817565918e+00,1.158968806266784668e+00,1.158900141716003418e+00,1.158831596374511719e+00,1.158762931823730469e+00,1.158694267272949219e+00,1.158625602722167969e+00,1.158557057380676270e+00,1.158488392829895020e+00,1.158419847488403320e+00,1.158351302146911621e+00,1.158282756805419922e+00,1.158214092254638672e+00,1.158145666122436523e+00,1.158077120780944824e+00,1.158008575439453125e+00,1.157940030097961426e+00,1.157871484756469727e+00,1.157802939414978027e+00,1.157734394073486328e+00,1.157665967941284180e+00,1.157597422599792480e+00,1.157528996467590332e+00,1.157460451126098633e+00,1.157392024993896484e+00,1.157323598861694336e+00,1.157255172729492188e+00,1.157186746597290039e+00,1.157118201255798340e+00,1.157049894332885742e+00
1.087213754653930664e+00,1.087153434753417969e+00,1.087092995643615723e+00,1.087032675743103027e+00,1.086972236633300781e+00,1.086911916732788086e+00,1.086851477622985840e+00,1.086791157722473145e+00,1.086730837821960449e+00,1.086670398712158203e+00,1.086610078811645508e+00,1.086549639701843262e+00,1.086489439010620117e+00,1.086428999900817871e+00,1.086368680000305176e+00,1.086308360099792480e+00,1.086248159408569336e+00,1.086187839508056641e+00,1.086127519607543945e+00,1.086067199707031250e+00,1.086006879806518555e+00,1.085946679115295410e+00,1.085886359214782715e+00,1.085826158523559570e+00,1.085765838623046875e+00,1.085705637931823730e+00,1.085645318031311035e+00,1.085585117340087891e+00,1.085524916648864746e+00,1.085464715957641602e+00,1.085404515266418457e+00,1.085344314575195312e+00,1.085284113883972168e+00,1.085223913192749023e+00,1.085163712501525879e+00,1.085103511810302734e+00,1.085043430328369141e+00,1.084983229637145996e+00,1.084923028945922852e+00,1.084862828254699707e+00,1.084802746772766113e+00,1.084742546081542969e+00,1.084682464599609375e+00,1.084622383117675781e+00,1.084562182426452637e+00,1.084502100944519043e+00,1.084442019462585449e+00,1.084381937980651855e+00,1.084321737289428711e+00,1.084261775016784668e+00,1.084201574325561523e+00,1.084141612052917480e+00,1.084081411361694336e+00,1.084021449089050293e+00,1.083961367607116699e+00,1.083901286125183105e+00,1.083841204643249512e+00,1.083781242370605469e+00,1.083721280097961426e+00,1.083661198616027832e+00,1.083601236343383789e+00,1.083541154861450195e+00,1.083481192588806152e+00,1.083421111106872559e+00,1.083361148834228516e+00,1.083301186561584473e+00,1.083241224288940430e+00,1.083181262016296387e+00,1.083121299743652344e+00,1.083061337471008301e+00,1.083001375198364258e+00,1.082941532135009766e+00,1.082881450653076172e+00,1.082821607589721680e+00,1.082761645317077637e+00,1.082701802253723145e+00,1.082641839981079102e+00,1.082581996917724609e+00,1.082522034645080566e+00,1.082462191581726074e+00
1.021100997924804688e+00,1.021047711372375488e+00,1.020994424819946289e+00,1.020941138267517090e+00,1.020887851715087891e+00,1.020834565162658691e+00,1.020781278610229492e+00,1.020727992057800293e+00,1.020674824714660645e+00,1.020621538162231445e+00,1.020568370819091797e+00,1.020515203475952148e+00,1.020461916923522949e+00,1.020408749580383301e+00,1.020355463027954102e+00,1.020302295684814453e+00,1.020249009132385254e+00,1.020195841789245605e+00,1.020142674446105957e+00,1.020089507102966309e+00,1.020036339759826660e+00,1.019983172416687012e+00,1.019929885864257812e+00,1.019876837730407715e+00,1.019823670387268066e+00,1.019770503044128418e+00,1.019717335700988770e+00,1.019664168357849121e+00,1.019611120223999023e+00,1.019557952880859375e+00,1.019504785537719727e+00,1.019451737403869629e+00,1.019398570060729980e+00,1.019345402717590332e+00,1.019292354583740234e+00,1.019239306449890137e+00,1.019186139106750488e+00,1.019133090972900391e+00,1.019080042839050293e+00,1.019026994705200195e+00,1.018973827362060547e+00,1.018920779228210449e+00,1.018867731094360352e+00,1.018814682960510254e+00,1.018761634826660156e+00,1.018708586692810059e+00,1.018655538558959961e+00,1.018602609634399414e+00,1.018549442291259766e+00,1.018496513366699219e+00,1.018443465232849121e+00,1.018390536308288574e+00,1.018337488174438477e+00,1.018284440040588379e+00,1.018231511116027832e+00,1.018178462982177734e+00,1.018125534057617188e+00,1.018072485923767090e+00,1.018019556999206543e+00,1.017966628074645996e+00,1.017913699150085449e+00,1.017860651016235352e+00,1.017807722091674805e+00,1.017754793167114258e+00,1.017701864242553711e+00,1.017648935317993164e+00,1.017596006393432617e+00,1.017543077468872070e+00,1.017490148544311523e+00,1.017437338829040527e+00,1.017384409904479980e+00,1.017331480979919434e+00,1.017278552055358887e+00,1.017225742340087891e+00,1.017172813415527344e+00,1.017119884490966797e+00,1.017067074775695801e+00,1.017014145851135254e+00,1.016961336135864258e+00,1.016908526420593262e+00
9.625678062438964844e-01,9.625204205513000488e-01,9.624730348587036133e-01,9.624258279800415039e-01,9.623783826828002930e-01,9.623310565948486328e-01,9.622836709022521973e-01,9.622364640235900879e-01,9.621890783309936523e-01,9.621417522430419922e-01,9.620944261550903320e-01,9.620472192764282227e-01,9.619998931884765625e-01,9.619525671005249023e-01,9.619052410125732422e-01,9.618580341339111328e-01,9.618107080459594727e-01,9.617633819580078125e-01,9.617162346839904785e-01,9.616689085960388184e-01,9.616216421127319336e-01,9.615743160247802734e-01,9.615271687507629395e-01,9.614799022674560547e-01,9.614326357841491699e-01,9.613853693008422852e-01,9.613381624221801758e-01,9.612908959388732910e-01,9.612436890602111816e-01,9.611964225769042969e-01,9.611492753028869629e-01,9.611020684242248535e-01,9.610548019409179688e-01,9.610076546669006348e-01,9.609604477882385254e-01,9.609132409095764160e-01,9.608660340309143066e-01,9.608188867568969727e-01,9.607716798782348633e-01,9.607244729995727539e-01,9.606772661209106445e-01,9.606302380561828613e-01,9.605830311775207520e-01,9.605358242988586426e-01,9.604887366294860840e-01,9.604415893554687500e-01,9.603943824768066406e-01,9.603472352027893066e-01,9.603002071380615234e-01,9.602530598640441895e-01,9.602058529853820801e-01,9.601587057113647461e-01,9.601116776466369629e-01,9.600645303726196289e-01,9.600174427032470703e-01,9.599702954292297363e-01,9.599232673645019531e-01,9.598761200904846191e-01,9.598290324211120605e-01,9.597820043563842773e-01,9.597349166870117188e-01,9.596878290176391602e-01,9.596407413482666016e-01,9.595937132835388184e-01,9.595466256141662598e-01,9.594995379447937012e-01,9.594525098800659180e-01,9.594055414199829102e-01,9.593584537506103516e-01,9.593113660812377930e-01,9.592643976211547852e-01,9.592173695564270020e-01,9.591703414916992188e-01,9.591232538223266602e-01,9.590763449668884277e-01,9.590293169021606445e-01,9.589822292327880859e-01,9.589352011680603027e-01,9.588882923126220703e-01,9.588412642478942871e-01
9.103813767433166504e-01,9.103390574455261230e-01,9.102966785430908203e-01,9.102542996406555176e-01,9.102119803428649902e-01,9.101696610450744629e-01,9.101273417472839355e-01,9.100849628448486328e-01,9.100425839424133301e-01,9.100003242492675781e-01,9.099580049514770508e-01,9.099156856536865234e-01,9.098734259605407715e-01,9.098311066627502441e-01,9.097887277603149414e-01,9.097464084625244141e-01,9.097042083740234375e-01,9.096618890762329102e-01,9.096195697784423828e-01,9.095772504806518555e-01,9.095350503921508789e-01,9.094927310943603516e-01,9.094504117965698242e-01,9.094082117080688477e-01,9.093659520149230957e-01,9.093236327171325684e-01,9.092813730239868164e-01,9.092391729354858398e-01,9.091969132423400879e-01,9.091546535491943359e-01,9.091123342514038086e-01,9.090701937675476074e-01,9.090279340744018555e-01,9.089856743812561035e-01,9.089434146881103516e-01,9.089012742042541504e-01,9.088590145111083984e-01,9.088168144226074219e-01,9.087746739387512207e-01,9.087324142456054688e-01,9.086902141571044922e-01,9.086479544639587402e-01,9.086058139801025391e-01,9.085636138916015625e-01,9.085214138031005859e-01,9.084792137145996094e-01,9.084370732307434082e-01,9.083948731422424316e-01,9.083526730537414551e-01,9.083104729652404785e-01,9.082683920860290527e-01,9.082261919975280762e-01,9.081840515136718750e-01,9.081419706344604492e-01,9.080997705459594727e-01,9.080576300621032715e-01,9.080154299736022949e-01,9.079734086990356445e-01,9.079312086105346680e-01,9.078890681266784668e-01,9.078469276428222656e-01,9.078048467636108398e-01,9.077627062797546387e-01,9.077205657958984375e-01,9.076785445213317871e-01,9.076364040374755859e-01,9.075942635536193848e-01,9.075521826744079590e-01,9.075101613998413086e-01,9.074680209159851074e-01,9.074259400367736816e-01,9.073837995529174805e-01,9.073417782783508301e-01,9.072996973991394043e-01,9.072576165199279785e-01,9.072155356407165527e-01,9.071735143661499023e-01,9.071314334869384766e-01,9.070893526077270508e-01,9.070473909378051758e-01
8.635626435279846191e-01,8.635244965553283691e-01,8.634864091873168945e-01,8.634483814239501953e-01,8.634102344512939453e-01,8.633720874786376953e-01,8.633340597152709961e-01,8.632959723472595215e-01,8.632578253746032715e-01,8.632197380065917969e-01,8.631817102432250977e-01,8.631436228752136230e-01,8.631055355072021484e-01,8.630674481391906738e-01,8.630294203758239746e-01,8.629913330078125000e-01,8.629532456398010254e-01,8.629152774810791016e-01,8.628771901130676270e-01,8.628391027450561523e-01,8.628010153770446777e-01,8.627630472183227539e-01,8.627249598503112793e-01,8.626869320869445801e-01,8.626488447189331055e-01,8.626108765602111816e-01,8.625728487968444824e-01,8.625347614288330078e-01,8.624967336654663086e-01,8.624587655067443848e-01,8.624207377433776855e-01,8.623827099800109863e-01,8.623448014259338379e-01,8.623067736625671387e-01,8.622687458992004395e-01,8.622307181358337402e-01,8.621927499771118164e-01,8.621547818183898926e-01,8.621167540550231934e-01,8.620787262916564941e-01,8.620408177375793457e-01,8.620027899742126465e-01,8.619648218154907227e-01,8.619269132614135742e-01,8.618889451026916504e-01,8.618509173393249512e-01,8.618129491806030273e-01,8.617750406265258789e-01,8.617370724678039551e-01,8.616991043090820312e-01,8.616611361503601074e-01,8.616232275962829590e-01,8.615852594375610352e-01,8.615472912788391113e-01,8.615093827247619629e-01,8.614714741706848145e-01,8.614335656166076660e-01,8.613955974578857422e-01,8.613577485084533691e-01,8.613197803497314453e-01,8.612818717956542969e-01,8.612439036369323730e-01,8.612060546875000000e-01,8.611681461334228516e-01,8.611302375793457031e-01,8.610923290252685547e-01,8.610544800758361816e-01,8.610165715217590332e-01,8.609786629676818848e-01,8.609407544136047363e-01,8.609029054641723633e-01,8.608649969100952148e-01,8.608271479606628418e-01,8.607892990112304688e-01,8.607514500617980957e-01,8.607135415077209473e-01,8.606756329536437988e-01,8.606378436088562012e-01,8.605999946594238281e-01,8.605620861053466797e-01
