5.000000000000000000e+00,5.000000000000000000e+00,5.000000000000000000e+00,5.000000000000000000e+00,5.000000000000000000e+00,5.000000000000000000e+00,5.000000000000000000e+00,5.000000000000000000e+00,5.000000000000000000e+00,5.000000000000000000e+00,5.000000000000000000e+00,5.000000000000000000e+00,5.000000000000000000e+00,5.000000000000000000e+00,5.000000000000000000e+00,5.000000000000000000e+00,5.000000000000000000e+00,5.000000000000000000e+00,5.000000000000000000e+00,5.000000000000000000e+00,5.000000000000000000e+00,5.000000000000000000e+00,5.000000000000000000e+00,5.000000000000000000e+00,5.000000000000000000e+00,5.000000000000000000e+00,5.000000000000000000e+00,5.000000000000000000e+00,5.000000000000000000e+00,5.000000000000000000e+00,5.000000000000000000e+00,5.000000000000000000e+00,5.000000000000000000e+00,5.000000000000000000e+00,5.000000000000000000e+00,5.000000000000000000e+00,5.000000000000000000e+00,5.000000000000000000e+00,5.000000000000000000e+00,5.000000000000000000e+00,5.000000000000000000e+00,5.000000000000000000e+00,4.325145244598388672e+00,4.173403739929199219e+00,4.031949043273925781e+00,3.899769067764282227e+00,3.775980234146118164e+00,3.659808635711669922e+00,3.550571680068969727e+00,3.447666883468627930e+00,3.350558757781982422e+00,3.258771419525146484e+00,3.171878576278686523e+00,3.089499711990356445e+00,3.011291265487670898e+00,2.936944723129272461e+00,2.866180658340454102e+00,2.798746824264526367e+00,2.734412670135498047e+00,2.672970056533813477e+00,2.614227771759033203e+00,2.558012247085571289e+00,2.504163026809692383e+00,2.452534437179565430e+00,2.402991771697998047e+00,2.355411052703857422e+00,2.309677839279174805e+00,1.133263111114501953e+00,1.085255503654479980e+00,1.068186759948730469e+00,1.059557080268859863e+00,1.052518248558044434e+00,1.053951978683471680e+00,1.052295923233032227e+00,1.036294937133789062e+00,1.021145701408386230e+00,1.008065462112426758e+00,9.950426816940307617e-01,9.823183417320251465e-01,9.786703586578369141e-01
5.000000000000000000e+00,5.000000000000000000e+00,5.000000000000000000e+00,5.000000000000000000e+00,5.000000000000000000e+00,5.000000000000000000e+00,5.000000000000000000e+00,5.000000000000000000e+00,5.000000000000000000e+00,5.000000000000000000e+00,5.000000000000000000e+00,5.000000000000000000e+00,5.000000000000000000e+00,5.000000000000000000e+00,5.000000000000000000e+00,5.000000000000000000e+00,5.000000000000000000e+00,5.000000000000000000e+00,5.000000000000000000e+00,5.000000000000000000e+00,5.000000000000000000e+00,5.000000000000000000e+00,5.000000000000000000e+00,5.000000000000000000e+00,5.000000000000000000e+00,5.000000000000000000e+00,5.000000000000000000e+00,5.000000000000000000e+00,5.000000000000000000e+00,5.000000000000000000e+00,5.000000000000000000e+00,5.000000000000000000e+00,5.000000000000000000e+00,5.000000000000000000e+00,5.000000000000000000e+00,5.000000000000000000e+00,5.000000000000000000e+00,5.000000000000000000e+00,5.000000000000000000e+00,5.000000000000000000e+00,5.000000000000000000e+00,4.488454818725585938e+00,4.325254440307617188e+00,4.173505783081054688e+00,4.032043933868408203e+00,3.899857997894287109e+00,3.776063442230224609e+00,3.659886837005615234e+00,3.550645351409912109e+00,3.447736263275146484e+00,3.350624322891235352e+00,3.258833408355712891e+00,3.171937465667724609e+00,3.089555501937866211e+00,3.011344194412231445e+00,2.936995267868041992e+00,2.866228818893432617e+00,2.798792600631713867e+00,2.734456300735473633e+00,2.673011779785156250e+00,2.614267826080322266e+00,2.558050394058227539e+00,2.504199743270874023e+00,2.452569723129272461e+00,2.403025388717651367e+00,2.355443477630615234e+00,2.309709072113037109e+00,2.265716791152954102e+00,1.086660623550415039e+00,1.069834947586059570e+00,1.061553597450256348e+00,1.056535720825195312e+00,1.075186491012573242e+00,1.053562283515930176e+00,1.036052703857421875e+00,1.022590517997741699e+00,1.009473443031311035e+00,9.965021610260009766e-01,9.833319187164306641e-01,9.731174707412719727e-01
5.000000000000000000e+00,5.000000000000000000e+00,5.000000000000000000e+00,5.000000000000000000e+00,5.000000000000000000e+00,5.000000000000000000e+00,5.000000000000000000e+00,5.000000000000000000e+00,5.000000000000000000e+00,5.000000000000000000e+00,5.000000000000000000e+00,5.000000000000000000e+00,5.000000000000000000e+00,5.000000000000000000e+00,5.000000000000000000e+00,5.000000000000000000e+00,5.000000000000000000e+00,5.000000000000000000e+00,5.000000000000000000e+00,5.000000000000000000e+00,5.000000000000000000e+00,5.000000000000000000e+00,5.000000000000000000e+00,5.000000000000000000e+00,5.000000000000000000e+00,5.000000000000000000e+00,5.000000000000000000e+00,5.000000000000000000e+00,5.000000000000000000e+00,5.000000000000000000e+00,5.000000000000000000e+00,5.000000000000000000e+00,5.000000000000000000e+00,5.000000000000000000e+00,5.000000000000000000e+00,5.000000000000000000e+00,5.000000000000000000e+00,5.000000000000000000e+00,5.000000000000000000e+00,5.000000000000000000e+00,4.664580345153808594e+00,4.488572120666503906e+00,4.325363636016845703e+00,4.173607349395751953e+00,4.032138824462890625e+00,3.899946689605712891e+00,3.776146650314331055e+00,3.659965038299560547e+00,3.550719022750854492e+00,3.447805881500244141e+00,3.350689888000488281e+00,3.258895635604858398e+00,3.171996116638183594e+00,3.089611053466796875e+00,3.011397123336791992e+00,2.937045574188232422e+00,2.866276741027832031e+00,2.798838376998901367e+00,2.734499931335449219e+00,2.673053503036499023e+00,2.614307641983032227e+00,2.558088541030883789e+00,2.504236221313476562e+00,2.452604770660400391e+00,2.403059244155883789e+00,2.355475902557373047e+00,2.309740304946899414e+00,2.265746831893920898e+00,1.088894844055175781e+00,1.069613456726074219e+00,1.056503295898437500e+00,1.046666026115417480e+00,1.043158650398254395e+00,1.056367397308349609e+00,1.038975477218627930e+00,1.024039268493652344e+00,1.010885238647460938e+00,9.979659318923950195e-01,9.847571849822998047e-01,9.718935489654541016e-01
5.000000000000000000e+00,5.000000000000000000e+00,5.000000000000000000e+00,5.000000000000000000e+00,5.000000000000000000e+00,5.000000000000000000e+00,5.000000000000000000e+00,5.000000000000000000e+00,5.000000000000000000e+00,5.000000000000000000e+00,5.000000000000000000e+00,5.000000000000000000e+00,5.000000000000000000e+00,5.000000000000000000e+00,5.000000000000000000e+00,5.000000000000000000e+00,5.000000000000000000e+00,5.000000000000000000e+00,5.000000000000000000e+00,5.000000000000000000e+00,5.000000000000000000e+00,5.000000000000000000e+00,5.000000000000000000e+00,5.000000000000000000e+00,5.000000000000000000e+00,5.000000000000000000e+00,5.000000000000000000e+00,5.000000000000000000e+00,5.000000000000000000e+00,5.000000000000000000e+00,5.000000000000000000e+00,5.000000000000000000e+00,5.000000000000000000e+00,5.000000000000000000e+00,5.000000000000000000e+00,5.000000000000000000e+00,5.000000000000000000e+00,5.000000000000000000e+00,5.000000000000000000e+00,4.855093002319335938e+00,4.664707183837890625e+00,4.488689899444580078e+00,4.325472354888916016e+00,4.173708915710449219e+00,4.032233715057373047e+00,3.900035142898559570e+00,3.776230096817016602e+00,3.660043001174926758e+00,3.550792694091796875e+00,3.447874784469604492e+00,3.350755453109741211e+00,3.258957147598266602e+00,3.172055006027221680e+00,3.089666604995727539e+00,3.011450052261352539e+00,2.937095642089843750e+00,2.866324663162231445e+00,2.798883914947509766e+00,2.734543800354003906e+00,2.673094987869262695e+00,2.614347696304321289e+00,2.558126688003540039e+00,2.504272937774658203e+00,2.452639818191528320e+00,2.403092861175537109e+00,2.355508089065551758e+00,2.309771299362182617e+00,2.265776634216308594e+00,1.109239697456359863e+00,1.069323778152465820e+00,1.052434086799621582e+00,1.040584444999694824e+00,1.028754234313964844e+00,1.022671461105346680e+00,1.031416296958923340e+00,1.025979518890380859e+00,1.012301087379455566e+00,9.994339346885681152e-01,9.861866235733032227e-01,9.732858538627624512e-01
5.000000000000000000e+00,5.000000000000000000e+00,5.000000000000000000e+00,5.000000000000000000e+00,5.000000000000000000e+00,5.000000000000000000e+00,5.000000000000000000e+00,5.000000000000000000e+00,5.000000000000000000e+00,5.000000000000000000e+00,5.000000000000000000e+00,5.000000000000000000e+00,5.000000000000000000e+00,5.000000000000000000e+00,5.000000000000000000e+00,5.000000000000000000e+00,5.000000000000000000e+00,5.000000000000000000e+00,5.000000000000000000e+00,5.000000000000000000e+00,5.000000000000000000e+00,5.000000000000000000e+00,5.000000000000000000e+00,5.000000000000000000e+00,5.000000000000000000e+00,5.000000000000000000e+00,5.000000000000000000e+00,5.000000000000000000e+00,5.000000000000000000e+00,5.000000000000000000e+00,5.000000000000000000e+00,5.000000000000000000e+00,5.000000000000000000e+00,5.000000000000000000e+00,5.000000000000000000e+00,5.000000000000000000e+00,5.000000000000000000e+00,5.000000000000000000e+00,5.000000000000000000e+00,4.855230808258056641e+00,4.664834499359130859e+00,4.488807201385498047e+00,4.325582027435302734e+00,4.173810482025146484e+00,4.032328605651855469e+00,3.900124073028564453e+00,3.776313304901123047e+00,3.660121202468872070e+00,3.550866127014160156e+00,3.447944402694702148e+00,3.350821018218994141e+00,3.259019374847412109e+00,3.172113656997680664e+00,3.089722394943237305e+00,3.011502981185913086e+00,2.937146186828613281e+00,2.866372585296630859e+00,2.798929452896118164e+00,2.734587430953979492e+00,2.673136949539184570e+00,2.614387512207031250e+00,2.558164834976196289e+00,2.504309654235839844e+00,2.452674865722656250e+00,2.403126716613769531e+00,2.355540513992309570e+00,2.309802532196044922e+00,2.265806674957275391e+00,2.223455905914306641e+00,1.066824913024902344e+00,1.049366354942321777e+00,1.035387992858886719e+00,1.024855136871337891e+00,1.012650609016418457e+00,1.032588243484497070e+00,1.024022102355957031e+00,1.013720870018005371e+00,1.000828981399536133e+00,9.876201748847961426e-01,9.746822714805603027e-01
5.000000000000000000e+00,5.000000000000000000e+00,5.000000000000000000e+00,5.000000000000000000e+00,5.000000000000000000e+00,5.000000000000000000e+00,5.000000000000000000e+00,5.000000000000000000e+00,5.000000000000000000e+00,5.000000000000000000e+00,5.000000000000000000e+00,5.000000000000000000e+00,5.000000000000000000e+00,5.000000000000000000e+00,5.000000000000000000e+00,5.000000000000000000e+00,5.000000000000000000e+00,5.000000000000000000e+00,5.000000000000000000e+00,5.000000000000000000e+00,5.000000000000000000e+00,5.000000000000000000e+00,5.000000000000000000e+00,5.000000000000000000e+00,5.000000000000000000e+00,5.000000000000000000e+00,5.000000000000000000e+00,5.000000000000000000e+00,5.000000000000000000e+00,5.000000000000000000e+00,5.000000000000000000e+00,5.000000000000000000e+00,5.000000000000000000e+00,5.000000000000000000e+00,5.000000000000000000e+00,5.000000000000000000e+00,5.000000000000000000e+00,5.000000000000000000e+00,5.000000000000000000e+00,4.855368137359619141e+00,4.664961338043212891e+00,4.488924980163574219e+00,4.325690746307373047e+00,4.173912048339843750e+00,4.032423496246337891e+00,3.900212764739990234e+00,3.776396274566650391e+00,3.660199403762817383e+00,3.550939559936523438e+00,3.448013782501220703e+00,3.350886344909667969e+00,3.259081363677978516e+00,3.172172307968139648e+00,3.089778184890747070e+00,3.011555671691894531e+00,2.937196493148803711e+00,2.866420507431030273e+00,2.798975229263305664e+00,2.734630823135375977e+00,2.673178672790527344e+00,2.614427328109741211e+00,2.558202981948852539e+00,2.504345893859863281e+00,2.452710151672363281e+00,2.403160095214843750e+00,2.355572938919067383e+00,2.309833526611328125e+00,2.265836715698242188e+00,2.223484516143798828e+00,1.066196203231811523e+00,1.046243786811828613e+00,1.031290888786315918e+00,1.020183682441711426e+00,1.014451980590820312e+00,1.002449035644531250e+00,1.020319581031799316e+00,1.015783071517944336e+00,1.002216696739196777e+00,9.890580773353576660e-01,9.761501550674438477e-01
5.000000000000000000e+00,5.000000000000000000e+00,5.000000000000000000e+00,5.000000000000000000e+00,5.000000000000000000e+00,5.000000000000000000e+00,5.000000000000000000e+00,5.000000000000000000e+00,5.000000000000000000e+00,5.000000000000000000e+00,5.000000000000000000e+00,5.000000000000000000e+00,5.000000000000000000e+00,5.000000000000000000e+00,5.000000000000000000e+00,5.000000000000000000e+00,5.000000000000000000e+00,5.000000000000000000e+00,5.000000000000000000e+00,5.000000000000000000e+00,5.000000000000000000e+00,5.000000000000000000e+00,5.000000000000000000e+00,5.000000000000000000e+00,5.000000000000000000e+00,5.000000000000000000e+00,5.000000000000000000e+00,5.000000000000000000e+00,5.000000000000000000e+00,5.000000000000000000e+00,5.000000000000000000e+00,5.000000000000000000e+00,5.000000000000000000e+00,5.000000000000000000e+00,5.000000000000000000e+00,5.000000000000000000e+00,5.000000000000000000e+00,5.000000000000000000e+00,5.000000000000000000e+00,4.855505943298339844e+00,4.665088176727294922e+00,4.489042758941650391e+00,4.325800418853759766e+00,4.174014091491699219e+00,4.032518386840820312e+00,3.900301694869995117e+00,3.776479482650756836e+00,3.660277843475341797e+00,3.551013231277465820e+00,3.448083162307739258e+00,3.350951910018920898e+00,3.259143352508544922e+00,3.172230958938598633e+00,3.089833974838256836e+00,3.011608839035034180e+00,2.937246799468994141e+00,2.866468429565429688e+00,2.799021005630493164e+00,2.734674453735351562e+00,2.673220396041870117e+00,2.614467144012451172e+00,2.558241367340087891e+00,2.504382610321044922e+00,2.452745199203491211e+00,2.403193950653076172e+00,2.355605363845825195e+00,2.309864759445190430e+00,2.265866756439208984e+00,2.223513364791870117e+00,1.064108371734619141e+00,1.044189929962158203e+00,1.034256696701049805e+00,1.016464471817016602e+00,1.072186827659606934e+00,9.996284842491149902e-01,9.894910454750061035e-01,1.009159445762634277e+00,1.004583120346069336e+00,9.906136989593505859e-01,9.777854084968566895e-01
5.000000000000000000e+00,5.000000000000000000e+00,5.000000000000000000e+00,5.000000000000000000e+00,5.000000000000000000e+00,5.000000000000000000e+00,5.000000000000000000e+00,5.000000000000000000e+00,5.000000000000000000e+00,5.000000000000000000e+00,5.000000000000000000e+00,5.000000000000000000e+00,5.000000000000000000e+00,5.000000000000000000e+00,5.000000000000000000e+00,5.000000000000000000e+00,5.000000000000000000e+00,5.000000000000000000e+00,5.000000000000000000e+00,5.000000000000000000e+00,5.000000000000000000e+00,5.000000000000000000e+00,5.000000000000000000e+00,5.000000000000000000e+00,5.000000000000000000e+00,5.000000000000000000e+00,5.000000000000000000e+00,5.000000000000000000e+00,5.000000000000000000e+00,5.000000000000000000e+00,5.000000000000000000e+00,5.000000000000000000e+00,5.000000000000000000e+00,5.000000000000000000e+00,5.000000000000000000e+00,5.000000000000000000e+00,5.000000000000000000e+00,5.000000000000000000e+00,5.000000000000000000e+00,4.855643272399902344e+00,4.665215015411376953e+00,4.489160060882568359e+00,4.325909137725830078e+00,4.174115180969238281e+00,4.032612800598144531e+00,3.900390148162841797e+00,3.776562690734863281e+00,3.660355567932128906e+00,3.551086902618408203e+00,3.448152303695678711e+00,3.351017475128173828e+00,3.259205102920532227e+00,3.172289848327636719e+00,3.089889526367187500e+00,3.011661767959594727e+00,2.937297105789184570e+00,2.866516351699829102e+00,2.799066543579101562e+00,2.734718322753906250e+00,2.673261880874633789e+00,2.614507198333740234e+00,2.558279275894165039e+00,2.504419326782226562e+00,2.452780246734619141e+00,2.403227567672729492e+00,2.355637550354003906e+00,2.309895753860473633e+00,2.265896558761596680e+00,2.223542213439941406e+00,1.064678549766540527e+00,1.050230979919433594e+00,1.031458497047424316e+00,1.016199469566345215e+00,1.004783630371093750e+00,1.057952642440795898e+00,9.849519133567810059e-01,1.023956179618835449e+00,1.008045792579650879e+00,9.928756952285766602e-01,9.794260263442993164e-01
5.000000000000000000e+00,5.000000000000000000e+00,5.000000000000000000e+00,5.000000000000000000e+00,5.000000000000000000e+00,5.000000000000000000e+00,5.000000000000000000e+00,5.000000000000000000e+00,5.000000000000000000e+00,5.000000000000000000e+00,5.000000000000000000e+00,5.000000000000000000e+00,5.000000000000000000e+00,5.000000000000000000e+00,5.000000000000000000e+00,5.000000000000000000e+00,5.000000000000000000e+00,5.000000000000000000e+00,5.000000000000000000e+00,5.000000000000000000e+00,5.000000000000000000e+00,5.000000000000000000e+00,5.000000000000000000e+00,5.000000000000000000e+00,5.000000000000000000e+00,5.000000000000000000e+00,5.000000000000000000e+00,5.000000000000000000e+00,5.000000000000000000e+00,5.000000000000000000e+00,5.000000000000000000e+00,5.000000000000000000e+00,5.000000000000000000e+00,5.000000000000000000e+00,5.000000000000000000e+00,5.000000000000000000e+00,5.000000000000000000e+00,5.000000000000000000e+00,5.000000000000000000e+00,4.855781078338623047e+00,4.665342330932617188e+00,4.489277839660644531e+00,4.326018333435058594e+00,4.174217224121093750e+00,4.032708168029785156e+00,3.900479078292846680e+00,3.776646137237548828e+00,3.660433769226074219e+00,3.551160573959350586e+00,3.448221683502197266e+00,3.351083040237426758e+00,3.259267091751098633e+00,3.172348499298095703e+00,3.089945316314697266e+00,3.011714696884155273e+00,2.937347412109375000e+00,2.866564512252807617e+00,2.799112319946289062e+00,2.734761953353881836e+00,2.673303604125976562e+00,2.614547014236450195e+00,2.558317661285400391e+00,2.504455804824829102e+00,2.452815294265747070e+00,2.403261423110961914e+00,2.355669975280761719e+00,2.309926986694335938e+00,2.265926361083984375e+00,2.223571062088012695e+00,1.065561294555664062e+00,1.057805657386779785e+00,1.028392076492309570e+00,2.068881988525390625e+00,1.000387549400329590e+00,1.210992932319641113e+00,9.872241616249084473e-01,9.751701951026916504e-01,1.011747956275939941e+00,9.964670538902282715e-01,9.816406965255737305e-01
5.000000000000000000e+00,5.000000000000000000e+00,5.000000000000000000e+00,5.000000000000000000e+00,5.000000000000000000e+00,5.000000000000000000e+00,5.000000000000000000e+00,5.000000000000000000e+00,5.000000000000000000e+00,5.000000000000000000e+00,5.000000000000000000e+00,5.000000000000000000e+00,5.000000000000000000e+00,5.000000000000000000e+00,5.000000000000000000e+00,5.000000000000000000e+00,5.000000000000000000e+00,5.000000000000000000e+00,5.000000000000000000e+00,5.000000000000000000e+00,5.000000000000000000e+00,5.000000000000000000e+00,5.000000000000000000e+00,5.000000000000000000e+00,5.000000000000000000e+00,5.000000000000000000e+00,5.000000000000000000e+00,5.000000000000000000e+00,5.000000000000000000e+00,5.000000000000000000e+00,5.000000000000000000e+00,5.000000000000000000e+00,5.000000000000000000e+00,5.000000000000000000e+00,5.000000000000000000e+00,5.000000000000000000e+00,5.000000000000000000e+00,5.000000000000000000e+00,5.000000000000000000e+00,4.855918884277343750e+00,4.665469646453857422e+00,4.489395618438720703e+00,4.326128005981445312e+00,4.174318790435791016e+00,4.032803058624267578e+00,3.900567770004272461e+00,3.776729345321655273e+00,3.660512208938598633e+00,3.551234245300292969e+00,3.448291063308715820e+00,3.351148605346679688e+00,3.259329319000244141e+00,3.172407388687133789e+00,3.090000867843627930e+00,3.011767625808715820e+00,2.937397718429565430e+00,2.866612434387207031e+00,2.799158096313476562e+00,2.734805583953857422e+00,2.673345327377319336e+00,2.614587068557739258e+00,2.558355808258056641e+00,2.504492521286010742e+00,2.452850341796875000e+00,2.403295040130615234e+00,2.355702400207519531e+00,2.309957981109619141e+00,2.265956163406372070e+00,2.223599910736083984e+00,2.182797670364379883e+00,1.049490928649902344e+00,1.026789188385009766e+00,1.016535282135009766e+00,9.990008473396301270e-01,9.891346693038940430e-01,1.082605838775634766e+00,1.031279802322387695e+00,1.015477418899536133e+00,1.000084400177001953e+00,9.851510524749755859e-01
5.000000000000000000e+00,5.000000000000000000e+00,5.000000000000000000e+00,5.000000000000000000e+00,5.000000000000000000e+00,5.000000000000000000e+00,5.000000000000000000e+00,5.000000000000000000e+00,5.000000000000000000e+00,5.000000000000000000e+00,5.000000000000000000e+00,5.000000000000000000e+00,5.000000000000000000e+00,5.000000000000000000e+00,5.000000000000000000e+00,5.000000000000000000e+00,5.000000000000000000e+00,5.000000000000000000e+00,5.000000000000000000e+00,5.000000000000000000e+00,5.000000000000000000e+00,5.000000000000000000e+00,5.000000000000000000e+00,5.000000000000000000e+00,5.000000000000000000e+00,5.000000000000000000e+00,5.000000000000000000e+00,5.000000000000000000e+00,5.000000000000000000e+00,5.000000000000000000e+00,5.000000000000000000e+00,5.000000000000000000e+00,5.000000000000000000e+00,5.000000000000000000e+00,5.000000000000000000e+00,5.000000000000000000e+00,5.000000000000000000e+00,5.000000000000000000e+00,5.000000000000000000e+00,4.856056213378906250e+00,4.665596485137939453e+00,4.489512920379638672e+00,4.326236724853515625e+00,4.174420356750488281e+00,4.032897949218750000e+00,3.900656700134277344e+00,3.776812314987182617e+00,3.660590410232543945e+00,3.551307439804077148e+00,3.448360681533813477e+00,3.351213932037353516e+00,3.259391307830810547e+00,3.172465801239013672e+00,3.090056657791137695e+00,3.011820316314697266e+00,2.937448263168334961e+00,2.866660118103027344e+00,2.799203872680664062e+00,2.734848976135253906e+00,2.673387050628662109e+00,2.614626646041870117e+00,2.558393955230712891e+00,2.504528999328613281e+00,2.452885627746582031e+00,2.403328657150268555e+00,2.355734586715698242e+00,2.309988975524902344e+00,2.265986204147338867e+00,2.223628520965576172e+00,2.182825565338134766e+00,2.143492698669433594e+00,2.105552673339843750e+00,1.011461257934570312e+00,2.033563613891601562e+00,1.999383926391601562e+00,1.193891167640686035e+00,1.063591361045837402e+00,1.018300414085388184e+00,1.003425478935241699e+00,9.886866211891174316e-01
5.000000000000000000e+00,5.000000000000000000e+00,5.000000000000000000e+00,5.000000000000000000e+00,5.000000000000000000e+00,5.000000000000000000e+00,5.000000000000000000e+00,5.000000000000000000e+00,5.000000000000000000e+00,5.000000000000000000e+00,5.000000000000000000e+00,5.000000000000000000e+00,5.000000000000000000e+00,5.000000000000000000e+00,5.000000000000000000e+00,5.000000000000000000e+00,5.000000000000000000e+00,5.000000000000000000e+00,5.000000000000000000e+00,5.000000000000000000e+00,5.000000000000000000e+00,5.000000000000000000e+00,5.000000000000000000e+00,5.000000000000000000e+00,5.000000000000000000e+00,5.000000000000000000e+00,5.000000000000000000e+00,5.000000000000000000e+00,5.000000000000000000e+00,5.000000000000000000e+00,5.000000000000000000e+00,5.000000000000000000e+00,5.000000000000000000e+00,5.000000000000000000e+00,5.000000000000000000e+00,5.000000000000000000e+00,5.000000000000000000e+00,5.000000000000000000e+00,5.000000000000000000e+00,4.856194019317626953e+00,4.665723323822021484e+00,4.489630699157714844e+00,4.326346397399902344e+00,4.174522399902343750e+00,4.032992839813232422e+00,3.900745630264282227e+00,3.776895523071289062e+00,3.660668611526489258e+00,3.551381111145019531e+00,3.448430061340332031e+00,3.351279497146606445e+00,3.259453296661376953e+00,3.172524690628051758e+00,3.090112447738647461e+00,3.011873483657836914e+00,2.937498569488525391e+00,2.866708278656005859e+00,2.799249649047851562e+00,2.734892845153808594e+00,2.673428773880004883e+00,2.614666700363159180e+00,2.558432340621948242e+00,2.504565715789794922e+00,2.452920675277709961e+00,2.403362274169921875e+00,2.355767011642456055e+00,2.310020208358764648e+00,2.266016244888305664e+00,2.223657369613647461e+00,2.182853460311889648e+00,2.143519639968872070e+00,2.105578422546386719e+00,2.068956851959228516e+00,2.033587694168090820e+00,1.999407291412353516e+00,1.195215225219726562e+00,1.175981283187866211e+00,1.054306507110595703e+00,1.005643606185913086e+00,9.911336302757263184e-01
5.000000000000000000e+00,5.000000000000000000e+00,5.000000000000000000e+00,5.000000000000000000e+00,5.000000000000000000e+00,5.000000000000000000e+00,5.000000000000000000e+00,5.000000000000000000e+00,5.000000000000000000e+00,5.000000000000000000e+00,5.000000000000000000e+00,5.000000000000000000e+00,5.000000000000000000e+00,5.000000000000000000e+00,5.000000000000000000e+00,5.000000000000000000e+00,5.000000000000000000e+00,5.000000000000000000e+00,5.000000000000000000e+00,5.000000000000000000e+00,5.000000000000000000e+00,5.000000000000000000e+00,5.000000000000000000e+00,5.000000000000000000e+00,5.000000000000000000e+00,5.000000000000000000e+00,5.000000000000000000e+00,5.000000000000000000e+00,5.000000000000000000e+00,5.000000000000000000e+00,5.000000000000000000e+00,5.000000000000000000e+00,5.000000000000000000e+00,5.000000000000000000e+00,5.000000000000000000e+00,5.000000000000000000e+00,5.000000000000000000e+00,5.000000000000000000e+00,5.000000000000000000e+00,4.856331348419189453e+00,4.665850162506103516e+00,4.489748001098632812e+00,4.326455116271972656e+00,4.174623966217041016e+00,4.033087730407714844e+00,3.900834083557128906e+00,3.776978969573974609e+00,3.660746574401855469e+00,3.551454782485961914e+00,3.448499202728271484e+00,3.351345062255859375e+00,3.259515047073364258e+00,3.172583341598510742e+00,3.090167999267578125e+00,3.011926412582397461e+00,2.937548875808715820e+00,2.866756200790405273e+00,2.799295186996459961e+00,2.734936475753784180e+00,2.673470497131347656e+00,2.614706516265869141e+00,2.558470249176025391e+00,2.504602193832397461e+00,2.452955484390258789e+00,2.403395891189575195e+00,2.355799436569213867e+00,2.310051202774047852e+00,2.266046047210693359e+00,2.223686456680297852e+00,2.182881116867065430e+00,2.143546342849731445e+00,2.105604171752929688e+00,2.068981885910034180e+00,2.033611774444580078e+00,1.999430656433105469e+00,1.196430683135986328e+00,1.176729917526245117e+00,1.157667398452758789e+00,1.045182347297668457e+00,9.932976365089416504e-01
5.000000000000000000e+00,5.000000000000000000e+00,5.000000000000000000e+00,5.000000000000000000e+00,5.000000000000000000e+00,5.000000000000000000e+00,5.000000000000000000e+00,5.000000000000000000e+00,5.000000000000000000e+00,5.000000000000000000e+00,5.000000000000000000e+00,5.000000000000000000e+00,5.000000000000000000e+00,5.000000000000000000e+00,5.000000000000000000e+00,5.000000000000000000e+00,5.000000000000000000e+00,5.000000000000000000e+00,5.000000000000000000e+00,5.000000000000000000e+00,5.000000000000000000e+00,5.000000000000000000e+00,5.000000000000000000e+00,5.000000000000000000e+00,5.000000000000000000e+00,5.000000000000000000e+00,5.000000000000000000e+00,5.000000000000000000e+00,5.000000000000000000e+00,5.000000000000000000e+00,5.000000000000000000e+00,5.000000000000000000e+00,5.000000000000000000e+00,5.000000000000000000e+00,5.000000000000000000e+00,5.000000000000000000e+00,5.000000000000000000e+00,5.000000000000000000e+00,5.000000000000000000e+00,4.856469154357910156e+00,4.665977478027343750e+00,4.489865779876708984e+00,4.326564788818359375e+00,4.174725532531738281e+00,4.033182621002197266e+00,3.900923013687133789e+00,3.777062177658081055e+00,3.660824775695800781e+00,3.551528453826904297e+00,3.448568582534790039e+00,3.351410627365112305e+00,3.259577035903930664e+00,3.172642230987548828e+00,3.090223789215087891e+00,3.011979341506958008e+00,2.937599182128906250e+00,2.866804122924804688e+00,2.799340963363647461e+00,2.734980106353759766e+00,2.673512220382690430e+00,2.614746570587158203e+00,2.558508634567260742e+00,2.504638671875000000e+00,2.452990531921386719e+00,2.403429746627807617e+00,2.355831861495971680e+00,2.310082435607910156e+00,2.266076087951660156e+00,2.223715305328369141e+00,2.182909011840820312e+00,2.143573284149169922e+00,2.105630159378051758e+00,2.069006919860839844e+00,2.033635854721069336e+00,1.999454021453857422e+00,1.199716091156005859e+00,1.177248358726501465e+00,1.158169150352478027e+00,1.139698743820190430e+00,1.036214590072631836e+00
5.000000000000000000e+00,5.000000000000000000e+00,5.000000000000000000e+00,5.000000000000000000e+00,5.000000000000000000e+00,5.000000000000000000e+00,5.000000000000000000e+00,5.000000000000000000e+00,5.000000000000000000e+00,5.000000000000000000e+00,5.000000000000000000e+00,5.000000000000000000e+00,5.000000000000000000e+00,5.000000000000000000e+00,5.000000000000000000e+00,5.000000000000000000e+00,5.000000000000000000e+00,5.000000000000000000e+00,5.000000000000000000e+00,5.000000000000000000e+00,5.000000000000000000e+00,5.000000000000000000e+00,5.000000000000000000e+00,5.000000000000000000e+00,5.000000000000000000e+00,5.000000000000000000e+00,5.000000000000000000e+00,5.000000000000000000e+00,5.000000000000000000e+00,5.000000000000000000e+00,5.000000000000000000e+00,5.000000000000000000e+00,5.000000000000000000e+00,5.000000000000000000e+00,5.000000000000000000e+00,5.000000000000000000e+00,5.000000000000000000e+00,5.000000000000000000e+00,5.000000000000000000e+00,4.856606483459472656e+00,4.666104316711425781e+00,4.489983081817626953e+00,4.326673507690429688e+00,4.174827098846435547e+00,4.033277511596679688e+00,3.901011705398559570e+00,3.777145147323608398e+00,3.660903215408325195e+00,3.551601648330688477e+00,3.448638200759887695e+00,3.351475954055786133e+00,3.259639263153076172e+00,3.172700643539428711e+00,3.090279579162597656e+00,3.012032032012939453e+00,2.937649488449096680e+00,2.866852045059204102e+00,2.799386739730834961e+00,2.735023498535156250e+00,2.673553943634033203e+00,2.614786148071289062e+00,2.558546781539916992e+00,2.504675149917602539e+00,2.453025817871093750e+00,2.403463363647460938e+00,2.355864286422729492e+00,2.310113430023193359e+00,2.266106128692626953e+00,2.223743915557861328e+00,2.182936668395996094e+00,2.143599987030029297e+00,2.105656147003173828e+00,2.069031715393066406e+00,2.033659934997558594e+00,1.999477386474609375e+00,1.966424703598022461e+00,1.180696249008178711e+00,1.158671379089355469e+00,1.140184998512268066e+00,1.126900553703308105e+00
5.000000000000000000e+00,5.000000000000000000e+00,5.000000000000000000e+00,5.000000000000000000e+00,5.000000000000000000e+00,5.000000000000000000e+00,5.000000000000000000e+00,5.000000000000000000e+00,5.000000000000000000e+00,5.000000000000000000e+00,5.000000000000000000e+00,5.000000000000000000e+00,5.000000000000000000e+00,5.000000000000000000e+00,5.000000000000000000e+00,5.000000000000000000e+00,5.000000000000000000e+00,5.000000000000000000e+00,5.000000000000000000e+00,5.000000000000000000e+00,5.000000000000000000e+00,5.000000000000000000e+00,5.000000000000000000e+00,5.000000000000000000e+00,5.000000000000000000e+00,5.000000000000000000e+00,5.000000000000000000e+00,5.000000000000000000e+00,5.000000000000000000e+00,5.000000000000000000e+00,5.000000000000000000e+00,5.000000000000000000e+00,5.000000000000000000e+00,5.000000000000000000e+00,5.000000000000000000e+00,5.000000000000000000e+00,5.000000000000000000e+00,5.000000000000000000e+00,5.000000000000000000e+00,4.856744289398193359e+00,4.666231632232666016e+00,4.490100860595703125e+00,4.326783180236816406e+00,4.174929141998291016e+00,4.033372402191162109e+00,3.901100635528564453e+00,3.777228593826293945e+00,3.660981416702270508e+00,3.551675558090209961e+00,3.448707580566406250e+00,3.351541519165039062e+00,3.259701251983642578e+00,3.172759532928466797e+00,3.090335369110107422e+00,3.012084960937500000e+00,2.937700033187866211e+00,2.866899967193603516e+00,2.799432516098022461e+00,2.735067367553710938e+00,2.673595666885375977e+00,2.614825963973999023e+00,2.558584690093994141e+00,2.504711866378784180e+00,2.453060865402221680e+00,2.403496980667114258e+00,2.355896711349487305e+00,2.310144662857055664e+00,2.266136169433593750e+00,2.223772764205932617e+00,2.182964563369750977e+00,2.143626928329467773e+00,2.105681896209716797e+00,2.069056749343872070e+00,2.033684253692626953e+00,1.999500751495361328e+00,1.966447353363037109e+00,1.184616684913635254e+00,1.162270188331604004e+00,1.140751004219055176e+00,1.125430226325988770e+00
5.000000000000000000e+00,5.000000000000000000e+00,5.000000000000000000e+00,5.000000000000000000e+00,5.000000000000000000e+00,5.000000000000000000e+00,5.000000000000000000e+00,5.000000000000000000e+00,5.000000000000000000e+00,5.000000000000000000e+00,5.000000000000000000e+00,5.000000000000000000e+00,5.000000000000000000e+00,5.000000000000000000e+00,5.000000000000000000e+00,5.000000000000000000e+00,5.000000000000000000e+00,5.000000000000000000e+00,5.000000000000000000e+00,5.000000000000000000e+00,5.000000000000000000e+00,5.000000000000000000e+00,5.000000000000000000e+00,5.000000000000000000e+00,5.000000000000000000e+00,5.000000000000000000e+00,5.000000000000000000e+00,5.000000000000000000e+00,5.000000000000000000e+00,5.000000000000000000e+00,5.000000000000000000e+00,5.000000000000000000e+00,5.000000000000000000e+00,5.000000000000000000e+00,5.000000000000000000e+00,5.000000000000000000e+00,5.000000000000000000e+00,5.000000000000000000e+00,5.000000000000000000e+00,4.856882095336914062e+00,4.666358470916748047e+00,4.490218639373779297e+00,4.326892375946044922e+00,4.175030708312988281e+00,4.033467292785644531e+00,3.901189565658569336e+00,3.777311801910400391e+00,3.661059617996215820e+00,3.551749229431152344e+00,3.448777198791503906e+00,3.351607322692871094e+00,3.259763240814208984e+00,3.172818422317504883e+00,3.090391159057617188e+00,3.012138128280639648e+00,2.937750339508056641e+00,2.866947889328002930e+00,2.799478292465209961e+00,2.735110998153686523e+00,2.673637390136718750e+00,2.614865779876708984e+00,2.558623075485229492e+00,2.504748344421386719e+00,2.453096151351928711e+00,2.403530836105346680e+00,2.355929136276245117e+00,2.310175895690917969e+00,2.266166210174560547e+00,2.223801851272583008e+00,2.182992458343505859e+00,2.143653631210327148e+00,2.105707883834838867e+00,2.069081783294677734e+00,2.033708333969116211e+00,1.999524116516113281e+00,1.966469883918762207e+00,1.188563346862792969e+00,1.166068911552429199e+00,1.144410252571105957e+00,9.955288767814636230e-01
5.000000000000000000e+00,5.000000000000000000e+00,5.000000000000000000e+00,5.000000000000000000e+00,5.000000000000000000e+00,5.000000000000000000e+00,5.000000000000000000e+00,5.000000000000000000e+00,5.000000000000000000e+00,5.000000000000000000e+00,5.000000000000000000e+00,5.000000000000000000e+00,5.000000000000000000e+00,5.000000000000000000e+00,5.000000000000000000e+00,5.000000000000000000e+00,5.000000000000000000e+00,5.000000000000000000e+00,5.000000000000000000e+00,5.000000000000000000e+00,5.000000000000000000e+00,5.000000000000000000e+00,5.000000000000000000e+00,5.000000000000000000e+00,5.000000000000000000e+00,5.000000000000000000e+00,5.000000000000000000e+00,5.000000000000000000e+00,5.000000000000000000e+00,5.000000000000000000e+00,5.000000000000000000e+00,5.000000000000000000e+00,5.000000000000000000e+00,5.000000000000000000e+00,5.000000000000000000e+00,5.000000000000000000e+00,5.000000000000000000e+00,5.000000000000000000e+00,5.000000000000000000e+00,4.857019424438476562e+00,4.666485309600830078e+00,4.490336418151855469e+00,4.327001571655273438e+00,4.175132274627685547e+00,4.033562183380126953e+00,3.901278018951416016e+00,3.777395248413085938e+00,3.661137580871582031e+00,3.551822900772094727e+00,3.448846340179443359e+00,3.351672887802124023e+00,3.259824991226196289e+00,3.172877073287963867e+00,3.090446710586547852e+00,3.012191057205200195e+00,2.937800645828247070e+00,2.866996049880981445e+00,2.799523830413818359e+00,2.735154390335083008e+00,2.673678636550903320e+00,2.614905834197998047e+00,2.558660984039306641e+00,2.504785060882568359e+00,2.453130960464477539e+00,2.403564453125000000e+00,2.355961322784423828e+00,2.310207128524780273e+00,2.266196012496948242e+00,2.223830699920654297e+00,2.183020114898681641e+00,2.143680572509765625e+00,2.105733633041381836e+00,2.069106817245483398e+00,2.033732414245605469e+00,1.999547362327575684e+00,1.966492533683776855e+00,1.192536115646362305e+00,1.169299244880676270e+00,1.009852766990661621e+00,9.915988445281982422e-01
5.000000000000000000e+00,5.000000000000000000e+00,5.000000000000000000e+00,5.000000000000000000e+00,5.000000000000000000e+00,5.000000000000000000e+00,5.000000000000000000e+00,5.000000000000000000e+00,5.000000000000000000e+00,5.000000000000000000e+00,5.000000000000000000e+00,5.000000000000000000e+00,5.000000000000000000e+00,5.000000000000000000e+00,5.000000000000000000e+00,5.000000000000000000e+00,5.000000000000000000e+00,5.000000000000000000e+00,5.000000000000000000e+00,5.000000000000000000e+00,5.000000000000000000e+00,5.000000000000000000e+00,5.000000000000000000e+00,5.000000000000000000e+00,5.000000000000000000e+00,5.000000000000000000e+00,5.000000000000000000e+00,5.000000000000000000e+00,5.000000000000000000e+00,5.000000000000000000e+00,5.000000000000000000e+00,5.000000000000000000e+00,5.000000000000000000e+00,5.000000000000000000e+00,5.000000000000000000e+00,5.000000000000000000e+00,5.000000000000000000e+00,5.000000000000000000e+00,5.000000000000000000e+00,4.857157230377197266e+00,4.666612625122070312e+00,4.490454196929931641e+00,4.327110767364501953e+00,4.175234317779541016e+00,4.033657073974609375e+00,3.901366949081420898e+00,3.777478694915771484e+00,3.661215782165527344e+00,3.551896572113037109e+00,3.448915719985961914e+00,3.351738452911376953e+00,3.259887218475341797e+00,3.172935962677001953e+00,3.090502500534057617e+00,3.012243986129760742e+00,2.937850952148437500e+00,2.867043972015380859e+00,2.799569606781005859e+00,2.735198020935058594e+00,2.673720359802246094e+00,2.614945650100708008e+00,2.558699369430541992e+00,2.504821777343750000e+00,2.453166246414184570e+00,2.403598308563232422e+00,2.355993747711181641e+00,2.310238122940063477e+00,2.266226053237915039e+00,2.223859548568725586e+00,2.183048009872436523e+00,2.143707275390625000e+00,2.105759620666503906e+00,2.069131851196289062e+00,2.033756494522094727e+00,1.999570727348327637e+00,1.966515064239501953e+00,1.047287940979003906e+00,1.024594783782958984e+00,1.003903031349182129e+00,9.884319901466369629e-01
5.000000000000000000e+00,5.000000000000000000e+00,5.000000000000000000e+00,5.000000000000000000e+00,5.000000000000000000e+00,5.000000000000000000e+00,5.000000000000000000e+00,5.000000000000000000e+00,5.000000000000000000e+00,5.000000000000000000e+00,5.000000000000000000e+00,5.000000000000000000e+00,5.000000000000000000e+00,5.000000000000000000e+00,5.000000000000000000e+00,5.000000000000000000e+00,5.000000000000000000e+00,5.000000000000000000e+00,5.000000000000000000e+00,5.000000000000000000e+00,5.000000000000000000e+00,5.000000000000000000e+00,5.000000000000000000e+00,5.000000000000000000e+00,5.000000000000000000e+00,5.000000000000000000e+00,5.000000000000000000e+00,5.000000000000000000e+00,5.000000000000000000e+00,5.000000000000000000e+00,5.000000000000000000e+00,5.000000000000000000e+00,5.000000000000000000e+00,5.000000000000000000e+00,5.000000000000000000e+00,5.000000000000000000e+00,5.000000000000000000e+00,5.000000000000000000e+00,5.000000000000000000e+00,4.857294559478759766e+00,4.666739463806152344e+00,4.490571498870849609e+00,4.327219963073730469e+00,4.175335884094238281e+00,4.033751964569091797e+00,3.901455879211425781e+00,3.777561426162719727e+00,3.661294221878051758e+00,3.551969766616821289e+00,3.448985099792480469e+00,3.351803779602050781e+00,3.259949207305908203e+00,3.172994375228881836e+00,3.090558290481567383e+00,3.012296915054321289e+00,2.937901496887207031e+00,2.867091655731201172e+00,2.799615144729614258e+00,2.735241651535034180e+00,2.673762321472167969e+00,2.614985466003417969e+00,2.558737516403198242e+00,2.504858255386352539e+00,2.453201293945312500e+00,2.403631925582885742e+00,2.356026172637939453e+00,2.310269117355346680e+00,2.266255855560302734e+00,2.223888158798217773e+00,2.183075904846191406e+00,2.143733978271484375e+00,2.105785369873046875e+00,2.069156646728515625e+00,2.033780813217163086e+00,1.999593853950500488e+00,1.966537714004516602e+00,1.040596723556518555e+00,1.017401576042175293e+00,1.001811385154724121e+00,9.910455942153930664e-01
5.000000000000000000e+00,5.000000000000000000e+00,5.000000000000000000e+00,5.000000000000000000e+00,5.000000000000000000e+00,5.000000000000000000e+00,5.000000000000000000e+00,5.000000000000000000e+00,5.000000000000000000e+00,5.000000000000000000e+00,5.000000000000000000e+00,5.000000000000000000e+00,5.000000000000000000e+00,5.000000000000000000e+00,5.000000000000000000e+00,5.000000000000000000e+00,5.000000000000000000e+00,5.000000000000000000e+00,5.000000000000000000e+00,5.000000000000000000e+00,5.000000000000000000e+00,5.000000000000000000e+00,5.000000000000000000e+00,5.000000000000000000e+00,5.000000000000000000e+00,5.000000000000000000e+00,5.000000000000000000e+00,5.000000000000000000e+00,5.000000000000000000e+00,5.000000000000000000e+00,5.000000000000000000e+00,5.000000000000000000e+00,5.000000000000000000e+00,5.000000000000000000e+00,5.000000000000000000e+00,5.000000000000000000e+00,5.000000000000000000e+00,5.000000000000000000e+00,5.000000000000000000e+00,4.857432365417480469e+00,4.666866779327392578e+00,4.490689277648925781e+00,4.327329158782958984e+00,4.175437450408935547e+00,4.033846855163574219e+00,3.901544809341430664e+00,3.777644872665405273e+00,3.661372423171997070e+00,3.552043437957763672e+00,3.449054718017578125e+00,3.351869344711303711e+00,3.260011196136474609e+00,3.173053264617919922e+00,3.090614080429077148e+00,3.012349843978881836e+00,2.937951803207397461e+00,2.867139577865600586e+00,2.799660921096801758e+00,2.735285282135009766e+00,2.673804044723510742e+00,2.615025520324707031e+00,2.558775663375854492e+00,2.504894733428955078e+00,2.453236579895019531e+00,2.403665542602539062e+00,2.356058597564697266e+00,2.310300350189208984e+00,2.266285896301269531e+00,2.223917245864868164e+00,2.183103561401367188e+00,2.143760919570922852e+00,2.105811357498168945e+00,2.069181680679321289e+00,2.033804893493652344e+00,1.999617218971252441e+00,1.064280509948730469e+00,1.036608099937438965e+00,1.017216205596923828e+00,1.006187200546264648e+00,9.954000711441040039e-01
5.000000000000000000e+00,5.000000000000000000e+00,5.000000000000000000e+00,5.000000000000000000e+00,5.000000000000000000e+00,5.000000000000000000e+00,5.000000000000000000e+00,5.000000000000000000e+00,5.000000000000000000e+00,5.000000000000000000e+00,5.000000000000000000e+00,5.000000000000000000e+00,5.000000000000000000e+00,5.000000000000000000e+00,5.000000000000000000e+00,5.000000000000000000e+00,5.000000000000000000e+00,5.000000000000000000e+00,5.000000000000000000e+00,5.000000000000000000e+00,5.000000000000000000e+00,5.000000000000000000e+00,5.000000000000000000e+00,5.000000000000000000e+00,5.000000000000000000e+00,5.000000000000000000e+00,5.000000000000000000e+00,5.000000000000000000e+00,5.000000000000000000e+00,5.000000000000000000e+00,5.000000000000000000e+00,5.000000000000000000e+00,5.000000000000000000e+00,5.000000000000000000e+00,5.000000000000000000e+00,5.000000000000000000e+00,5.000000000000000000e+00,5.000000000000000000e+00,5.000000000000000000e+00,4.857570171356201172e+00,4.666993618011474609e+00,4.490806579589843750e+00,4.327438354492187500e+00,4.175539016723632812e+00,4.033941745758056641e+00,3.901633262634277344e+00,3.777728319168090820e+00,3.661450386047363281e+00,3.552117109298706055e+00,3.449123859405517578e+00,3.351934909820556641e+00,3.260072946548461914e+00,3.173112154006958008e+00,3.090669631958007812e+00,3.012402772903442383e+00,2.938001632690429688e+00,2.867187500000000000e+00,2.799706459045410156e+00,2.735328912734985352e+00,2.673845529556274414e+00,2.615065336227416992e+00,2.558813810348510742e+00,2.504931449890136719e+00,2.453271389007568359e+00,2.403699398040771484e+00,2.356090784072875977e+00,2.310331583023071289e+00,2.266315698623657227e+00,2.223946094512939453e+00,2.183131217956542969e+00,2.143787860870361328e+00,2.105837106704711914e+00,2.069206714630126953e+00,2.033828973770141602e+00,1.223519206047058105e+00,1.060246348381042480e+00,1.033205628395080566e+00,1.021827340126037598e+00,1.010696768760681152e+00,9.998061656951904297e-01
5.000000000000000000e+00,5.000000000000000000e+00,5.000000000000000000e+00,5.000000000000000000e+00,5.000000000000000000e+00,5.000000000000000000e+00,5.000000000000000000e+00,5.000000000000000000e+00,5.000000000000000000e+00,5.000000000000000000e+00,5.000000000000000000e+00,5.000000000000000000e+00,5.000000000000000000e+00,5.000000000000000000e+00,5.000000000000000000e+00,5.000000000000000000e+00,5.000000000000000000e+00,5.000000000000000000e+00,5.000000000000000000e+00,5.000000000000000000e+00,5.000000000000000000e+00,5.000000000000000000e+00,5.000000000000000000e+00,5.000000000000000000e+00,5.000000000000000000e+00,5.000000000000000000e+00,5.000000000000000000e+00,5.000000000000000000e+00,5.000000000000000000e+00,5.000000000000000000e+00,5.000000000000000000e+00,5.000000000000000000e+00,5.000000000000000000e+00,5.000000000000000000e+00,5.000000000000000000e+00,5.000000000000000000e+00,5.000000000000000000e+00,5.000000000000000000e+00,5.000000000000000000e+00,4.857707977294921875e+00,4.667120933532714844e+00,4.490924358367919922e+00,4.327548027038574219e+00,4.175641059875488281e+00,4.034037113189697266e+00,3.901722192764282227e+00,3.777811527252197266e+00,3.661528587341308594e+00,3.552191019058227539e+00,3.449193239212036133e+00,3.352000713348388672e+00,3.260135173797607422e+00,3.173170804977416992e+00,3.090725421905517578e+00,3.012455701828002930e+00,2.938052177429199219e+00,2.867235660552978516e+00,2.799752235412597656e+00,2.735372781753540039e+00,2.673887252807617188e+00,2.615105390548706055e+00,2.558851957321166992e+00,2.504968166351318359e+00,2.453306674957275391e+00,2.403733015060424805e+00,2.356123208999633789e+00,2.310362815856933594e+00,2.266345739364624023e+00,2.223974943161010742e+00,2.183159112930297852e+00,2.143814563751220703e+00,2.105863094329833984e+00,2.069231748580932617e+00,2.033853054046630859e+00,1.083349943161010742e+00,1.056106090545654297e+00,1.037963151931762695e+00,1.026480436325073242e+00,1.015248775482177734e+00,1.004368543624877930e+00
5.000000000000000000e+00,5.000000000000000000e+00,5.000000000000000000e+00,5.000000000000000000e+00,5.000000000000000000e+00,5.000000000000000000e+00,5.000000000000000000e+00,5.000000000000000000e+00,5.000000000000000000e+00,5.000000000000000000e+00,5.000000000000000000e+00,5.000000000000000000e+00,5.000000000000000000e+00,5.000000000000000000e+00,5.000000000000000000e+00,5.000000000000000000e+00,5.000000000000000000e+00,5.000000000000000000e+00,5.000000000000000000e+00,5.000000000000000000e+00,5.000000000000000000e+00,5.000000000000000000e+00,5.000000000000000000e+00,5.000000000000000000e+00,5.000000000000000000e+00,5.000000000000000000e+00,5.000000000000000000e+00,5.000000000000000000e+00,5.000000000000000000e+00,5.000000000000000000e+00,5.000000000000000000e+00,5.000000000000000000e+00,5.000000000000000000e+00,5.000000000000000000e+00,5.000000000000000000e+00,5.000000000000000000e+00,5.000000000000000000e+00,5.000000000000000000e+00,5.000000000000000000e+00,4.857845783233642578e+00,4.667248249053955078e+00,4.491042613983154297e+00,4.327657222747802734e+00,4.175742626190185547e+00,4.034132003784179688e+00,3.901811122894287109e+00,3.777894973754882812e+00,3.661607027053833008e+00,3.552264690399169922e+00,3.449262857437133789e+00,3.352066278457641602e+00,3.260197162628173828e+00,3.173229694366455078e+00,3.090780973434448242e+00,3.012508630752563477e+00,2.938102483749389648e+00,2.867283582687377930e+00,2.799798011779785156e+00,2.735416412353515625e+00,2.673928976058959961e+00,2.615145206451416016e+00,2.558890342712402344e+00,2.505004882812500000e+00,2.453341722488403320e+00,2.403766870498657227e+00,2.356155633926391602e+00,2.310393810272216797e+00,2.266375780105590820e+00,2.224003791809082031e+00,2.183187007904052734e+00,2.143841505050659180e+00,2.105888843536376953e+00,2.069256782531738281e+00,1.106173872947692871e+00,1.080415964126586914e+00,1.054616808891296387e+00,1.042764663696289062e+00,1.031175971031188965e+00,1.020000100135803223e+00,1.009999036788940430e+00
5.000000000000000000e+00,5.000000000000000000e+00,5.000000000000000000e+00,5.000000000000000000e+00,5.000000000000000000e+00,5.000000000000000000e+00,5.000000000000000000e+00,5.000000000000000000e+00,5.000000000000000000e+00,5.000000000000000000e+00,5.000000000000000000e+00,5.000000000000000000e+00,5.000000000000000000e+00,5.000000000000000000e+00,5.000000000000000000e+00,5.000000000000000000e+00,5.000000000000000000e+00,5.000000000000000000e+00,5.000000000000000000e+00,5.000000000000000000e+00,5.000000000000000000e+00,5.000000000000000000e+00,5.000000000000000000e+00,5.000000000000000000e+00,5.000000000000000000e+00,5.000000000000000000e+00,5.000000000000000000e+00,5.000000000000000000e+00,5.000000000000000000e+00,5.000000000000000000e+00,5.000000000000000000e+00,5.000000000000000000e+00,5.000000000000000000e+00,5.000000000000000000e+00,5.000000000000000000e+00,5.000000000000000000e+00,5.000000000000000000e+00,5.000000000000000000e+00,5.000000000000000000e+00,4.857983112335205078e+00,4.667375087738037109e+00,4.491159915924072266e+00,4.327766418457031250e+00,4.175844192504882812e+00,4.034226894378662109e+00,3.901900053024291992e+00,3.777977943420410156e+00,3.661685228347778320e+00,3.552337884902954102e+00,3.449332237243652344e+00,3.352131605148315430e+00,3.260259389877319336e+00,3.173287868499755859e+00,3.090836763381958008e+00,3.012561321258544922e+00,2.938153028488159180e+00,2.867331504821777344e+00,2.799843788146972656e+00,2.735459804534912109e+00,2.673970699310302734e+00,2.615185022354125977e+00,2.558928489685058594e+00,2.505041360855102539e+00,2.453377008438110352e+00,2.403800487518310547e+00,2.356188058853149414e+00,2.310425043106079102e+00,2.266405820846557617e+00,2.224032640457153320e+00,2.183214902877807617e+00,2.143868207931518555e+00,2.105914831161499023e+00,2.069281578063964844e+00,1.103115200996398926e+00,1.076351642608642578e+00,1.059574007987976074e+00,1.047637104988098145e+00,1.036125898361206055e+00,1.024865150451660156e+00,1.016934156417846680e+00
5.000000000000000000e+00,5.000000000000000000e+00,5.000000000000000000e+00,5.000000000000000000e+00,5.000000000000000000e+00,5.000000000000000000e+00,5.000000000000000000e+00,5.000000000000000000e+00,5.000000000000000000e+00,5.000000000000000000e+00,5.000000000000000000e+00,5.000000000000000000e+00,5.000000000000000000e+00,5.000000000000000000e+00,5.000000000000000000e+00,5.000000000000000000e+00,5.000000000000000000e+00,5.000000000000000000e+00,5.000000000000000000e+00,5.000000000000000000e+00,5.000000000000000000e+00,5.000000000000000000e+00,5.000000000000000000e+00,5.000000000000000000e+00,5.000000000000000000e+00,5.000000000000000000e+00,5.000000000000000000e+00,5.000000000000000000e+00,5.000000000000000000e+00,5.000000000000000000e+00,5.000000000000000000e+00,5.000000000000000000e+00,5.000000000000000000e+00,5.000000000000000000e+00,5.000000000000000000e+00,5.000000000000000000e+00,5.000000000000000000e+00,5.000000000000000000e+00,5.000000000000000000e+00,4.858120918273925781e+00,4.667502403259277344e+00,4.491277694702148438e+00,4.327875614166259766e+00,4.175946235656738281e+00,4.034321784973144531e+00,3.901988983154296875e+00,3.778061389923095703e+00,3.661763668060302734e+00,3.552411794662475586e+00,3.449401855468750000e+00,3.352197170257568359e+00,3.260321140289306641e+00,3.173346757888793945e+00,3.090892553329467773e+00,3.012614250183105469e+00,2.938203334808349609e+00,2.867379426956176758e+00,2.799889564514160156e+00,2.735503673553466797e+00,2.674012660980224609e+00,2.615225076675415039e+00,2.558966875076293945e+00,2.505077838897705078e+00,2.453412055969238281e+00,2.403834104537963867e+00,2.356220483779907227e+00,2.310456037521362305e+00,2.266435861587524414e+00,2.224061489105224609e+00,2.183242797851562500e+00,2.143894910812377930e+00,2.105940818786621094e+00,1.127081394195556641e+00,1.100073337554931641e+00,1.076934218406677246e+00,1.064655900001525879e+00,1.052769899368286133e+00,1.041146397590637207e+00,1.031014084815979004e+00,1.024168252944946289e+00
5.000000000000000000e+00,5.000000000000000000e+00,5.000000000000000000e+00,5.000000000000000000e+00,5.000000000000000000e+00,5.000000000000000000e+00,5.000000000000000000e+00,5.000000000000000000e+00,5.000000000000000000e+00,5.000000000000000000e+00,5.000000000000000000e+00,5.000000000000000000e+00,5.000000000000000000e+00,5.000000000000000000e+00,5.000000000000000000e+00,5.000000000000000000e+00,5.000000000000000000e+00,5.000000000000000000e+00,5.000000000000000000e+00,5.000000000000000000e+00,5.000000000000000000e+00,5.000000000000000000e+00,5.000000000000000000e+00,5.000000000000000000e+00,5.000000000000000000e+00,5.000000000000000000e+00,5.000000000000000000e+00,5.000000000000000000e+00,5.000000000000000000e+00,5.000000000000000000e+00,5.000000000000000000e+00,5.000000000000000000e+00,5.000000000000000000e+00,5.000000000000000000e+00,5.000000000000000000e+00,5.000000000000000000e+00,5.000000000000000000e+00,5.000000000000000000e+00,5.000000000000000000e+00,4.858257770538330078e+00,4.667629241943359375e+00,4.491395473480224609e+00,4.327984809875488281e+00,4.176047801971435547e+00,4.034416675567626953e+00,3.902077436447143555e+00,3.778144598007202148e+00,3.661841630935668945e+00,3.552485466003417969e+00,3.449470996856689453e+00,3.352262735366821289e+00,3.260382890701293945e+00,3.173405647277832031e+00,3.090948104858398438e+00,3.012667417526245117e+00,2.938253641128540039e+00,2.867427349090576172e+00,2.799935340881347656e+00,2.735547304153442383e+00,2.674054145812988281e+00,2.615264892578125000e+00,2.559004783630371094e+00,2.505114555358886719e+00,2.453447103500366211e+00,2.403867959976196289e+00,2.356252670288085938e+00,2.310487270355224609e+00,2.266465663909912109e+00,2.224090337753295898e+00,2.183270454406738281e+00,2.143921852111816406e+00,2.105966567993164062e+00,1.125063300132751465e+00,1.097048401832580566e+00,1.082236886024475098e+00,1.069957375526428223e+00,1.057953357696533203e+00,1.046215653419494629e+00,1.038241624832153320e+00,1.031936764717102051e+00
5.000000000000000000e+00,5.000000000000000000e+00,5.000000000000000000e+00,5.000000000000000000e+00,5.000000000000000000e+00,5.000000000000000000e+00,5.000000000000000000e+00,5.000000000000000000e+00,5.000000000000000000e+00,5.000000000000000000e+00,5.000000000000000000e+00,5.000000000000000000e+00,5.000000000000000000e+00,5.000000000000000000e+00,5.000000000000000000e+00,5.000000000000000000e+00,5.000000000000000000e+00,5.000000000000000000e+00,5.000000000000000000e+00,5.000000000000000000e+00,5.000000000000000000e+00,5.000000000000000000e+00,5.000000000000000000e+00,5.000000000000000000e+00,5.000000000000000000e+00,5.000000000000000000e+00,5.000000000000000000e+00,5.000000000000000000e+00,5.000000000000000000e+00,5.000000000000000000e+00,5.000000000000000000e+00,5.000000000000000000e+00,5.000000000000000000e+00,5.000000000000000000e+00,5.000000000000000000e+00,5.000000000000000000e+00,5.000000000000000000e+00,5.000000000000000000e+00,5.000000000000000000e+00,4.858396053314208984e+00,4.667756557464599609e+00,4.491513252258300781e+00,4.328094482421875000e+00,4.176149845123291016e+00,4.034511566162109375e+00,3.902166366577148438e+00,3.778228044509887695e+00,3.661919832229614258e+00,3.552559137344360352e+00,3.449540138244628906e+00,3.352328300476074219e+00,3.260445117950439453e+00,3.173464536666870117e+00,3.091003894805908203e+00,3.012720346450805664e+00,2.938303947448730469e+00,2.867475509643554688e+00,2.799981117248535156e+00,2.735590934753417969e+00,2.674095869064331055e+00,2.615304946899414062e+00,2.559043169021606445e+00,2.505151271820068359e+00,2.453482151031494141e+00,2.403901576995849609e+00,2.356285333633422852e+00,2.310518503189086914e+00,2.266495704650878906e+00,2.224119186401367188e+00,2.183298349380493164e+00,2.143948793411254883e+00,1.151851773262023926e+00,1.123052477836608887e+00,1.100809216499328613e+00,1.087948679924011230e+00,1.075385093688964844e+00,1.063187956809997559e+00,1.052922129631042480e+00,1.045571446418762207e+00,1.844722151756286621e+00
5.000000000000000000e+00,5.000000000000000000e+00,5.000000000000000000e+00,5.000000000000000000e+00,5.000000000000000000e+00,5.000000000000000000e+00,5.000000000000000000e+00,5.000000000000000000e+00,5.000000000000000000e+00,5.000000000000000000e+00,5.000000000000000000e+00,5.000000000000000000e+00,5.000000000000000000e+00,5.000000000000000000e+00,5.000000000000000000e+00,5.000000000000000000e+00,5.000000000000000000e+00,5.000000000000000000e+00,5.000000000000000000e+00,5.000000000000000000e+00,5.000000000000000000e+00,5.000000000000000000e+00,5.000000000000000000e+00,5.000000000000000000e+00,5.000000000000000000e+00,5.000000000000000000e+00,5.000000000000000000e+00,5.000000000000000000e+00,5.000000000000000000e+00,5.000000000000000000e+00,5.000000000000000000e+00,5.000000000000000000e+00,5.000000000000000000e+00,5.000000000000000000e+00,5.000000000000000000e+00,5.000000000000000000e+00,5.000000000000000000e+00,5.000000000000000000e+00,5.000000000000000000e+00,4.858534336090087891e+00,4.667882919311523438e+00,4.491630554199218750e+00,4.328203678131103516e+00,4.176251411437988281e+00,4.034606456756591797e+00,3.902255296707153320e+00,3.778311014175415039e+00,3.661998271942138672e+00,3.552632093429565430e+00,3.449609756469726562e+00,3.352393627166748047e+00,3.260507106781005859e+00,3.173522949218750000e+00,3.091059684753417969e+00,3.012773036956787109e+00,2.938354492187500000e+00,2.867523193359375000e+00,2.800026893615722656e+00,2.735634565353393555e+00,2.674137592315673828e+00,2.615344524383544922e+00,2.559081315994262695e+00,2.505187749862670898e+00,2.453517436981201172e+00,2.403935194015502930e+00,2.356317758560180664e+00,2.310549497604370117e+00,2.266525745391845703e+00,2.224148035049438477e+00,2.183326005935668945e+00,2.143975496292114258e+00,1.150582075119018555e+00,1.121048927307128906e+00,1.107048749923706055e+00,1.094042897224426270e+00,1.081339001655578613e+00,1.069021105766296387e+00,1.061890602111816406e+00,1.053434848785400391e+00,1.844741940498352051e+00
5.000000000000000000e+00,5.000000000000000000e+00,5.000000000000000000e+00,5.000000000000000000e+00,5.000000000000000000e+00,5.000000000000000000e+00,5.000000000000000000e+00,5.000000000000000000e+00,5.000000000000000000e+00,5.000000000000000000e+00,5.000000000000000000e+00,5.000000000000000000e+00,5.000000000000000000e+00,5.000000000000000000e+00,5.000000000000000000e+00,5.000000000000000000e+00,5.000000000000000000e+00,5.000000000000000000e+00,5.000000000000000000e+00,5.000000000000000000e+00,5.000000000000000000e+00,5.000000000000000000e+00,5.000000000000000000e+00,5.000000000000000000e+00,5.000000000000000000e+00,5.000000000000000000e+00,5.000000000000000000e+00,5.000000000000000000e+00,5.000000000000000000e+00,5.000000000000000000e+00,5.000000000000000000e+00,5.000000000000000000e+00,5.000000000000000000e+00,5.000000000000000000e+00,5.000000000000000000e+00,5.000000000000000000e+00,5.000000000000000000e+00,5.000000000000000000e+00,5.000000000000000000e+00,4.858672142028808594e+00,4.668010711669921875e+00,4.491747856140136719e+00,4.328312873840332031e+00,4.176353454589843750e+00,4.034701824188232422e+00,3.902344226837158203e+00,3.778394460678100586e+00,3.662076234817504883e+00,3.552706003189086914e+00,3.449679136276245117e+00,3.352459192276000977e+00,3.260569095611572266e+00,3.173581838607788086e+00,3.091115474700927734e+00,3.012826204299926758e+00,2.938404798507690430e+00,2.867571353912353516e+00,2.800072669982910156e+00,2.735678195953369141e+00,2.674179553985595703e+00,2.615384578704833984e+00,2.559119701385498047e+00,2.505224466323852539e+00,2.453552484512329102e+00,2.403969049453735352e+00,2.356350183486938477e+00,2.310580730438232422e+00,2.266555786132812500e+00,2.224176883697509766e+00,2.183353900909423828e+00,1.177205324172973633e+00,1.148590803146362305e+00,1.126831412315368652e+00,1.113359451293945312e+00,1.100216984748840332e+00,1.087539196014404297e+00,1.081110000610351562e+00,1.072346568107604980e+00,1.191989421844482422e+00,1.844761848449707031e+00
5.000000000000000000e+00,5.000000000000000000e+00,5.000000000000000000e+00,5.000000000000000000e+00,5.000000000000000000e+00,5.000000000000000000e+00,5.000000000000000000e+00,5.000000000000000000e+00,5.000000000000000000e+00,5.000000000000000000e+00,5.000000000000000000e+00,5.000000000000000000e+00,5.000000000000000000e+00,5.000000000000000000e+00,5.000000000000000000e+00,5.000000000000000000e+00,5.000000000000000000e+00,5.000000000000000000e+00,5.000000000000000000e+00,5.000000000000000000e+00,5.000000000000000000e+00,5.000000000000000000e+00,5.000000000000000000e+00,5.000000000000000000e+00,5.000000000000000000e+00,5.000000000000000000e+00,5.000000000000000000e+00,5.000000000000000000e+00,5.000000000000000000e+00,5.000000000000000000e+00,5.000000000000000000e+00,5.000000000000000000e+00,5.000000000000000000e+00,5.000000000000000000e+00,5.000000000000000000e+00,5.000000000000000000e+00,5.000000000000000000e+00,5.000000000000000000e+00,5.000000000000000000e+00,4.858810424804687500e+00,4.668138504028320312e+00,4.491866111755371094e+00,4.328421115875244141e+00,4.176455020904541016e+00,4.034796714782714844e+00,3.902433156967163086e+00,3.778477668762207031e+00,3.662154674530029297e+00,3.552779674530029297e+00,3.449748754501342773e+00,3.352524995803833008e+00,3.260631322860717773e+00,3.173640727996826172e+00,3.091171264648437500e+00,3.012879133224487305e+00,2.938455343246459961e+00,2.867619276046752930e+00,2.800118446350097656e+00,2.735722064971923828e+00,2.674221277236938477e+00,2.615424633026123047e+00,2.559157848358154297e+00,2.505260944366455078e+00,2.453587770462036133e+00,2.404002666473388672e+00,2.356382608413696289e+00,2.310611963272094727e+00,2.266585588455200195e+00,2.224205732345581055e+00,2.183381795883178711e+00,1.175879120826721191e+00,1.147333979606628418e+00,1.133370280265808105e+00,1.119841694831848145e+00,1.106710195541381836e+00,1.095974922180175781e+00,1.091949820518493652e+00,1.195638775825500488e+00,1.873841285705566406e+00,1.844781756401062012e+00
5.000000000000000000e+00,5.000000000000000000e+00,5.000000000000000000e+00,5.000000000000000000e+00,5.000000000000000000e+00,5.000000000000000000e+00,5.000000000000000000e+00,5.000000000000000000e+00,5.000000000000000000e+00,5.000000000000000000e+00,5.000000000000000000e+00,5.000000000000000000e+00,5.000000000000000000e+00,5.000000000000000000e+00,5.000000000000000000e+00,5.000000000000000000e+00,5.000000000000000000e+00,5.000000000000000000e+00,5.000000000000000000e+00,5.000000000000000000e+00,5.000000000000000000e+00,5.000000000000000000e+00,5.000000000000000000e+00,5.000000000000000000e+00,5.000000000000000000e+00,5.000000000000000000e+00,5.000000000000000000e+00,5.000000000000000000e+00,5.000000000000000000e+00,5.000000000000000000e+00,5.000000000000000000e+00,5.000000000000000000e+00,5.000000000000000000e+00,5.000000000000000000e+00,5.000000000000000000e+00,5.000000000000000000e+00,5.000000000000000000e+00,5.000000000000000000e+00,5.000000000000000000e+00,4.858948707580566406e+00,4.668265819549560547e+00,4.491984367370605469e+00,4.328531265258789062e+00,4.176556587219238281e+00,4.034891605377197266e+00,3.902521610260009766e+00,3.778560876846313477e+00,3.662232637405395508e+00,3.552853345870971680e+00,3.449817895889282227e+00,3.352590560913085938e+00,3.260693073272705078e+00,3.173699378967285156e+00,3.091226816177368164e+00,3.012932300567626953e+00,2.938505411148071289e+00,2.867667436599731445e+00,2.800163984298706055e+00,2.735765695571899414e+00,2.674262762069702148e+00,2.615464448928833008e+00,2.559195995330810547e+00,2.505297660827636719e+00,2.453622579574584961e+00,2.404036521911621094e+00,2.356414794921875000e+00,2.310642957687377930e+00,2.266615629196166992e+00,2.224234580993652344e+00,2.183409452438354492e+00,1.174555897712707520e+00,1.154121756553649902e+00,1.140179038047790527e+00,1.126569271087646484e+00,1.113280653953552246e+00,1.111385941505432129e+00,1.199397921562194824e+00,1.201068758964538574e+00,1.873861789703369141e+00,1.844801425933837891e+00
4.874307632446289062e+00,4.873110294342041016e+00,4.871913433074951172e+00,4.870717525482177734e+00,4.869521617889404297e+00,4.868326663970947266e+00,4.867131710052490234e+00,4.865937709808349609e+00,4.864744663238525391e+00,4.863551616668701172e+00,4.862359523773193359e+00,4.861168384552001953e+00,4.859976768493652344e+00,4.858786582946777344e+00,4.857596874237060547e+00,4.856407642364501953e+00,4.855218887329101562e+00,4.854031085968017578e+00,4.852843284606933594e+00,4.851656436920166016e+00,4.850470066070556641e+00,4.849284172058105469e+00,4.848099231719970703e+00,4.846914768218994141e+00,4.845730304718017578e+00,4.844546794891357422e+00,4.843363761901855469e+00,4.842181682586669922e+00,4.841000080108642578e+00,4.839818954467773438e+00,4.838637828826904297e+00,4.837458133697509766e+00,4.836278438568115234e+00,4.835099697113037109e+00,4.833921432495117188e+00,4.832744121551513672e+00,4.831566333770751953e+00,4.830389976501464844e+00,4.829214096069335938e+00,4.828038692474365234e+00,4.668393611907958984e+00,4.492102146148681641e+00,4.328640937805175781e+00,4.176658153533935547e+00,4.034986495971679688e+00,3.902610540390014648e+00,3.778644323348999023e+00,3.662310838699340820e+00,3.552927017211914062e+00,3.449887514114379883e+00,3.352656126022338867e+00,3.260755300521850586e+00,3.173758268356323242e+00,3.091282606124877930e+00,3.012985229492187500e+00,2.938555955886840820e+00,2.867715358734130859e+00,2.800209760665893555e+00,2.735809326171875000e+00,2.674304485321044922e+00,2.615504503250122070e+00,2.559234142303466797e+00,2.505334377288818359e+00,2.453657865524291992e+00,2.404070377349853516e+00,2.356447219848632812e+00,2.310674190521240234e+00,2.266645669937133789e+00,2.224263668060302734e+00,1.238657355308532715e+00,1.192570209503173828e+00,1.161268949508666992e+00,1.147153973579406738e+00,1.133378148078918457e+00,1.125170707702636719e+00,1.123760342597961426e+00,1.205072522163391113e+00,1.903873443603515625e+00,1.873882293701171875e+00,1.844821333885192871e+00
3.777341127395629883e+00,3.776622295379638672e+00,3.775903224945068359e+00,3.775184869766235352e+00,3.774466276168823242e+00,3.773747920989990234e+00,3.773030519485473633e+00,3.772312641143798828e+00,3.771595716476440430e+00,3.770878553390502930e+00,3.770161628723144531e+00,3.769445419311523438e+00,3.768729209899902344e+00,3.768013477325439453e+00,3.767297744750976562e+00,3.766582727432250977e+00,3.765867471694946289e+00,3.765152454376220703e+00,3.764437913894653320e+00,3.763723611831665039e+00,3.763009786605834961e+00,3.762295961380004883e+00,3.761582374572753906e+00,3.760869503021240234e+00,3.760156393051147461e+00,3.759443998336791992e+00,3.758731365203857422e+00,3.758019447326660156e+00,3.757307529449462891e+00,3.756595849990844727e+00,3.755884647369384766e+00,3.755173444747924805e+00,3.754462957382202148e+00,3.753752231597900391e+00,3.753041982650756836e+00,3.752332210540771484e+00,3.751622438430786133e+00,3.750913143157958984e+00,3.750203847885131836e+00,3.749495267868041992e+00,3.748786449432373047e+00,3.748077869415283203e+00,3.747370004653930664e+00,3.746662139892578125e+00,3.745954751968383789e+00,3.745247364044189453e+00,3.744540214538574219e+00,3.662389278411865234e+00,3.553000450134277344e+00,3.449956893920898438e+00,3.352721452713012695e+00,3.260817289352416992e+00,3.173816919326782227e+00,3.091338396072387695e+00,3.013037919998168945e+00,2.938606500625610352e+00,2.867763280868530273e+00,2.800255537033081055e+00,2.735852956771850586e+00,2.674346208572387695e+00,2.615544319152832031e+00,2.559272527694702148e+00,2.505370855331420898e+00,2.453692913055419922e+00,2.404103755950927734e+00,2.356479644775390625e+00,2.310705184936523438e+00,2.266675472259521484e+00,1.261196851730346680e+00,1.219913005828857422e+00,1.192215323448181152e+00,1.174669027328491211e+00,1.164584279060363770e+00,1.157832503318786621e+00,1.141419649124145508e+00,1.209102988243103027e+00,1.210801005363464355e+00,1.903894662857055664e+00,1.873902797698974609e+00,1.844841241836547852e+00
3.083416223526000977e+00,3.082937240600585938e+00,3.082458019256591797e+00,3.081979036331176758e+00,3.081500291824340820e+00,3.081021547317504883e+00,3.080543279647827148e+00,3.080064773559570312e+00,3.079586744308471680e+00,3.079108715057373047e+00,3.078630685806274414e+00,3.078153133392333984e+00,3.077675342559814453e+00,3.077198028564453125e+00,3.076720714569091797e+00,3.076243400573730469e+00,3.075766563415527344e+00,3.075289487838745117e+00,3.074813127517700195e+00,3.074336290359497070e+00,3.073860168457031250e+00,3.073383808135986328e+00,3.072907447814941406e+00,3.072431802749633789e+00,3.071955680847167969e+00,3.071480274200439453e+00,3.071004629135131836e+00,3.070528984069824219e+00,3.070054054260253906e+00,3.069578886032104492e+00,3.069103956222534180e+00,3.068629264831542969e+00,3.068154573440551758e+00,3.067680120468139648e+00,3.067205667495727539e+00,3.066731452941894531e+00,3.066257476806640625e+00,3.065783739089965820e+00,3.065309762954711914e+00,3.064836025238037109e+00,3.064362764358520508e+00,3.063889503479003906e+00,3.063416481018066406e+00,3.062943220138549805e+00,3.062470436096191406e+00,3.061997652053833008e+00,3.061524868011474609e+00,3.061052560806274414e+00,3.060580253601074219e+00,3.060108184814453125e+00,3.059636116027832031e+00,3.059164047241210938e+00,3.058692693710327148e+00,3.058220863342285156e+00,3.013091087341308594e+00,2.938656806945800781e+00,2.867811203002929688e+00,2.800301313400268555e+00,2.735896587371826172e+00,2.674388170242309570e+00,2.615584135055541992e+00,2.559310674667358398e+00,2.505407571792602539e+00,2.453728199005126953e+00,2.404137611389160156e+00,2.356512069702148438e+00,2.310736417770385742e+00,2.266705513000488281e+00,1.246038317680358887e+00,1.215521097183227539e+00,1.193003177642822266e+00,1.179315924644470215e+00,1.170796632766723633e+00,1.166227340698242188e+00,1.215368509292602539e+00,1.214870095252990723e+00,1.934883832931518555e+00,1.903915882110595703e+00,1.873923301696777344e+00,1.844861030578613281e+00
2.604880809783935547e+00,2.604538679122924805e+00,2.604196786880493164e+00,2.603854894638061523e+00,2.603513240814208984e+00,2.603171348571777344e+00,2.602829933166503906e+00,2.602488279342651367e+00,2.602146863937377930e+00,2.601805686950683594e+00,2.601464509963989258e+00,2.601123332977294922e+00,2.600782155990600586e+00,2.600441217422485352e+00,2.600100517272949219e+00,2.599759578704833984e+00,2.599419116973876953e+00,2.599078416824340820e+00,2.598737955093383789e+00,2.598397493362426758e+00,2.598057031631469727e+00,2.597717046737670898e+00,2.597376585006713867e+00,2.597036838531494141e+00,2.596696615219116211e+00,2.596356630325317383e+00,2.596017122268676758e+00,2.595677375793457031e+00,2.595337867736816406e+00,2.594998121261596680e+00,2.594658851623535156e+00,2.594319343566894531e+00,2.593980073928833008e+00,2.593641042709350586e+00,2.593301773071289062e+00,2.592962980270385742e+00,2.592623949050903320e+00,2.592285156250000000e+00,2.591946363449096680e+00,2.591607809066772461e+00,2.591269254684448242e+00,2.590930700302124023e+00,2.590592384338378906e+00,2.590254068374633789e+00,2.589915752410888672e+00,2.589577913284301758e+00,2.589239835739135742e+00,2.588901996612548828e+00,2.588563919067382812e+00,2.588226079940795898e+00,2.587888717651367188e+00,2.587550878524780273e+00,2.587213516235351562e+00,2.586876153945922852e+00,2.586538791656494141e+00,2.586201667785644531e+00,2.585864305496215820e+00,2.585527420043945312e+00,2.585190296173095703e+00,2.584853649139404297e+00,2.584516763687133789e+00,2.559348821640014648e+00,2.505444049835205078e+00,2.453763246536254883e+00,2.404171466827392578e+00,2.356544256210327148e+00,2.310767650604248047e+00,2.266735553741455078e+00,1.242235898971557617e+00,1.211257696151733398e+00,1.187863111495971680e+00,1.174171686172485352e+00,1.164124608039855957e+00,1.161913514137268066e+00,1.220410346984863281e+00,1.966898679733276367e+00,1.934905648231506348e+00,1.903936862945556641e+00,1.873943805694580078e+00,1.844880938529968262e+00
2.254963397979736328e+00,2.254705429077148438e+00,2.254447698593139648e+00,2.254189729690551758e+00,2.253931760787963867e+00,2.253674030303955078e+00,2.253416299819946289e+00,2.253158569335937500e+00,2.252901077270507812e+00,2.252643585205078125e+00,2.252386093139648438e+00,2.252128601074218750e+00,2.251871109008789062e+00,2.251613855361938477e+00,2.251356601715087891e+00,2.251099586486816406e+00,2.250842332839965820e+00,2.250585317611694336e+00,2.250328302383422852e+00,2.250071287155151367e+00,2.249814271926879883e+00,2.249557733535766602e+00,2.249300718307495117e+00,2.249044179916381836e+00,2.248789072036743164e+00,2.248533964157104492e+00,2.248279333114624023e+00,2.248024463653564453e+00,2.247769832611083984e+00,2.247514963150024414e+00,2.247260332107543945e+00,2.247005939483642578e+00,2.246751308441162109e+00,2.246496915817260742e+00,2.246242523193359375e+00,2.245988130569458008e+00,2.245733976364135742e+00,2.245479583740234375e+00,2.245225429534912109e+00,2.244971275329589844e+00,2.244717359542846680e+00,2.244463205337524414e+00,2.244209289550781250e+00,2.243955612182617188e+00,2.243701696395874023e+00,2.243448019027709961e+00,2.243194103240966797e+00,2.242940664291381836e+00,2.242686986923217773e+00,2.242433309555053711e+00,2.242180109024047852e+00,2.241926431655883789e+00,2.241673231124877930e+00,2.241419792175292969e+00,2.241166591644287109e+00,2.240913391113281250e+00,2.240660190582275391e+00,2.240407228469848633e+00,2.240154266357421875e+00,2.239901304244995117e+00,2.239648342132568359e+00,2.239395380020141602e+00,2.239142894744873047e+00,2.238889932632446289e+00,2.238637447357177734e+00,2.238384723663330078e+00,2.238131999969482422e+00,2.237879753112792969e+00,2.224379062652587891e+00,1.207960128784179688e+00,1.181094288825988770e+00,1.168237805366516113e+00,1.158007860183715820e+00,1.152285456657409668e+00,1.160973906517028809e+00,1.966921329498291016e+00,1.934927582740783691e+00,1.903957962989807129e+00,1.873964309692382812e+00,1.844900846481323242e+00
1.987997770309448242e+00,1.987797260284423828e+00,1.987596869468688965e+00,1.987396240234375000e+00,1.987195968627929688e+00,1.986995458602905273e+00,1.986795186996459961e+00,1.986595034599304199e+00,1.986394643783569336e+00,1.986194491386413574e+00,1.985994219779968262e+00,1.985794186592102051e+00,1.985593914985656738e+00,1.985394001007080078e+00,1.985194087028503418e+00,1.984993934631347656e+00,1.984794139862060547e+00,1.984594106674194336e+00,1.984394192695617676e+00,1.984194278717041016e+00,1.983994603157043457e+00,1.983795046806335449e+00,1.983595132827758789e+00,1.983395576477050781e+00,1.983195900917053223e+00,1.982996344566345215e+00,1.982796907424926758e+00,1.982597351074218750e+00,1.982397913932800293e+00,1.982198357582092285e+00,1.981999158859252930e+00,1.981799602508544922e+00,1.981600403785705566e+00,1.981401324272155762e+00,1.981201887130737305e+00,1.981002807617187500e+00,1.980803608894348145e+00,1.980604648590087891e+00,1.980405449867248535e+00,1.980206489562988281e+00,1.980007648468017578e+00,1.979808568954467773e+00,1.979609727859497070e+00,1.979410767555236816e+00,1.979212045669555664e+00,1.979013323783874512e+00,1.978814482688903809e+00,1.978615880012512207e+00,1.978417038917541504e+00,1.978218555450439453e+00,1.978019833564758301e+00,1.977821350097656250e+00,1.977622985839843750e+00,1.977424383163452148e+00,1.977226018905639648e+00,1.977027535438537598e+00,1.976829290390014648e+00,1.976630926132202148e+00,1.976432681083679199e+00,1.976234555244445801e+00,1.976036310195922852e+00,1.975838184356689453e+00,1.975639939308166504e+00,1.975442051887512207e+00,1.975244045257568359e+00,1.975046038627624512e+00,1.974848151206970215e+00,1.974650144577026367e+00,1.974452376365661621e+00,1.307905316352844238e+00,1.175712943077087402e+00,1.159635782241821289e+00,1.151215314865112305e+00,1.145505309104919434e+00,1.144762396812438965e+00,1.966943979263305664e+00,1.934949398040771484e+00,1.903979182243347168e+00,1.873984813690185547e+00,1.844920754432678223e+00
1.777552843093872070e+00,1.777392625808715820e+00,1.777232170104980469e+00,1.777072072029113770e+00,1.776911616325378418e+00,1.776751518249511719e+00,1.776591420173645020e+00,1.776431083679199219e+00,1.776271104812622070e+00,1.776110887527465820e+00,1.775950908660888672e+00,1.775790691375732422e+00,1.775630831718444824e+00,1.775470852851867676e+00,1.775310754776000977e+00,1.775151014328002930e+00,1.774990916252136230e+00,1.774831175804138184e+00,1.774671435356140137e+00,1.774511456489562988e+00,1.774351716041564941e+00,1.774191856384277344e+00,1.774032235145568848e+00,1.773872375488281250e+00,1.773712873458862305e+00,1.773553252220153809e+00,1.773393511772155762e+00,1.773234009742736816e+00,1.773074388504028320e+00,1.772914886474609375e+00,1.772755265235900879e+00,1.772595882415771484e+00,1.772436499595642090e+00,1.772276997566223145e+00,1.772117733955383301e+00,1.771958231925964355e+00,1.771798968315124512e+00,1.771639704704284668e+00,1.771480441093444824e+00,1.771321177482604980e+00,1.771161913871765137e+00,1.771002769470214844e+00,1.770843505859375000e+00,1.770684480667114258e+00,1.770525455474853516e+00,1.770366311073303223e+00,1.770207285881042480e+00,1.770048141479492188e+00,1.769889235496520996e+00,1.769730210304260254e+00,1.769571304321289062e+00,1.769412517547607422e+00,1.769253492355346680e+00,1.769094824790954590e+00,1.768935918807983398e+00,1.768777132034301758e+00,1.768618464469909668e+00,1.768459677696228027e+00,1.768301010131835938e+00,1.768142223358154297e+00,1.767983675003051758e+00,1.767824888229370117e+00,1.767666459083557129e+00,1.767507910728454590e+00,1.767349362373352051e+00,1.767190933227539062e+00,1.767032265663146973e+00,1.766873955726623535e+00,1.332460641860961914e+00,1.301126480102539062e+00,1.274414181709289551e+00,1.148234963417053223e+00,1.139749288558959961e+00,1.137001276016235352e+00,1.134238958358764648e+00,1.137107372283935547e+00,1.765449285507202148e+00,1.765291213989257812e+00,1.765132904052734375e+00,1.764974951744079590e+00
1.607397556304931641e+00,1.607266306877136230e+00,1.607135295867919922e+00,1.607004165649414062e+00,1.606873154640197754e+00,1.606742143630981445e+00,1.606611132621765137e+00,1.606480121612548828e+00,1.606349110603332520e+00,1.606218218803405762e+00,1.606087446212768555e+00,1.605956435203552246e+00,1.605825543403625488e+00,1.605694651603698730e+00,1.605563879013061523e+00,1.605432987213134766e+00,1.605302214622497559e+00,1.605171561241149902e+00,1.605040669441223145e+00,1.604910016059875488e+00,1.604779243469238281e+00,1.604648709297180176e+00,1.604517936706542969e+00,1.604387283325195312e+00,1.604256749153137207e+00,1.604126095771789551e+00,1.603995561599731445e+00,1.603864908218383789e+00,1.603734493255615234e+00,1.603603959083557129e+00,1.603473424911499023e+00,1.603343009948730469e+00,1.603212475776672363e+00,1.603082180023193359e+00,1.602951645851135254e+00,1.602821350097656250e+00,1.602691054344177246e+00,1.602560520172119141e+00,1.602430343627929688e+00,1.602299928665161133e+00,1.602169752120971680e+00,1.602039337158203125e+00,1.601909160614013672e+00,1.601779103279113770e+00,1.601648807525634766e+00,1.601518630981445312e+00,1.601388454437255859e+00,1.601258397102355957e+00,1.601128339767456055e+00,1.600998163223266602e+00,1.600868105888366699e+00,1.600738048553466797e+00,1.600607991218566895e+00,1.600477933883666992e+00,1.600347995758056641e+00,1.600218176841735840e+00,1.600088119506835938e+00,1.599958181381225586e+00,1.599828243255615234e+00,1.599698424339294434e+00,1.599568486213684082e+00,1.599438667297363281e+00,1.599308967590332031e+00,1.599179029464721680e+00,1.599049329757690430e+00,1.598919510841369629e+00,1.598789811134338379e+00,1.598660230636596680e+00,1.326214551925659180e+00,1.295609474182128906e+00,1.273558378219604492e+00,1.146001458168029785e+00,1.129104852676391602e+00,1.125597357749938965e+00,1.123665452003479004e+00,1.125708222389221191e+00,1.128390073776245117e+00,1.597364187240600586e+00,1.597234725952148438e+00,1.597105145454406738e+00
1.466972112655639648e+00,1.466863036155700684e+00,1.466753840446472168e+00,1.466644644737243652e+00,1.466535568237304688e+00,1.466426253318786621e+00,1.466317296028137207e+00,1.466208100318908691e+00,1.466099023818969727e+00,1.465989947319030762e+00,1.465880870819091797e+00,1.465771913528442383e+00,1.465662837028503418e+00,1.465553879737854004e+00,1.465444803237915039e+00,1.465335845947265625e+00,1.465226888656616211e+00,1.465117931365966797e+00,1.465008974075317383e+00,1.464900016784667969e+00,1.464791178703308105e+00,1.464682340621948242e+00,1.464573383331298828e+00,1.464464664459228516e+00,1.464355707168579102e+00,1.464246988296508789e+00,1.464138150215148926e+00,1.464029431343078613e+00,1.463920712471008301e+00,1.463811874389648438e+00,1.463703155517578125e+00,1.463594317436218262e+00,1.463485717773437500e+00,1.463376998901367188e+00,1.463268399238586426e+00,1.463159799575805664e+00,1.463051080703735352e+00,1.462942481040954590e+00,1.462833762168884277e+00,1.462725281715393066e+00,1.462616801261901855e+00,1.462508082389831543e+00,1.462399601936340332e+00,1.462291002273559570e+00,1.462182641029357910e+00,1.462074041366577148e+00,1.461965560913085938e+00,1.461857199668884277e+00,1.461748719215393066e+00,1.461640357971191406e+00,1.461531877517700195e+00,1.461423516273498535e+00,1.461315035820007324e+00,1.461206674575805664e+00,1.461098432540893555e+00,1.460990071296691895e+00,1.460881829261779785e+00,1.460773348808288574e+00,1.460665225982666016e+00,1.460556983947753906e+00,1.460448622703552246e+00,1.460340499877929688e+00,1.460232138633728027e+00,1.460124015808105469e+00,1.460015773773193359e+00,1.459907650947570801e+00,1.459799528121948242e+00,1.459691286087036133e+00,1.459583282470703125e+00,1.302894234657287598e+00,1.276862144470214844e+00,1.253918170928955078e+00,1.231896042823791504e+00,1.112226843833923340e+00,1.107507586479187012e+00,1.104176282882690430e+00,1.115482449531555176e+00,1.458610892295837402e+00,1.458502888679504395e+00,1.458394885063171387e+00
1.349111318588256836e+00,1.349018931388854980e+00,1.348926544189453125e+00,1.348834276199340820e+00,1.348741888999938965e+00,1.348649621009826660e+00,1.348557233810424805e+00,1.348464965820312500e+00,1.348372817039489746e+00,1.348280429840087891e+00,1.348188281059265137e+00,1.348096013069152832e+00,1.348003745079040527e+00,1.347911596298217773e+00,1.347819328308105469e+00,1.347727179527282715e+00,1.347635030746459961e+00,1.347542881965637207e+00,1.347450613975524902e+00,1.347358584403991699e+00,1.347266554832458496e+00,1.347174406051635742e+00,1.347082257270812988e+00,1.346990227699279785e+00,1.346898198127746582e+00,1.346806049346923828e+00,1.346714019775390625e+00,1.346621990203857422e+00,1.346529960632324219e+00,1.346438050270080566e+00,1.346345901489257812e+00,1.346253991127014160e+00,1.346162080764770508e+00,1.346070051193237305e+00,1.345978140830993652e+00,1.345886111259460449e+00,1.345794320106506348e+00,1.345702290534973145e+00,1.345610499382019043e+00,1.345518589019775391e+00,1.345426678657531738e+00,1.345334887504577637e+00,1.345242977142333984e+00,1.345151185989379883e+00,1.345059275627136230e+00,1.344967484474182129e+00,1.344875812530517578e+00,1.344783902168273926e+00,1.344692230224609375e+00,1.344600439071655273e+00,1.344508647918701172e+00,1.344416975975036621e+00,1.344325184822082520e+00,1.344233512878417969e+00,1.344141840934753418e+00,1.344050168991088867e+00,1.343958377838134766e+00,1.343866825103759766e+00,1.343775272369384766e+00,1.343683481216430664e+00,1.343591928482055664e+00,1.343500256538391113e+00,1.343408703804016113e+00,1.343317031860351562e+00,1.343225598335266113e+00,1.343134045600891113e+00,1.343042373657226562e+00,1.342950940132141113e+00,1.342859387397766113e+00,1.342767953872680664e+00,1.342676401138305664e+00,1.342584848403930664e+00,1.342493534088134766e+00,1.246824622154235840e+00,1.105564236640930176e+00,1.097996950149536133e+00,1.096609354019165039e+00,1.097161293029785156e+00,1.341944813728332520e+00,1.341853499412536621e+00
1.248780608177185059e+00,1.248701453208923340e+00,1.248622298240661621e+00,1.248543143272399902e+00,1.248464107513427734e+00,1.248385071754455566e+00,1.248305916786193848e+00,1.248226881027221680e+00,1.248147726058959961e+00,1.248068690299987793e+00,1.247989654541015625e+00,1.247910618782043457e+00,1.247831583023071289e+00,1.247752547264099121e+00,1.247673630714416504e+00,1.247594594955444336e+00,1.247515559196472168e+00,1.247436523437500000e+00,1.247357606887817383e+00,1.247278690338134766e+00,1.247199773788452148e+00,1.247120857238769531e+00,1.247041821479797363e+00,1.246963024139404297e+00,1.246883988380432129e+00,1.246805191040039062e+00,1.246726274490356445e+00,1.246647357940673828e+00,1.246568560600280762e+00,1.246489644050598145e+00,1.246410846710205078e+00,1.246332049369812012e+00,1.246253132820129395e+00,1.246174454689025879e+00,1.246095538139343262e+00,1.246016740798950195e+00,1.245937943458557129e+00,1.245859146118164062e+00,1.245780467987060547e+00,1.245701670646667480e+00,1.245622992515563965e+00,1.245544195175170898e+00,1.245465517044067383e+00,1.245386838912963867e+00,1.245308041572570801e+00,1.245229363441467285e+00,1.245150685310363770e+00,1.245072007179260254e+00,1.244993329048156738e+00,1.244914650917053223e+00,1.244836091995239258e+00,1.244757413864135742e+00,1.244678735733032227e+00,1.244600176811218262e+00,1.244521617889404297e+00,1.244442939758300781e+00,1.244364380836486816e+00,1.244285821914672852e+00,1.244207262992858887e+00,1.244128704071044922e+00,1.244050145149230957e+00,1.243971586227416992e+00,1.243893027305603027e+00,1.243814587593078613e+00,1.243736028671264648e+00,1.243657469749450684e+00,1.243579030036926270e+00,1.243500590324401855e+00,1.243422150611877441e+00,1.243343710899353027e+00,1.243265151977539062e+00,1.243186831474304199e+00,1.243108272552490234e+00,1.243029952049255371e+00,1.242951512336730957e+00,1.159654736518859863e+00,1.141681313514709473e+00,1.125763654708862305e+00,1.118536591529846191e+00,1.242559552192687988e+00
1.162339687347412109e+00,1.162271142005920410e+00,1.162202477455139160e+00,1.162134051322937012e+00,1.162065505981445312e+00,1.161996960639953613e+00,1.161928415298461914e+00,1.161859869956970215e+00,1.161791443824768066e+00,1.161722898483276367e+00,1.161654472351074219e+00,1.161586046218872070e+00,1.161517500877380371e+00,1.161449074745178223e+00,1.161380529403686523e+00,1.161312103271484375e+00,1.161243677139282227e+00,1.161175251007080078e+00,1.161106824874877930e+00,1.161038398742675781e+00,1.160970091819763184e+00,1.160901546478271484e+00,1.160833239555358887e+00,1.160764932632446289e+00,1.160696506500244141e+00,1.160628080368041992e+00,1.160559773445129395e+00,1.160491466522216797e+00,1.160423040390014648e+00,1.160354733467102051e+00,1.160286426544189453e+00,1.160218119621276855e+00,1.160149812698364258e+00,1.160081386566162109e+00,1.160013198852539062e+00,1.159944891929626465e+00,1.159876585006713867e+00,1.159808397293090820e+00,1.159740090370178223e+00,1.159671783447265625e+00,1.159603595733642578e+00,1.159535288810729980e+00,1.159467101097106934e+00,1.159398913383483887e+00,1.159330725669860840e+00,1.159262418746948242e+00,1.159194231033325195e+00,1.159126043319702148e+00,1.159057855606079102e+00,1.158989787101745605e+00,1.158921480178833008e+00,1.158853411674499512e+00,1.158785223960876465e+00,1.158717155456542969e+00,1.158648967742919922e+00,1.158580780029296875e+00,1.158512711524963379e+00,1.158444643020629883e+00,1.158376574516296387e+00,1.158308386802673340e+00,1.158240318298339844e+00,1.158172369003295898e+00,1.158104181289672852e+00,1.158036231994628906e+00,1.157968044281005859e+00,1.157900094985961914e+00,1.157832026481628418e+00,1.157763957977294922e+00,1.157696008682250977e+00,1.157627940177917480e+00,1.157559990882873535e+00,1.157491922378540039e+00,1.157423973083496094e+00,1.157356023788452148e+00,1.157288074493408203e+00,1.157220125198364258e+00,1.157152056694030762e+00,1.157084226608276367e+00,1.113720417022705078e+00,1.156948328018188477e+00
1.087090969085693359e+00,1.087030887603759766e+00,1.086971044540405273e+00,1.086911082267761230e+00,1.086851119995117188e+00,1.086791157722473145e+00,1.086731195449829102e+00,1.086671352386474609e+00,1.086611390113830566e+00,1.086551427841186523e+00,1.086491584777832031e+00,1.086431622505187988e+00,1.086371779441833496e+00,1.086311817169189453e+00,1.086251974105834961e+00,1.086192131042480469e+00,1.086132168769836426e+00,1.086072444915771484e+00,1.086012482643127441e+00,1.085952639579772949e+00,1.085892796516418457e+00,1.085832953453063965e+00,1.085773229598999023e+00,1.085713267326354980e+00,1.085653543472290039e+00,1.085593700408935547e+00,1.085533857345581055e+00,1.085474014282226562e+00,1.085414290428161621e+00,1.085354566574096680e+00,1.085294723510742188e+00,1.085234999656677246e+00,1.085175156593322754e+00,1.085115432739257812e+00,1.085055708885192871e+00,1.084995985031127930e+00,1.084936261177062988e+00,1.084876418113708496e+00,1.084816813468933105e+00,1.084756970405578613e+00,1.084697365760803223e+00,1.084637641906738281e+00,1.084577918052673340e+00,1.084518194198608398e+00,1.084458470344543457e+00,1.084398865699768066e+00,1.084339141845703125e+00,1.084279537200927734e+00,1.084219932556152344e+00,1.084160208702087402e+00,1.084100604057312012e+00,1.084040880203247070e+00,1.083981275558471680e+00,1.083921670913696289e+00,1.083862066268920898e+00,1.083802461624145508e+00,1.083742856979370117e+00,1.083683252334594727e+00,1.083623647689819336e+00,1.083564043045043945e+00,1.083504438400268555e+00,1.083444833755493164e+00,1.083385348320007324e+00,1.083325743675231934e+00,1.083266258239746094e+00,1.083206653594970703e+00,1.083147048950195312e+00,1.083087563514709473e+00,1.083028078079223633e+00,1.082968592643737793e+00,1.082908987998962402e+00,1.082849502563476562e+00,1.082790017127990723e+00,1.082730531692504883e+00,1.082671046257019043e+00,1.082611441612243652e+00,1.082552075386047363e+00,1.082492589950561523e+00,1.082433104515075684e+00,1.082373738288879395e+00
1.020992875099182129e+00,1.020939946174621582e+00,1.020887136459350586e+00,1.020834207534790039e+00,1.020781278610229492e+00,1.020728468894958496e+00,1.020675539970397949e+00,1.020622730255126953e+00,1.020569801330566406e+00,1.020516991615295410e+00,1.020464181900024414e+00,1.020411252975463867e+00,1.020358443260192871e+00,1.020305633544921875e+00,1.020252823829650879e+00,1.020200014114379883e+00,1.020147204399108887e+00,1.020094275474548340e+00,1.020041584968566895e+00,1.019988775253295898e+00,1.019935965538024902e+00,1.019883155822753906e+00,1.019830346107482910e+00,1.019777655601501465e+00,1.019724845886230469e+00,1.019672036170959473e+00,1.019619345664978027e+00,1.019566535949707031e+00,1.019513845443725586e+00,1.019461035728454590e+00,1.019408345222473145e+00,1.019355535507202148e+00,1.019302845001220703e+00,1.019250154495239258e+00,1.019197344779968262e+00,1.019144654273986816e+00,1.019091963768005371e+00,1.019039273262023926e+00,1.018986582756042480e+00,1.018933892250061035e+00,1.018881201744079590e+00,1.018828511238098145e+00,1.018775820732116699e+00,1.018723130226135254e+00,1.018670558929443359e+00,1.018617868423461914e+00,1.018565177917480469e+00,1.018512606620788574e+00,1.018459916114807129e+00,1.018407344818115234e+00,1.018354654312133789e+00,1.018302083015441895e+00,1.018249392509460449e+00,1.018196821212768555e+00,1.018144249916076660e+00,1.018091559410095215e+00,1.018038988113403320e+00,1.017986416816711426e+00,1.017933845520019531e+00,1.017881274223327637e+00,1.017828583717346191e+00,1.017776131629943848e+00,1.017723441123962402e+00,1.017670989036560059e+00,1.017618417739868164e+00,1.017565846443176270e+00,1.017513275146484375e+00,1.017460703849792480e+00,1.017408251762390137e+00,1.017355680465698242e+00,1.017303228378295898e+00,1.017250657081604004e+00,1.017198085784912109e+00,1.017145633697509766e+00,1.017093062400817871e+00,1.017040610313415527e+00,1.016988158226013184e+00,1.016935706138610840e+00,1.016883254051208496e+00,1.016830682754516602e+00
9.624720811843872070e-01,9.624250531196594238e-01,9.623779654502868652e-01,9.623310565948486328e-01,9.622840285301208496e-01,9.622370004653930664e-01,9.621900916099548340e-01,9.621430635452270508e-01,9.620960950851440430e-01,9.620490670204162598e-01,9.620021581649780273e-01,9.619551897048950195e-01,9.619082212448120117e-01,9.618613123893737793e-01,9.618143439292907715e-01,9.617673754692077637e-01,9.617204070091247559e-01,9.616735577583312988e-01,9.616265892982482910e-01,9.615796208381652832e-01,9.615327715873718262e-01,9.614858627319335938e-01,9.614388942718505859e-01,9.613919258117675781e-01,9.613451361656188965e-01,9.612981677055358887e-01,9.612512588500976562e-01,9.612044692039489746e-01,9.611575603485107422e-01,9.611106514930725098e-01,9.610637426376342773e-01,9.610169529914855957e-01,9.609700441360473633e-01,9.609231352806091309e-01,9.608763456344604492e-01,9.608294963836669922e-01,9.607825875282287598e-01,9.607358574867248535e-01,9.606889486312866211e-01,9.606420993804931641e-01,9.605952501296997070e-01,9.605484604835510254e-01,9.605016112327575684e-01,9.604547619819641113e-01,9.604080319404602051e-01,9.603611826896667480e-01,9.603143930435180664e-01,9.602675437927246094e-01,9.602208137512207031e-01,9.601740241050720215e-01,9.601271748542785645e-01,9.600805044174194336e-01,9.600336551666259766e-01,9.599868655204772949e-01,9.599400758743286133e-01,9.598934054374694824e-01,9.598466157913208008e-01,9.597998261451721191e-01,9.597531557083129883e-01,9.597063660621643066e-01,9.596595764160156250e-01,9.596128463745117188e-01,9.595661759376525879e-01,9.595194458961486816e-01,9.594726562500000000e-01,9.594260454177856445e-01,9.593793153762817383e-01,9.593325257301330566e-01,9.592857956886291504e-01,9.592391848564147949e-01,9.591924548149108887e-01,9.591457247734069824e-01,9.590991139411926270e-01,9.590524435043334961e-01,9.590057134628295898e-01,9.589591026306152344e-01,9.589124321937561035e-01,9.588657021522521973e-01,9.588190317153930664e-01,9.587724804878234863e-01
