5.000000000000000000e+00,5.000000000000000000e+00,5.000000000000000000e+00,5.000000000000000000e+00,5.000000000000000000e+00,5.000000000000000000e+00,5.000000000000000000e+00,5.000000000000000000e+00,5.000000000000000000e+00,5.000000000000000000e+00,5.000000000000000000e+00,5.000000000000000000e+00,5.000000000000000000e+00,5.000000000000000000e+00,5.000000000000000000e+00,5.000000000000000000e+00,5.000000000000000000e+00,5.000000000000000000e+00,5.000000000000000000e+00,5.000000000000000000e+00,5.000000000000000000e+00,5.000000000000000000e+00,5.000000000000000000e+00,5.000000000000000000e+00,5.000000000000000000e+00,5.000000000000000000e+00,5.000000000000000000e+00,5.000000000000000000e+00,5.000000000000000000e+00,5.000000000000000000e+00,5.000000000000000000e+00,5.000000000000000000e+00,5.000000000000000000e+00,1.863683223724365234e+00,1.837202906608581543e+00,1.829651832580566406e+00,1.769968032836914062e+00,1.734762191772460938e+00,1.722224593162536621e+00,1.720173358917236328e+00,1.726815462112426758e+00,1.736367940902709961e+00,1.740067362785339355e+00,1.757450938224792480e+00,1.844753742218017578e+00,3.905490159988403320e+00,1.870905518531799316e+00,1.861118674278259277e+00,1.873684048652648926e+00,3.452008962631225586e+00,3.354629278182983398e+00,3.262593030929565430e+00,3.175472021102905273e+00,3.092882871627807617e+00,3.014480590820312500e+00,2.939955234527587891e+00,2.869025707244873047e+00,2.801438093185424805e+00,2.736961603164672852e+00,2.675386190414428711e+00,2.616520881652832031e+00,2.560189723968505859e+00,2.506232976913452148e+00,2.454503536224365234e+00,2.404866456985473633e+00,2.357197284698486328e+00,2.311381101608276367e+00,2.267311811447143555e+00,2.224891901016235352e+00,2.184029817581176758e+00,2.144641876220703125e+00,2.106649160385131836e+00,2.069979190826416016e+00,2.034564256668090820e+00,2.000340461730957031e+00,1.967249155044555664e+00,1.935234785079956055e+00,1.904245734214782715e+00,1.874233484268188477e+00,1.845152497291564941e+00
5.000000000000000000e+00,5.000000000000000000e+00,5.000000000000000000e+00,5.000000000000000000e+00,5.000000000000000000e+00,5.000000000000000000e+00,5.000000000000000000e+00,5.000000000000000000e+00,5.000000000000000000e+00,5.000000000000000000e+00,5.000000000000000000e+00,5.000000000000000000e+00,5.000000000000000000e+00,5.000000000000000000e+00,5.000000000000000000e+00,5.000000000000000000e+00,5.000000000000000000e+00,5.000000000000000000e+00,5.000000000000000000e+00,5.000000000000000000e+00,5.000000000000000000e+00,5.000000000000000000e+00,5.000000000000000000e+00,5.000000000000000000e+00,5.000000000000000000e+00,5.000000000000000000e+00,5.000000000000000000e+00,5.000000000000000000e+00,5.000000000000000000e+00,5.000000000000000000e+00,5.000000000000000000e+00,5.000000000000000000e+00,5.000000000000000000e+00,5.000000000000000000e+00,1.845120310783386230e+00,1.840248703956604004e+00,1.765141248703002930e+00,1.733007431030273438e+00,1.718586206436157227e+00,1.718061089515686035e+00,1.721224188804626465e+00,1.729252219200134277e+00,1.736541271209716797e+00,1.750052928924560547e+00,1.803319692611694336e+00,3.905579090118408203e+00,1.880811810493469238e+00,1.868563175201416016e+00,1.860291361808776855e+00,3.452078580856323242e+00,3.354695081710815430e+00,3.262655258178710938e+00,3.175530910491943359e+00,3.092938661575317383e+00,3.014533758163452148e+00,2.940005779266357422e+00,2.869073867797851562e+00,2.801483869552612305e+00,2.737005233764648438e+00,2.675428152084350586e+00,2.616560459136962891e+00,2.560227870941162109e+00,2.506269454956054688e+00,2.454538583755493164e+00,2.404900074005126953e+00,2.357229709625244141e+00,2.311412096023559570e+00,2.267341852188110352e+00,2.224920749664306641e+00,2.184057712554931641e+00,2.144668579101562500e+00,2.106675148010253906e+00,2.070004224777221680e+00,2.034588336944580078e+00,2.000363826751708984e+00,1.967271804809570312e+00,1.935256719589233398e+00,1.904266953468322754e+00,1.874253988265991211e+00,1.845172405242919922e+00
5.000000000000000000e+00,5.000000000000000000e+00,5.000000000000000000e+00,5.000000000000000000e+00,5.000000000000000000e+00,5.000000000000000000e+00,5.000000000000000000e+00,5.000000000000000000e+00,5.000000000000000000e+00,5.000000000000000000e+00,5.000000000000000000e+00,5.000000000000000000e+00,5.000000000000000000e+00,5.000000000000000000e+00,5.000000000000000000e+00,5.000000000000000000e+00,5.000000000000000000e+00,5.000000000000000000e+00,5.000000000000000000e+00,5.000000000000000000e+00,5.000000000000000000e+00,5.000000000000000000e+00,5.000000000000000000e+00,5.000000000000000000e+00,5.000000000000000000e+00,5.000000000000000000e+00,5.000000000000000000e+00,5.000000000000000000e+00,5.000000000000000000e+00,5.000000000000000000e+00,5.000000000000000000e+00,5.000000000000000000e+00,5.000000000000000000e+00,5.000000000000000000e+00,1.853106379508972168e+00,1.818001151084899902e+00,1.767121791839599609e+00,1.747231721878051758e+00,1.737928748130798340e+00,1.731131553649902344e+00,1.729866623878479004e+00,1.733511328697204590e+00,1.747948408126831055e+00,1.771548867225646973e+00,1.798855304718017578e+00,3.905668258666992188e+00,1.877566218376159668e+00,1.844026565551757812e+00,1.833669900894165039e+00,1.860980868339538574e+00,3.354760885238647461e+00,3.262717485427856445e+00,3.175589799880981445e+00,3.092994689941406250e+00,3.014586925506591797e+00,2.940056324005126953e+00,2.869121789932250977e+00,2.801529884338378906e+00,2.737049102783203125e+00,2.675469875335693359e+00,2.616600513458251953e+00,2.560266017913818359e+00,2.506306171417236328e+00,2.454573869705200195e+00,2.404933929443359375e+00,2.357262134552001953e+00,2.311443328857421875e+00,2.267371892929077148e+00,2.224949598312377930e+00,2.184085369110107422e+00,2.144695281982421875e+00,2.106700897216796875e+00,2.070029020309448242e+00,2.034612417221069336e+00,2.000387191772460938e+00,1.967294216156005859e+00,1.935278296470642090e+00,1.904288053512573242e+00,1.874274492263793945e+00,1.845192313194274902e+00
5.000000000000000000e+00,5.000000000000000000e+00,5.000000000000000000e+00,5.000000000000000000e+00,5.000000000000000000e+00,5.000000000000000000e+00,5.000000000000000000e+00,5.000000000000000000e+00,5.000000000000000000e+00,5.000000000000000000e+00,5.000000000000000000e+00,5.000000000000000000e+00,5.000000000000000000e+00,5.000000000000000000e+00,5.000000000000000000e+00,5.000000000000000000e+00,5.000000000000000000e+00,5.000000000000000000e+00,5.000000000000000000e+00,5.000000000000000000e+00,5.000000000000000000e+00,5.000000000000000000e+00,5.000000000000000000e+00,5.000000000000000000e+00,5.000000000000000000e+00,5.000000000000000000e+00,5.000000000000000000e+00,5.000000000000000000e+00,5.000000000000000000e+00,5.000000000000000000e+00,5.000000000000000000e+00,5.000000000000000000e+00,5.000000000000000000e+00,5.000000000000000000e+00,1.856691598892211914e+00,1.820106863975524902e+00,1.770762443542480469e+00,1.752133369445800781e+00,1.738352417945861816e+00,1.734937429428100586e+00,1.733998537063598633e+00,1.733638644218444824e+00,1.749377131462097168e+00,1.763525843620300293e+00,1.801156640052795410e+00,3.905756950378417969e+00,1.884780287742614746e+00,1.835512280464172363e+00,1.812583446502685547e+00,1.811292648315429688e+00,3.354826211929321289e+00,3.262779235839843750e+00,3.175648450851440430e+00,3.093050241470336914e+00,3.014639854431152344e+00,2.940106630325317383e+00,2.869169950485229492e+00,2.801575660705566406e+00,2.737092733383178711e+00,2.675511837005615234e+00,2.616640567779541016e+00,2.560304403305053711e+00,2.506342887878417969e+00,2.454609155654907227e+00,2.404967784881591797e+00,2.357294559478759766e+00,2.311474561691284180e+00,2.267401933670043945e+00,2.224978446960449219e+00,2.184113264083862305e+00,2.144722223281860352e+00,2.106726884841918945e+00,2.070054054260253906e+00,2.034636497497558594e+00,2.000410556793212891e+00,1.967316746711730957e+00,1.935300230979919434e+00,1.904309034347534180e+00,1.874294757843017578e+00,1.845211982727050781e+00
5.000000000000000000e+00,5.000000000000000000e+00,5.000000000000000000e+00,5.000000000000000000e+00,5.000000000000000000e+00,5.000000000000000000e+00,5.000000000000000000e+00,5.000000000000000000e+00,5.000000000000000000e+00,5.000000000000000000e+00,5.000000000000000000e+00,5.000000000000000000e+00,5.000000000000000000e+00,5.000000000000000000e+00,5.000000000000000000e+00,5.000000000000000000e+00,5.000000000000000000e+00,5.000000000000000000e+00,5.000000000000000000e+00,5.000000000000000000e+00,5.000000000000000000e+00,5.000000000000000000e+00,5.000000000000000000e+00,5.000000000000000000e+00,5.000000000000000000e+00,5.000000000000000000e+00,5.000000000000000000e+00,5.000000000000000000e+00,5.000000000000000000e+00,5.000000000000000000e+00,5.000000000000000000e+00,5.000000000000000000e+00,5.000000000000000000e+00,5.000000000000000000e+00,1.844526529312133789e+00,1.842295885086059570e+00,1.768962383270263672e+00,1.753963351249694824e+00,1.741795659065246582e+00,1.743492960929870605e+00,1.742570638656616211e+00,1.744594573974609375e+00,1.751346945762634277e+00,1.767045378684997559e+00,1.795539855957031250e+00,3.905846118927001953e+00,3.781638860702514648e+00,1.833089947700500488e+00,1.800390481948852539e+00,1.783452391624450684e+00,3.354892015457153320e+00,3.262841463088989258e+00,3.175707340240478516e+00,3.093106031417846680e+00,3.014692783355712891e+00,2.940156936645507812e+00,2.869217872619628906e+00,2.801621198654174805e+00,2.737136363983154297e+00,2.675553321838378906e+00,2.616680383682250977e+00,2.560342550277709961e+00,2.506379365921020508e+00,2.454644203186035156e+00,2.405001401901245117e+00,2.357326984405517578e+00,2.311505794525146484e+00,2.267431974411010742e+00,2.225007295608520508e+00,2.184141159057617188e+00,2.144749164581298828e+00,2.106752872467041016e+00,2.070079088211059570e+00,2.034660816192626953e+00,2.000433921813964844e+00,1.967339396476745605e+00,1.935322046279907227e+00,1.904330253601074219e+00,1.874315381050109863e+00,1.845231890678405762e+00
5.000000000000000000e+00,5.000000000000000000e+00,5.000000000000000000e+00,5.000000000000000000e+00,5.000000000000000000e+00,5.000000000000000000e+00,5.000000000000000000e+00,5.000000000000000000e+00,5.000000000000000000e+00,5.000000000000000000e+00,5.000000000000000000e+00,5.000000000000000000e+00,5.000000000000000000e+00,5.000000000000000000e+00,5.000000000000000000e+00,5.000000000000000000e+00,5.000000000000000000e+00,5.000000000000000000e+00,5.000000000000000000e+00,5.000000000000000000e+00,5.000000000000000000e+00,5.000000000000000000e+00,5.000000000000000000e+00,5.000000000000000000e+00,5.000000000000000000e+00,5.000000000000000000e+00,5.000000000000000000e+00,5.000000000000000000e+00,5.000000000000000000e+00,5.000000000000000000e+00,5.000000000000000000e+00,5.000000000000000000e+00,5.000000000000000000e+00,5.000000000000000000e+00,1.835810065269470215e+00,1.834667086601257324e+00,1.729708671569824219e+00,1.712322592735290527e+00,1.699229001998901367e+00,1.744402050971984863e+00,1.758340716361999512e+00,1.754647135734558105e+00,1.769590139389038086e+00,1.776537656784057617e+00,1.794343709945678711e+00,3.905935049057006836e+00,3.781722307205200195e+00,3.665166139602661133e+00,1.795107483863830566e+00,1.763709187507629395e+00,1.771142840385437012e+00,3.262903690338134766e+00,3.175766229629516602e+00,3.093161821365356445e+00,3.014745950698852539e+00,2.940207481384277344e+00,2.869265794754028320e+00,2.801667213439941406e+00,2.737180233001708984e+00,2.675595045089721680e+00,2.616720438003540039e+00,2.560380697250366211e+00,2.506416082382202148e+00,2.454679250717163086e+00,2.405035018920898438e+00,2.357359409332275391e+00,2.311536788940429688e+00,2.267461776733398438e+00,2.225036144256591797e+00,2.184169054031372070e+00,2.144775867462158203e+00,2.106778621673583984e+00,2.070104122161865234e+00,2.034684896469116211e+00,2.000457286834716797e+00,1.967361927032470703e+00,1.935343980789184570e+00,1.904351472854614258e+00,1.874335885047912598e+00,1.845251798629760742e+00
5.000000000000000000e+00,5.000000000000000000e+00,5.000000000000000000e+00,5.000000000000000000e+00,5.000000000000000000e+00,5.000000000000000000e+00,5.000000000000000000e+00,5.000000000000000000e+00,5.000000000000000000e+00,5.000000000000000000e+00,5.000000000000000000e+00,5.000000000000000000e+00,5.000000000000000000e+00,5.000000000000000000e+00,5.000000000000000000e+00,5.000000000000000000e+00,5.000000000000000000e+00,5.000000000000000000e+00,5.000000000000000000e+00,5.000000000000000000e+00,5.000000000000000000e+00,5.000000000000000000e+00,5.000000000000000000e+00,5.000000000000000000e+00,5.000000000000000000e+00,5.000000000000000000e+00,5.000000000000000000e+00,5.000000000000000000e+00,5.000000000000000000e+00,5.000000000000000000e+00,5.000000000000000000e+00,5.000000000000000000e+00,5.000000000000000000e+00,5.000000000000000000e+00,1.828844666481018066e+00,1.829434990882873535e+00,1.698350429534912109e+00,1.684101462364196777e+00,1.670237064361572266e+00,1.681021928787231445e+00,1.735225796699523926e+00,1.775771975517272949e+00,1.785881400108337402e+00,1.778092026710510254e+00,1.794165849685668945e+00,3.906023740768432617e+00,3.781805515289306641e+00,3.665244340896606445e+00,1.825134277343750000e+00,1.782658696174621582e+00,1.750137329101562500e+00,3.262965917587280273e+00,3.175825119018554688e+00,3.093217849731445312e+00,3.014798879623413086e+00,2.940258026123046875e+00,2.869313955307006836e+00,2.801712989807128906e+00,2.737223863601684570e+00,2.675637006759643555e+00,2.616760253906250000e+00,2.560419082641601562e+00,2.506452798843383789e+00,2.454714536666870117e+00,2.405068874359130859e+00,2.357391834259033203e+00,2.311568021774291992e+00,2.267491817474365234e+00,2.225064992904663086e+00,2.184196710586547852e+00,2.144802808761596680e+00,2.106804609298706055e+00,2.070129156112670898e+00,2.034708976745605469e+00,2.000480413436889648e+00,1.967384576797485352e+00,1.935365796089172363e+00,1.904372572898864746e+00,1.874356389045715332e+00,1.845271706581115723e+00
5.000000000000000000e+00,5.000000000000000000e+00,5.000000000000000000e+00,5.000000000000000000e+00,5.000000000000000000e+00,5.000000000000000000e+00,5.000000000000000000e+00,5.000000000000000000e+00,5.000000000000000000e+00,5.000000000000000000e+00,5.000000000000000000e+00,5.000000000000000000e+00,5.000000000000000000e+00,5.000000000000000000e+00,5.000000000000000000e+00,5.000000000000000000e+00,5.000000000000000000e+00,5.000000000000000000e+00,5.000000000000000000e+00,5.000000000000000000e+00,5.000000000000000000e+00,5.000000000000000000e+00,5.000000000000000000e+00,5.000000000000000000e+00,5.000000000000000000e+00,5.000000000000000000e+00,5.000000000000000000e+00,5.000000000000000000e+00,5.000000000000000000e+00,5.000000000000000000e+00,5.000000000000000000e+00,5.000000000000000000e+00,5.000000000000000000e+00,5.000000000000000000e+00,1.817461133003234863e+00,1.823100924491882324e+00,1.681701302528381348e+00,1.668349385261535645e+00,1.655207991600036621e+00,1.661047339439392090e+00,1.690177559852600098e+00,1.795687913894653320e+00,1.783566355705261230e+00,1.776439428329467773e+00,1.793347239494323730e+00,3.906112909317016602e+00,3.781888961791992188e+00,3.665322780609130859e+00,3.555727481842041016e+00,1.711874008178710938e+00,1.718095183372497559e+00,3.263027667999267578e+00,3.175883769989013672e+00,3.093273401260375977e+00,3.014851808547973633e+00,2.940308094024658203e+00,2.869361877441406250e+00,2.801758766174316406e+00,2.737267732620239258e+00,2.675678730010986328e+00,2.616800308227539062e+00,2.560457229614257812e+00,2.506489515304565430e+00,2.454749584197998047e+00,2.405102729797363281e+00,2.357424259185791016e+00,2.311599254608154297e+00,2.267521858215332031e+00,2.225093841552734375e+00,2.184224605560302734e+00,2.144829511642456055e+00,2.106830358505249023e+00,2.070154190063476562e+00,2.034733057022094727e+00,2.000503778457641602e+00,1.967407226562500000e+00,1.935387730598449707e+00,1.904393792152404785e+00,1.874376893043518066e+00,1.845291614532470703e+00
5.000000000000000000e+00,5.000000000000000000e+00,5.000000000000000000e+00,5.000000000000000000e+00,5.000000000000000000e+00,5.000000000000000000e+00,5.000000000000000000e+00,5.000000000000000000e+00,5.000000000000000000e+00,5.000000000000000000e+00,5.000000000000000000e+00,5.000000000000000000e+00,5.000000000000000000e+00,5.000000000000000000e+00,5.000000000000000000e+00,5.000000000000000000e+00,5.000000000000000000e+00,5.000000000000000000e+00,5.000000000000000000e+00,5.000000000000000000e+00,5.000000000000000000e+00,5.000000000000000000e+00,5.000000000000000000e+00,5.000000000000000000e+00,5.000000000000000000e+00,5.000000000000000000e+00,5.000000000000000000e+00,5.000000000000000000e+00,5.000000000000000000e+00,5.000000000000000000e+00,5.000000000000000000e+00,5.000000000000000000e+00,5.000000000000000000e+00,5.000000000000000000e+00,1.808658719062805176e+00,1.818177580833435059e+00,1.669394731521606445e+00,1.655141472816467285e+00,1.642206549644470215e+00,1.646556138992309570e+00,1.673460483551025391e+00,1.787934660911560059e+00,1.779714107513427734e+00,1.772236347198486328e+00,1.790026187896728516e+00,1.816451787948608398e+00,3.781972646713256836e+00,3.665401220321655273e+00,3.555801153182983398e+00,3.452565193176269531e+00,1.688781142234802246e+00,1.678917407989501953e+00,3.175942659378051758e+00,3.093329429626464844e+00,3.014904737472534180e+00,2.940358638763427734e+00,2.869410037994384766e+00,2.801804542541503906e+00,2.737311124801635742e+00,2.675720453262329102e+00,2.616840124130249023e+00,2.560495376586914062e+00,2.506525993347167969e+00,2.454784631729125977e+00,2.405136346817016602e+00,2.357456684112548828e+00,2.311630487442016602e+00,2.267551898956298828e+00,2.225122928619384766e+00,2.184252500534057617e+00,2.144856452941894531e+00,2.106856346130371094e+00,2.070179224014282227e+00,2.034757375717163086e+00,2.000527143478393555e+00,1.967429757118225098e+00,1.935409545898437500e+00,1.904415011405944824e+00,1.874397397041320801e+00,1.845311403274536133e+00
5.000000000000000000e+00,5.000000000000000000e+00,5.000000000000000000e+00,4.666916370391845703e+00,4.739418983459472656e+00,5.000000000000000000e+00,5.000000000000000000e+00,5.000000000000000000e+00,5.000000000000000000e+00,5.000000000000000000e+00,5.000000000000000000e+00,5.000000000000000000e+00,5.000000000000000000e+00,5.000000000000000000e+00,5.000000000000000000e+00,5.000000000000000000e+00,5.000000000000000000e+00,5.000000000000000000e+00,5.000000000000000000e+00,5.000000000000000000e+00,5.000000000000000000e+00,5.000000000000000000e+00,5.000000000000000000e+00,5.000000000000000000e+00,5.000000000000000000e+00,5.000000000000000000e+00,5.000000000000000000e+00,5.000000000000000000e+00,5.000000000000000000e+00,5.000000000000000000e+00,5.000000000000000000e+00,5.000000000000000000e+00,5.000000000000000000e+00,5.000000000000000000e+00,1.815655231475830078e+00,1.819485545158386230e+00,1.659920096397399902e+00,1.643271565437316895e+00,1.629407644271850586e+00,1.632315516471862793e+00,1.656837463378906250e+00,1.785820126533508301e+00,1.778610348701477051e+00,1.771458625793457031e+00,1.792503237724304199e+00,1.822201251983642578e+00,3.782056093215942383e+00,3.665479660034179688e+00,3.555875062942504883e+00,3.452634811401367188e+00,3.355220317840576172e+00,1.759943842887878418e+00,3.176001787185668945e+00,3.093385219573974609e+00,3.014957904815673828e+00,2.940409183502197266e+00,2.869457960128784180e+00,2.801850318908691406e+00,2.737354993820190430e+00,2.675762176513671875e+00,2.616880178451538086e+00,2.560533761978149414e+00,2.506562709808349609e+00,2.454819917678833008e+00,2.405170202255249023e+00,2.357489109039306641e+00,2.311661481857299805e+00,2.267581701278686523e+00,2.225151538848876953e+00,2.184280157089233398e+00,2.144883155822753906e+00,2.106882095336914062e+00,2.070204019546508789e+00,2.034781455993652344e+00,2.000550508499145508e+00,1.967452406883239746e+00,1.935431480407714844e+00,1.904436230659484863e+00,1.874417901039123535e+00,1.845331311225891113e+00
5.000000000000000000e+00,5.000000000000000000e+00,5.000000000000000000e+00,4.674687385559082031e+00,4.736336708068847656e+00,5.000000000000000000e+00,5.000000000000000000e+00,5.000000000000000000e+00,5.000000000000000000e+00,5.000000000000000000e+00,5.000000000000000000e+00,5.000000000000000000e+00,5.000000000000000000e+00,5.000000000000000000e+00,5.000000000000000000e+00,5.000000000000000000e+00,5.000000000000000000e+00,5.000000000000000000e+00,5.000000000000000000e+00,5.000000000000000000e+00,5.000000000000000000e+00,5.000000000000000000e+00,5.000000000000000000e+00,5.000000000000000000e+00,5.000000000000000000e+00,5.000000000000000000e+00,5.000000000000000000e+00,5.000000000000000000e+00,5.000000000000000000e+00,5.000000000000000000e+00,5.000000000000000000e+00,5.000000000000000000e+00,5.000000000000000000e+00,5.000000000000000000e+00,1.805031061172485352e+00,1.804717540740966797e+00,1.668589234352111816e+00,1.632097125053405762e+00,1.617953300476074219e+00,1.617029070854187012e+00,1.640040040016174316e+00,1.790042519569396973e+00,1.781761765480041504e+00,1.773573160171508789e+00,1.798405528068542480e+00,1.828714966773986816e+00,3.782139301300048828e+00,3.665557861328125000e+00,3.555948495864868164e+00,3.452704191207885742e+00,3.355285882949829102e+00,3.263214349746704102e+00,1.675296902656555176e+00,3.093441009521484375e+00,3.015011072158813477e+00,2.940459728240966797e+00,2.869506120681762695e+00,2.801896095275878906e+00,2.737398624420166016e+00,2.675804138183593750e+00,2.616920232772827148e+00,2.560571908950805664e+00,2.506599426269531250e+00,2.454854965209960938e+00,2.405203819274902344e+00,2.357521533966064453e+00,2.311692714691162109e+00,2.267611742019653320e+00,2.225180625915527344e+00,2.184308052062988281e+00,2.144910097122192383e+00,2.106908082962036133e+00,2.070229053497314453e+00,2.034805536270141602e+00,2.000573873519897461e+00,1.967474818229675293e+00,1.935453176498413086e+00,1.904457092285156250e+00,1.874438285827636719e+00,1.845351099967956543e+00
5.000000000000000000e+00,5.000000000000000000e+00,5.000000000000000000e+00,4.751062870025634766e+00,4.802705287933349609e+00,5.000000000000000000e+00,5.000000000000000000e+00,5.000000000000000000e+00,5.000000000000000000e+00,5.000000000000000000e+00,5.000000000000000000e+00,5.000000000000000000e+00,5.000000000000000000e+00,5.000000000000000000e+00,5.000000000000000000e+00,5.000000000000000000e+00,5.000000000000000000e+00,5.000000000000000000e+00,5.000000000000000000e+00,5.000000000000000000e+00,5.000000000000000000e+00,5.000000000000000000e+00,5.000000000000000000e+00,5.000000000000000000e+00,5.000000000000000000e+00,5.000000000000000000e+00,5.000000000000000000e+00,5.000000000000000000e+00,5.000000000000000000e+00,5.000000000000000000e+00,5.000000000000000000e+00,5.000000000000000000e+00,5.000000000000000000e+00,5.000000000000000000e+00,1.783451557159423828e+00,1.778894424438476562e+00,1.677349328994750977e+00,1.617398619651794434e+00,1.602373003959655762e+00,1.601428389549255371e+00,1.623800754547119141e+00,1.794875621795654297e+00,1.787526607513427734e+00,1.779681205749511719e+00,1.807331919670104980e+00,3.906469106674194336e+00,3.782222747802734375e+00,3.665636301040649414e+00,3.556022405624389648e+00,3.452773809432983398e+00,3.355351686477661133e+00,3.263276100158691406e+00,3.176119327545166016e+00,3.093496799468994141e+00,3.015063762664794922e+00,2.940510034561157227e+00,2.869554042816162109e+00,2.801941871643066406e+00,2.737442255020141602e+00,2.675845861434936523e+00,2.616960048675537109e+00,2.560610294342041016e+00,2.506636142730712891e+00,2.454890251159667969e+00,2.405237674713134766e+00,2.357553958892822266e+00,2.311723947525024414e+00,2.267641782760620117e+00,2.225209474563598633e+00,2.184335947036743164e+00,2.144936800003051758e+00,2.106934070587158203e+00,2.070254087448120117e+00,2.034829854965209961e+00,2.000597238540649414e+00,1.967497348785400391e+00,1.935474991798400879e+00,1.904478311538696289e+00,1.874458789825439453e+00,1.845370888710021973e+00
4.624287128448486328e+00,4.654729843139648438e+00,4.665760517120361328e+00,4.696078777313232422e+00,4.735679626464843750e+00,4.782417297363281250e+00,4.830492496490478516e+00,5.000000000000000000e+00,5.000000000000000000e+00,5.000000000000000000e+00,5.000000000000000000e+00,5.000000000000000000e+00,5.000000000000000000e+00,5.000000000000000000e+00,5.000000000000000000e+00,5.000000000000000000e+00,5.000000000000000000e+00,5.000000000000000000e+00,5.000000000000000000e+00,5.000000000000000000e+00,5.000000000000000000e+00,5.000000000000000000e+00,5.000000000000000000e+00,5.000000000000000000e+00,5.000000000000000000e+00,5.000000000000000000e+00,5.000000000000000000e+00,5.000000000000000000e+00,5.000000000000000000e+00,5.000000000000000000e+00,5.000000000000000000e+00,5.000000000000000000e+00,5.000000000000000000e+00,5.000000000000000000e+00,1.773253560066223145e+00,1.769778132438659668e+00,1.694379091262817383e+00,1.606802701950073242e+00,1.586883187294006348e+00,1.586151838302612305e+00,1.606710076332092285e+00,1.799757003784179688e+00,1.793925881385803223e+00,1.786443233489990234e+00,1.816347479820251465e+00,3.906558036804199219e+00,3.782306432723999023e+00,3.665714740753173828e+00,3.556096315383911133e+00,3.452843427658081055e+00,3.355417251586914062e+00,3.263338327407836914e+00,3.176178216934204102e+00,3.093552589416503906e+00,3.015116930007934570e+00,2.940560340881347656e+00,2.869602203369140625e+00,2.801987648010253906e+00,2.737486124038696289e+00,2.675887346267700195e+00,2.616999864578247070e+00,2.560648441314697266e+00,2.506672620773315430e+00,2.454925298690795898e+00,2.405271291732788086e+00,2.357586145401000977e+00,2.311754941940307617e+00,2.267671585083007812e+00,2.225238323211669922e+00,2.184363842010498047e+00,2.144963741302490234e+00,2.106960058212280273e+00,2.070279121398925781e+00,2.034853935241699219e+00,2.000620603561401367e+00,1.967519998550415039e+00,1.935496926307678223e+00,1.904499530792236328e+00,1.874479293823242188e+00,1.845390796661376953e+00
4.647247314453125000e+00,4.646176338195800781e+00,4.635722160339355469e+00,4.662351131439208984e+00,4.698579788208007812e+00,4.757847785949707031e+00,4.848927021026611328e+00,4.918337821960449219e+00,5.000000000000000000e+00,5.000000000000000000e+00,5.000000000000000000e+00,5.000000000000000000e+00,5.000000000000000000e+00,5.000000000000000000e+00,5.000000000000000000e+00,5.000000000000000000e+00,5.000000000000000000e+00,5.000000000000000000e+00,5.000000000000000000e+00,5.000000000000000000e+00,5.000000000000000000e+00,5.000000000000000000e+00,5.000000000000000000e+00,5.000000000000000000e+00,5.000000000000000000e+00,5.000000000000000000e+00,5.000000000000000000e+00,5.000000000000000000e+00,5.000000000000000000e+00,5.000000000000000000e+00,5.000000000000000000e+00,5.000000000000000000e+00,5.000000000000000000e+00,5.000000000000000000e+00,1.759338021278381348e+00,5.000000000000000000e+00,5.000000000000000000e+00,1.599717140197753906e+00,1.573939442634582520e+00,1.571111798286437988e+00,1.588001370429992676e+00,1.804664969444274902e+00,1.799570202827453613e+00,1.795250773429870605e+00,1.827865719795227051e+00,3.906647205352783203e+00,3.782389879226684570e+00,3.665793180465698242e+00,3.556170225143432617e+00,3.452913045883178711e+00,3.355483055114746094e+00,3.263400554656982422e+00,3.176237106323242188e+00,3.093608617782592773e+00,3.015170097351074219e+00,2.940610885620117188e+00,2.869650125503540039e+00,2.802033424377441406e+00,2.737529754638671875e+00,2.675929307937622070e+00,2.617039918899536133e+00,2.560686826705932617e+00,2.506709337234497070e+00,2.454960584640502930e+00,2.405305147171020508e+00,2.357618808746337891e+00,2.311786174774169922e+00,2.267701625823974609e+00,2.225267171859741211e+00,2.184391498565673828e+00,2.144990444183349609e+00,2.106985807418823242e+00,2.070304155349731445e+00,2.034878015518188477e+00,2.000643968582153320e+00,1.967542648315429688e+00,1.935518741607666016e+00,1.904520750045776367e+00,1.874499797821044922e+00,1.845410704612731934e+00
5.000000000000000000e+00,4.683938026428222656e+00,4.642846107482910156e+00,4.654634475708007812e+00,4.698126792907714844e+00,4.771734714508056641e+00,4.838616847991943359e+00,4.894495487213134766e+00,5.000000000000000000e+00,5.000000000000000000e+00,5.000000000000000000e+00,5.000000000000000000e+00,5.000000000000000000e+00,5.000000000000000000e+00,5.000000000000000000e+00,5.000000000000000000e+00,5.000000000000000000e+00,5.000000000000000000e+00,5.000000000000000000e+00,5.000000000000000000e+00,5.000000000000000000e+00,5.000000000000000000e+00,5.000000000000000000e+00,5.000000000000000000e+00,5.000000000000000000e+00,5.000000000000000000e+00,5.000000000000000000e+00,5.000000000000000000e+00,5.000000000000000000e+00,5.000000000000000000e+00,5.000000000000000000e+00,5.000000000000000000e+00,5.000000000000000000e+00,5.000000000000000000e+00,1.749601721763610840e+00,5.000000000000000000e+00,5.000000000000000000e+00,1.613564491271972656e+00,1.565479278564453125e+00,1.555877089500427246e+00,1.570896625518798828e+00,1.638931393623352051e+00,1.804477095603942871e+00,1.804592967033386230e+00,1.839590311050415039e+00,3.906735897064208984e+00,3.782473087310791016e+00,3.665871381759643555e+00,3.556243658065795898e+00,3.452982425689697266e+00,3.355548620223999023e+00,3.263462543487548828e+00,3.176295757293701172e+00,3.093664407730102539e+00,3.015223264694213867e+00,2.940661430358886719e+00,2.869698286056518555e+00,2.802079439163208008e+00,2.737573623657226562e+00,2.675971031188964844e+00,2.617079973220825195e+00,2.560724973678588867e+00,2.506746053695678711e+00,2.454995632171630859e+00,2.405339002609252930e+00,2.357651233673095703e+00,2.311817407608032227e+00,2.267731666564941406e+00,2.225296020507812500e+00,2.184419393539428711e+00,2.145017385482788086e+00,2.107011556625366211e+00,2.070329189300537109e+00,2.034902334213256836e+00,2.000667333602905273e+00,1.967565298080444336e+00,1.935540676116943359e+00,1.904541850090026855e+00,1.874520301818847656e+00,1.845430612564086914e+00
5.000000000000000000e+00,4.689013004302978516e+00,4.637336730957031250e+00,4.658182621002197266e+00,4.700466156005859375e+00,4.784133434295654297e+00,4.859687328338623047e+00,4.889202117919921875e+00,5.000000000000000000e+00,5.000000000000000000e+00,5.000000000000000000e+00,5.000000000000000000e+00,5.000000000000000000e+00,5.000000000000000000e+00,5.000000000000000000e+00,5.000000000000000000e+00,5.000000000000000000e+00,5.000000000000000000e+00,5.000000000000000000e+00,5.000000000000000000e+00,5.000000000000000000e+00,5.000000000000000000e+00,5.000000000000000000e+00,5.000000000000000000e+00,5.000000000000000000e+00,5.000000000000000000e+00,5.000000000000000000e+00,5.000000000000000000e+00,5.000000000000000000e+00,5.000000000000000000e+00,5.000000000000000000e+00,5.000000000000000000e+00,5.000000000000000000e+00,5.000000000000000000e+00,5.000000000000000000e+00,5.000000000000000000e+00,5.000000000000000000e+00,1.628089666366577148e+00,1.560114383697509766e+00,1.547998070716857910e+00,1.559815168380737305e+00,1.615442156791687012e+00,1.810398936271667480e+00,1.810967206954956055e+00,1.848058223724365234e+00,3.906825065612792969e+00,3.782556772232055664e+00,3.665949821472167969e+00,3.556317567825317383e+00,3.453052043914794922e+00,3.355614423751831055e+00,3.263524770736694336e+00,3.176354646682739258e+00,3.093719959259033203e+00,3.015275955200195312e+00,2.940711736679077148e+00,2.869746208190917969e+00,2.802124977111816406e+00,2.737617254257202148e+00,2.676012754440307617e+00,2.617119789123535156e+00,2.560763120651245117e+00,2.506782770156860352e+00,2.455030918121337891e+00,2.405372619628906250e+00,2.357683658599853516e+00,2.311848640441894531e+00,2.267761707305908203e+00,2.225325107574462891e+00,2.184447288513183594e+00,2.145044326782226562e+00,2.107037544250488281e+00,2.070354223251342773e+00,2.034926414489746094e+00,2.000690698623657227e+00,1.967587828636169434e+00,1.935562491416931152e+00,1.904563069343566895e+00,1.874540925025939941e+00,1.845450520515441895e+00
5.000000000000000000e+00,4.681098461151123047e+00,4.625100612640380859e+00,4.649235248565673828e+00,4.691336154937744141e+00,4.768374919891357422e+00,5.000000000000000000e+00,4.855657100677490234e+00,5.000000000000000000e+00,5.000000000000000000e+00,5.000000000000000000e+00,5.000000000000000000e+00,5.000000000000000000e+00,5.000000000000000000e+00,5.000000000000000000e+00,5.000000000000000000e+00,5.000000000000000000e+00,5.000000000000000000e+00,5.000000000000000000e+00,5.000000000000000000e+00,5.000000000000000000e+00,5.000000000000000000e+00,5.000000000000000000e+00,5.000000000000000000e+00,5.000000000000000000e+00,5.000000000000000000e+00,5.000000000000000000e+00,5.000000000000000000e+00,5.000000000000000000e+00,5.000000000000000000e+00,5.000000000000000000e+00,5.000000000000000000e+00,5.000000000000000000e+00,5.000000000000000000e+00,5.000000000000000000e+00,5.000000000000000000e+00,5.000000000000000000e+00,1.644807219505310059e+00,1.561419367790222168e+00,1.549081802368164062e+00,1.561491608619689941e+00,1.609038352966308594e+00,1.816464185714721680e+00,1.817036151885986328e+00,4.039631366729736328e+00,3.906914234161376953e+00,3.782640218734741211e+00,3.666028261184692383e+00,3.556391477584838867e+00,3.453121662139892578e+00,3.355679988861083984e+00,3.263586997985839844e+00,3.176413536071777344e+00,3.093775987625122070e+00,3.015329122543334961e+00,2.940762281417846680e+00,2.869794368743896484e+00,2.802170753479003906e+00,2.737660884857177734e+00,2.676054477691650391e+00,2.617159843444824219e+00,2.560801506042480469e+00,2.506819248199462891e+00,2.455065965652465820e+00,2.405406236648559570e+00,2.357715845108032227e+00,2.311879634857177734e+00,2.267791748046875000e+00,2.225353717803955078e+00,2.184475183486938477e+00,2.145071029663085938e+00,2.107063531875610352e+00,2.070379257202148438e+00,2.034950494766235352e+00,2.000714063644409180e+00,1.967610478401184082e+00,1.935584425926208496e+00,1.904584288597106934e+00,1.874561429023742676e+00,1.845470428466796875e+00
5.000000000000000000e+00,4.700856208801269531e+00,4.644164562225341797e+00,4.667414188385009766e+00,4.704003810882568359e+00,4.770312309265136719e+00,5.000000000000000000e+00,4.802997589111328125e+00,5.000000000000000000e+00,5.000000000000000000e+00,5.000000000000000000e+00,5.000000000000000000e+00,5.000000000000000000e+00,5.000000000000000000e+00,5.000000000000000000e+00,5.000000000000000000e+00,5.000000000000000000e+00,5.000000000000000000e+00,5.000000000000000000e+00,5.000000000000000000e+00,5.000000000000000000e+00,5.000000000000000000e+00,5.000000000000000000e+00,5.000000000000000000e+00,5.000000000000000000e+00,5.000000000000000000e+00,5.000000000000000000e+00,5.000000000000000000e+00,5.000000000000000000e+00,5.000000000000000000e+00,5.000000000000000000e+00,5.000000000000000000e+00,5.000000000000000000e+00,5.000000000000000000e+00,5.000000000000000000e+00,5.000000000000000000e+00,5.000000000000000000e+00,5.000000000000000000e+00,1.568792700767517090e+00,1.552008152008056641e+00,1.564465284347534180e+00,1.616427063941955566e+00,1.821203351020812988e+00,1.823146104812622070e+00,4.039726257324218750e+00,3.907002925872802734e+00,3.782723426818847656e+00,3.666106939315795898e+00,3.556465387344360352e+00,3.453191280364990234e+00,3.355745792388916016e+00,3.263649225234985352e+00,3.176472425460815430e+00,3.093831777572631836e+00,3.015382289886474609e+00,2.940812826156616211e+00,2.869842290878295898e+00,2.802216768264770508e+00,2.737704753875732422e+00,2.676096439361572266e+00,2.617199897766113281e+00,2.560839653015136719e+00,2.506855964660644531e+00,2.455101251602172852e+00,2.405440092086791992e+00,2.357748508453369141e+00,2.311910867691040039e+00,2.267821788787841797e+00,2.225382804870605469e+00,2.184502840042114258e+00,2.145097970962524414e+00,2.107089281082153320e+00,2.070404052734375000e+00,2.034974575042724609e+00,2.000737190246582031e+00,1.967632889747619629e+00,1.935606122016906738e+00,1.904605269432067871e+00,1.874581694602966309e+00,1.845490336418151855e+00
5.000000000000000000e+00,4.624403953552246094e+00,4.580243110656738281e+00,4.635221004486083984e+00,4.738215923309326172e+00,4.775959968566894531e+00,5.000000000000000000e+00,4.747173786163330078e+00,5.000000000000000000e+00,5.000000000000000000e+00,5.000000000000000000e+00,5.000000000000000000e+00,5.000000000000000000e+00,5.000000000000000000e+00,5.000000000000000000e+00,5.000000000000000000e+00,5.000000000000000000e+00,5.000000000000000000e+00,5.000000000000000000e+00,5.000000000000000000e+00,5.000000000000000000e+00,5.000000000000000000e+00,5.000000000000000000e+00,5.000000000000000000e+00,5.000000000000000000e+00,5.000000000000000000e+00,5.000000000000000000e+00,5.000000000000000000e+00,5.000000000000000000e+00,5.000000000000000000e+00,5.000000000000000000e+00,5.000000000000000000e+00,5.000000000000000000e+00,5.000000000000000000e+00,5.000000000000000000e+00,5.000000000000000000e+00,5.000000000000000000e+00,1.633200883865356445e+00,1.571494817733764648e+00,1.554945588111877441e+00,1.569596529006958008e+00,1.630149245262145996e+00,1.824977636337280273e+00,1.834090232849121094e+00,4.039821624755859375e+00,3.907092094421386719e+00,3.782806873321533203e+00,3.666184902191162109e+00,3.556538820266723633e+00,3.453260660171508789e+00,3.355811357498168945e+00,3.263710975646972656e+00,3.176531076431274414e+00,3.093887567520141602e+00,3.015434980392456055e+00,2.940863132476806641e+00,2.869890451431274414e+00,2.802262544631958008e+00,2.737748384475708008e+00,2.676138162612915039e+00,2.617239713668823242e+00,2.560878038406372070e+00,2.506892681121826172e+00,2.455136299133300781e+00,2.405473947525024414e+00,2.357780933380126953e+00,2.311942100524902344e+00,2.267851829528808594e+00,2.225411653518676758e+00,2.184530735015869141e+00,2.145124673843383789e+00,2.107115268707275391e+00,2.070429086685180664e+00,2.034998893737792969e+00,2.000760555267333984e+00,1.967655420303344727e+00,1.935627937316894531e+00,1.904626488685607910e+00,1.874602198600769043e+00,1.845510005950927734e+00
5.000000000000000000e+00,5.000000000000000000e+00,4.550831794738769531e+00,4.602805614471435547e+00,4.743453502655029297e+00,4.784801006317138672e+00,5.000000000000000000e+00,5.000000000000000000e+00,4.773097991943359375e+00,5.000000000000000000e+00,5.000000000000000000e+00,5.000000000000000000e+00,5.000000000000000000e+00,5.000000000000000000e+00,5.000000000000000000e+00,5.000000000000000000e+00,5.000000000000000000e+00,5.000000000000000000e+00,5.000000000000000000e+00,5.000000000000000000e+00,5.000000000000000000e+00,5.000000000000000000e+00,5.000000000000000000e+00,5.000000000000000000e+00,5.000000000000000000e+00,5.000000000000000000e+00,5.000000000000000000e+00,5.000000000000000000e+00,5.000000000000000000e+00,5.000000000000000000e+00,5.000000000000000000e+00,5.000000000000000000e+00,5.000000000000000000e+00,5.000000000000000000e+00,5.000000000000000000e+00,5.000000000000000000e+00,5.000000000000000000e+00,1.605960249900817871e+00,1.573077321052551270e+00,1.557894110679626465e+00,1.577414751052856445e+00,1.832801342010498047e+00,1.832551717758178711e+00,1.858080267906188965e+00,4.039916992187500000e+00,3.907181262969970703e+00,3.782890558242797852e+00,3.666263580322265625e+00,3.556612730026245117e+00,3.453330278396606445e+00,3.355877161026000977e+00,3.263773202896118164e+00,3.176590204238891602e+00,3.093943357467651367e+00,3.015488147735595703e+00,2.940913438796997070e+00,2.869938373565673828e+00,2.802308320999145508e+00,2.737792015075683594e+00,2.676179885864257812e+00,2.617279529571533203e+00,2.560916185379028320e+00,2.506929159164428711e+00,2.455171346664428711e+00,2.405507564544677734e+00,2.357813358306884766e+00,2.311973333358764648e+00,2.267881870269775391e+00,2.225440502166748047e+00,2.184558629989624023e+00,2.145151615142822266e+00,2.107141256332397461e+00,2.070454120635986328e+00,2.035022974014282227e+00,2.000783920288085938e+00,1.967678070068359375e+00,1.935649871826171875e+00,1.904647588729858398e+00,1.874622821807861328e+00,1.845529913902282715e+00
5.000000000000000000e+00,4.656007289886474609e+00,4.520401477813720703e+00,4.571097373962402344e+00,4.765168190002441406e+00,4.809309959411621094e+00,5.000000000000000000e+00,5.000000000000000000e+00,5.000000000000000000e+00,5.000000000000000000e+00,5.000000000000000000e+00,5.000000000000000000e+00,5.000000000000000000e+00,5.000000000000000000e+00,5.000000000000000000e+00,5.000000000000000000e+00,5.000000000000000000e+00,5.000000000000000000e+00,5.000000000000000000e+00,5.000000000000000000e+00,5.000000000000000000e+00,5.000000000000000000e+00,5.000000000000000000e+00,5.000000000000000000e+00,5.000000000000000000e+00,5.000000000000000000e+00,5.000000000000000000e+00,5.000000000000000000e+00,5.000000000000000000e+00,5.000000000000000000e+00,5.000000000000000000e+00,5.000000000000000000e+00,5.000000000000000000e+00,5.000000000000000000e+00,5.000000000000000000e+00,5.000000000000000000e+00,5.000000000000000000e+00,1.604696989059448242e+00,1.574663043022155762e+00,1.561758399009704590e+00,1.583827853202819824e+00,1.856539845466613770e+00,1.852946281433105469e+00,4.182090759277343750e+00,4.040011882781982422e+00,3.907270431518554688e+00,3.782974243164062500e+00,3.666342020034790039e+00,3.556686639785766602e+00,3.453399896621704102e+00,3.355942964553833008e+00,3.263835430145263672e+00,3.176649093627929688e+00,3.093999385833740234e+00,3.015541315078735352e+00,2.940963983535766602e+00,2.869986534118652344e+00,2.802354097366333008e+00,2.737835884094238281e+00,2.676221609115600586e+00,2.617319583892822266e+00,2.560954570770263672e+00,2.506965875625610352e+00,2.455206632614135742e+00,2.405541419982910156e+00,2.357845544815063477e+00,2.312004327774047852e+00,2.267911672592163086e+00,2.225469350814819336e+00,2.184586524963378906e+00,2.145178318023681641e+00,2.107167005538940430e+00,2.070479154586791992e+00,2.035047054290771484e+00,2.000807285308837891e+00,1.967700719833374023e+00,1.935671687126159668e+00,1.904668807983398438e+00,1.874643325805664062e+00,1.845549821853637695e+00
5.000000000000000000e+00,5.000000000000000000e+00,4.489244461059570312e+00,4.535146236419677734e+00,4.787270545959472656e+00,4.837471485137939453e+00,5.000000000000000000e+00,5.000000000000000000e+00,5.000000000000000000e+00,5.000000000000000000e+00,5.000000000000000000e+00,5.000000000000000000e+00,5.000000000000000000e+00,5.000000000000000000e+00,5.000000000000000000e+00,5.000000000000000000e+00,5.000000000000000000e+00,5.000000000000000000e+00,5.000000000000000000e+00,5.000000000000000000e+00,5.000000000000000000e+00,5.000000000000000000e+00,5.000000000000000000e+00,5.000000000000000000e+00,5.000000000000000000e+00,5.000000000000000000e+00,5.000000000000000000e+00,5.000000000000000000e+00,5.000000000000000000e+00,5.000000000000000000e+00,5.000000000000000000e+00,5.000000000000000000e+00,5.000000000000000000e+00,5.000000000000000000e+00,5.000000000000000000e+00,5.000000000000000000e+00,5.000000000000000000e+00,1.605647921562194824e+00,1.569927096366882324e+00,1.556105852127075195e+00,1.575911641120910645e+00,1.882727503776550293e+00,1.879032135009765625e+00,4.182192325592041016e+00,4.040107250213623047e+00,3.907359361648559570e+00,3.783057212829589844e+00,3.666420221328735352e+00,3.556760072708129883e+00,3.453469276428222656e+00,3.356008768081665039e+00,3.263897657394409180e+00,3.176707983016967773e+00,3.094055175781250000e+00,3.015594482421875000e+00,2.941014528274536133e+00,2.870034456253051758e+00,2.802399873733520508e+00,2.737879514694213867e+00,2.676263570785522461e+00,2.617359638214111328e+00,2.560992717742919922e+00,2.507002592086791992e+00,2.455241918563842773e+00,2.405575037002563477e+00,2.357878208160400391e+00,2.312035560607910156e+00,2.267941713333129883e+00,2.225498199462890625e+00,2.184614419937133789e+00,2.145205259323120117e+00,2.107192993164062500e+00,2.070504188537597656e+00,2.035071372985839844e+00,2.000830650329589844e+00,1.967723369598388672e+00,1.935693621635437012e+00,1.904690027236938477e+00,1.874663829803466797e+00,1.845569610595703125e+00
5.000000000000000000e+00,5.000000000000000000e+00,4.489185810089111328e+00,4.529055595397949219e+00,4.807769298553466797e+00,5.000000000000000000e+00,5.000000000000000000e+00,5.000000000000000000e+00,5.000000000000000000e+00,5.000000000000000000e+00,5.000000000000000000e+00,5.000000000000000000e+00,5.000000000000000000e+00,5.000000000000000000e+00,5.000000000000000000e+00,5.000000000000000000e+00,5.000000000000000000e+00,5.000000000000000000e+00,5.000000000000000000e+00,5.000000000000000000e+00,5.000000000000000000e+00,5.000000000000000000e+00,5.000000000000000000e+00,5.000000000000000000e+00,5.000000000000000000e+00,5.000000000000000000e+00,5.000000000000000000e+00,5.000000000000000000e+00,5.000000000000000000e+00,5.000000000000000000e+00,5.000000000000000000e+00,5.000000000000000000e+00,5.000000000000000000e+00,5.000000000000000000e+00,5.000000000000000000e+00,5.000000000000000000e+00,5.000000000000000000e+00,1.605778932571411133e+00,1.566064119338989258e+00,1.550494313240051270e+00,1.568074464797973633e+00,1.912852168083190918e+00,1.935929536819458008e+00,4.182294368743896484e+00,4.040202617645263672e+00,3.907448530197143555e+00,3.783140897750854492e+00,3.666498661041259766e+00,3.556833982467651367e+00,3.453538894653320312e+00,3.356074094772338867e+00,3.263959646224975586e+00,3.176766633987426758e+00,3.094110965728759766e+00,3.015647172927856445e+00,2.941064834594726562e+00,2.870082378387451172e+00,2.802445650100708008e+00,2.737923145294189453e+00,2.676305294036865234e+00,2.617399692535400391e+00,2.561031103134155273e+00,2.507039308547973633e+00,2.455276966094970703e+00,2.405608892440795898e+00,2.357910633087158203e+00,2.312066793441772461e+00,2.267971754074096680e+00,2.225527286529541016e+00,2.184642314910888672e+00,2.145232200622558594e+00,2.107218742370605469e+00,2.070529222488403320e+00,2.035095453262329102e+00,2.000854015350341797e+00,1.967745900154113770e+00,1.935715556144714355e+00,1.904711246490478516e+00,1.874684333801269531e+00,1.845589518547058105e+00
5.000000000000000000e+00,5.000000000000000000e+00,4.504370689392089844e+00,4.549153804779052734e+00,4.849732875823974609e+00,5.000000000000000000e+00,5.000000000000000000e+00,5.000000000000000000e+00,5.000000000000000000e+00,5.000000000000000000e+00,5.000000000000000000e+00,5.000000000000000000e+00,5.000000000000000000e+00,5.000000000000000000e+00,5.000000000000000000e+00,5.000000000000000000e+00,5.000000000000000000e+00,5.000000000000000000e+00,5.000000000000000000e+00,5.000000000000000000e+00,5.000000000000000000e+00,5.000000000000000000e+00,5.000000000000000000e+00,5.000000000000000000e+00,5.000000000000000000e+00,5.000000000000000000e+00,5.000000000000000000e+00,5.000000000000000000e+00,5.000000000000000000e+00,5.000000000000000000e+00,5.000000000000000000e+00,5.000000000000000000e+00,5.000000000000000000e+00,5.000000000000000000e+00,5.000000000000000000e+00,5.000000000000000000e+00,5.000000000000000000e+00,1.605909824371337891e+00,1.564798235893249512e+00,1.544922828674316406e+00,1.559827685356140137e+00,1.609191298484802246e+00,1.980172157287597656e+00,4.182396411895751953e+00,4.040297508239746094e+00,3.907537698745727539e+00,3.783224582672119141e+00,3.666577100753784180e+00,3.556907892227172852e+00,3.453608512878417969e+00,3.356139898300170898e+00,3.264021873474121094e+00,3.176825523376464844e+00,3.094166755676269531e+00,3.015700340270996094e+00,2.941115379333496094e+00,2.870130538940429688e+00,2.802491426467895508e+00,2.737967014312744141e+00,2.676347017288208008e+00,2.617439508438110352e+00,2.561069250106811523e+00,2.507075786590576172e+00,2.455312013626098633e+00,2.405642509460449219e+00,2.357942819595336914e+00,2.312098026275634766e+00,2.268001794815063477e+00,2.225556135177612305e+00,2.184669971466064453e+00,2.145259141921997070e+00,2.107244729995727539e+00,2.070554256439208984e+00,2.035119771957397461e+00,2.000877380371093750e+00,1.967768549919128418e+00,1.935737371444702148e+00,1.904732346534729004e+00,1.874704837799072266e+00,1.845609426498413086e+00
5.000000000000000000e+00,5.000000000000000000e+00,4.499268054962158203e+00,4.539033412933349609e+00,4.920623779296875000e+00,5.000000000000000000e+00,5.000000000000000000e+00,5.000000000000000000e+00,5.000000000000000000e+00,5.000000000000000000e+00,5.000000000000000000e+00,5.000000000000000000e+00,5.000000000000000000e+00,5.000000000000000000e+00,5.000000000000000000e+00,5.000000000000000000e+00,5.000000000000000000e+00,5.000000000000000000e+00,5.000000000000000000e+00,5.000000000000000000e+00,5.000000000000000000e+00,5.000000000000000000e+00,5.000000000000000000e+00,5.000000000000000000e+00,5.000000000000000000e+00,5.000000000000000000e+00,5.000000000000000000e+00,5.000000000000000000e+00,5.000000000000000000e+00,5.000000000000000000e+00,5.000000000000000000e+00,5.000000000000000000e+00,5.000000000000000000e+00,5.000000000000000000e+00,5.000000000000000000e+00,5.000000000000000000e+00,5.000000000000000000e+00,5.000000000000000000e+00,1.565018296241760254e+00,1.539864540100097656e+00,1.551515817642211914e+00,1.589175343513488770e+00,4.334964275360107422e+00,4.182498455047607422e+00,4.040392875671386719e+00,3.907626867294311523e+00,3.783308029174804688e+00,3.666655778884887695e+00,3.556981801986694336e+00,3.453678131103515625e+00,3.356205701828002930e+00,3.264084100723266602e+00,3.176884651184082031e+00,3.094222784042358398e+00,3.015753507614135742e+00,2.941165924072265625e+00,2.870178699493408203e+00,2.802537441253662109e+00,2.738010883331298828e+00,2.676388740539550781e+00,2.617479562759399414e+00,2.561107397079467773e+00,2.507112503051757812e+00,2.455347299575805664e+00,2.405676364898681641e+00,2.357975482940673828e+00,2.312129259109497070e+00,2.268031835556030273e+00,2.225584983825683594e+00,2.184697866439819336e+00,2.145285844802856445e+00,2.107270479202270508e+00,2.070579051971435547e+00,2.035143852233886719e+00,2.000900745391845703e+00,1.967790961265563965e+00,1.935759305953979492e+00,1.904753565788269043e+00,1.874725461006164551e+00,1.845629334449768066e+00
5.000000000000000000e+00,5.000000000000000000e+00,4.501653194427490234e+00,4.525293827056884766e+00,4.957982540130615234e+00,5.000000000000000000e+00,5.000000000000000000e+00,5.000000000000000000e+00,5.000000000000000000e+00,5.000000000000000000e+00,5.000000000000000000e+00,5.000000000000000000e+00,5.000000000000000000e+00,5.000000000000000000e+00,5.000000000000000000e+00,5.000000000000000000e+00,5.000000000000000000e+00,5.000000000000000000e+00,5.000000000000000000e+00,5.000000000000000000e+00,5.000000000000000000e+00,5.000000000000000000e+00,5.000000000000000000e+00,5.000000000000000000e+00,5.000000000000000000e+00,5.000000000000000000e+00,5.000000000000000000e+00,5.000000000000000000e+00,5.000000000000000000e+00,5.000000000000000000e+00,5.000000000000000000e+00,5.000000000000000000e+00,5.000000000000000000e+00,5.000000000000000000e+00,5.000000000000000000e+00,5.000000000000000000e+00,5.000000000000000000e+00,5.000000000000000000e+00,1.565238475799560547e+00,1.538162350654602051e+00,1.543834924697875977e+00,1.576429605484008789e+00,4.335074424743652344e+00,4.182600498199462891e+00,4.040488243103027344e+00,3.907715559005737305e+00,3.783391237258911133e+00,3.666733741760253906e+00,3.557055234909057617e+00,3.453747510910034180e+00,3.356271266937255859e+00,3.264146089553833008e+00,3.176943302154541016e+00,3.094278573989868164e+00,3.015806674957275391e+00,2.941216468811035156e+00,2.870226860046386719e+00,2.802583217620849609e+00,2.738054752349853516e+00,2.676430702209472656e+00,2.617519378662109375e+00,2.561145782470703125e+00,2.507149219512939453e+00,2.455382585525512695e+00,2.405710220336914062e+00,2.358007907867431641e+00,2.312160491943359375e+00,2.268061876296997070e+00,2.225613832473754883e+00,2.184725761413574219e+00,2.145312786102294922e+00,2.107296466827392578e+00,2.070604085922241211e+00,2.035167932510375977e+00,2.000924110412597656e+00,1.967813491821289062e+00,1.935781002044677734e+00,1.904774546623229980e+00,1.874745726585388184e+00,1.845649003982543945e+00
5.000000000000000000e+00,5.000000000000000000e+00,4.511630058288574219e+00,4.514523506164550781e+00,5.000000000000000000e+00,5.000000000000000000e+00,5.000000000000000000e+00,5.000000000000000000e+00,5.000000000000000000e+00,5.000000000000000000e+00,5.000000000000000000e+00,5.000000000000000000e+00,5.000000000000000000e+00,5.000000000000000000e+00,5.000000000000000000e+00,5.000000000000000000e+00,5.000000000000000000e+00,5.000000000000000000e+00,5.000000000000000000e+00,5.000000000000000000e+00,5.000000000000000000e+00,5.000000000000000000e+00,5.000000000000000000e+00,5.000000000000000000e+00,5.000000000000000000e+00,5.000000000000000000e+00,5.000000000000000000e+00,5.000000000000000000e+00,5.000000000000000000e+00,5.000000000000000000e+00,5.000000000000000000e+00,5.000000000000000000e+00,5.000000000000000000e+00,5.000000000000000000e+00,5.000000000000000000e+00,5.000000000000000000e+00,5.000000000000000000e+00,5.000000000000000000e+00,1.566490054130554199e+00,1.539919734001159668e+00,1.536933422088623047e+00,1.570511579513549805e+00,4.335183143615722656e+00,4.182702541351318359e+00,4.040583133697509766e+00,3.907804727554321289e+00,3.783474922180175781e+00,3.666812419891357422e+00,3.557129144668579102e+00,3.453817129135131836e+00,3.356337070465087891e+00,3.264208316802978516e+00,3.177002191543579102e+00,3.094334363937377930e+00,3.015859603881835938e+00,2.941266775131225586e+00,2.870274782180786133e+00,2.802628993988037109e+00,2.738098144531250000e+00,2.676472187042236328e+00,2.617559432983398438e+00,2.561183929443359375e+00,2.507185935974121094e+00,2.455417633056640625e+00,2.405744075775146484e+00,2.358040332794189453e+00,2.312191724777221680e+00,2.268091917037963867e+00,2.225642681121826172e+00,2.184753656387329102e+00,2.145339488983154297e+00,2.107322454452514648e+00,2.070629119873046875e+00,2.035192251205444336e+00,2.000947475433349609e+00,1.967836141586303711e+00,1.935802817344665527e+00,1.904795765876770020e+00,1.874766230583190918e+00,1.845668911933898926e+00
5.000000000000000000e+00,5.000000000000000000e+00,5.000000000000000000e+00,4.509413242340087891e+00,5.000000000000000000e+00,5.000000000000000000e+00,5.000000000000000000e+00,5.000000000000000000e+00,5.000000000000000000e+00,5.000000000000000000e+00,5.000000000000000000e+00,5.000000000000000000e+00,5.000000000000000000e+00,5.000000000000000000e+00,5.000000000000000000e+00,5.000000000000000000e+00,5.000000000000000000e+00,5.000000000000000000e+00,5.000000000000000000e+00,5.000000000000000000e+00,5.000000000000000000e+00,5.000000000000000000e+00,5.000000000000000000e+00,5.000000000000000000e+00,5.000000000000000000e+00,5.000000000000000000e+00,5.000000000000000000e+00,5.000000000000000000e+00,5.000000000000000000e+00,5.000000000000000000e+00,5.000000000000000000e+00,5.000000000000000000e+00,5.000000000000000000e+00,5.000000000000000000e+00,5.000000000000000000e+00,5.000000000000000000e+00,5.000000000000000000e+00,5.000000000000000000e+00,1.567993164062500000e+00,1.536965966224670410e+00,1.530093312263488770e+00,1.561905980110168457e+00,4.335293769836425781e+00,4.182803630828857422e+00,4.040678501129150391e+00,3.907893896102905273e+00,3.783558607101440430e+00,3.666890859603881836e+00,3.557203054428100586e+00,3.453886985778808594e+00,3.356402873992919922e+00,3.264270544052124023e+00,3.177061080932617188e+00,3.094390153884887695e+00,3.015912532806396484e+00,2.941317319869995117e+00,2.870322704315185547e+00,2.802674770355224609e+00,2.738142013549804688e+00,2.676514148712158203e+00,2.617599248886108398e+00,2.561222314834594727e+00,2.507222652435302734e+00,2.455452680587768555e+00,2.405777692794799805e+00,2.358072757720947266e+00,2.312222719192504883e+00,2.268121719360351562e+00,2.225671529769897461e+00,2.184781312942504883e+00,2.145366430282592773e+00,2.107348442077636719e+00,2.070654392242431641e+00,2.035216331481933594e+00,2.000970840454101562e+00,1.967858791351318359e+00,1.935824751853942871e+00,1.904816985130310059e+00,1.874786853790283203e+00,1.845688819885253906e+00
4.874279975891113281e+00,4.873082160949707031e+00,4.871884822845458984e+00,4.513104438781738281e+00,4.869492530822753906e+00,4.868297100067138672e+00,4.867102146148681641e+00,4.865907669067382812e+00,4.864714622497558594e+00,4.863521575927734375e+00,4.862329006195068359e+00,4.861137390136718750e+00,4.859945774078369141e+00,4.858755111694335938e+00,4.857564926147460938e+00,4.856375694274902344e+00,4.855186462402343750e+00,4.853998184204101562e+00,4.852810859680175781e+00,4.851623535156250000e+00,4.850437164306640625e+00,4.849250793457031250e+00,4.848065376281738281e+00,4.846880435943603516e+00,4.845696449279785156e+00,4.844512462615966797e+00,4.843329429626464844e+00,4.842146873474121094e+00,4.840964794158935547e+00,4.839783668518066406e+00,4.838602542877197266e+00,4.837422370910644531e+00,4.836242675781250000e+00,4.835063457489013672e+00,4.833885192871093750e+00,4.832706928253173828e+00,4.831529617309570312e+00,4.830352783203125000e+00,1.569499015808105469e+00,1.532990932464599609e+00,1.525275230407714844e+00,1.553394198417663574e+00,4.335404396057128906e+00,4.182906627655029297e+00,4.040773868560791016e+00,3.907982587814331055e+00,3.783641815185546875e+00,3.666969537734985352e+00,3.557276964187622070e+00,3.453956604003906250e+00,3.356468677520751953e+00,3.264332771301269531e+00,3.177119970321655273e+00,3.094446182250976562e+00,3.015965700149536133e+00,2.941367864608764648e+00,2.870370864868164062e+00,2.802720546722412109e+00,2.738185882568359375e+00,2.676555871963500977e+00,2.617639303207397461e+00,2.561260461807250977e+00,2.507259368896484375e+00,2.455487966537475586e+00,2.405811548233032227e+00,2.358105182647705078e+00,2.312253952026367188e+00,2.268151760101318359e+00,2.225700616836547852e+00,2.184809207916259766e+00,2.145393133163452148e+00,2.107374191284179688e+00,2.070679187774658203e+00,2.035240411758422852e+00,2.000994205474853516e+00,1.967881441116333008e+00,1.935846567153930664e+00,1.904838085174560547e+00,1.874807357788085938e+00,1.845708727836608887e+00
3.777275800704956055e+00,3.776556491851806641e+00,3.775837421417236328e+00,3.775118589401245117e+00,3.774399995803833008e+00,3.773681879043579102e+00,3.772963762283325195e+00,3.772246122360229492e+00,3.771528720855712891e+00,3.770811557769775391e+00,3.770094633102416992e+00,3.769378185272216797e+00,3.768661737442016602e+00,3.767945766448974609e+00,3.767230033874511719e+00,3.766514539718627930e+00,3.765799283981323242e+00,3.765084505081176758e+00,3.764369964599609375e+00,3.763655662536621094e+00,3.762941598892211914e+00,3.762227535247802734e+00,3.761513948440551758e+00,3.760800600051879883e+00,3.760087728500366211e+00,3.759374856948852539e+00,3.758662223815917969e+00,3.757950067520141602e+00,3.757238149642944336e+00,3.756526470184326172e+00,3.755815029144287109e+00,3.755103826522827148e+00,3.754392862319946289e+00,3.753682136535644531e+00,3.752971887588500977e+00,3.752261638641357422e+00,3.751551866531372070e+00,3.750842332839965820e+00,1.571007966995239258e+00,1.534506320953369141e+00,1.525598406791687012e+00,1.544974803924560547e+00,3.747298955917358398e+00,3.746591091156005859e+00,3.745883226394653320e+00,3.745175838470458984e+00,3.744468688964843750e+00,3.667047500610351562e+00,3.557350635528564453e+00,3.454025983810424805e+00,3.356534004211425781e+00,3.264394760131835938e+00,3.177178621292114258e+00,3.094501733779907227e+00,3.016018629074096680e+00,2.941418170928955078e+00,2.870419025421142578e+00,2.802766561508178711e+00,2.738229513168334961e+00,2.676597833633422852e+00,2.617679357528686523e+00,2.561298847198486328e+00,2.507296085357666016e+00,2.455523252487182617e+00,2.405845165252685547e+00,2.358137607574462891e+00,2.312285184860229492e+00,2.268181800842285156e+00,2.225729465484619141e+00,2.184837102890014648e+00,2.145420074462890625e+00,2.107400178909301758e+00,2.070704221725463867e+00,2.035264492034912109e+00,2.001017570495605469e+00,1.967904090881347656e+00,1.935868501663208008e+00,1.904859304428100586e+00,1.874827861785888672e+00,1.845728635787963867e+00
3.083339929580688477e+00,3.082860708236694336e+00,3.082381486892700195e+00,3.081902503967285156e+00,3.081423759460449219e+00,3.080945014953613281e+00,3.080466270446777344e+00,3.079988002777099609e+00,3.079509735107421875e+00,3.079031467437744141e+00,3.078553438186645508e+00,3.078075647354125977e+00,3.077598094940185547e+00,3.077120542526245117e+00,3.076642990112304688e+00,3.076165914535522461e+00,3.075688838958740234e+00,3.075211763381958008e+00,3.074735164642333984e+00,3.074258565902709961e+00,3.073782205581665039e+00,3.073305845260620117e+00,3.072829484939575195e+00,3.072353363037109375e+00,3.071877479553222656e+00,3.071401834487915039e+00,3.070926189422607422e+00,3.070450782775878906e+00,3.069975376129150391e+00,3.069500207901000977e+00,3.069025278091430664e+00,3.068550348281860352e+00,3.068075656890869141e+00,3.067600965499877930e+00,3.067126512527465820e+00,3.066652297973632812e+00,3.066178083419799805e+00,3.065704107284545898e+00,3.065230369567871094e+00,1.536024570465087891e+00,1.524340152740478516e+00,1.572209000587463379e+00,3.063336610794067383e+00,3.062863588333129883e+00,3.062390565872192383e+00,3.061917781829833984e+00,3.061444997787475586e+00,3.060972452163696289e+00,3.060500144958496094e+00,3.060027837753295898e+00,3.059555768966674805e+00,3.059083700180053711e+00,3.058612108230590820e+00,3.058140277862548828e+00,3.016071796417236328e+00,2.941468477249145508e+00,2.870466947555541992e+00,2.802812099456787109e+00,2.738273143768310547e+00,2.676639556884765625e+00,2.617719173431396484e+00,2.561336994171142578e+00,2.507332563400268555e+00,2.455558300018310547e+00,2.405879020690917969e+00,2.358170032501220703e+00,2.312316417694091797e+00,2.268211841583251953e+00,2.225758314132690430e+00,2.184864997863769531e+00,2.145447015762329102e+00,2.107426166534423828e+00,2.070729255676269531e+00,2.035288810729980469e+00,2.001040935516357422e+00,1.967926621437072754e+00,1.935890436172485352e+00,1.904880523681640625e+00,1.874848365783691406e+00,1.845748543739318848e+00
2.604803085327148438e+00,2.604460954666137695e+00,2.604119062423706055e+00,2.603776931762695312e+00,2.603435277938842773e+00,2.603093385696411133e+00,2.602751731872558594e+00,2.602410316467285156e+00,2.602068901062011719e+00,2.601727485656738281e+00,2.601386070251464844e+00,2.601044893264770508e+00,2.600703954696655273e+00,2.600362777709960938e+00,2.600021839141845703e+00,2.599681138992309570e+00,2.599340438842773438e+00,2.598999738693237305e+00,2.598659276962280273e+00,2.598318815231323242e+00,2.597978353500366211e+00,2.597638130187988281e+00,2.597297906875610352e+00,2.596957683563232422e+00,2.596617698669433594e+00,2.596277713775634766e+00,2.595937967300415039e+00,2.595598220825195312e+00,2.595258474349975586e+00,2.594918966293334961e+00,2.594579458236694336e+00,2.594239950180053711e+00,2.593900680541992188e+00,2.593561410903930664e+00,2.593222379684448242e+00,2.592883110046386719e+00,2.592544317245483398e+00,2.592205286026000977e+00,2.118695020675659180e+00,1.547447323799133301e+00,1.525216341018676758e+00,1.561829686164855957e+00,2.590512514114379883e+00,2.590174198150634766e+00,2.589835882186889648e+00,2.589497804641723633e+00,2.589159727096557617e+00,2.588821649551391602e+00,2.588483810424804688e+00,2.588145971298217773e+00,2.587808132171630859e+00,2.587470531463623047e+00,2.587132930755615234e+00,2.586795568466186523e+00,2.586458206176757812e+00,2.586120843887329102e+00,2.585783720016479492e+00,2.585446596145629883e+00,2.585109472274780273e+00,2.584772825241088867e+00,2.584435939788818359e+00,2.561375379562377930e+00,2.507369279861450195e+00,2.455593347549438477e+00,2.405912637710571289e+00,2.358202457427978516e+00,2.312347412109375000e+00,2.268241882324218750e+00,2.225787162780761719e+00,2.184892654418945312e+00,2.145473718643188477e+00,2.107451915740966797e+00,2.070754289627075195e+00,2.035312891006469727e+00,2.001064300537109375e+00,1.967949271202087402e+00,1.935912251472473145e+00,1.904901742935180664e+00,1.874868869781494141e+00,1.845768451690673828e+00
2.254892349243164062e+00,2.254634141921997070e+00,2.254375934600830078e+00,2.254117727279663086e+00,2.253859519958496094e+00,2.253601312637329102e+00,2.253343582153320312e+00,2.253085613250732422e+00,2.252827644348144531e+00,2.252569675445556641e+00,2.252311944961547852e+00,2.252054214477539062e+00,2.251796722412109375e+00,2.251538991928100586e+00,2.251281499862670898e+00,2.251024007797241211e+00,2.250766515731811523e+00,2.250509262084960938e+00,2.250251770019531250e+00,2.249994754791259766e+00,2.249737501144409180e+00,2.249480485916137695e+00,2.249223232269287109e+00,2.248967409133911133e+00,2.248712539672851562e+00,2.248457431793212891e+00,2.248202562332153320e+00,2.247947692871093750e+00,2.247693061828613281e+00,2.247438192367553711e+00,2.247183561325073242e+00,2.246928930282592773e+00,2.246674537658691406e+00,2.246419906616210938e+00,2.246165513992309570e+00,2.245911121368408203e+00,2.245656728744506836e+00,2.245402574539184570e+00,2.245148181915283203e+00,1.540189981460571289e+00,1.482698917388916016e+00,1.478399038314819336e+00,2.244132280349731445e+00,2.243878364562988281e+00,2.243624448776245117e+00,2.243370532989501953e+00,2.243116855621337891e+00,2.242863178253173828e+00,2.242609500885009766e+00,2.242355823516845703e+00,2.242102384567260742e+00,2.241848945617675781e+00,2.241595506668090820e+00,2.241342306137084961e+00,2.241088867187500000e+00,2.240835666656494141e+00,2.240582466125488281e+00,2.240329504013061523e+00,2.240076303482055664e+00,2.239823579788208008e+00,2.239570617675781250e+00,2.239317655563354492e+00,2.239064693450927734e+00,2.238811969757080078e+00,2.238559246063232422e+00,2.238306760787963867e+00,2.238054037094116211e+00,2.237801551818847656e+00,2.225816011428833008e+00,2.184920549392700195e+00,2.145500659942626953e+00,2.107477903366088867e+00,2.070779323577880859e+00,2.035336971282958984e+00,2.001087665557861328e+00,1.967971682548522949e+00,1.935933947563171387e+00,1.904922723770141602e+00,1.874889254570007324e+00,1.845788121223449707e+00
1.987944006919860840e+00,1.987743139266967773e+00,1.987542510032653809e+00,1.987341880798339844e+00,1.987141132354736328e+00,1.986940622329711914e+00,1.986739873886108398e+00,1.986539483070373535e+00,1.986338853836059570e+00,1.986138463020324707e+00,1.985938191413879395e+00,1.985737681388854980e+00,1.985537528991699219e+00,1.985337138175964355e+00,1.985136985778808594e+00,1.984936833381652832e+00,1.984736561775207520e+00,1.984536528587341309e+00,1.984336256980895996e+00,1.984136343002319336e+00,1.983936190605163574e+00,1.983736395835876465e+00,1.983536481857299805e+00,1.983336567878723145e+00,1.983136773109436035e+00,1.982936859130859375e+00,1.982737183570861816e+00,1.982537388801574707e+00,1.982337713241577148e+00,1.982138276100158691e+00,1.981938481330871582e+00,1.981739044189453125e+00,1.981539368629455566e+00,1.981340050697326660e+00,1.981140613555908203e+00,1.980941057205200195e+00,1.980741858482360840e+00,1.980542421340942383e+00,1.980343222618103027e+00,1.479037761688232422e+00,1.429638266563415527e+00,1.388930559158325195e+00,1.367059588432312012e+00,1.979347467422485352e+00,1.979148268699645996e+00,1.978949427604675293e+00,1.978750467300415039e+00,1.978551506996154785e+00,1.978352665901184082e+00,1.978153705596923828e+00,1.977954983711242676e+00,1.977756142616271973e+00,1.977557420730590820e+00,1.977358937263488770e+00,1.977160096168518066e+00,1.976961612701416016e+00,1.976762890815734863e+00,1.976564526557922363e+00,1.976365923881530762e+00,1.976167559623718262e+00,1.975969195365905762e+00,1.975770711898803711e+00,1.975572466850280762e+00,1.975374102592468262e+00,1.975175976753234863e+00,1.974977850914001465e+00,1.974779605865478516e+00,1.974581480026245117e+00,1.974383354187011719e+00,1.974185347557067871e+00,1.973987221717834473e+00,1.973789334297180176e+00,1.973591566085815430e+00,1.973393559455871582e+00,1.973195791244506836e+00,1.967994332313537598e+00,1.935955882072448730e+00,1.904943943023681641e+00,1.874909758567810059e+00,1.845808029174804688e+00
1.777511119842529297e+00,1.777350425720214844e+00,1.777190089225769043e+00,1.777029514312744141e+00,1.776869177818298340e+00,1.776708602905273438e+00,1.776548385620117188e+00,1.776388049125671387e+00,1.776227712631225586e+00,1.776067495346069336e+00,1.775907039642333984e+00,1.775746941566467285e+00,1.775586843490600586e+00,1.775426506996154785e+00,1.775266528129577637e+00,1.775106310844421387e+00,1.774946212768554688e+00,1.774786114692687988e+00,1.774626135826110840e+00,1.774466276168823242e+00,1.774306178092956543e+00,1.774146318435668945e+00,1.773986220359802246e+00,1.773826479911804199e+00,1.773666501045227051e+00,1.773506760597229004e+00,1.773347020149230957e+00,1.773187160491943359e+00,1.773027539253234863e+00,1.772867679595947266e+00,1.772708058357238770e+00,1.772548556327819824e+00,1.772388815879821777e+00,1.772229313850402832e+00,1.772069573402404785e+00,1.771910190582275391e+00,1.771750569343566895e+00,1.771591186523437500e+00,1.771431803703308105e+00,1.395961999893188477e+00,1.408778786659240723e+00,1.406747579574584961e+00,1.411532044410705566e+00,1.770634889602661133e+00,1.770475506782531738e+00,1.770316362380981445e+00,1.770157098770141602e+00,1.769997954368591309e+00,1.769838690757751465e+00,1.769679665565490723e+00,1.769520640373229980e+00,1.769361376762390137e+00,1.769202470779418945e+00,1.769043326377868652e+00,1.768884420394897461e+00,1.768725514411926270e+00,1.768566489219665527e+00,1.768407583236694336e+00,1.768248677253723145e+00,1.768089890480041504e+00,1.767930984497070312e+00,1.767772197723388672e+00,1.767613530158996582e+00,1.767454743385314941e+00,1.767296075820922852e+00,1.767137289047241211e+00,1.766978740692138672e+00,1.766819953918457031e+00,1.766661524772644043e+00,1.766502976417541504e+00,1.766344308853149414e+00,1.766185879707336426e+00,1.766027331352233887e+00,1.765869021415710449e+00,1.765710592269897461e+00,1.765552163124084473e+00,1.765393853187561035e+00,1.765235424041748047e+00,1.765077233314514160e+00,1.764918804168701172e+00
1.607364058494567871e+00,1.607232928276062012e+00,1.607101559638977051e+00,1.606970429420471191e+00,1.606839299201965332e+00,1.606708049774169922e+00,1.606576919555664062e+00,1.606445670127868652e+00,1.606314659118652344e+00,1.606183648109436035e+00,1.606052517890930176e+00,1.605921506881713867e+00,1.605790376663208008e+00,1.605659484863281250e+00,1.605528354644775391e+00,1.605397462844848633e+00,1.605266571044921875e+00,1.605135679244995117e+00,1.605004787445068359e+00,1.604873776435852051e+00,1.604743003845214844e+00,1.604612231254577637e+00,1.604481339454650879e+00,1.604350686073303223e+00,1.604219794273376465e+00,1.604089140892028809e+00,1.603958249092102051e+00,1.603827714920043945e+00,1.603697061538696289e+00,1.603566288948059082e+00,1.603435754776000977e+00,1.603304982185363770e+00,1.603174448013305664e+00,1.603043794631958008e+00,1.602913379669189453e+00,1.602782845497131348e+00,1.602652311325073242e+00,1.602521896362304688e+00,1.602391242980957031e+00,1.602260947227478027e+00,1.602130532264709473e+00,1.601999998092651367e+00,1.601869702339172363e+00,1.601739287376403809e+00,1.601608991622924805e+00,1.601478576660156250e+00,1.601348400115966797e+00,1.601218104362487793e+00,1.601087808609008789e+00,1.600957632064819336e+00,1.600827336311340332e+00,1.600697159767150879e+00,1.600567102432250977e+00,1.600436925888061523e+00,1.600306868553161621e+00,1.600176572799682617e+00,1.600046634674072266e+00,1.599916338920593262e+00,1.599786400794982910e+00,1.599656462669372559e+00,1.599526405334472656e+00,1.599396467208862305e+00,1.599266409873962402e+00,1.599136471748352051e+00,1.599006533622741699e+00,1.598876714706420898e+00,1.598746895790100098e+00,1.598616957664489746e+00,1.598487138748168945e+00,1.598357319831848145e+00,1.598227500915527344e+00,1.598097801208496094e+00,1.597967982292175293e+00,1.597838282585144043e+00,1.597708582878112793e+00,1.597578883171081543e+00,1.597449183464050293e+00,1.597319602966308594e+00,1.597190022468566895e+00,1.597060322761535645e+00
1.466945171356201172e+00,1.466835975646972656e+00,1.466726541519165039e+00,1.466617345809936523e+00,1.466507911682128906e+00,1.466398715972900391e+00,1.466289520263671875e+00,1.466180205345153809e+00,1.466071128845214844e+00,1.465961813926696777e+00,1.465852737426757812e+00,1.465743422508239746e+00,1.465634346008300781e+00,1.465525269508361816e+00,1.465416073799133301e+00,1.465306997299194336e+00,1.465197920799255371e+00,1.465088844299316406e+00,1.464979767799377441e+00,1.464870810508728027e+00,1.464761734008789062e+00,1.464652657508850098e+00,1.464543819427490234e+00,1.464434742927551270e+00,1.464325785636901855e+00,1.464216947555541992e+00,1.464107990264892578e+00,1.463999152183532715e+00,1.463890194892883301e+00,1.463781356811523438e+00,1.463672399520874023e+00,1.463563561439514160e+00,1.463454842567443848e+00,1.463345885276794434e+00,1.463237166404724121e+00,1.463128328323364258e+00,1.463019609451293945e+00,1.462911009788513184e+00,1.462802171707153320e+00,1.462693452835083008e+00,1.462584733963012695e+00,1.462476134300231934e+00,1.462367415428161621e+00,1.462258815765380859e+00,1.462150216102600098e+00,1.462041497230529785e+00,1.461933016777038574e+00,1.461824297904968262e+00,1.461715817451477051e+00,1.461607336997985840e+00,1.461498737335205078e+00,1.461390256881713867e+00,1.461281657218933105e+00,1.461173295974731445e+00,1.461064696311950684e+00,1.460956335067749023e+00,1.460847973823547363e+00,1.460739493370056152e+00,1.460631132125854492e+00,1.460522651672363281e+00,1.460414290428161621e+00,1.460305929183959961e+00,1.460197567939758301e+00,1.460089325904846191e+00,1.459980964660644531e+00,1.459872722625732422e+00,1.459764361381530762e+00,1.459656119346618652e+00,1.459547996520996094e+00,1.459439635276794434e+00,1.459331512451171875e+00,1.459223270416259766e+00,1.459115147590637207e+00,1.459006905555725098e+00,1.458898782730102539e+00,1.458790659904479980e+00,1.458682537078857422e+00,1.458574414253234863e+00,1.458466291427612305e+00,1.458358287811279297e+00
1.349089145660400391e+00,1.348996639251708984e+00,1.348904252052307129e+00,1.348811745643615723e+00,1.348719358444213867e+00,1.348626971244812012e+00,1.348534464836120605e+00,1.348442077636718750e+00,1.348349690437316895e+00,1.348257422447204590e+00,1.348165035247802734e+00,1.348072648048400879e+00,1.347980380058288574e+00,1.347887992858886719e+00,1.347795724868774414e+00,1.347703456878662109e+00,1.347611188888549805e+00,1.347518920898437500e+00,1.347426652908325195e+00,1.347334504127502441e+00,1.347242236137390137e+00,1.347149968147277832e+00,1.347057819366455078e+00,1.346965670585632324e+00,1.346873521804809570e+00,1.346781253814697266e+00,1.346689105033874512e+00,1.346596956253051758e+00,1.346504926681518555e+00,1.346412777900695801e+00,1.346320629119873047e+00,1.346228599548339844e+00,1.346136450767517090e+00,1.346044421195983887e+00,1.345952510833740234e+00,1.345860362052917480e+00,1.345768332481384277e+00,1.345676302909851074e+00,1.345584392547607422e+00,1.345492243766784668e+00,1.345400333404541016e+00,1.345308423042297363e+00,1.345216393470764160e+00,1.345124602317810059e+00,1.345032572746276855e+00,1.344940662384033203e+00,1.344848871231079102e+00,1.344756841659545898e+00,1.344665050506591797e+00,1.344573140144348145e+00,1.344481348991394043e+00,1.344389438629150391e+00,1.344297647476196289e+00,1.344205856323242188e+00,1.344114065170288086e+00,1.344022274017333984e+00,1.343930482864379883e+00,1.343838691711425781e+00,1.343746900558471680e+00,1.343655228614807129e+00,1.343563556671142578e+00,1.343471765518188477e+00,1.343380093574523926e+00,1.343288302421569824e+00,1.343196749687194824e+00,1.343105077743530273e+00,1.343013405799865723e+00,1.342921853065490723e+00,1.342830181121826172e+00,1.342738509178161621e+00,1.342646956443786621e+00,1.342555403709411621e+00,1.342463850975036621e+00,1.342372179031372070e+00,1.342280745506286621e+00,1.342189073562622070e+00,1.342097640037536621e+00,1.342006206512451172e+00,1.341914534568786621e+00,1.341823101043701172e+00
1.248762130737304688e+00,1.248682856559753418e+00,1.248603701591491699e+00,1.248524427413940430e+00,1.248445272445678711e+00,1.248366117477416992e+00,1.248286962509155273e+00,1.248207807540893555e+00,1.248128652572631836e+00,1.248049497604370117e+00,1.247970342636108398e+00,1.247891187667846680e+00,1.247812151908874512e+00,1.247732996940612793e+00,1.247653961181640625e+00,1.247574806213378906e+00,1.247495770454406738e+00,1.247416615486145020e+00,1.247337579727172852e+00,1.247258663177490234e+00,1.247179508209228516e+00,1.247100591659545898e+00,1.247021436691284180e+00,1.246942520141601562e+00,1.246863484382629395e+00,1.246784448623657227e+00,1.246705532073974609e+00,1.246626496315002441e+00,1.246547579765319824e+00,1.246468663215637207e+00,1.246389746665954590e+00,1.246310830116271973e+00,1.246231913566589355e+00,1.246152997016906738e+00,1.246074080467224121e+00,1.245995163917541504e+00,1.245916247367858887e+00,1.245837450027465820e+00,1.245758652687072754e+00,1.245679736137390137e+00,1.245600938796997070e+00,1.245522022247314453e+00,1.245443344116210938e+00,1.245364546775817871e+00,1.245285630226135254e+00,1.245206952095031738e+00,1.245128154754638672e+00,1.245049357414245605e+00,1.244970560073852539e+00,1.244891881942749023e+00,1.244813203811645508e+00,1.244734406471252441e+00,1.244655728340148926e+00,1.244576930999755859e+00,1.244498252868652344e+00,1.244419693946838379e+00,1.244340896606445312e+00,1.244262337684631348e+00,1.244183540344238281e+00,1.244104981422424316e+00,1.244026303291320801e+00,1.243947744369506836e+00,1.243869066238403320e+00,1.243790507316589355e+00,1.243711948394775391e+00,1.243633270263671875e+00,1.243554711341857910e+00,1.243476152420043945e+00,1.243397593498229980e+00,1.243319153785705566e+00,1.243240475654602051e+00,1.243162035942077637e+00,1.243083477020263672e+00,1.243005037307739258e+00,1.242926478385925293e+00,1.242848038673400879e+00,1.242769598960876465e+00,1.242691040039062500e+00,1.242612600326538086e+00,1.242534160614013672e+00
1.162324190139770508e+00,1.162255644798278809e+00,1.162186861038208008e+00,1.162118315696716309e+00,1.162049770355224609e+00,1.161981105804443359e+00,1.161912560462951660e+00,1.161843895912170410e+00,1.161775350570678711e+00,1.161706805229187012e+00,1.161638140678405762e+00,1.161569714546203613e+00,1.161501049995422363e+00,1.161432623863220215e+00,1.161363959312438965e+00,1.161295533180236816e+00,1.161226987838745117e+00,1.161158442497253418e+00,1.161090016365051270e+00,1.161021471023559570e+00,1.160953044891357422e+00,1.160884618759155273e+00,1.160816073417663574e+00,1.160747647285461426e+00,1.160679101943969727e+00,1.160610675811767578e+00,1.160542249679565430e+00,1.160473823547363281e+00,1.160405397415161133e+00,1.160336971282958984e+00,1.160268664360046387e+00,1.160200119018554688e+00,1.160131812095642090e+00,1.160063385963439941e+00,1.159995079040527344e+00,1.159926772117614746e+00,1.159858345985412598e+00,1.159790039062500000e+00,1.159721612930297852e+00,1.159653306007385254e+00,1.159584999084472656e+00,1.159516692161560059e+00,1.159448385238647461e+00,1.159380078315734863e+00,1.159311771392822266e+00,1.159243464469909668e+00,1.159175157546997070e+00,1.159106969833374023e+00,1.159038662910461426e+00,1.158970475196838379e+00,1.158902168273925781e+00,1.158833980560302734e+00,1.158765792846679688e+00,1.158697485923767090e+00,1.158629298210144043e+00,1.158561110496520996e+00,1.158492922782897949e+00,1.158424735069274902e+00,1.158356547355651855e+00,1.158288478851318359e+00,1.158220171928405762e+00,1.158152103424072266e+00,1.158083915710449219e+00,1.158015847206115723e+00,1.157947659492492676e+00,1.157879590988159180e+00,1.157811522483825684e+00,1.157743334770202637e+00,1.157675266265869141e+00,1.157607078552246094e+00,1.157539010047912598e+00,1.157471060752868652e+00,1.157402873039245605e+00,1.157334923744201660e+00,1.157266736030578613e+00,1.157198786735534668e+00,1.157130718231201172e+00,1.157062768936157227e+00,1.156994700431823730e+00,1.156926631927490234e+00
1.087077856063842773e+00,1.087017893791198730e+00,1.086957812309265137e+00,1.086897730827331543e+00,1.086837768554687500e+00,1.086777687072753906e+00,1.086717724800109863e+00,1.086657762527465820e+00,1.086597800254821777e+00,1.086537718772888184e+00,1.086477756500244141e+00,1.086417794227600098e+00,1.086357831954956055e+00,1.086297869682312012e+00,1.086237907409667969e+00,1.086177945137023926e+00,1.086117982864379883e+00,1.086058139801025391e+00,1.085998177528381348e+00,1.085938215255737305e+00,1.085878372192382812e+00,1.085818409919738770e+00,1.085758566856384277e+00,1.085698604583740234e+00,1.085638761520385742e+00,1.085578918457031250e+00,1.085518956184387207e+00,1.085459232330322266e+00,1.085399270057678223e+00,1.085339426994323730e+00,1.085279583930969238e+00,1.085219740867614746e+00,1.085159897804260254e+00,1.085100054740905762e+00,1.085040330886840820e+00,1.084980487823486328e+00,1.084920644760131836e+00,1.084860920906066895e+00,1.084801077842712402e+00,1.084741234779357910e+00,1.084681510925292969e+00,1.084621667861938477e+00,1.084561944007873535e+00,1.084502220153808594e+00,1.084442496299743652e+00,1.084382653236389160e+00,1.084322929382324219e+00,1.084263205528259277e+00,1.084203481674194336e+00,1.084143757820129395e+00,1.084084033966064453e+00,1.084024310111999512e+00,1.083964586257934570e+00,1.083904981613159180e+00,1.083845257759094238e+00,1.083785533905029297e+00,1.083725929260253906e+00,1.083666205406188965e+00,1.083606600761413574e+00,1.083546876907348633e+00,1.083487272262573242e+00,1.083427548408508301e+00,1.083367943763732910e+00,1.083308339118957520e+00,1.083248734474182129e+00,1.083189129829406738e+00,1.083129525184631348e+00,1.083069920539855957e+00,1.083010315895080566e+00,1.082950711250305176e+00,1.082891106605529785e+00,1.082831501960754395e+00,1.082772016525268555e+00,1.082712411880493164e+00,1.082652807235717773e+00,1.082593321800231934e+00,1.082533717155456543e+00,1.082474231719970703e+00,1.082414627075195312e+00,1.082355141639709473e+00
1.020981788635253906e+00,1.020928740501403809e+00,1.020875811576843262e+00,1.020822882652282715e+00,1.020769953727722168e+00,1.020717024803161621e+00,1.020663976669311523e+00,1.020611166954040527e+00,1.020558118820190430e+00,1.020505309104919434e+00,1.020452380180358887e+00,1.020399451255798340e+00,1.020346641540527344e+00,1.020293712615966797e+00,1.020240783691406250e+00,1.020187973976135254e+00,1.020135045051574707e+00,1.020082235336303711e+00,1.020029306411743164e+00,1.019976496696472168e+00,1.019923567771911621e+00,1.019870758056640625e+00,1.019817948341369629e+00,1.019765019416809082e+00,1.019712209701538086e+00,1.019659399986267090e+00,1.019606590270996094e+00,1.019553661346435547e+00,1.019500970840454102e+00,1.019448161125183105e+00,1.019395351409912109e+00,1.019342541694641113e+00,1.019289731979370117e+00,1.019236922264099121e+00,1.019184231758117676e+00,1.019131422042846680e+00,1.019078612327575684e+00,1.019025802612304688e+00,1.018973112106323242e+00,1.018920302391052246e+00,1.018867611885070801e+00,1.018814921379089355e+00,1.018762111663818359e+00,1.018709421157836914e+00,1.018656611442565918e+00,1.018603920936584473e+00,1.018551349639892578e+00,1.018498539924621582e+00,1.018445849418640137e+00,1.018393158912658691e+00,1.018340468406677246e+00,1.018287777900695801e+00,1.018235087394714355e+00,1.018182396888732910e+00,1.018129706382751465e+00,1.018077135086059570e+00,1.018024444580078125e+00,1.017971754074096680e+00,1.017919063568115234e+00,1.017866492271423340e+00,1.017813920974731445e+00,1.017761230468750000e+00,1.017708659172058105e+00,1.017655968666076660e+00,1.017603397369384766e+00,1.017550826072692871e+00,1.017498135566711426e+00,1.017445564270019531e+00,1.017392873764038086e+00,1.017340421676635742e+00,1.017287731170654297e+00,1.017235159873962402e+00,1.017182707786560059e+00,1.017130017280578613e+00,1.017077565193176270e+00,1.017024874687194824e+00,1.016972422599792480e+00,1.016919851303100586e+00,1.016867280006408691e+00,1.016814827919006348e+00
9.624624848365783691e-01,9.624153971672058105e-01,9.623683691024780273e-01,9.623212218284606934e-01,9.622741937637329102e-01,9.622271656990051270e-01,9.621801376342773438e-01,9.621331691741943359e-01,9.620860219001770020e-01,9.620390534400939941e-01,9.619920253753662109e-01,9.619450569152832031e-01,9.618980288505554199e-01,9.618509411811828613e-01,9.618039727210998535e-01,9.617570042610168457e-01,9.617100358009338379e-01,9.616629481315612793e-01,9.616159796714782715e-01,9.615690708160400391e-01,9.615221023559570312e-01,9.614751338958740234e-01,9.614281058311462402e-01,9.613811373710632324e-01,9.613342285156250000e-01,9.612873196601867676e-01,9.612403512001037598e-01,9.611933231353759766e-01,9.611464142799377441e-01,9.610995054244995117e-01,9.610525965690612793e-01,9.610056877136230469e-01,9.609587192535400391e-01,9.609118103981018066e-01,9.608649015426635742e-01,9.608180522918701172e-01,9.607710242271423340e-01,9.607241749763488770e-01,9.606772661209106445e-01,9.606304168701171875e-01,9.605835676193237305e-01,9.605365991592407227e-01,9.604897499084472656e-01,9.604429006576538086e-01,9.603960514068603516e-01,9.603492021560668945e-01,9.603022933006286621e-01,9.602554440498352051e-01,9.602085947990417480e-01,9.601618051528930664e-01,9.601150155067443848e-01,9.600680470466613770e-01,9.600212574005126953e-01,9.599744677543640137e-01,9.599276781082153320e-01,9.598808884620666504e-01,9.598339796066284180e-01,9.597871899604797363e-01,9.597404003143310547e-01,9.596936106681823730e-01,9.596467614173889160e-01,9.595999717712402344e-01,9.595532417297363281e-01,9.595064520835876465e-01,9.594597220420837402e-01,9.594128727912902832e-01,9.593661427497863770e-01,9.593193531036376953e-01,9.592726230621337891e-01,9.592258930206298828e-01,9.591791033744812012e-01,9.591323733329772949e-01,9.590856432914733887e-01,9.590389132499694824e-01,9.589922428131103516e-01,9.589453935623168945e-01,9.588987231254577637e-01,9.588520526885986328e-01,9.588053226470947266e-01,9.587585330009460449e-01
9.102877378463745117e-01,9.102456569671630859e-01,9.102035760879516602e-01,9.101614952087402344e-01,9.101194143295288086e-01,9.100772738456726074e-01,9.100351929664611816e-01,9.099931716918945312e-01,9.099510908126831055e-01,9.099090695381164551e-01,9.098669290542602539e-01,9.098248481750488281e-01,9.097828269004821777e-01,9.097408056259155273e-01,9.096986651420593262e-01,9.096566438674926758e-01,9.096146225929260254e-01,9.095726013183593750e-01,9.095305800437927246e-01,9.094884991645812988e-01,9.094464778900146484e-01,9.094045162200927734e-01,9.093624949455261230e-01,9.093204736709594727e-01,9.092783927917480469e-01,9.092364311218261719e-01,9.091944694519042969e-01,9.091524481773376465e-01,9.091104865074157715e-01,9.090684056282043457e-01,9.090264439582824707e-01,9.089844822883605957e-01,9.089425206184387207e-01,9.089004993438720703e-01,9.088585376739501953e-01,9.088165760040283203e-01,9.087746739387512207e-01,9.087327122688293457e-01,9.086906909942626953e-01,9.086487293243408203e-01,9.086068272590637207e-01,9.085649251937866211e-01,9.085229635238647461e-01,9.084810018539428711e-01,9.084390401840209961e-01,9.083971381187438965e-01,9.083552360534667969e-01,9.083133339881896973e-01,9.082713723182678223e-01,9.082294702529907227e-01,9.081875681877136230e-01,9.081456661224365234e-01,9.081038236618041992e-01,9.080618619918823242e-01,9.080199599266052246e-01,9.079781174659729004e-01,9.079362154006958008e-01,9.078942537307739258e-01,9.078524112701416016e-01,9.078105688095092773e-01,9.077687263488769531e-01,9.077268838882446289e-01,9.076849222183227539e-01,9.076430797576904297e-01,9.076012372970581055e-01,9.075594544410705566e-01,9.075176119804382324e-01,9.074757099151611328e-01,9.074338674545288086e-01,9.073920249938964844e-01,9.073502421379089355e-01,9.073084592819213867e-01,9.072665572166442871e-01,9.072247147560119629e-01,9.071829319000244141e-01,9.071411490440368652e-01,9.070992469787597656e-01,9.070574641227722168e-01,9.070156812667846680e-01,9.069738984107971191e-01
8.634788990020751953e-01,8.634410500526428223e-01,8.634031414985656738e-01,8.633652329444885254e-01,8.633273839950561523e-01,8.632895350456237793e-01,8.632517457008361816e-01,8.632137775421142578e-01,8.631759285926818848e-01,8.631381392478942871e-01,8.631002902984619141e-01,8.630623817443847656e-01,8.630245327949523926e-01,8.629867434501647949e-01,8.629488945007324219e-01,8.629111051559448242e-01,8.628731966018676758e-01,8.628353476524353027e-01,8.627975583076477051e-01,8.627597689628601074e-01,8.627219796180725098e-01,8.626840710639953613e-01,8.626462817192077637e-01,8.626084923744201660e-01,8.625707030296325684e-01,8.625329136848449707e-01,8.624950647354125977e-01,8.624572753906250000e-01,8.624194860458374023e-01,8.623817563056945801e-01,8.623439073562622070e-01,8.623061180114746094e-01,8.622683882713317871e-01,8.622305989265441895e-01,8.621928691864013672e-01,8.621550202369689941e-01,8.621172904968261719e-01,8.620795011520385742e-01,8.620417714118957520e-01,8.620040416717529297e-01,8.619662523269653320e-01,8.619285225868225098e-01,8.618907928466796875e-01,8.618530631065368652e-01,8.618153333663940430e-01,8.617775440216064453e-01,8.617398142814636230e-01,8.617020845413208008e-01,8.616644144058227539e-01,8.616266846656799316e-01,8.615888953208923340e-01,8.615512251853942871e-01,8.615134954452514648e-01,8.614758253097534180e-01,8.614380359649658203e-01,8.614003658294677734e-01,8.613626956939697266e-01,8.613250255584716797e-01,8.612873554229736328e-01,8.612495660781860352e-01,8.612118959426879883e-01,8.611742258071899414e-01,8.611366152763366699e-01,8.610989451408386230e-01,8.610612154006958008e-01,8.610235452651977539e-01,8.609858751296997070e-01,8.609482645988464355e-01,8.609105944633483887e-01,8.608728647232055664e-01,8.608352541923522949e-01,8.607976436614990234e-01,8.607599735260009766e-01,8.607223033905029297e-01,8.606846332550048828e-01,8.606470227241516113e-01,8.606094121932983398e-01,8.605718016624450684e-01,8.605341315269470215e-01,8.604965209960937500e-01
8.212486505508422852e-01,8.212143778800964355e-01,8.211801052093505859e-01,8.211458921432495117e-01,8.211115598678588867e-01,8.210773468017578125e-01,8.210430741310119629e-01,8.210088610649108887e-01,8.209745287895202637e-01,8.209403157234191895e-01,8.209061026573181152e-01,8.208718895912170410e-01,8.208376765251159668e-01,8.208033442497253418e-01,8.207691907882690430e-01,8.207349777221679688e-01,8.207007646560668945e-01,8.206665515899658203e-01,8.206322789192199707e-01,8.205980658531188965e-01,8.205638527870178223e-01,8.205296993255615234e-01,8.204954862594604492e-01,8.204612135887145996e-01,8.204270601272583008e-01,8.203928470611572266e-01,8.203586935997009277e-01,8.203244209289550781e-01,8.202902674674987793e-01,8.202561140060424805e-01,8.202219009399414062e-01,8.201877474784851074e-01,8.201535344123840332e-01,8.201193809509277344e-01,8.200852274894714355e-01,8.200510740280151367e-01,8.200169205665588379e-01,8.199827075004577637e-01,8.199485540390014648e-01,8.199144005775451660e-01,8.198802471160888672e-01,8.198461532592773438e-01,8.198119401931762695e-01,8.197777867317199707e-01,8.197436332702636719e-01,8.197095394134521484e-01,8.196753859519958496e-01,8.196412324905395508e-01,8.196070790290832520e-01,8.195729851722717285e-01,8.195388913154602051e-01,8.195046782493591309e-01,8.194705843925476074e-01,8.194364905357360840e-01,8.194023966789245605e-01,8.193683028221130371e-01,8.193340897560119629e-01,8.193000555038452148e-01,8.192659616470336914e-01,8.192318677902221680e-01,8.191977739334106445e-01,8.191636204719543457e-01,8.191295266151428223e-01,8.190954923629760742e-01,8.190613985061645508e-01,8.190273046493530273e-01,8.189932107925415039e-01,8.189591169357299805e-01,8.189250826835632324e-01,8.188909888267517090e-01,8.188568949699401855e-01,8.188228011131286621e-01,8.187887668609619141e-01,8.187547326087951660e-01,8.187206983566284180e-01,8.186865448951721191e-01,8.186525106430053711e-01,8.186184763908386230e-01,8.185845017433166504e-01,8.185504674911499023e-01
7.829565405845642090e-01,7.829253673553466797e-01,7.828941941261291504e-01,7.828630805015563965e-01,7.828319668769836426e-01,7.828007936477661133e-01,7.827696800231933594e-01,7.827385663986206055e-01,7.827074527740478516e-01,7.826763391494750977e-01,7.826451063156127930e-01,7.826140522956848145e-01,7.825829386711120605e-01,7.825518250465393066e-01,7.825207114219665527e-01,7.824895381927490234e-01,7.824584841728210449e-01,7.824273705482482910e-01,7.823962569236755371e-01,7.823652029037475586e-01,7.823340296745300293e-01,7.823029756546020508e-01,7.822718620300292969e-01,7.822408080101013184e-01,7.822096347808837891e-01,7.821785807609558105e-01,7.821475267410278320e-01,7.821164727210998535e-01,7.820854187011718750e-01,7.820542454719543457e-01,7.820231914520263672e-01,7.819921374320983887e-01,7.819610834121704102e-01,7.819300293922424316e-01,7.818989157676696777e-01,7.818678617477416992e-01,7.818368077278137207e-01,7.818058133125305176e-01,7.817747592926025391e-01,7.817436456680297852e-01,7.817125916481018066e-01,7.816815972328186035e-01,7.816505432128906250e-01,7.816194891929626465e-01,7.815884351730346680e-01,7.815573811531066895e-01,7.815263867378234863e-01,7.814953327178955078e-01,7.814642786979675293e-01,7.814332842826843262e-01,7.814022302627563477e-01,7.813712358474731445e-01,7.813402414321899414e-01,7.813091874122619629e-01,7.812781929969787598e-01,7.812471985816955566e-01,7.812162041664123535e-01,7.811852097511291504e-01,7.811540961265563965e-01,7.811231613159179688e-01,7.810921669006347656e-01,7.810611724853515625e-01,7.810301780700683594e-01,7.809991240501403809e-01,7.809681892395019531e-01,7.809371948242187500e-01,7.809062004089355469e-01,7.808752059936523438e-01,7.808442115783691406e-01,7.808132767677307129e-01,7.807822823524475098e-01,7.807513475418090820e-01,7.807202935218811035e-01,7.806893587112426758e-01,7.806584239006042480e-01,7.806274890899658203e-01,7.805964946746826172e-01,7.805655002593994141e-01,7.805345654487609863e-01,7.805036306381225586e-01
