5.000000000000000000e+00,5.000000000000000000e+00,5.000000000000000000e+00,5.000000000000000000e+00,5.000000000000000000e+00,5.000000000000000000e+00,5.000000000000000000e+00,5.000000000000000000e+00,5.000000000000000000e+00,5.000000000000000000e+00,5.000000000000000000e+00,5.000000000000000000e+00,5.000000000000000000e+00,5.000000000000000000e+00,5.000000000000000000e+00,5.000000000000000000e+00,5.000000000000000000e+00,5.000000000000000000e+00,5.000000000000000000e+00,5.000000000000000000e+00,5.000000000000000000e+00,5.000000000000000000e+00,5.000000000000000000e+00,5.000000000000000000e+00,5.000000000000000000e+00,5.000000000000000000e+00,5.000000000000000000e+00,5.000000000000000000e+00,5.000000000000000000e+00,5.000000000000000000e+00,5.000000000000000000e+00,5.000000000000000000e+00,5.000000000000000000e+00,5.000000000000000000e+00,5.000000000000000000e+00,5.000000000000000000e+00,5.000000000000000000e+00,5.000000000000000000e+00,5.000000000000000000e+00,4.858013153076171875e+00,4.667386054992675781e+00,4.491153717041015625e+00,4.327746391296386719e+00,4.175811767578125000e+00,4.034183502197265625e+00,3.901847839355468750e+00,3.777917861938476562e+00,3.661618232727050781e+00,3.552264928817749023e+00,3.449254035949707031e+00,3.352048873901367188e+00,3.260172605514526367e+00,3.173198461532592773e+00,3.090744018554687500e+00,3.012466430664062500e+00,2.938055753707885742e+00,2.867232322692871094e+00,2.799743175506591797e+00,2.735358238220214844e+00,2.673867940902709961e+00,2.615081310272216797e+00,2.558824062347412109e+00,2.504936218261718750e+00,2.453271389007568359e+00,2.403694629669189453e+00,2.356082201004028320e+00,2.310318946838378906e+00,2.266299724578857422e+00,2.223926544189453125e+00,2.183108806610107422e+00,2.143762350082397461e+00,2.105809211730957031e+00,2.069176197052001953e+00,2.033796310424804688e+00,1.999605774879455566e+00,1.966545939445495605e+00,1.934561371803283691e+00,1.903600931167602539e+00,1.873615503311157227e+00,1.844560027122497559e+00
5.000000000000000000e+00,5.000000000000000000e+00,5.000000000000000000e+00,5.000000000000000000e+00,5.000000000000000000e+00,5.000000000000000000e+00,5.000000000000000000e+00,5.000000000000000000e+00,5.000000000000000000e+00,5.000000000000000000e+00,5.000000000000000000e+00,5.000000000000000000e+00,5.000000000000000000e+00,5.000000000000000000e+00,5.000000000000000000e+00,5.000000000000000000e+00,5.000000000000000000e+00,5.000000000000000000e+00,5.000000000000000000e+00,5.000000000000000000e+00,5.000000000000000000e+00,5.000000000000000000e+00,5.000000000000000000e+00,5.000000000000000000e+00,5.000000000000000000e+00,5.000000000000000000e+00,5.000000000000000000e+00,5.000000000000000000e+00,5.000000000000000000e+00,5.000000000000000000e+00,5.000000000000000000e+00,5.000000000000000000e+00,5.000000000000000000e+00,5.000000000000000000e+00,5.000000000000000000e+00,5.000000000000000000e+00,5.000000000000000000e+00,5.000000000000000000e+00,5.000000000000000000e+00,4.858151435852050781e+00,4.667513370513916016e+00,4.491271972656250000e+00,4.327855587005615234e+00,4.175913810729980469e+00,4.034278869628906250e+00,3.901936769485473633e+00,3.778001308441162109e+00,3.661696434020996094e+00,3.552338600158691406e+00,3.449323654174804688e+00,3.352114915847778320e+00,3.260234832763671875e+00,3.173257350921630859e+00,3.090799808502197266e+00,3.012519359588623047e+00,2.938106536865234375e+00,2.867280721664428711e+00,2.799789190292358398e+00,2.735401868820190430e+00,2.673909664154052734e+00,2.615121364593505859e+00,2.558862209320068359e+00,2.504973173141479492e+00,2.453306674957275391e+00,2.403728485107421875e+00,2.356114625930786133e+00,2.310350179672241211e+00,2.266329765319824219e+00,2.223955631256103516e+00,2.183136701583862305e+00,2.143789291381835938e+00,2.105834960937500000e+00,2.069201231002807617e+00,2.033820390701293945e+00,1.999629139900207520e+00,1.966568827629089355e+00,1.934583544731140137e+00,1.903622031211853027e+00,1.873636007308959961e+00,1.844579935073852539e+00
5.000000000000000000e+00,5.000000000000000000e+00,5.000000000000000000e+00,5.000000000000000000e+00,5.000000000000000000e+00,5.000000000000000000e+00,5.000000000000000000e+00,5.000000000000000000e+00,5.000000000000000000e+00,5.000000000000000000e+00,5.000000000000000000e+00,5.000000000000000000e+00,5.000000000000000000e+00,5.000000000000000000e+00,5.000000000000000000e+00,5.000000000000000000e+00,5.000000000000000000e+00,5.000000000000000000e+00,5.000000000000000000e+00,5.000000000000000000e+00,5.000000000000000000e+00,5.000000000000000000e+00,5.000000000000000000e+00,5.000000000000000000e+00,5.000000000000000000e+00,5.000000000000000000e+00,5.000000000000000000e+00,5.000000000000000000e+00,5.000000000000000000e+00,5.000000000000000000e+00,5.000000000000000000e+00,5.000000000000000000e+00,5.000000000000000000e+00,5.000000000000000000e+00,5.000000000000000000e+00,5.000000000000000000e+00,5.000000000000000000e+00,5.000000000000000000e+00,5.000000000000000000e+00,4.858289241790771484e+00,4.667641162872314453e+00,4.491390228271484375e+00,4.327965259552001953e+00,4.176016330718994141e+00,4.034374237060546875e+00,3.902025699615478516e+00,3.778084993362426758e+00,3.661775112152099609e+00,3.552412748336791992e+00,3.449393272399902344e+00,3.352180480957031250e+00,3.260297060012817383e+00,3.173316240310668945e+00,3.090856075286865234e+00,3.012572765350341797e+00,2.938156843185424805e+00,2.867328643798828125e+00,2.799834966659545898e+00,2.735445737838745117e+00,2.673951625823974609e+00,2.615161418914794922e+00,2.558900594711303711e+00,2.505009651184082031e+00,2.453341722488403320e+00,2.403762102127075195e+00,2.356147050857543945e+00,2.310381412506103516e+00,2.266359806060791016e+00,2.223984479904174805e+00,2.183164596557617188e+00,2.143815994262695312e+00,2.105860948562622070e+00,2.069226264953613281e+00,2.033844709396362305e+00,1.999652743339538574e+00,1.966591358184814453e+00,1.934605360031127930e+00,1.903643250465393066e+00,1.873656511306762695e+00,1.844599843025207520e+00
5.000000000000000000e+00,5.000000000000000000e+00,5.000000000000000000e+00,5.000000000000000000e+00,5.000000000000000000e+00,5.000000000000000000e+00,5.000000000000000000e+00,5.000000000000000000e+00,5.000000000000000000e+00,5.000000000000000000e+00,5.000000000000000000e+00,5.000000000000000000e+00,5.000000000000000000e+00,5.000000000000000000e+00,5.000000000000000000e+00,5.000000000000000000e+00,5.000000000000000000e+00,5.000000000000000000e+00,5.000000000000000000e+00,5.000000000000000000e+00,5.000000000000000000e+00,5.000000000000000000e+00,5.000000000000000000e+00,5.000000000000000000e+00,5.000000000000000000e+00,5.000000000000000000e+00,5.000000000000000000e+00,5.000000000000000000e+00,5.000000000000000000e+00,5.000000000000000000e+00,5.000000000000000000e+00,5.000000000000000000e+00,5.000000000000000000e+00,5.000000000000000000e+00,5.000000000000000000e+00,5.000000000000000000e+00,5.000000000000000000e+00,5.000000000000000000e+00,5.000000000000000000e+00,4.858427524566650391e+00,4.667768478393554688e+00,4.491508483886718750e+00,4.328074932098388672e+00,4.176117897033691406e+00,4.034469604492187500e+00,3.902115106582641602e+00,3.778168439865112305e+00,3.661853551864624023e+00,3.552486419677734375e+00,3.449462890625000000e+00,3.352246522903442383e+00,3.260359287261962891e+00,3.173375129699707031e+00,3.090911865234375000e+00,3.012625694274902344e+00,2.938207387924194336e+00,2.867376804351806641e+00,2.799880981445312500e+00,2.735489606857299805e+00,2.673993349075317383e+00,2.615201473236083984e+00,2.558938980102539062e+00,2.505046367645263672e+00,2.453377246856689453e+00,2.403796195983886719e+00,2.356179475784301758e+00,2.310412645339965820e+00,2.266389846801757812e+00,2.224013328552246094e+00,2.183192491531372070e+00,2.143842935562133789e+00,2.105886936187744141e+00,2.069251298904418945e+00,2.033868789672851562e+00,1.999676108360290527e+00,1.966614007949829102e+00,1.934627294540405273e+00,1.903664350509643555e+00,1.873677015304565430e+00,1.844619750976562500e+00
5.000000000000000000e+00,5.000000000000000000e+00,5.000000000000000000e+00,5.000000000000000000e+00,5.000000000000000000e+00,5.000000000000000000e+00,5.000000000000000000e+00,5.000000000000000000e+00,5.000000000000000000e+00,5.000000000000000000e+00,5.000000000000000000e+00,5.000000000000000000e+00,5.000000000000000000e+00,5.000000000000000000e+00,5.000000000000000000e+00,5.000000000000000000e+00,5.000000000000000000e+00,5.000000000000000000e+00,5.000000000000000000e+00,5.000000000000000000e+00,5.000000000000000000e+00,5.000000000000000000e+00,5.000000000000000000e+00,5.000000000000000000e+00,5.000000000000000000e+00,5.000000000000000000e+00,5.000000000000000000e+00,5.000000000000000000e+00,5.000000000000000000e+00,5.000000000000000000e+00,5.000000000000000000e+00,5.000000000000000000e+00,5.000000000000000000e+00,5.000000000000000000e+00,5.000000000000000000e+00,5.000000000000000000e+00,5.000000000000000000e+00,5.000000000000000000e+00,5.000000000000000000e+00,4.858565807342529297e+00,4.667895793914794922e+00,4.491626739501953125e+00,4.328184604644775391e+00,4.176219940185546875e+00,4.034564971923828125e+00,3.902204036712646484e+00,3.778251886367797852e+00,3.661931991577148438e+00,3.552560567855834961e+00,3.449532747268676758e+00,3.352312088012695312e+00,3.260421514511108398e+00,3.173434019088745117e+00,3.090967655181884766e+00,3.012678861618041992e+00,2.938257932662963867e+00,2.867424964904785156e+00,2.799926757812500000e+00,2.735533237457275391e+00,2.674035072326660156e+00,2.615241527557373047e+00,2.558977365493774414e+00,2.505083322525024414e+00,2.453412294387817383e+00,2.403829813003540039e+00,2.356211900711059570e+00,2.310443878173828125e+00,2.266419887542724609e+00,2.224042177200317383e+00,2.183220148086547852e+00,2.143869876861572266e+00,2.105912923812866211e+00,2.069276332855224609e+00,2.033893108367919922e+00,1.999699473381042480e+00,1.966636538505554199e+00,1.934649109840393066e+00,1.903685569763183594e+00,1.873697519302368164e+00,1.844639539718627930e+00
5.000000000000000000e+00,5.000000000000000000e+00,5.000000000000000000e+00,5.000000000000000000e+00,5.000000000000000000e+00,5.000000000000000000e+00,5.000000000000000000e+00,5.000000000000000000e+00,5.000000000000000000e+00,5.000000000000000000e+00,5.000000000000000000e+00,5.000000000000000000e+00,5.000000000000000000e+00,5.000000000000000000e+00,5.000000000000000000e+00,5.000000000000000000e+00,5.000000000000000000e+00,5.000000000000000000e+00,5.000000000000000000e+00,5.000000000000000000e+00,5.000000000000000000e+00,5.000000000000000000e+00,5.000000000000000000e+00,5.000000000000000000e+00,5.000000000000000000e+00,5.000000000000000000e+00,5.000000000000000000e+00,5.000000000000000000e+00,5.000000000000000000e+00,5.000000000000000000e+00,5.000000000000000000e+00,5.000000000000000000e+00,5.000000000000000000e+00,5.000000000000000000e+00,5.000000000000000000e+00,5.000000000000000000e+00,5.000000000000000000e+00,5.000000000000000000e+00,5.000000000000000000e+00,4.858704090118408203e+00,4.668023586273193359e+00,4.491744518280029297e+00,4.328294754028320312e+00,4.176322460174560547e+00,4.034659862518310547e+00,3.902293443679809570e+00,3.778335571289062500e+00,3.662010669708251953e+00,3.552634239196777344e+00,3.449602127075195312e+00,3.352377653121948242e+00,3.260483980178833008e+00,3.173493146896362305e+00,3.091023683547973633e+00,3.012732028961181641e+00,2.938308477401733398e+00,2.867472887039184570e+00,2.799972534179687500e+00,2.735577344894409180e+00,2.674077272415161133e+00,2.615281581878662109e+00,2.559015750885009766e+00,2.505119800567626953e+00,2.453447580337524414e+00,2.403863906860351562e+00,2.356244564056396484e+00,2.310475111007690430e+00,2.266449689865112305e+00,2.224071025848388672e+00,2.183248043060302734e+00,2.143896579742431641e+00,2.105938911437988281e+00,2.069301366806030273e+00,2.033917427062988281e+00,1.999722838401794434e+00,1.966659188270568848e+00,1.934670925140380859e+00,1.903706908226013184e+00,1.873718261718750000e+00,1.844659686088562012e+00
5.000000000000000000e+00,5.000000000000000000e+00,5.000000000000000000e+00,5.000000000000000000e+00,5.000000000000000000e+00,5.000000000000000000e+00,5.000000000000000000e+00,5.000000000000000000e+00,5.000000000000000000e+00,5.000000000000000000e+00,5.000000000000000000e+00,5.000000000000000000e+00,5.000000000000000000e+00,5.000000000000000000e+00,5.000000000000000000e+00,5.000000000000000000e+00,5.000000000000000000e+00,5.000000000000000000e+00,5.000000000000000000e+00,5.000000000000000000e+00,5.000000000000000000e+00,5.000000000000000000e+00,5.000000000000000000e+00,5.000000000000000000e+00,5.000000000000000000e+00,5.000000000000000000e+00,5.000000000000000000e+00,5.000000000000000000e+00,5.000000000000000000e+00,5.000000000000000000e+00,5.000000000000000000e+00,5.000000000000000000e+00,5.000000000000000000e+00,5.000000000000000000e+00,5.000000000000000000e+00,5.000000000000000000e+00,5.000000000000000000e+00,5.000000000000000000e+00,5.000000000000000000e+00,4.858842372894287109e+00,4.668150901794433594e+00,4.491862773895263672e+00,4.328404426574707031e+00,4.176424503326416016e+00,4.034755229949951172e+00,3.902382373809814453e+00,3.778419017791748047e+00,3.662088871002197266e+00,3.552708148956298828e+00,3.449671983718872070e+00,3.352443695068359375e+00,3.260545969009399414e+00,3.173552036285400391e+00,3.091079473495483398e+00,3.012784957885742188e+00,2.938359022140502930e+00,2.867521286010742188e+00,2.800018548965454102e+00,2.735620975494384766e+00,2.674118995666503906e+00,2.615321397781372070e+00,2.559053897857666016e+00,2.505156755447387695e+00,2.453482866287231445e+00,2.403897523880004883e+00,2.356276988983154297e+00,2.310506105422973633e+00,2.266479730606079102e+00,2.224100112915039062e+00,2.183276176452636719e+00,2.143923521041870117e+00,2.105964660644531250e+00,2.069326400756835938e+00,2.033941507339477539e+00,1.999746441841125488e+00,1.966681957244873047e+00,1.934693098068237305e+00,1.903728127479553223e+00,1.873738765716552734e+00,1.844679474830627441e+00
5.000000000000000000e+00,5.000000000000000000e+00,5.000000000000000000e+00,5.000000000000000000e+00,5.000000000000000000e+00,5.000000000000000000e+00,5.000000000000000000e+00,5.000000000000000000e+00,5.000000000000000000e+00,5.000000000000000000e+00,5.000000000000000000e+00,5.000000000000000000e+00,5.000000000000000000e+00,5.000000000000000000e+00,5.000000000000000000e+00,5.000000000000000000e+00,5.000000000000000000e+00,5.000000000000000000e+00,5.000000000000000000e+00,5.000000000000000000e+00,5.000000000000000000e+00,5.000000000000000000e+00,5.000000000000000000e+00,5.000000000000000000e+00,5.000000000000000000e+00,5.000000000000000000e+00,5.000000000000000000e+00,5.000000000000000000e+00,5.000000000000000000e+00,5.000000000000000000e+00,5.000000000000000000e+00,5.000000000000000000e+00,5.000000000000000000e+00,5.000000000000000000e+00,5.000000000000000000e+00,5.000000000000000000e+00,5.000000000000000000e+00,5.000000000000000000e+00,5.000000000000000000e+00,4.858980178833007812e+00,4.668278694152832031e+00,4.491980552673339844e+00,4.328513622283935547e+00,4.176526546478271484e+00,4.034850597381591797e+00,3.902471303939819336e+00,3.778502941131591797e+00,3.662167787551879883e+00,3.552782058715820312e+00,3.449741601943969727e+00,3.352509260177612305e+00,3.260608196258544922e+00,3.173610925674438477e+00,3.091135740280151367e+00,3.012838363647460938e+00,2.938409566879272461e+00,2.867569208145141602e+00,2.800064563751220703e+00,2.735664606094360352e+00,2.674160957336425781e+00,2.615361690521240234e+00,2.559092283248901367e+00,2.505193471908569336e+00,2.453517913818359375e+00,2.403931379318237305e+00,2.356309413909912109e+00,2.310537338256835938e+00,2.266510009765625000e+00,2.224128961563110352e+00,2.183303833007812500e+00,2.143950462341308594e+00,2.105990648269653320e+00,2.069351673126220703e+00,2.033965826034545898e+00,1.999769806861877441e+00,1.966704607009887695e+00,1.934714913368225098e+00,1.903749227523803711e+00,1.873759150505065918e+00,1.844699382781982422e+00
5.000000000000000000e+00,5.000000000000000000e+00,5.000000000000000000e+00,5.000000000000000000e+00,5.000000000000000000e+00,5.000000000000000000e+00,5.000000000000000000e+00,5.000000000000000000e+00,5.000000000000000000e+00,5.000000000000000000e+00,5.000000000000000000e+00,5.000000000000000000e+00,5.000000000000000000e+00,5.000000000000000000e+00,5.000000000000000000e+00,5.000000000000000000e+00,5.000000000000000000e+00,5.000000000000000000e+00,5.000000000000000000e+00,5.000000000000000000e+00,5.000000000000000000e+00,5.000000000000000000e+00,5.000000000000000000e+00,5.000000000000000000e+00,5.000000000000000000e+00,5.000000000000000000e+00,5.000000000000000000e+00,5.000000000000000000e+00,5.000000000000000000e+00,5.000000000000000000e+00,5.000000000000000000e+00,5.000000000000000000e+00,5.000000000000000000e+00,5.000000000000000000e+00,5.000000000000000000e+00,5.000000000000000000e+00,5.000000000000000000e+00,5.000000000000000000e+00,5.000000000000000000e+00,4.859118461608886719e+00,4.668406486511230469e+00,4.492098808288574219e+00,4.328623294830322266e+00,4.176628589630126953e+00,4.034945964813232422e+00,3.902560710906982422e+00,3.778586387634277344e+00,3.662245988845825195e+00,3.552855968475341797e+00,3.449810981750488281e+00,3.352575302124023438e+00,3.260670423507690430e+00,3.173670053482055664e+00,3.091191530227661133e+00,3.012891292572021484e+00,2.938459873199462891e+00,2.867617607116699219e+00,2.800110578536987305e+00,2.735708713531494141e+00,2.674202680587768555e+00,2.615401506423950195e+00,2.559130668640136719e+00,2.505229949951171875e+00,2.453553438186645508e+00,2.403964996337890625e+00,2.356341838836669922e+00,2.310568571090698242e+00,2.266539812088012695e+00,2.224157810211181641e+00,2.183331966400146484e+00,2.143977403640747070e+00,2.106016635894775391e+00,2.069376707077026367e+00,2.033989906311035156e+00,1.999793171882629395e+00,1.966727137565612793e+00,1.934736728668212891e+00,1.903770446777343750e+00,1.873779773712158203e+00,1.844719290733337402e+00
5.000000000000000000e+00,5.000000000000000000e+00,5.000000000000000000e+00,5.000000000000000000e+00,5.000000000000000000e+00,5.000000000000000000e+00,5.000000000000000000e+00,5.000000000000000000e+00,5.000000000000000000e+00,5.000000000000000000e+00,5.000000000000000000e+00,5.000000000000000000e+00,5.000000000000000000e+00,5.000000000000000000e+00,5.000000000000000000e+00,5.000000000000000000e+00,5.000000000000000000e+00,5.000000000000000000e+00,5.000000000000000000e+00,5.000000000000000000e+00,5.000000000000000000e+00,5.000000000000000000e+00,5.000000000000000000e+00,5.000000000000000000e+00,5.000000000000000000e+00,5.000000000000000000e+00,5.000000000000000000e+00,5.000000000000000000e+00,5.000000000000000000e+00,5.000000000000000000e+00,5.000000000000000000e+00,5.000000000000000000e+00,5.000000000000000000e+00,5.000000000000000000e+00,5.000000000000000000e+00,5.000000000000000000e+00,5.000000000000000000e+00,5.000000000000000000e+00,5.000000000000000000e+00,4.859256744384765625e+00,4.668533802032470703e+00,4.492217063903808594e+00,4.328732967376708984e+00,4.176730632781982422e+00,4.035041332244873047e+00,3.902649641036987305e+00,3.778669595718383789e+00,3.662324666976928711e+00,3.552929878234863281e+00,3.449880838394165039e+00,3.352641105651855469e+00,3.260732650756835938e+00,3.173728942871093750e+00,3.091247320175170898e+00,3.012944698333740234e+00,2.938510656356811523e+00,2.867665529251098633e+00,2.800156354904174805e+00,2.735752344131469727e+00,2.674244403839111328e+00,2.615441799163818359e+00,2.559169054031372070e+00,2.505266904830932617e+00,2.453588247299194336e+00,2.403998851776123047e+00,2.356374263763427734e+00,2.310599803924560547e+00,2.266570091247558594e+00,2.224186897277832031e+00,2.183359861373901367e+00,2.144004344940185547e+00,2.106042623519897461e+00,2.069401741027832031e+00,2.034014225006103516e+00,1.999816536903381348e+00,1.966749787330627441e+00,1.934758663177490234e+00,1.903791666030883789e+00,1.873800277709960938e+00,1.844739317893981934e+00
5.000000000000000000e+00,5.000000000000000000e+00,5.000000000000000000e+00,5.000000000000000000e+00,5.000000000000000000e+00,5.000000000000000000e+00,5.000000000000000000e+00,5.000000000000000000e+00,5.000000000000000000e+00,5.000000000000000000e+00,5.000000000000000000e+00,5.000000000000000000e+00,5.000000000000000000e+00,5.000000000000000000e+00,5.000000000000000000e+00,5.000000000000000000e+00,5.000000000000000000e+00,5.000000000000000000e+00,5.000000000000000000e+00,5.000000000000000000e+00,5.000000000000000000e+00,5.000000000000000000e+00,5.000000000000000000e+00,5.000000000000000000e+00,5.000000000000000000e+00,5.000000000000000000e+00,5.000000000000000000e+00,5.000000000000000000e+00,5.000000000000000000e+00,5.000000000000000000e+00,5.000000000000000000e+00,5.000000000000000000e+00,5.000000000000000000e+00,5.000000000000000000e+00,5.000000000000000000e+00,5.000000000000000000e+00,5.000000000000000000e+00,5.000000000000000000e+00,5.000000000000000000e+00,4.859395027160644531e+00,4.668661117553710938e+00,4.492334842681884766e+00,4.328843116760253906e+00,4.176832675933837891e+00,4.035136222839355469e+00,3.902739286422729492e+00,3.778753519058227539e+00,3.662403106689453125e+00,3.553003787994384766e+00,3.449950456619262695e+00,3.352706670761108398e+00,3.260795116424560547e+00,3.173788070678710938e+00,3.091303348541259766e+00,3.012997627258300781e+00,2.938560962677001953e+00,2.867713689804077148e+00,2.800202131271362305e+00,2.735796213150024414e+00,2.674286365509033203e+00,2.615481615066528320e+00,2.559207201004028320e+00,2.505303382873535156e+00,2.453623294830322266e+00,2.404032707214355469e+00,2.356406927108764648e+00,2.310631036758422852e+00,2.266600131988525391e+00,2.224215745925903320e+00,2.183387517929077148e+00,2.144031286239624023e+00,2.106068611145019531e+00,2.069426774978637695e+00,2.034038305282592773e+00,1.999839901924133301e+00,1.966772317886352539e+00,1.934780478477478027e+00,1.903813004493713379e+00,1.873820900917053223e+00,1.844759225845336914e+00
5.000000000000000000e+00,5.000000000000000000e+00,5.000000000000000000e+00,5.000000000000000000e+00,5.000000000000000000e+00,5.000000000000000000e+00,5.000000000000000000e+00,5.000000000000000000e+00,5.000000000000000000e+00,5.000000000000000000e+00,5.000000000000000000e+00,5.000000000000000000e+00,5.000000000000000000e+00,5.000000000000000000e+00,5.000000000000000000e+00,5.000000000000000000e+00,5.000000000000000000e+00,5.000000000000000000e+00,5.000000000000000000e+00,5.000000000000000000e+00,5.000000000000000000e+00,5.000000000000000000e+00,5.000000000000000000e+00,5.000000000000000000e+00,5.000000000000000000e+00,5.000000000000000000e+00,5.000000000000000000e+00,5.000000000000000000e+00,5.000000000000000000e+00,5.000000000000000000e+00,5.000000000000000000e+00,5.000000000000000000e+00,5.000000000000000000e+00,5.000000000000000000e+00,5.000000000000000000e+00,5.000000000000000000e+00,5.000000000000000000e+00,5.000000000000000000e+00,5.000000000000000000e+00,4.859533309936523438e+00,4.668788909912109375e+00,4.492453098297119141e+00,4.328952789306640625e+00,4.176935195922851562e+00,4.035231590270996094e+00,3.902828216552734375e+00,3.778836965560913086e+00,3.662481546401977539e+00,3.553077459335327148e+00,3.450020313262939453e+00,3.352772712707519531e+00,3.260857105255126953e+00,3.173846721649169922e+00,3.091359138488769531e+00,3.013050556182861328e+00,2.938611745834350586e+00,2.867761850357055664e+00,2.800248146057128906e+00,2.735840082168579102e+00,2.674328327178955078e+00,2.615521669387817383e+00,2.559245824813842773e+00,2.505340099334716797e+00,2.453658819198608398e+00,2.404066562652587891e+00,2.356439352035522461e+00,2.310662269592285156e+00,2.266630172729492188e+00,2.224244832992553711e+00,2.183415651321411133e+00,2.144058227539062500e+00,2.106094598770141602e+00,2.069451808929443359e+00,2.034062623977661133e+00,1.999863505363464355e+00,1.966795206069946289e+00,1.934802651405334473e+00,1.903834223747253418e+00,1.873841524124145508e+00,1.844779133796691895e+00
5.000000000000000000e+00,5.000000000000000000e+00,5.000000000000000000e+00,5.000000000000000000e+00,5.000000000000000000e+00,5.000000000000000000e+00,5.000000000000000000e+00,5.000000000000000000e+00,5.000000000000000000e+00,5.000000000000000000e+00,5.000000000000000000e+00,5.000000000000000000e+00,5.000000000000000000e+00,5.000000000000000000e+00,5.000000000000000000e+00,5.000000000000000000e+00,5.000000000000000000e+00,5.000000000000000000e+00,5.000000000000000000e+00,5.000000000000000000e+00,5.000000000000000000e+00,5.000000000000000000e+00,5.000000000000000000e+00,5.000000000000000000e+00,5.000000000000000000e+00,5.000000000000000000e+00,5.000000000000000000e+00,5.000000000000000000e+00,5.000000000000000000e+00,5.000000000000000000e+00,5.000000000000000000e+00,5.000000000000000000e+00,5.000000000000000000e+00,5.000000000000000000e+00,5.000000000000000000e+00,5.000000000000000000e+00,5.000000000000000000e+00,5.000000000000000000e+00,5.000000000000000000e+00,4.859671592712402344e+00,4.668916702270507812e+00,4.492571353912353516e+00,4.329061985015869141e+00,4.177037239074707031e+00,4.035326957702636719e+00,3.902917146682739258e+00,3.778920650482177734e+00,3.662560224533081055e+00,3.553151607513427734e+00,3.450089931488037109e+00,3.352838277816772461e+00,3.260919332504272461e+00,3.173905849456787109e+00,3.091415405273437500e+00,3.013103961944580078e+00,2.938662290573120117e+00,2.867810010910034180e+00,2.800293922424316406e+00,2.735883712768554688e+00,2.674370288848876953e+00,2.615561485290527344e+00,2.559283733367919922e+00,2.505376815795898438e+00,2.453693866729736328e+00,2.404100179672241211e+00,2.356471776962280273e+00,2.310693740844726562e+00,2.266660213470458984e+00,2.224273681640625000e+00,2.183443307876586914e+00,2.144084930419921875e+00,2.106120586395263672e+00,2.069476842880249023e+00,2.034086942672729492e+00,1.999886870384216309e+00,1.966817736625671387e+00,1.934824466705322266e+00,1.903855323791503906e+00,1.873862028121948242e+00,1.844799041748046875e+00
5.000000000000000000e+00,5.000000000000000000e+00,5.000000000000000000e+00,5.000000000000000000e+00,5.000000000000000000e+00,5.000000000000000000e+00,5.000000000000000000e+00,5.000000000000000000e+00,5.000000000000000000e+00,5.000000000000000000e+00,5.000000000000000000e+00,5.000000000000000000e+00,5.000000000000000000e+00,5.000000000000000000e+00,5.000000000000000000e+00,5.000000000000000000e+00,5.000000000000000000e+00,5.000000000000000000e+00,5.000000000000000000e+00,5.000000000000000000e+00,5.000000000000000000e+00,5.000000000000000000e+00,5.000000000000000000e+00,5.000000000000000000e+00,5.000000000000000000e+00,5.000000000000000000e+00,5.000000000000000000e+00,5.000000000000000000e+00,5.000000000000000000e+00,5.000000000000000000e+00,5.000000000000000000e+00,5.000000000000000000e+00,5.000000000000000000e+00,5.000000000000000000e+00,5.000000000000000000e+00,5.000000000000000000e+00,5.000000000000000000e+00,5.000000000000000000e+00,5.000000000000000000e+00,4.859809875488281250e+00,4.669044017791748047e+00,4.492689609527587891e+00,4.329171657562255859e+00,4.177139282226562500e+00,4.035422325134277344e+00,3.903006553649902344e+00,3.779004096984863281e+00,3.662638664245605469e+00,3.553225278854370117e+00,3.450159311294555664e+00,3.352904319763183594e+00,3.260981798171997070e+00,3.173964738845825195e+00,3.091471195220947266e+00,3.013156890869140625e+00,2.938712596893310547e+00,2.867858171463012695e+00,2.800339937210083008e+00,2.735927581787109375e+00,2.674412012100219727e+00,2.615601539611816406e+00,2.559322118759155273e+00,2.505413532257080078e+00,2.453729391098022461e+00,2.404134273529052734e+00,2.356504201889038086e+00,2.310724973678588867e+00,2.266690254211425781e+00,2.224302768707275391e+00,2.183471441268920898e+00,2.144112110137939453e+00,2.106146574020385742e+00,2.069501876831054688e+00,2.034111022949218750e+00,1.999910235404968262e+00,1.966840386390686035e+00,1.934846282005310059e+00,1.903876543045043945e+00,1.873882532119750977e+00,1.844818830490112305e+00
5.000000000000000000e+00,5.000000000000000000e+00,5.000000000000000000e+00,5.000000000000000000e+00,5.000000000000000000e+00,5.000000000000000000e+00,5.000000000000000000e+00,5.000000000000000000e+00,5.000000000000000000e+00,5.000000000000000000e+00,5.000000000000000000e+00,5.000000000000000000e+00,5.000000000000000000e+00,5.000000000000000000e+00,5.000000000000000000e+00,5.000000000000000000e+00,5.000000000000000000e+00,5.000000000000000000e+00,5.000000000000000000e+00,5.000000000000000000e+00,5.000000000000000000e+00,5.000000000000000000e+00,5.000000000000000000e+00,5.000000000000000000e+00,5.000000000000000000e+00,5.000000000000000000e+00,5.000000000000000000e+00,5.000000000000000000e+00,5.000000000000000000e+00,5.000000000000000000e+00,5.000000000000000000e+00,5.000000000000000000e+00,5.000000000000000000e+00,5.000000000000000000e+00,5.000000000000000000e+00,5.000000000000000000e+00,5.000000000000000000e+00,5.000000000000000000e+00,5.000000000000000000e+00,4.859948158264160156e+00,4.669171810150146484e+00,4.492807865142822266e+00,4.329281806945800781e+00,4.177241325378417969e+00,4.035517692565917969e+00,3.903095483779907227e+00,3.779087543487548828e+00,3.662717342376708984e+00,3.553299427032470703e+00,3.450229167938232422e+00,3.352970123291015625e+00,3.261043787002563477e+00,3.174023628234863281e+00,3.091526985168457031e+00,3.013210296630859375e+00,2.938763380050659180e+00,2.867906332015991211e+00,2.800385713577270508e+00,2.735971212387084961e+00,2.674453496932983398e+00,2.615641593933105469e+00,2.559360504150390625e+00,2.505450248718261719e+00,2.453764438629150391e+00,2.404167890548706055e+00,2.356536865234375000e+00,2.310756206512451172e+00,2.266720533370971680e+00,2.224331617355346680e+00,2.183499336242675781e+00,2.144138813018798828e+00,2.106172323226928711e+00,2.069526910781860352e+00,2.034135341644287109e+00,1.999933600425720215e+00,1.966863036155700684e+00,1.934868216514587402e+00,1.903897762298583984e+00,1.873903036117553711e+00,1.844838976860046387e+00
5.000000000000000000e+00,5.000000000000000000e+00,5.000000000000000000e+00,5.000000000000000000e+00,5.000000000000000000e+00,5.000000000000000000e+00,5.000000000000000000e+00,5.000000000000000000e+00,5.000000000000000000e+00,5.000000000000000000e+00,5.000000000000000000e+00,5.000000000000000000e+00,5.000000000000000000e+00,5.000000000000000000e+00,5.000000000000000000e+00,5.000000000000000000e+00,5.000000000000000000e+00,5.000000000000000000e+00,5.000000000000000000e+00,5.000000000000000000e+00,5.000000000000000000e+00,5.000000000000000000e+00,5.000000000000000000e+00,5.000000000000000000e+00,5.000000000000000000e+00,5.000000000000000000e+00,5.000000000000000000e+00,5.000000000000000000e+00,5.000000000000000000e+00,5.000000000000000000e+00,5.000000000000000000e+00,5.000000000000000000e+00,5.000000000000000000e+00,5.000000000000000000e+00,5.000000000000000000e+00,5.000000000000000000e+00,5.000000000000000000e+00,5.000000000000000000e+00,5.000000000000000000e+00,4.860086441040039062e+00,4.669299125671386719e+00,4.492926120758056641e+00,4.329391479492187500e+00,4.177343368530273438e+00,4.035613059997558594e+00,3.903184890747070312e+00,3.779171466827392578e+00,3.662795782089233398e+00,3.553373336791992188e+00,3.450298786163330078e+00,3.353035688400268555e+00,3.261106252670288086e+00,3.174082756042480469e+00,3.091583013534545898e+00,3.013263225555419922e+00,2.938813924789428711e+00,2.867954254150390625e+00,2.800431728363037109e+00,2.736015081405639648e+00,2.674495458602905273e+00,2.615681648254394531e+00,2.559398651123046875e+00,2.505486965179443359e+00,2.453799724578857422e+00,2.404201984405517578e+00,2.356569290161132812e+00,2.310787439346313477e+00,2.266750335693359375e+00,2.224360704421997070e+00,2.183527231216430664e+00,2.144165754318237305e+00,2.106198549270629883e+00,2.069552183151245117e+00,2.034159421920776367e+00,1.999956965446472168e+00,1.966885566711425781e+00,1.934890031814575195e+00,1.903919100761413574e+00,1.873923659324645996e+00,1.844858884811401367e+00
5.000000000000000000e+00,5.000000000000000000e+00,5.000000000000000000e+00,5.000000000000000000e+00,5.000000000000000000e+00,5.000000000000000000e+00,5.000000000000000000e+00,5.000000000000000000e+00,5.000000000000000000e+00,5.000000000000000000e+00,5.000000000000000000e+00,5.000000000000000000e+00,5.000000000000000000e+00,5.000000000000000000e+00,5.000000000000000000e+00,5.000000000000000000e+00,5.000000000000000000e+00,5.000000000000000000e+00,5.000000000000000000e+00,5.000000000000000000e+00,5.000000000000000000e+00,5.000000000000000000e+00,5.000000000000000000e+00,5.000000000000000000e+00,5.000000000000000000e+00,5.000000000000000000e+00,5.000000000000000000e+00,5.000000000000000000e+00,5.000000000000000000e+00,5.000000000000000000e+00,5.000000000000000000e+00,5.000000000000000000e+00,5.000000000000000000e+00,5.000000000000000000e+00,5.000000000000000000e+00,5.000000000000000000e+00,5.000000000000000000e+00,5.000000000000000000e+00,5.000000000000000000e+00,4.860224723815917969e+00,4.669426918029785156e+00,4.493043899536132812e+00,4.329501152038574219e+00,4.177445411682128906e+00,4.035708427429199219e+00,3.903274059295654297e+00,3.779254913330078125e+00,3.662873983383178711e+00,3.553447246551513672e+00,3.450368642807006836e+00,3.353101730346679688e+00,3.261168479919433594e+00,3.174141645431518555e+00,3.091638803482055664e+00,3.013316392898559570e+00,2.938864469528198242e+00,2.868002653121948242e+00,2.800477266311645508e+00,2.736058712005615234e+00,2.674537420272827148e+00,2.615721702575683594e+00,2.559437274932861328e+00,2.505523920059204102e+00,2.453835010528564453e+00,2.404235601425170898e+00,2.356601715087890625e+00,2.310818672180175781e+00,2.266780376434326172e+00,2.224389553070068359e+00,2.183555126190185547e+00,2.144192695617675781e+00,2.106224298477172852e+00,2.069577217102050781e+00,2.034183740615844727e+00,1.999980568885803223e+00,1.966908454895019531e+00,1.934912204742431641e+00,1.903940200805664062e+00,1.873944282531738281e+00,1.844878673553466797e+00
5.000000000000000000e+00,5.000000000000000000e+00,5.000000000000000000e+00,5.000000000000000000e+00,5.000000000000000000e+00,5.000000000000000000e+00,5.000000000000000000e+00,5.000000000000000000e+00,5.000000000000000000e+00,5.000000000000000000e+00,5.000000000000000000e+00,5.000000000000000000e+00,5.000000000000000000e+00,5.000000000000000000e+00,5.000000000000000000e+00,5.000000000000000000e+00,5.000000000000000000e+00,5.000000000000000000e+00,5.000000000000000000e+00,5.000000000000000000e+00,5.000000000000000000e+00,5.000000000000000000e+00,5.000000000000000000e+00,5.000000000000000000e+00,5.000000000000000000e+00,5.000000000000000000e+00,5.000000000000000000e+00,5.000000000000000000e+00,5.000000000000000000e+00,5.000000000000000000e+00,5.000000000000000000e+00,5.000000000000000000e+00,5.000000000000000000e+00,5.000000000000000000e+00,5.000000000000000000e+00,5.000000000000000000e+00,5.000000000000000000e+00,5.000000000000000000e+00,5.000000000000000000e+00,4.860363006591796875e+00,4.669554710388183594e+00,4.493162155151367188e+00,4.329610824584960938e+00,4.177547931671142578e+00,4.035803794860839844e+00,3.903362989425659180e+00,3.779338836669921875e+00,3.662952899932861328e+00,3.553521156311035156e+00,3.450438261032104492e+00,3.353167295455932617e+00,3.261230468750000000e+00,3.174200773239135742e+00,3.091695070266723633e+00,3.013369560241699219e+00,2.938915014266967773e+00,2.868050575256347656e+00,2.800523281097412109e+00,2.736102581024169922e+00,2.674579381942749023e+00,2.615761756896972656e+00,2.559475421905517578e+00,2.505560636520385742e+00,2.453870058059692383e+00,2.404269456863403320e+00,2.356634378433227539e+00,2.310849905014038086e+00,2.266810655593872070e+00,2.224418640136718750e+00,2.183583021163940430e+00,2.144219636917114258e+00,2.106250524520874023e+00,2.069602251052856445e+00,2.034208059310913086e+00,2.000003814697265625e+00,1.966930985450744629e+00,1.934934020042419434e+00,1.903961420059204102e+00,1.873964786529541016e+00,1.844898581504821777e+00
5.000000000000000000e+00,5.000000000000000000e+00,5.000000000000000000e+00,5.000000000000000000e+00,5.000000000000000000e+00,5.000000000000000000e+00,5.000000000000000000e+00,5.000000000000000000e+00,5.000000000000000000e+00,5.000000000000000000e+00,5.000000000000000000e+00,5.000000000000000000e+00,5.000000000000000000e+00,5.000000000000000000e+00,5.000000000000000000e+00,5.000000000000000000e+00,5.000000000000000000e+00,5.000000000000000000e+00,5.000000000000000000e+00,5.000000000000000000e+00,5.000000000000000000e+00,5.000000000000000000e+00,5.000000000000000000e+00,5.000000000000000000e+00,5.000000000000000000e+00,5.000000000000000000e+00,5.000000000000000000e+00,5.000000000000000000e+00,5.000000000000000000e+00,5.000000000000000000e+00,5.000000000000000000e+00,5.000000000000000000e+00,5.000000000000000000e+00,5.000000000000000000e+00,5.000000000000000000e+00,5.000000000000000000e+00,5.000000000000000000e+00,5.000000000000000000e+00,5.000000000000000000e+00,4.860500812530517578e+00,4.669682502746582031e+00,4.493280410766601562e+00,4.329720497131347656e+00,4.177649974822998047e+00,4.035899162292480469e+00,3.903452396392822266e+00,3.779422283172607422e+00,3.663031101226806641e+00,3.553594827651977539e+00,3.450507879257202148e+00,3.353233337402343750e+00,3.261292934417724609e+00,3.174259662628173828e+00,3.091750860214233398e+00,3.013422727584838867e+00,2.938965082168579102e+00,2.868098735809326172e+00,2.800569295883178711e+00,2.736146450042724609e+00,2.674621105194091797e+00,2.615801811218261719e+00,2.559513807296752930e+00,2.505597352981567383e+00,2.453905582427978516e+00,2.404303312301635742e+00,2.356666803359985352e+00,2.310881137847900391e+00,2.266840696334838867e+00,2.224447488784790039e+00,2.183610916137695312e+00,2.144246578216552734e+00,2.106276273727416992e+00,2.069627285003662109e+00,2.034232139587402344e+00,2.000027179718017578e+00,1.966953635215759277e+00,1.934955954551696777e+00,1.903982639312744141e+00,1.873985290527343750e+00,1.844918489456176758e+00
5.000000000000000000e+00,5.000000000000000000e+00,5.000000000000000000e+00,5.000000000000000000e+00,5.000000000000000000e+00,5.000000000000000000e+00,5.000000000000000000e+00,5.000000000000000000e+00,5.000000000000000000e+00,5.000000000000000000e+00,5.000000000000000000e+00,5.000000000000000000e+00,5.000000000000000000e+00,5.000000000000000000e+00,5.000000000000000000e+00,5.000000000000000000e+00,5.000000000000000000e+00,5.000000000000000000e+00,5.000000000000000000e+00,5.000000000000000000e+00,5.000000000000000000e+00,5.000000000000000000e+00,5.000000000000000000e+00,5.000000000000000000e+00,5.000000000000000000e+00,5.000000000000000000e+00,5.000000000000000000e+00,5.000000000000000000e+00,5.000000000000000000e+00,5.000000000000000000e+00,5.000000000000000000e+00,5.000000000000000000e+00,5.000000000000000000e+00,5.000000000000000000e+00,5.000000000000000000e+00,5.000000000000000000e+00,5.000000000000000000e+00,5.000000000000000000e+00,5.000000000000000000e+00,4.860639095306396484e+00,4.669809818267822266e+00,4.493398666381835938e+00,4.329830169677734375e+00,4.177752017974853516e+00,4.035994529724121094e+00,3.903541326522827148e+00,3.779505491256713867e+00,3.663110017776489258e+00,3.553668975830078125e+00,3.450577735900878906e+00,3.353299140930175781e+00,3.261355161666870117e+00,3.174318552017211914e+00,3.091806888580322266e+00,3.013475894927978516e+00,2.939015865325927734e+00,2.868146896362304688e+00,2.800615072250366211e+00,2.736190319061279297e+00,2.674662828445434570e+00,2.615841865539550781e+00,2.559552192687988281e+00,2.505634069442749023e+00,2.453940629959106445e+00,2.404337167739868164e+00,2.356699228286743164e+00,2.310912370681762695e+00,2.266870737075805664e+00,2.224476575851440430e+00,2.183638811111450195e+00,2.144273519515991211e+00,2.106302261352539062e+00,2.069652318954467773e+00,2.034256458282470703e+00,2.000050544738769531e+00,1.966976165771484375e+00,1.934977769851684570e+00,1.904003739356994629e+00,1.874005794525146484e+00,1.844938635826110840e+00
5.000000000000000000e+00,5.000000000000000000e+00,5.000000000000000000e+00,5.000000000000000000e+00,5.000000000000000000e+00,5.000000000000000000e+00,5.000000000000000000e+00,5.000000000000000000e+00,5.000000000000000000e+00,5.000000000000000000e+00,5.000000000000000000e+00,5.000000000000000000e+00,5.000000000000000000e+00,5.000000000000000000e+00,5.000000000000000000e+00,5.000000000000000000e+00,5.000000000000000000e+00,5.000000000000000000e+00,5.000000000000000000e+00,5.000000000000000000e+00,5.000000000000000000e+00,5.000000000000000000e+00,5.000000000000000000e+00,5.000000000000000000e+00,5.000000000000000000e+00,5.000000000000000000e+00,5.000000000000000000e+00,5.000000000000000000e+00,5.000000000000000000e+00,5.000000000000000000e+00,5.000000000000000000e+00,5.000000000000000000e+00,5.000000000000000000e+00,5.000000000000000000e+00,5.000000000000000000e+00,5.000000000000000000e+00,5.000000000000000000e+00,5.000000000000000000e+00,5.000000000000000000e+00,4.860777854919433594e+00,4.669937610626220703e+00,4.493516921997070312e+00,4.329939842224121094e+00,4.177854061126708984e+00,4.036089897155761719e+00,3.903630971908569336e+00,3.779589414596557617e+00,3.663188457489013672e+00,3.553742885589599609e+00,3.450647354125976562e+00,3.353364706039428711e+00,3.261417627334594727e+00,3.174377679824829102e+00,3.091862678527832031e+00,3.013528823852539062e+00,2.939066410064697266e+00,2.868194818496704102e+00,2.800661087036132812e+00,2.736234188079833984e+00,2.674704790115356445e+00,2.615881919860839844e+00,2.559590578079223633e+00,2.505670785903930664e+00,2.453975915908813477e+00,2.404371023178100586e+00,2.356731891632080078e+00,2.310943603515625000e+00,2.266900777816772461e+00,2.224505424499511719e+00,2.183666706085205078e+00,2.144300460815429688e+00,2.106328248977661133e+00,2.069677591323852539e+00,2.034280538558959961e+00,2.000073909759521484e+00,1.966998815536499023e+00,1.934999823570251465e+00,1.904025197029113770e+00,1.874026536941528320e+00,1.844958424568176270e+00
5.000000000000000000e+00,5.000000000000000000e+00,5.000000000000000000e+00,5.000000000000000000e+00,5.000000000000000000e+00,5.000000000000000000e+00,5.000000000000000000e+00,5.000000000000000000e+00,5.000000000000000000e+00,5.000000000000000000e+00,5.000000000000000000e+00,5.000000000000000000e+00,5.000000000000000000e+00,5.000000000000000000e+00,5.000000000000000000e+00,5.000000000000000000e+00,5.000000000000000000e+00,5.000000000000000000e+00,5.000000000000000000e+00,5.000000000000000000e+00,5.000000000000000000e+00,5.000000000000000000e+00,5.000000000000000000e+00,5.000000000000000000e+00,5.000000000000000000e+00,5.000000000000000000e+00,5.000000000000000000e+00,5.000000000000000000e+00,5.000000000000000000e+00,5.000000000000000000e+00,5.000000000000000000e+00,5.000000000000000000e+00,5.000000000000000000e+00,5.000000000000000000e+00,5.000000000000000000e+00,5.000000000000000000e+00,5.000000000000000000e+00,5.000000000000000000e+00,5.000000000000000000e+00,4.860916137695312500e+00,4.670064926147460938e+00,4.493634700775146484e+00,4.330049991607666016e+00,4.177956581115722656e+00,4.036185264587402344e+00,3.903719902038574219e+00,3.779672861099243164e+00,3.663266658782958984e+00,3.553817033767700195e+00,3.450717210769653320e+00,3.353430747985839844e+00,3.261479616165161133e+00,3.174436330795288086e+00,3.091918468475341797e+00,3.013581991195678711e+00,2.939116954803466797e+00,2.868243217468261719e+00,2.800706863403320312e+00,2.736277818679809570e+00,2.674746751785278320e+00,2.615921735763549805e+00,2.559628963470458984e+00,2.505707502365112305e+00,2.454011201858520508e+00,2.404404878616333008e+00,2.356764316558837891e+00,2.310974836349487305e+00,2.266931056976318359e+00,2.224534511566162109e+00,2.183694601058959961e+00,2.144327163696289062e+00,2.106354236602783203e+00,2.069702625274658203e+00,2.034304857254028320e+00,2.000097513198852539e+00,1.967021584510803223e+00,1.935021758079528809e+00,1.904046416282653809e+00,1.874047040939331055e+00,1.844978332519531250e+00
5.000000000000000000e+00,5.000000000000000000e+00,5.000000000000000000e+00,5.000000000000000000e+00,5.000000000000000000e+00,5.000000000000000000e+00,5.000000000000000000e+00,5.000000000000000000e+00,5.000000000000000000e+00,5.000000000000000000e+00,5.000000000000000000e+00,5.000000000000000000e+00,5.000000000000000000e+00,5.000000000000000000e+00,5.000000000000000000e+00,5.000000000000000000e+00,5.000000000000000000e+00,5.000000000000000000e+00,5.000000000000000000e+00,5.000000000000000000e+00,5.000000000000000000e+00,5.000000000000000000e+00,5.000000000000000000e+00,5.000000000000000000e+00,5.000000000000000000e+00,5.000000000000000000e+00,5.000000000000000000e+00,5.000000000000000000e+00,5.000000000000000000e+00,5.000000000000000000e+00,5.000000000000000000e+00,5.000000000000000000e+00,5.000000000000000000e+00,5.000000000000000000e+00,5.000000000000000000e+00,5.000000000000000000e+00,5.000000000000000000e+00,5.000000000000000000e+00,5.000000000000000000e+00,4.861054420471191406e+00,4.670192718505859375e+00,4.493752956390380859e+00,4.330159664154052734e+00,4.178058624267578125e+00,4.036280632019042969e+00,3.903808832168579102e+00,3.779756784439086914e+00,3.663345575332641602e+00,3.553890705108642578e+00,3.450786590576171875e+00,3.353496551513671875e+00,3.261541604995727539e+00,3.174495458602905273e+00,3.091974496841430664e+00,3.013635158538818359e+00,2.939167499542236328e+00,2.868291139602661133e+00,2.800752639770507812e+00,2.736321926116943359e+00,2.674788713455200195e+00,2.615962028503417969e+00,2.559667110443115234e+00,2.505744218826293945e+00,2.454046487808227539e+00,2.404438495635986328e+00,2.356796979904174805e+00,2.311006307601928711e+00,2.266961097717285156e+00,2.224563360214233398e+00,2.183722496032714844e+00,2.144354104995727539e+00,2.106380224227905273e+00,2.069727659225463867e+00,2.034328937530517578e+00,2.000120878219604492e+00,1.967044234275817871e+00,1.935043573379516602e+00,1.904067516326904297e+00,1.874067544937133789e+00,1.844998240470886230e+00
5.000000000000000000e+00,5.000000000000000000e+00,5.000000000000000000e+00,5.000000000000000000e+00,5.000000000000000000e+00,5.000000000000000000e+00,5.000000000000000000e+00,5.000000000000000000e+00,5.000000000000000000e+00,5.000000000000000000e+00,5.000000000000000000e+00,5.000000000000000000e+00,5.000000000000000000e+00,5.000000000000000000e+00,5.000000000000000000e+00,5.000000000000000000e+00,5.000000000000000000e+00,5.000000000000000000e+00,5.000000000000000000e+00,5.000000000000000000e+00,5.000000000000000000e+00,5.000000000000000000e+00,5.000000000000000000e+00,5.000000000000000000e+00,5.000000000000000000e+00,5.000000000000000000e+00,5.000000000000000000e+00,5.000000000000000000e+00,5.000000000000000000e+00,5.000000000000000000e+00,5.000000000000000000e+00,5.000000000000000000e+00,5.000000000000000000e+00,5.000000000000000000e+00,5.000000000000000000e+00,5.000000000000000000e+00,5.000000000000000000e+00,5.000000000000000000e+00,5.000000000000000000e+00,4.861190795898437500e+00,4.670320510864257812e+00,4.493871212005615234e+00,4.330269336700439453e+00,4.178160667419433594e+00,4.036375999450683594e+00,3.903898477554321289e+00,3.779840230941772461e+00,3.663424015045166016e+00,3.553964376449584961e+00,3.450856685638427734e+00,3.353562355041503906e+00,3.261604070663452148e+00,3.174554347991943359e+00,3.092030286788940430e+00,3.013688325881958008e+00,2.939218044281005859e+00,2.868339538574218750e+00,2.800798892974853516e+00,2.736365556716918945e+00,2.674830436706542969e+00,2.616002082824707031e+00,2.559705495834350586e+00,2.505781173706054688e+00,2.454081773757934570e+00,2.404472589492797852e+00,2.356829404830932617e+00,2.311037540435791016e+00,2.266991138458251953e+00,2.224592208862304688e+00,2.183750391006469727e+00,2.144381046295166016e+00,2.106406211853027344e+00,2.069752693176269531e+00,2.034353256225585938e+00,2.000144243240356445e+00,1.967066884040832520e+00,1.935065507888793945e+00,1.904088735580444336e+00,1.874088048934936523e+00,1.845018148422241211e+00
5.000000000000000000e+00,5.000000000000000000e+00,5.000000000000000000e+00,5.000000000000000000e+00,5.000000000000000000e+00,5.000000000000000000e+00,5.000000000000000000e+00,5.000000000000000000e+00,5.000000000000000000e+00,5.000000000000000000e+00,5.000000000000000000e+00,5.000000000000000000e+00,5.000000000000000000e+00,5.000000000000000000e+00,5.000000000000000000e+00,5.000000000000000000e+00,5.000000000000000000e+00,5.000000000000000000e+00,5.000000000000000000e+00,5.000000000000000000e+00,5.000000000000000000e+00,5.000000000000000000e+00,5.000000000000000000e+00,5.000000000000000000e+00,5.000000000000000000e+00,5.000000000000000000e+00,5.000000000000000000e+00,5.000000000000000000e+00,5.000000000000000000e+00,5.000000000000000000e+00,5.000000000000000000e+00,5.000000000000000000e+00,5.000000000000000000e+00,5.000000000000000000e+00,5.000000000000000000e+00,5.000000000000000000e+00,5.000000000000000000e+00,5.000000000000000000e+00,5.000000000000000000e+00,4.861329078674316406e+00,4.670446395874023438e+00,4.493989467620849609e+00,4.330379009246826172e+00,4.178262710571289062e+00,4.036471366882324219e+00,3.903987407684326172e+00,3.779923677444458008e+00,3.663502693176269531e+00,3.554038524627685547e+00,3.450925827026367188e+00,3.353627920150756836e+00,3.261666059494018555e+00,3.174613237380981445e+00,3.092086553573608398e+00,3.013741493225097656e+00,2.939268827438354492e+00,2.868387460708618164e+00,2.800844669342041016e+00,2.736409425735473633e+00,2.674872159957885742e+00,2.616042137145996094e+00,2.559743881225585938e+00,2.505817890167236328e+00,2.454116821289062500e+00,2.404506206512451172e+00,2.356861829757690430e+00,2.311068773269653320e+00,2.267021179199218750e+00,2.224621295928955078e+00,2.183778285980224609e+00,2.144407987594604492e+00,2.106432199478149414e+00,2.069777727127075195e+00,2.034377574920654297e+00,2.000167608261108398e+00,1.967089414596557617e+00,1.935087323188781738e+00,1.904109954833984375e+00,1.874108552932739258e+00,1.845038175582885742e+00
5.000000000000000000e+00,5.000000000000000000e+00,5.000000000000000000e+00,5.000000000000000000e+00,5.000000000000000000e+00,5.000000000000000000e+00,5.000000000000000000e+00,5.000000000000000000e+00,5.000000000000000000e+00,5.000000000000000000e+00,5.000000000000000000e+00,5.000000000000000000e+00,5.000000000000000000e+00,5.000000000000000000e+00,5.000000000000000000e+00,5.000000000000000000e+00,5.000000000000000000e+00,5.000000000000000000e+00,5.000000000000000000e+00,5.000000000000000000e+00,5.000000000000000000e+00,5.000000000000000000e+00,5.000000000000000000e+00,5.000000000000000000e+00,5.000000000000000000e+00,5.000000000000000000e+00,5.000000000000000000e+00,5.000000000000000000e+00,5.000000000000000000e+00,5.000000000000000000e+00,5.000000000000000000e+00,5.000000000000000000e+00,5.000000000000000000e+00,5.000000000000000000e+00,5.000000000000000000e+00,5.000000000000000000e+00,5.000000000000000000e+00,5.000000000000000000e+00,5.000000000000000000e+00,4.861467361450195312e+00,4.670574188232421875e+00,4.494107723236083984e+00,4.330488681793212891e+00,4.178365230560302734e+00,4.036566734313964844e+00,3.904076814651489258e+00,3.780007600784301758e+00,3.663581132888793945e+00,3.554112195968627930e+00,3.450995445251464844e+00,3.353693723678588867e+00,3.261728525161743164e+00,3.174672365188598633e+00,3.092142343521118164e+00,3.013794660568237305e+00,2.939319133758544922e+00,2.868435621261596680e+00,2.800890684127807617e+00,2.736453294754028320e+00,2.674914360046386719e+00,2.616082191467285156e+00,2.559782266616821289e+00,2.505854606628417969e+00,2.454152345657348633e+00,2.404540300369262695e+00,2.356894493103027344e+00,2.311100006103515625e+00,2.267051219940185547e+00,2.224650144577026367e+00,2.183806180953979492e+00,2.144434928894042969e+00,2.106458187103271484e+00,2.069802761077880859e+00,2.034401655197143555e+00,2.000190973281860352e+00,1.967112064361572266e+00,1.935109496116638184e+00,1.904131293296813965e+00,1.874129295349121094e+00,1.845058083534240723e+00
5.000000000000000000e+00,5.000000000000000000e+00,5.000000000000000000e+00,5.000000000000000000e+00,5.000000000000000000e+00,5.000000000000000000e+00,5.000000000000000000e+00,5.000000000000000000e+00,5.000000000000000000e+00,5.000000000000000000e+00,5.000000000000000000e+00,5.000000000000000000e+00,5.000000000000000000e+00,5.000000000000000000e+00,5.000000000000000000e+00,5.000000000000000000e+00,5.000000000000000000e+00,5.000000000000000000e+00,5.000000000000000000e+00,5.000000000000000000e+00,5.000000000000000000e+00,5.000000000000000000e+00,5.000000000000000000e+00,5.000000000000000000e+00,5.000000000000000000e+00,5.000000000000000000e+00,5.000000000000000000e+00,5.000000000000000000e+00,5.000000000000000000e+00,5.000000000000000000e+00,5.000000000000000000e+00,5.000000000000000000e+00,5.000000000000000000e+00,5.000000000000000000e+00,5.000000000000000000e+00,5.000000000000000000e+00,5.000000000000000000e+00,5.000000000000000000e+00,5.000000000000000000e+00,4.861605644226074219e+00,4.670701503753662109e+00,4.494224071502685547e+00,4.330598354339599609e+00,4.178467273712158203e+00,4.036662101745605469e+00,3.904165983200073242e+00,3.780091047286987305e+00,3.663659334182739258e+00,3.554186344146728516e+00,3.451065540313720703e+00,3.353759765625000000e+00,3.261790752410888672e+00,3.174731254577636719e+00,3.092198133468627930e+00,3.013848066329956055e+00,2.939369916915893555e+00,2.868484020233154297e+00,2.800936460494995117e+00,2.736496925354003906e+00,2.674956083297729492e+00,2.616122245788574219e+00,2.559820652008056641e+00,2.505891323089599609e+00,2.454187393188476562e+00,2.404573917388916016e+00,2.356926918029785156e+00,2.311131238937377930e+00,2.267081499099731445e+00,2.224679231643676758e+00,2.183834314346313477e+00,2.144461870193481445e+00,2.106484174728393555e+00,2.069827795028686523e+00,2.034425973892211914e+00,2.000214576721191406e+00,1.967134833335876465e+00,1.935131311416625977e+00,1.904152512550354004e+00,1.874149799346923828e+00,1.845077991485595703e+00
5.000000000000000000e+00,5.000000000000000000e+00,5.000000000000000000e+00,5.000000000000000000e+00,5.000000000000000000e+00,5.000000000000000000e+00,5.000000000000000000e+00,5.000000000000000000e+00,5.000000000000000000e+00,5.000000000000000000e+00,5.000000000000000000e+00,5.000000000000000000e+00,5.000000000000000000e+00,5.000000000000000000e+00,5.000000000000000000e+00,5.000000000000000000e+00,5.000000000000000000e+00,5.000000000000000000e+00,5.000000000000000000e+00,5.000000000000000000e+00,5.000000000000000000e+00,5.000000000000000000e+00,5.000000000000000000e+00,5.000000000000000000e+00,5.000000000000000000e+00,5.000000000000000000e+00,5.000000000000000000e+00,5.000000000000000000e+00,5.000000000000000000e+00,5.000000000000000000e+00,5.000000000000000000e+00,5.000000000000000000e+00,5.000000000000000000e+00,5.000000000000000000e+00,5.000000000000000000e+00,5.000000000000000000e+00,5.000000000000000000e+00,5.000000000000000000e+00,5.000000000000000000e+00,4.861743927001953125e+00,4.670829296112060547e+00,4.494342327117919922e+00,4.330706596374511719e+00,4.178569793701171875e+00,4.036757469177246094e+00,3.904255390167236328e+00,3.780174732208251953e+00,3.663738012313842773e+00,3.554260015487670898e+00,3.451134920120239258e+00,3.353825330734252930e+00,3.261852979660034180e+00,3.174790382385253906e+00,3.092254400253295898e+00,3.013900995254516602e+00,2.939420461654663086e+00,2.868531942367553711e+00,2.800982236862182617e+00,2.736541032791137695e+00,2.674998044967651367e+00,2.616162300109863281e+00,2.559859037399291992e+00,2.505928039550781250e+00,2.454222679138183594e+00,2.404607772827148438e+00,2.356959581375122070e+00,2.311162471771240234e+00,2.267111539840698242e+00,2.224708318710327148e+00,2.183861970901489258e+00,2.144488811492919922e+00,2.106510162353515625e+00,2.069853067398071289e+00,2.034450292587280273e+00,2.000237941741943359e+00,1.967157483100891113e+00,1.935153245925903320e+00,1.904173612594604492e+00,1.874170303344726562e+00,1.845097899436950684e+00
5.000000000000000000e+00,5.000000000000000000e+00,5.000000000000000000e+00,5.000000000000000000e+00,5.000000000000000000e+00,5.000000000000000000e+00,5.000000000000000000e+00,5.000000000000000000e+00,5.000000000000000000e+00,5.000000000000000000e+00,5.000000000000000000e+00,5.000000000000000000e+00,5.000000000000000000e+00,5.000000000000000000e+00,5.000000000000000000e+00,5.000000000000000000e+00,5.000000000000000000e+00,5.000000000000000000e+00,5.000000000000000000e+00,5.000000000000000000e+00,5.000000000000000000e+00,5.000000000000000000e+00,5.000000000000000000e+00,5.000000000000000000e+00,5.000000000000000000e+00,5.000000000000000000e+00,5.000000000000000000e+00,5.000000000000000000e+00,5.000000000000000000e+00,5.000000000000000000e+00,5.000000000000000000e+00,5.000000000000000000e+00,5.000000000000000000e+00,5.000000000000000000e+00,5.000000000000000000e+00,5.000000000000000000e+00,5.000000000000000000e+00,5.000000000000000000e+00,5.000000000000000000e+00,4.861882209777832031e+00,4.670957088470458984e+00,4.494460582733154297e+00,4.330816268920898438e+00,4.178671836853027344e+00,4.036852836608886719e+00,3.904344320297241211e+00,3.780258178710937500e+00,3.663816452026367188e+00,3.554333925247192383e+00,3.451205015182495117e+00,3.353891372680664062e+00,3.261915445327758789e+00,3.174849271774291992e+00,3.092310190200805664e+00,3.013954162597656250e+00,2.939470767974853516e+00,2.868580341339111328e+00,2.801028490066528320e+00,2.736584663391113281e+00,2.675039768218994141e+00,2.616202354431152344e+00,2.559897184371948242e+00,2.505964994430541992e+00,2.454257965087890625e+00,2.404641628265380859e+00,2.356992006301879883e+00,2.311193704605102539e+00,2.267141580581665039e+00,2.224737167358398438e+00,2.183890104293823242e+00,2.144515752792358398e+00,2.106536149978637695e+00,2.069878101348876953e+00,2.034474372863769531e+00,2.000261306762695312e+00,1.967180132865905762e+00,1.935175061225891113e+00,1.904194831848144531e+00,1.874190807342529297e+00,1.845117688179016113e+00
4.875787734985351562e+00,4.874577045440673828e+00,4.873366355895996094e+00,4.872156620025634766e+00,4.870947360992431641e+00,4.869738578796386719e+00,4.868530750274658203e+00,4.867323398590087891e+00,4.866116523742675781e+00,4.864910125732421875e+00,4.863704681396484375e+00,4.862499713897705078e+00,4.861295223236083984e+00,4.860091686248779297e+00,4.858888149261474609e+00,4.857685565948486328e+00,4.856483936309814453e+00,4.855282306671142578e+00,4.854081630706787109e+00,4.852881431579589844e+00,4.851681709289550781e+00,4.850482463836669922e+00,4.849284172058105469e+00,4.848086357116699219e+00,4.846889019012451172e+00,4.845692634582519531e+00,4.844496250152587891e+00,4.843300819396972656e+00,4.842105865478515625e+00,4.840911865234375000e+00,4.839717864990234375e+00,4.838524818420410156e+00,4.837332248687744141e+00,4.836140155792236328e+00,4.834948539733886719e+00,4.833757877349853516e+00,4.832567691802978516e+00,4.831377983093261719e+00,4.830188751220703125e+00,4.829000473022460938e+00,4.671084880828857422e+00,4.494578838348388672e+00,4.330926418304443359e+00,4.178772449493408203e+00,4.036948204040527344e+00,3.904433250427246094e+00,3.780341625213623047e+00,3.663895368576049805e+00,3.554408073425292969e+00,3.451274394989013672e+00,3.353957176208496094e+00,3.261977434158325195e+00,3.174908161163330078e+00,3.092366456985473633e+00,3.014007329940795898e+00,2.939521551132202148e+00,2.868628501892089844e+00,2.801074266433715820e+00,2.736628532409667969e+00,2.675081968307495117e+00,2.616242408752441406e+00,2.559935808181762695e+00,2.506001710891723633e+00,2.454293251037597656e+00,2.404675483703613281e+00,2.357024431228637695e+00,2.311225175857543945e+00,2.267171621322631836e+00,2.224766254425048828e+00,2.183917999267578125e+00,2.144542455673217773e+00,2.106561899185180664e+00,2.069903135299682617e+00,2.034498691558837891e+00,2.000284671783447266e+00,1.967202663421630859e+00,1.935196995735168457e+00,1.904216051101684570e+00,1.874211311340332031e+00,1.845137834548950195e+00
3.778617382049560547e+00,3.777889966964721680e+00,3.777163028717041016e+00,3.776436090469360352e+00,3.775709390640258789e+00,3.774983406066894531e+00,3.774257421493530273e+00,3.773531675338745117e+00,3.772806406021118164e+00,3.772081136703491211e+00,3.771356344223022461e+00,3.770632028579711914e+00,3.769907474517822266e+00,3.769183397293090820e+00,3.768460035324096680e+00,3.767736434936523438e+00,3.767013072967529297e+00,3.766290426254272461e+00,3.765567779541015625e+00,3.764845371246337891e+00,3.764123439788818359e+00,3.763401508331298828e+00,3.762679815292358398e+00,3.761958837509155273e+00,3.761237859725952148e+00,3.760517358779907227e+00,3.759796857833862305e+00,3.759076595306396484e+00,3.758357048034667969e+00,3.757637500762939453e+00,3.756917953491210938e+00,3.756199121475219727e+00,3.755480289459228516e+00,3.754761695861816406e+00,3.754043817520141602e+00,3.753325700759887695e+00,3.752607822418212891e+00,3.751890897750854492e+00,3.751173496246337891e+00,3.750456571578979492e+00,3.749740362167358398e+00,3.749023914337158203e+00,3.748307704925537109e+00,3.747592210769653320e+00,3.746876716613769531e+00,3.746161460876464844e+00,3.745446681976318359e+00,3.663973808288574219e+00,3.554481983184814453e+00,3.451344013214111328e+00,3.354023218154907227e+00,3.262039899826049805e+00,3.174967288970947266e+00,3.092422246932983398e+00,3.014060497283935547e+00,2.939572095870971680e+00,2.868676424026489258e+00,2.801120281219482422e+00,2.736672401428222656e+00,2.675123691558837891e+00,2.616282463073730469e+00,2.559973955154418945e+00,2.506038188934326172e+00,2.454328536987304688e+00,2.404709577560424805e+00,2.357057094573974609e+00,2.311256408691406250e+00,2.267201662063598633e+00,2.224795103073120117e+00,2.183945894241333008e+00,2.144569635391235352e+00,2.106588125228881836e+00,2.069928169250488281e+00,2.034522771835327148e+00,2.000308036804199219e+00,1.967225313186645508e+00,1.935219049453735352e+00,1.904237389564514160e+00,1.874232053756713867e+00,1.845157742500305176e+00
3.084524393081665039e+00,3.084039926528930664e+00,3.083555459976196289e+00,3.083070993423461914e+00,3.082586765289306641e+00,3.082102775573730469e+00,3.081618547439575195e+00,3.081135034561157227e+00,3.080651283264160156e+00,3.080167770385742188e+00,3.079684495925903320e+00,3.079201221466064453e+00,3.078718185424804688e+00,3.078235626220703125e+00,3.077752590179443359e+00,3.077270030975341797e+00,3.076787710189819336e+00,3.076305389404296875e+00,3.075823307037353516e+00,3.075341463088989258e+00,3.074859619140625000e+00,3.074377775192260742e+00,3.073896408081054688e+00,3.073415040969848633e+00,3.072933673858642578e+00,3.072452783584594727e+00,3.071971893310546875e+00,3.071491003036499023e+00,3.071010589599609375e+00,3.070529937744140625e+00,3.070049524307250977e+00,3.069569587707519531e+00,3.069089412689208984e+00,3.068609714508056641e+00,3.068130016326904297e+00,3.067650318145751953e+00,3.067171096801757812e+00,3.066691875457763672e+00,3.066212654113769531e+00,3.065733909606933594e+00,3.065254926681518555e+00,3.064776182174682617e+00,3.064297914505004883e+00,3.063819408416748047e+00,3.063341140747070312e+00,3.062863349914550781e+00,3.062385320663452148e+00,3.061907291412353516e+00,3.061429977416992188e+00,3.060952425003051758e+00,3.060475111007690430e+00,3.059998035430908203e+00,3.059520959854125977e+00,3.059043884277343750e+00,3.014113903045654297e+00,2.939622879028320312e+00,2.868724822998046875e+00,2.801166057586669922e+00,2.736716270446777344e+00,2.675165414810180664e+00,2.616322517395019531e+00,2.560012578964233398e+00,2.506075143814086914e+00,2.454363822937011719e+00,2.404743194580078125e+00,2.357089519500732422e+00,2.311287403106689453e+00,2.267231941223144531e+00,2.224824190139770508e+00,2.183973789215087891e+00,2.144596338272094727e+00,2.106613874435424805e+00,2.069953203201293945e+00,2.034547090530395508e+00,2.000331640243530273e+00,1.967248082160949707e+00,1.935240983963012695e+00,1.904258608818054199e+00,1.874252557754516602e+00,1.845177650451660156e+00
2.605855703353881836e+00,2.605509996414184570e+00,2.605164051055908203e+00,2.604818105697631836e+00,2.604472637176513672e+00,2.604126930236816406e+00,2.603781461715698242e+00,2.603436231613159180e+00,2.603090763092041016e+00,2.602745771408081055e+00,2.602400541305541992e+00,2.602055549621582031e+00,2.601710796356201172e+00,2.601365804672241211e+00,2.601021051406860352e+00,2.600676536560058594e+00,2.600331783294677734e+00,2.599987268447875977e+00,2.599642992019653320e+00,2.599298715591430664e+00,2.598954439163208008e+00,2.598610401153564453e+00,2.598266363143920898e+00,2.597922325134277344e+00,2.597578525543212891e+00,2.597234725952148438e+00,2.596890926361083984e+00,2.596547603607177734e+00,2.596204042434692383e+00,2.595860719680786133e+00,2.595517396926879883e+00,2.595174074172973633e+00,2.594830989837646484e+00,2.594488143920898438e+00,2.594145059585571289e+00,2.593802213668823242e+00,2.593459606170654297e+00,2.593116760253906250e+00,2.592774152755737305e+00,2.592431783676147461e+00,2.592089414596557617e+00,2.591747283935546875e+00,2.591404914855957031e+00,2.591062784194946289e+00,2.590720891952514648e+00,2.590378999710083008e+00,2.590036869049072266e+00,2.589695453643798828e+00,2.589353561401367188e+00,2.589011907577514648e+00,2.588670730590820312e+00,2.588329076766967773e+00,2.587987899780273438e+00,2.587646722793579102e+00,2.587305545806884766e+00,2.586964368820190430e+00,2.586623668670654297e+00,2.586282730102539062e+00,2.585941791534423828e+00,2.585601329803466797e+00,2.585260629653930664e+00,2.560050725936889648e+00,2.506111860275268555e+00,2.454398870468139648e+00,2.404777288436889648e+00,2.357122182846069336e+00,2.311318874359130859e+00,2.267261981964111328e+00,2.224853038787841797e+00,2.184001684188842773e+00,2.144623279571533203e+00,2.106640100479125977e+00,2.069978475570678711e+00,2.034571409225463867e+00,2.000355005264282227e+00,1.967270731925964355e+00,1.935262799263000488e+00,1.904279828071594238e+00,1.874273061752319336e+00,1.845197439193725586e+00
2.255791425704956055e+00,2.255532026290893555e+00,2.255272865295410156e+00,2.255013942718505859e+00,2.254755020141601562e+00,2.254496097564697266e+00,2.254237174987792969e+00,2.253978252410888672e+00,2.253719568252563477e+00,2.253460884094238281e+00,2.253202438354492188e+00,2.252943754196166992e+00,2.252685070037841797e+00,2.252426624298095703e+00,2.252168416976928711e+00,2.251909971237182617e+00,2.251651763916015625e+00,2.251393556594848633e+00,2.251135349273681641e+00,2.250877141952514648e+00,2.250619173049926758e+00,2.250361204147338867e+00,2.250103235244750977e+00,2.249845504760742188e+00,2.249587535858154297e+00,2.249329805374145508e+00,2.249072074890136719e+00,2.248814344406127930e+00,2.248556613922119141e+00,2.248299121856689453e+00,2.248041629791259766e+00,2.247784137725830078e+00,2.247526884078979492e+00,2.247269392013549805e+00,2.247012138366699219e+00,2.246754884719848633e+00,2.246497631072998047e+00,2.246240615844726562e+00,2.245983600616455078e+00,2.245726585388183594e+00,2.245469570159912109e+00,2.245212793350219727e+00,2.244955778121948242e+00,2.244699001312255859e+00,2.244442462921142578e+00,2.244185686111450195e+00,2.243929147720336914e+00,2.243672609329223633e+00,2.243416070938110352e+00,2.243159770965576172e+00,2.242903470993041992e+00,2.242647171020507812e+00,2.242391109466552734e+00,2.242134809494018555e+00,2.241878509521484375e+00,2.241622686386108398e+00,2.241366624832153320e+00,2.241110563278198242e+00,2.240854740142822266e+00,2.240598917007446289e+00,2.240343093872070312e+00,2.240087509155273438e+00,2.239831924438476562e+00,2.239576101303100586e+00,2.239320755004882812e+00,2.239065170288085938e+00,2.238809823989868164e+00,2.238554477691650391e+00,2.224882125854492188e+00,2.184029579162597656e+00,2.144650220870971680e+00,2.106665849685668945e+00,2.070003509521484375e+00,2.034595489501953125e+00,2.000378370285034180e+00,1.967293381690979004e+00,1.935284614562988281e+00,1.904300928115844727e+00,1.874293684959411621e+00,1.845217347145080566e+00
1.988638877868652344e+00,1.988437414169311523e+00,1.988236188888549805e+00,1.988034725189208984e+00,1.987833261489868164e+00,1.987632155418395996e+00,1.987430930137634277e+00,1.987229824066162109e+00,1.987028598785400391e+00,1.986827373504638672e+00,1.986626505851745605e+00,1.986425399780273438e+00,1.986224532127380371e+00,1.986023545265197754e+00,1.985822558403015137e+00,1.985621809959411621e+00,1.985420942306518555e+00,1.985220313072204590e+00,1.985019564628601074e+00,1.984818696975708008e+00,1.984618186950683594e+00,1.984417438507080078e+00,1.984217047691345215e+00,1.984016418457031250e+00,1.983816146850585938e+00,1.983615517616271973e+00,1.983415126800537109e+00,1.983214855194091797e+00,1.983014464378356934e+00,1.982814311981201172e+00,1.982613921165466309e+00,1.982413649559020996e+00,1.982213616371154785e+00,1.982013463973999023e+00,1.981813430786132812e+00,1.981613278388977051e+00,1.981413245201110840e+00,1.981213450431823730e+00,1.981013417243957520e+00,1.980813622474670410e+00,1.980613708496093750e+00,1.980413794517517090e+00,1.980214238166809082e+00,1.980014443397521973e+00,1.979814887046813965e+00,1.979615092277526855e+00,1.979415416717529297e+00,1.979215979576110840e+00,1.979016423225402832e+00,1.978816986083984375e+00,1.978617548942565918e+00,1.978417992591857910e+00,1.978218793869018555e+00,1.978019356727600098e+00,1.977820277214050293e+00,1.977620840072631836e+00,1.977421641349792480e+00,1.977222561836242676e+00,1.977023363113403320e+00,1.976824402809143066e+00,1.976625323295593262e+00,1.976426243782043457e+00,1.976227402687072754e+00,1.976028323173522949e+00,1.975829601287841797e+00,1.975630640983581543e+00,1.975431799888610840e+00,1.975233197212219238e+00,1.975034356117248535e+00,1.974835872650146484e+00,1.974637031555175781e+00,1.974438428878784180e+00,1.974239945411682129e+00,1.974041342735290527e+00,1.973842978477478027e+00,1.967315912246704102e+00,1.935306549072265625e+00,1.904322147369384766e+00,1.874314308166503906e+00,1.845237493515014648e+00
1.778063654899597168e+00,1.777902483940124512e+00,1.777741432189941406e+00,1.777580618858337402e+00,1.777419567108154297e+00,1.777258753776550293e+00,1.777097821235656738e+00,1.776936888694763184e+00,1.776776194572448730e+00,1.776615262031555176e+00,1.776454687118530273e+00,1.776293873786926270e+00,1.776133060455322266e+00,1.775972485542297363e+00,1.775811791419982910e+00,1.775651335716247559e+00,1.775490641593933105e+00,1.775329947471618652e+00,1.775169610977172852e+00,1.775009036064147949e+00,1.774848580360412598e+00,1.774688124656677246e+00,1.774527549743652344e+00,1.774367332458496094e+00,1.774206876754760742e+00,1.774046659469604492e+00,1.773886322975158691e+00,1.773725986480712891e+00,1.773565769195556641e+00,1.773405551910400391e+00,1.773245453834533691e+00,1.773085236549377441e+00,1.772925019264221191e+00,1.772765040397644043e+00,1.772604942321777344e+00,1.772444963455200195e+00,1.772284865379333496e+00,1.772124767303466797e+00,1.771965026855468750e+00,1.771804928779602051e+00,1.771645188331604004e+00,1.771485209465026855e+00,1.771325469017028809e+00,1.771165609359741211e+00,1.771005749702453613e+00,1.770846128463745117e+00,1.770686388015747070e+00,1.770526766777038574e+00,1.770367026329040527e+00,1.770207285881042480e+00,1.770047783851623535e+00,1.769888162612915039e+00,1.769728660583496094e+00,1.769569158554077148e+00,1.769409537315368652e+00,1.769250154495239258e+00,1.769090652465820312e+00,1.768931388854980469e+00,1.768771886825561523e+00,1.768612504005432129e+00,1.768453240394592285e+00,1.768293976783752441e+00,1.768134832382202148e+00,1.767975449562072754e+00,1.767816185951232910e+00,1.767657160758972168e+00,1.767497897148132324e+00,1.767338871955871582e+00,1.767179727554321289e+00,1.767020583152770996e+00,1.766861677169799805e+00,1.766702651977539062e+00,1.766543745994567871e+00,1.766384720802307129e+00,1.766225695610046387e+00,1.766066908836364746e+00,1.765908002853393555e+00,1.765749335289001465e+00,1.765590429306030273e+00,1.765431642532348633e+00
1.607813358306884766e+00,1.607681870460510254e+00,1.607550144195556641e+00,1.607418656349182129e+00,1.607286930084228516e+00,1.607155323028564453e+00,1.607023835182189941e+00,1.606892228126525879e+00,1.606760859489440918e+00,1.606629252433776855e+00,1.606497764587402344e+00,1.606366395950317383e+00,1.606234908103942871e+00,1.606103539466857910e+00,1.605972051620483398e+00,1.605840682983398438e+00,1.605709433555603027e+00,1.605578064918518066e+00,1.605446815490722656e+00,1.605315446853637695e+00,1.605184197425842285e+00,1.605053067207336426e+00,1.604921698570251465e+00,1.604790687561035156e+00,1.604659438133239746e+00,1.604528188705444336e+00,1.604397177696228027e+00,1.604265928268432617e+00,1.604135036468505859e+00,1.604003906250000000e+00,1.603872776031494141e+00,1.603741765022277832e+00,1.603610754013061523e+00,1.603479862213134766e+00,1.603348851203918457e+00,1.603217840194702148e+00,1.603087067604064941e+00,1.602956056594848633e+00,1.602825284004211426e+00,1.602694392204284668e+00,1.602563500404357910e+00,1.602432727813720703e+00,1.602301955223083496e+00,1.602171301841735840e+00,1.602040410041809082e+00,1.601909637451171875e+00,1.601779103279113770e+00,1.601648330688476562e+00,1.601517677307128906e+00,1.601387023925781250e+00,1.601256370544433594e+00,1.601125836372375488e+00,1.600995182991027832e+00,1.600864768028259277e+00,1.600734114646911621e+00,1.600603699684143066e+00,1.600473165512084961e+00,1.600342631340026855e+00,1.600212335586547852e+00,1.600081801414489746e+00,1.599951505661010742e+00,1.599821090698242188e+00,1.599690556526184082e+00,1.599560379981994629e+00,1.599429965019226074e+00,1.599299788475036621e+00,1.599169492721557617e+00,1.599039077758789062e+00,1.598909020423889160e+00,1.598778724670410156e+00,1.598648667335510254e+00,1.598518371582031250e+00,1.598388195037841797e+00,1.598258137702941895e+00,1.598127961158752441e+00,1.597998023033142090e+00,1.597867846488952637e+00,1.597737789154052734e+00,1.597607851028442383e+00,1.597477793693542480e+00
1.467317461967468262e+00,1.467207670211791992e+00,1.467098116874694824e+00,1.466988444328308105e+00,1.466878890991210938e+00,1.466769218444824219e+00,1.466659665107727051e+00,1.466550111770629883e+00,1.466440558433532715e+00,1.466331124305725098e+00,1.466221570968627930e+00,1.466112136840820312e+00,1.466002583503723145e+00,1.465893030166625977e+00,1.465783715248107910e+00,1.465674161911010742e+00,1.465564846992492676e+00,1.465455412864685059e+00,1.465345978736877441e+00,1.465236663818359375e+00,1.465127229690551758e+00,1.465018033981323242e+00,1.464908599853515625e+00,1.464799284934997559e+00,1.464690089225769043e+00,1.464580774307250977e+00,1.464471578598022461e+00,1.464362263679504395e+00,1.464252948760986328e+00,1.464143872261047363e+00,1.464034557342529297e+00,1.463925480842590332e+00,1.463816285133361816e+00,1.463707089424133301e+00,1.463598012924194336e+00,1.463488936424255371e+00,1.463379859924316406e+00,1.463270783424377441e+00,1.463161706924438477e+00,1.463052749633789062e+00,1.462943673133850098e+00,1.462834715843200684e+00,1.462725639343261719e+00,1.462616562843322754e+00,1.462507724761962891e+00,1.462398767471313477e+00,1.462289929389953613e+00,1.462180972099304199e+00,1.462072014808654785e+00,1.461963176727294922e+00,1.461854219436645508e+00,1.461745500564575195e+00,1.461636662483215332e+00,1.461527705192565918e+00,1.461418986320495605e+00,1.461310148239135742e+00,1.461201548576354980e+00,1.461092710494995117e+00,1.460983872413635254e+00,1.460875272750854492e+00,1.460766553878784180e+00,1.460657954216003418e+00,1.460549235343933105e+00,1.460440516471862793e+00,1.460331916809082031e+00,1.460223317146301270e+00,1.460114717483520508e+00,1.460006117820739746e+00,1.459897518157958984e+00,1.459789037704467773e+00,1.459680438041687012e+00,1.459571957588195801e+00,1.459463357925415039e+00,1.459354996681213379e+00,1.459246516227722168e+00,1.459137916564941406e+00,1.459029555320739746e+00,1.458921074867248535e+00,1.458812713623046875e+00,1.458704352378845215e+00
1.349402189254760742e+00,1.349309444427490234e+00,1.349216699600219727e+00,1.349123954772949219e+00,1.349031209945678711e+00,1.348938584327697754e+00,1.348845839500427246e+00,1.348753213882446289e+00,1.348660588264465332e+00,1.348567843437194824e+00,1.348475337028503418e+00,1.348382592201232910e+00,1.348290085792541504e+00,1.348197460174560547e+00,1.348104834556579590e+00,1.348012328147888184e+00,1.347919702529907227e+00,1.347827315330505371e+00,1.347734689712524414e+00,1.347642183303833008e+00,1.347549676895141602e+00,1.347457170486450195e+00,1.347364783287048340e+00,1.347272276878356934e+00,1.347179889678955078e+00,1.347087383270263672e+00,1.346994876861572266e+00,1.346902608871459961e+00,1.346810102462768555e+00,1.346717834472656250e+00,1.346625328063964844e+00,1.346532940864562988e+00,1.346440672874450684e+00,1.346348285675048828e+00,1.346256017684936523e+00,1.346163749694824219e+00,1.346071362495422363e+00,1.345979094505310059e+00,1.345886826515197754e+00,1.345794558525085449e+00,1.345702290534973145e+00,1.345610022544860840e+00,1.345517873764038086e+00,1.345425605773925781e+00,1.345333456993103027e+00,1.345241189002990723e+00,1.345149040222167969e+00,1.345056891441345215e+00,1.344964742660522461e+00,1.344872713088989258e+00,1.344780445098876953e+00,1.344688296318054199e+00,1.344596266746520996e+00,1.344504117965698242e+00,1.344412207603454590e+00,1.344320058822631836e+00,1.344227910041809082e+00,1.344135999679565430e+00,1.344043970108032227e+00,1.343951940536499023e+00,1.343859910964965820e+00,1.343767881393432617e+00,1.343675971031188965e+00,1.343583941459655762e+00,1.343492150306701660e+00,1.343400120735168457e+00,1.343308210372924805e+00,1.343216300010681152e+00,1.343124389648437500e+00,1.343032598495483398e+00,1.342940568923950195e+00,1.342848777770996094e+00,1.342756986618041992e+00,1.342665076255798340e+00,1.342573285102844238e+00,1.342481493949890137e+00,1.342389583587646484e+00,1.342297911643981934e+00,1.342206120491027832e+00,1.342114329338073730e+00
1.249028921127319336e+00,1.248949408531188965e+00,1.248869895935058594e+00,1.248790502548217773e+00,1.248711109161376953e+00,1.248631715774536133e+00,1.248552203178405762e+00,1.248472809791564941e+00,1.248393535614013672e+00,1.248314023017883301e+00,1.248234748840332031e+00,1.248155355453491211e+00,1.248075962066650391e+00,1.247996687889099121e+00,1.247917294502258301e+00,1.247838020324707031e+00,1.247758746147155762e+00,1.247679352760314941e+00,1.247600078582763672e+00,1.247520804405212402e+00,1.247441530227661133e+00,1.247362256050109863e+00,1.247282981872558594e+00,1.247203826904296875e+00,1.247124552726745605e+00,1.247045397758483887e+00,1.246966123580932617e+00,1.246886849403381348e+00,1.246807813644409180e+00,1.246728539466857910e+00,1.246649384498596191e+00,1.246570229530334473e+00,1.246491074562072754e+00,1.246411919593811035e+00,1.246332764625549316e+00,1.246253728866577148e+00,1.246174573898315430e+00,1.246095418930053711e+00,1.246016383171081543e+00,1.245937347412109375e+00,1.245858311653137207e+00,1.245779156684875488e+00,1.245700240135192871e+00,1.245621085166931152e+00,1.245542049407958984e+00,1.245463132858276367e+00,1.245383977890014648e+00,1.245305061340332031e+00,1.245226025581359863e+00,1.245146989822387695e+00,1.245068192481994629e+00,1.244989156723022461e+00,1.244910240173339844e+00,1.244831323623657227e+00,1.244752287864685059e+00,1.244673490524291992e+00,1.244594454765319824e+00,1.244515657424926758e+00,1.244436740875244141e+00,1.244357824325561523e+00,1.244279026985168457e+00,1.244200110435485840e+00,1.244121313095092773e+00,1.244042396545410156e+00,1.243963599205017090e+00,1.243884801864624023e+00,1.243806004524230957e+00,1.243727207183837891e+00,1.243648409843444824e+00,1.243569612503051758e+00,1.243490815162658691e+00,1.243412017822265625e+00,1.243333339691162109e+00,1.243254542350769043e+00,1.243175864219665527e+00,1.243097186088562012e+00,1.243018388748168945e+00,1.242939829826354980e+00,1.242861032485961914e+00,1.242782354354858398e+00
1.162554025650024414e+00,1.162485241889953613e+00,1.162416338920593262e+00,1.162347555160522461e+00,1.162278652191162109e+00,1.162209868431091309e+00,1.162141084671020508e+00,1.162072300910949707e+00,1.162003517150878906e+00,1.161934733390808105e+00,1.161865949630737305e+00,1.161797285079956055e+00,1.161728501319885254e+00,1.161659717559814453e+00,1.161590933799743652e+00,1.161522269248962402e+00,1.161453604698181152e+00,1.161384820938110352e+00,1.161316156387329102e+00,1.161247372627258301e+00,1.161178708076477051e+00,1.161110043525695801e+00,1.161041378974914551e+00,1.160972714424133301e+00,1.160904049873352051e+00,1.160835385322570801e+00,1.160766839981079102e+00,1.160698175430297852e+00,1.160629630088806152e+00,1.160560965538024902e+00,1.160492300987243652e+00,1.160423755645751953e+00,1.160355091094970703e+00,1.160286545753479004e+00,1.160218000411987305e+00,1.160149335861206055e+00,1.160080909729003906e+00,1.160012245178222656e+00,1.159943819046020508e+00,1.159875273704528809e+00,1.159806728363037109e+00,1.159738183021545410e+00,1.159669637680053711e+00,1.159601211547851562e+00,1.159532666206359863e+00,1.159464120864868164e+00,1.159395694732666016e+00,1.159327268600463867e+00,1.159258842468261719e+00,1.159190297126770020e+00,1.159121870994567871e+00,1.159053444862365723e+00,1.158985018730163574e+00,1.158916711807250977e+00,1.158848166465759277e+00,1.158779859542846680e+00,1.158711433410644531e+00,1.158643007278442383e+00,1.158574700355529785e+00,1.158506274223327637e+00,1.158437967300415039e+00,1.158369541168212891e+00,1.158301234245300293e+00,1.158232927322387695e+00,1.158164620399475098e+00,1.158096313476562500e+00,1.158028006553649902e+00,1.157959580421447754e+00,1.157891392707824707e+00,1.157823085784912109e+00,1.157754778861999512e+00,1.157686471939086914e+00,1.157618165016174316e+00,1.157549977302551270e+00,1.157481670379638672e+00,1.157413482666015625e+00,1.157345294952392578e+00,1.157276988029479980e+00,1.157208800315856934e+00,1.157140612602233887e+00
1.087277770042419434e+00,1.087217450141906738e+00,1.087157368659973145e+00,1.087097048759460449e+00,1.087036967277526855e+00,1.086976766586303711e+00,1.086916565895080566e+00,1.086856365203857422e+00,1.086796164512634277e+00,1.086736083030700684e+00,1.086675882339477539e+00,1.086615800857543945e+00,1.086555600166320801e+00,1.086495399475097656e+00,1.086435317993164062e+00,1.086375236511230469e+00,1.086315155029296875e+00,1.086254954338073730e+00,1.086194872856140137e+00,1.086134791374206543e+00,1.086074709892272949e+00,1.086014628410339355e+00,1.085954546928405762e+00,1.085894465446472168e+00,1.085834503173828125e+00,1.085774421691894531e+00,1.085714340209960938e+00,1.085654258728027344e+00,1.085594296455383301e+00,1.085534214973449707e+00,1.085474252700805664e+00,1.085414290428161621e+00,1.085354208946228027e+00,1.085294127464294434e+00,1.085234165191650391e+00,1.085174202919006348e+00,1.085114240646362305e+00,1.085054278373718262e+00,1.084994316101074219e+00,1.084934353828430176e+00,1.084874391555786133e+00,1.084814429283142090e+00,1.084754467010498047e+00,1.084694504737854004e+00,1.084634661674499512e+00,1.084574699401855469e+00,1.084514856338500977e+00,1.084454894065856934e+00,1.084394931793212891e+00,1.084335088729858398e+00,1.084275126457214355e+00,1.084215283393859863e+00,1.084155440330505371e+00,1.084095478057861328e+00,1.084035754203796387e+00,1.083975791931152344e+00,1.083916068077087402e+00,1.083856105804443359e+00,1.083796262741088867e+00,1.083736538887023926e+00,1.083676695823669434e+00,1.083616852760314941e+00,1.083557009696960449e+00,1.083497166633605957e+00,1.083437442779541016e+00,1.083377599716186523e+00,1.083317875862121582e+00,1.083258152008056641e+00,1.083198308944702148e+00,1.083138585090637207e+00,1.083078742027282715e+00,1.083019137382507324e+00,1.082959294319152832e+00,1.082899570465087891e+00,1.082839846611022949e+00,1.082780122756958008e+00,1.082720398902893066e+00,1.082660675048828125e+00,1.082601070404052734e+00,1.082541346549987793e+00
1.021157026290893555e+00,1.021103858947753906e+00,1.021050810813903809e+00,1.020997762680053711e+00,1.020944595336914062e+00,1.020891547203063965e+00,1.020838379859924316e+00,1.020785331726074219e+00,1.020732283592224121e+00,1.020679235458374023e+00,1.020626187324523926e+00,1.020573019981384277e+00,1.020520091056823730e+00,1.020466923713684082e+00,1.020413875579833984e+00,1.020360946655273438e+00,1.020307898521423340e+00,1.020254850387573242e+00,1.020201802253723145e+00,1.020148754119873047e+00,1.020095825195312500e+00,1.020042777061462402e+00,1.019989848136901855e+00,1.019936800003051758e+00,1.019883871078491211e+00,1.019830822944641113e+00,1.019777894020080566e+00,1.019724965095520020e+00,1.019671916961669922e+00,1.019618988037109375e+00,1.019566059112548828e+00,1.019513130187988281e+00,1.019460201263427734e+00,1.019407153129577637e+00,1.019354343414306641e+00,1.019301414489746094e+00,1.019248366355895996e+00,1.019195556640625000e+00,1.019142627716064453e+00,1.019089698791503906e+00,1.019036769866943359e+00,1.018983840942382812e+00,1.018931031227111816e+00,1.018878102302551270e+00,1.018825292587280273e+00,1.018772363662719727e+00,1.018719553947448730e+00,1.018666744232177734e+00,1.018613815307617188e+00,1.018561005592346191e+00,1.018508076667785645e+00,1.018455266952514648e+00,1.018402457237243652e+00,1.018349647521972656e+00,1.018296837806701660e+00,1.018244028091430664e+00,1.018191218376159668e+00,1.018138408660888672e+00,1.018085598945617676e+00,1.018032789230346680e+00,1.017979979515075684e+00,1.017927169799804688e+00,1.017874479293823242e+00,1.017821669578552246e+00,1.017768979072570801e+00,1.017716169357299805e+00,1.017663359642028809e+00,1.017610669136047363e+00,1.017557859420776367e+00,1.017505168914794922e+00,1.017452359199523926e+00,1.017399668693542480e+00,1.017346978187561035e+00,1.017294168472290039e+00,1.017241597175598145e+00,1.017188787460327148e+00,1.017136096954345703e+00,1.017083406448364258e+00,1.017030715942382812e+00,1.016978025436401367e+00
9.626173973083496094e-01,9.625701308250427246e-01,9.625229835510253906e-01,9.624758362770080566e-01,9.624285697937011719e-01,9.623813629150390625e-01,9.623342752456665039e-01,9.622870087623596191e-01,9.622398614883422852e-01,9.621927142143249512e-01,9.621456265449523926e-01,9.620984196662902832e-01,9.620512723922729492e-01,9.620041847229003906e-01,9.619569778442382812e-01,9.619098305702209473e-01,9.618627429008483887e-01,9.618155360221862793e-01,9.617684483528137207e-01,9.617214202880859375e-01,9.616743326187133789e-01,9.616271257400512695e-01,9.615800380706787109e-01,9.615330100059509277e-01,9.614858627319335938e-01,9.614387750625610352e-01,9.613917469978332520e-01,9.613445997238159180e-01,9.612975120544433594e-01,9.612504839897155762e-01,9.612034559249877930e-01,9.611563086509704590e-01,9.611092805862426758e-01,9.610623121261596680e-01,9.610151648521423340e-01,9.609681367874145508e-01,9.609211683273315430e-01,9.608740210533142090e-01,9.608270525932312012e-01,9.607800841331481934e-01,9.607330560684204102e-01,9.606859683990478516e-01,9.606389999389648438e-01,9.605920314788818359e-01,9.605449438095092773e-01,9.604979753494262695e-01,9.604510664939880371e-01,9.604040980339050293e-01,9.603570103645324707e-01,9.603101015090942383e-01,9.602631330490112305e-01,9.602161049842834473e-01,9.601691961288452148e-01,9.601222276687622070e-01,9.600751996040344238e-01,9.600282907485961914e-01,9.599813818931579590e-01,9.599344730377197266e-01,9.598874449729919434e-01,9.598405361175537109e-01,9.597936868667602539e-01,9.597466588020324707e-01,9.596998095512390137e-01,9.596529006958007812e-01,9.596059322357177734e-01,9.595590233802795410e-01,9.595121741294860840e-01,9.594653248786926270e-01,9.594183564186096191e-01,9.593715071678161621e-01,9.593246579170227051e-01,9.592776894569396973e-01,9.592308402061462402e-01,9.591839909553527832e-01,9.591370820999145508e-01,9.590902328491210938e-01,9.590434432029724121e-01,9.589965939521789551e-01,9.589496850967407227e-01,9.589028954505920410e-01
9.104255437850952148e-01,9.103833436965942383e-01,9.103410243988037109e-01,9.102988839149475098e-01,9.102566838264465332e-01,9.102144241333007812e-01,9.101722240447998047e-01,9.101300835609436035e-01,9.100879430770874023e-01,9.100456833839416504e-01,9.100034832954406738e-01,9.099613428115844727e-01,9.099190831184387207e-01,9.098769426345825195e-01,9.098348021507263184e-01,9.097926020622253418e-01,9.097504615783691406e-01,9.097083210945129395e-01,9.096662402153015137e-01,9.096239805221557617e-01,9.095818996429443359e-01,9.095397591590881348e-01,9.094975590705871582e-01,9.094554781913757324e-01,9.094133377075195312e-01,9.093711376190185547e-01,9.093290567398071289e-01,9.092869758605957031e-01,9.092448949813842773e-01,9.092026948928833008e-01,9.091606736183166504e-01,9.091185927391052246e-01,9.090763926506042480e-01,9.090343117713928223e-01,9.089922904968261719e-01,9.089501500129699707e-01,9.089080691337585449e-01,9.088660478591918945e-01,9.088239669799804688e-01,9.087818264961242676e-01,9.087398052215576172e-01,9.086977839469909668e-01,9.086556434631347656e-01,9.086136221885681152e-01,9.085716009140014648e-01,9.085294604301452637e-01,9.084874391555786133e-01,9.084454774856567383e-01,9.084034562110900879e-01,9.083613753318786621e-01,9.083193540573120117e-01,9.082773327827453613e-01,9.082352519035339355e-01,9.081932902336120605e-01,9.081513285636901855e-01,9.081093072891235352e-01,9.080672264099121094e-01,9.080252647399902344e-01,9.079833030700683594e-01,9.079412221908569336e-01,9.078993201255798340e-01,9.078573584556579590e-01,9.078152775764465332e-01,9.077733159065246582e-01,9.077313542366027832e-01,9.076894521713256836e-01,9.076474308967590332e-01,9.076054692268371582e-01,9.075635671615600586e-01,9.075215458869934082e-01,9.074795842170715332e-01,9.074376821517944336e-01,9.073956608772277832e-01,9.073537588119506836e-01,9.073118567466735840e-01,9.072699546813964844e-01,9.072279930114746094e-01,9.071860909461975098e-01,9.071441888809204102e-01,9.071022272109985352e-01
8.636021614074707031e-01,8.635641932487487793e-01,8.635262250900268555e-01,8.634881973266601562e-01,8.634502291679382324e-01,8.634122610092163086e-01,8.633742332458496094e-01,8.633363246917724609e-01,8.632983565330505371e-01,8.632604479789733887e-01,8.632224202156066895e-01,8.631844520568847656e-01,8.631465435028076172e-01,8.631085157394409180e-01,8.630706071853637695e-01,8.630326986312866211e-01,8.629947900772094727e-01,8.629568219184875488e-01,8.629189133644104004e-01,8.628810048103332520e-01,8.628429770469665527e-01,8.628051280975341797e-01,8.627672195434570312e-01,8.627292513847351074e-01,8.626913428306579590e-01,8.626534938812255859e-01,8.626155853271484375e-01,8.625776171684265137e-01,8.625397682189941406e-01,8.625018596649169922e-01,8.624639511108398438e-01,8.624261021614074707e-01,8.623881936073303223e-01,8.623502850532531738e-01,8.623124361038208008e-01,8.622745871543884277e-01,8.622367382049560547e-01,8.621987700462341309e-01,8.621609807014465332e-01,8.621231317520141602e-01,8.620852231979370117e-01,8.620473742485046387e-01,8.620095252990722656e-01,8.619716167449951172e-01,8.619338274002075195e-01,8.618959784507751465e-01,8.618581891059875488e-01,8.618202805519104004e-01,8.617824912071228027e-01,8.617447018623352051e-01,8.617067933082580566e-01,8.616690039634704590e-01,8.616312146186828613e-01,8.615933060646057129e-01,8.615555167198181152e-01,8.615177869796752930e-01,8.614799976348876953e-01,8.614421486854553223e-01,8.614043593406677246e-01,8.613665699958801270e-01,8.613287210464477539e-01,8.612909913063049316e-01,8.612532019615173340e-01,8.612153530120849609e-01,8.611776232719421387e-01,8.611398339271545410e-01,8.611021041870117188e-01,8.610642552375793457e-01,8.610265254974365234e-01,8.609887957572937012e-01,8.609510064125061035e-01,8.609132766723632812e-01,8.608755469322204590e-01,8.608378171920776367e-01,8.608000278472900391e-01,8.607622981071472168e-01,8.607245683670043945e-01,8.606867790222167969e-01,8.606490492820739746e-01,8.606113791465759277e-01
8.213595151901245117e-01,8.213250637054443359e-01,8.212907314300537109e-01,8.212563991546630859e-01,8.212220072746276855e-01,8.211876749992370605e-01,8.211533427238464355e-01,8.211190700531005859e-01,8.210846185684204102e-01,8.210503458976745605e-01,8.210160136222839355e-01,8.209816217422485352e-01,8.209472894668579102e-01,8.209130167961120605e-01,8.208786249160766602e-01,8.208443522453308105e-01,8.208100199699401855e-01,8.207757472991943359e-01,8.207413554191589355e-01,8.207070827484130859e-01,8.206728100776672363e-01,8.206384181976318359e-01,8.206041455268859863e-01,8.205698728561401367e-01,8.205356001853942871e-01,8.205012679100036621e-01,8.204669952392578125e-01,8.204327225685119629e-01,8.203983902931213379e-01,8.203641176223754883e-01,8.203299045562744141e-01,8.202955722808837891e-01,8.202612996101379395e-01,8.202270865440368652e-01,8.201928138732910156e-01,8.201584815979003906e-01,8.201242685317993164e-01,8.200899958610534668e-01,8.200557231903076172e-01,8.200214505195617676e-01,8.199872374534606934e-01,8.199529647827148438e-01,8.199187517166137695e-01,8.198844790458679199e-01,8.198502659797668457e-01,8.198159933090209961e-01,8.197817802429199219e-01,8.197475671768188477e-01,8.197132945060729980e-01,8.196790814399719238e-01,8.196449279785156250e-01,8.196105957031250000e-01,8.195764422416687012e-01,8.195422291755676270e-01,8.195080757141113281e-01,8.194738030433654785e-01,8.194395899772644043e-01,8.194054365158081055e-01,8.193711638450622559e-01,8.193370103836059570e-01,8.193027973175048828e-01,8.192685842514038086e-01,8.192344307899475098e-01,8.192002773284912109e-01,8.191661238670349121e-01,8.191318511962890625e-01,8.190976977348327637e-01,8.190635442733764648e-01,8.190293312072753906e-01,8.189951777458190918e-01,8.189610242843627930e-01,8.189268112182617188e-01,8.188927173614501953e-01,8.188585638999938965e-01,8.188244104385375977e-01,8.187901973724365234e-01,8.187561035156250000e-01,8.187219500541687012e-01,8.186877965927124023e-01,8.186536431312561035e-01
