5.000000000000000000e+00,5.000000000000000000e+00,5.000000000000000000e+00,5.000000000000000000e+00,5.000000000000000000e+00,5.000000000000000000e+00,5.000000000000000000e+00,5.000000000000000000e+00,5.000000000000000000e+00,5.000000000000000000e+00,5.000000000000000000e+00,5.000000000000000000e+00,5.000000000000000000e+00,5.000000000000000000e+00,5.000000000000000000e+00,5.000000000000000000e+00,5.000000000000000000e+00,5.000000000000000000e+00,5.000000000000000000e+00,5.000000000000000000e+00,5.000000000000000000e+00,5.000000000000000000e+00,5.000000000000000000e+00,5.000000000000000000e+00,5.000000000000000000e+00,5.000000000000000000e+00,5.000000000000000000e+00,5.000000000000000000e+00,5.000000000000000000e+00,5.000000000000000000e+00,5.000000000000000000e+00,5.000000000000000000e+00,5.000000000000000000e+00,1.762320041656494141e+00,1.764905095100402832e+00,1.898131251335144043e+00,1.892839789390563965e+00,1.891763091087341309e+00,1.912133932113647461e+00,1.920088052749633789e+00,1.941621780395507812e+00,1.948339462280273438e+00,1.980791211128234863e+00,2.118876695632934570e+00,4.037325382232666016e+00,3.904767990112304688e+00,3.780637979507446289e+00,3.664156913757324219e+00,3.554638862609863281e+00,3.451477527618408203e+00,3.354135036468505859e+00,3.262132883071899414e+00,3.175043106079101562e+00,3.092482328414916992e+00,3.014106512069702148e+00,2.939605236053466797e+00,2.868698120117187500e+00,2.801131010055541992e+00,2.736673593521118164e+00,2.675116062164306641e+00,2.616266727447509766e+00,2.559951066970825195e+00,2.506008625030517578e+00,2.454292535781860352e+00,2.404667615890502930e+00,2.357010126113891602e+00,2.311204671859741211e+00,2.267145633697509766e+00,2.224735021591186523e+00,2.183882236480712891e+00,2.144502639770507812e+00,2.106518030166625977e+00,2.069855213165283203e+00,2.034447431564331055e+00,2.000230312347412109e+00,1.967145204544067383e+00,1.935136914253234863e+00,1.904153347015380859e+00,1.874146461486816406e+00,1.845070481300354004e+00
5.000000000000000000e+00,5.000000000000000000e+00,5.000000000000000000e+00,5.000000000000000000e+00,5.000000000000000000e+00,5.000000000000000000e+00,5.000000000000000000e+00,5.000000000000000000e+00,5.000000000000000000e+00,5.000000000000000000e+00,5.000000000000000000e+00,5.000000000000000000e+00,5.000000000000000000e+00,5.000000000000000000e+00,5.000000000000000000e+00,5.000000000000000000e+00,5.000000000000000000e+00,5.000000000000000000e+00,5.000000000000000000e+00,5.000000000000000000e+00,5.000000000000000000e+00,5.000000000000000000e+00,5.000000000000000000e+00,5.000000000000000000e+00,5.000000000000000000e+00,5.000000000000000000e+00,5.000000000000000000e+00,5.000000000000000000e+00,5.000000000000000000e+00,5.000000000000000000e+00,5.000000000000000000e+00,5.000000000000000000e+00,5.000000000000000000e+00,1.755767941474914551e+00,1.732562780380249023e+00,1.898005008697509766e+00,1.897325038909912109e+00,1.896566390991210938e+00,1.933549523353576660e+00,1.946625471115112305e+00,1.922887206077575684e+00,1.902587294578552246e+00,1.891651988029479980e+00,1.941436886787414551e+00,4.037420749664306641e+00,3.904856920242309570e+00,3.780721426010131836e+00,3.664235353469848633e+00,3.554712533950805664e+00,3.451547145843505859e+00,3.354200839996337891e+00,3.262195110321044922e+00,3.175101995468139648e+00,3.092538118362426758e+00,3.014159440994262695e+00,2.939655780792236328e+00,2.868746042251586914e+00,2.801176786422729492e+00,2.736717224121093750e+00,2.675157785415649414e+00,2.616306781768798828e+00,2.559989213943481445e+00,2.506045341491699219e+00,2.454327583312988281e+00,2.404701471328735352e+00,2.357042551040649414e+00,2.311235904693603516e+00,2.267175674438476562e+00,2.224764108657836914e+00,2.183910131454467773e+00,2.144529342651367188e+00,2.106543779373168945e+00,2.069880247116088867e+00,2.034471511840820312e+00,2.000253677368164062e+00,1.967167854309082031e+00,1.935158729553222656e+00,1.904174566268920898e+00,1.874166965484619141e+00,1.845090389251708984e+00
5.000000000000000000e+00,5.000000000000000000e+00,5.000000000000000000e+00,5.000000000000000000e+00,5.000000000000000000e+00,5.000000000000000000e+00,5.000000000000000000e+00,5.000000000000000000e+00,5.000000000000000000e+00,5.000000000000000000e+00,5.000000000000000000e+00,5.000000000000000000e+00,5.000000000000000000e+00,5.000000000000000000e+00,5.000000000000000000e+00,5.000000000000000000e+00,5.000000000000000000e+00,5.000000000000000000e+00,5.000000000000000000e+00,5.000000000000000000e+00,5.000000000000000000e+00,5.000000000000000000e+00,5.000000000000000000e+00,5.000000000000000000e+00,5.000000000000000000e+00,5.000000000000000000e+00,5.000000000000000000e+00,5.000000000000000000e+00,5.000000000000000000e+00,5.000000000000000000e+00,5.000000000000000000e+00,5.000000000000000000e+00,5.000000000000000000e+00,1.739796280860900879e+00,1.705461740493774414e+00,1.715282559394836426e+00,1.718864560127258301e+00,1.900676012039184570e+00,1.934944868087768555e+00,1.944359421730041504e+00,1.896524429321289062e+00,1.881745100021362305e+00,1.874864697456359863e+00,1.899943590164184570e+00,2.147011518478393555e+00,3.904946088790893555e+00,3.780804872512817383e+00,3.664313554763793945e+00,3.554786443710327148e+00,3.451616525650024414e+00,3.354266405105590820e+00,3.262257099151611328e+00,3.175160884857177734e+00,3.092594146728515625e+00,3.014212608337402344e+00,2.939706563949584961e+00,2.868794441223144531e+00,2.801223039627075195e+00,2.736761331558227539e+00,2.675199985504150391e+00,2.616347074508666992e+00,2.560027837753295898e+00,2.506081819534301758e+00,2.454362869262695312e+00,2.404735326766967773e+00,2.357074975967407227e+00,2.311267137527465820e+00,2.267205715179443359e+00,2.224792957305908203e+00,2.183938026428222656e+00,2.144556283950805664e+00,2.106569766998291016e+00,2.069905281066894531e+00,2.034495592117309570e+00,2.000277042388916016e+00,1.967190504074096680e+00,1.935180664062500000e+00,1.904195666313171387e+00,1.874187469482421875e+00,1.845110177993774414e+00
5.000000000000000000e+00,5.000000000000000000e+00,5.000000000000000000e+00,5.000000000000000000e+00,5.000000000000000000e+00,5.000000000000000000e+00,5.000000000000000000e+00,5.000000000000000000e+00,5.000000000000000000e+00,5.000000000000000000e+00,5.000000000000000000e+00,5.000000000000000000e+00,5.000000000000000000e+00,5.000000000000000000e+00,5.000000000000000000e+00,5.000000000000000000e+00,5.000000000000000000e+00,5.000000000000000000e+00,5.000000000000000000e+00,5.000000000000000000e+00,5.000000000000000000e+00,5.000000000000000000e+00,5.000000000000000000e+00,5.000000000000000000e+00,5.000000000000000000e+00,5.000000000000000000e+00,5.000000000000000000e+00,5.000000000000000000e+00,5.000000000000000000e+00,5.000000000000000000e+00,5.000000000000000000e+00,5.000000000000000000e+00,5.000000000000000000e+00,1.725911498069763184e+00,1.689634442329406738e+00,1.666857481002807617e+00,1.692574262619018555e+00,1.904007315635681152e+00,1.935506820678710938e+00,1.938784599304199219e+00,1.896628618240356445e+00,1.869010090827941895e+00,1.863442063331604004e+00,1.867668986320495605e+00,1.927692651748657227e+00,3.905035018920898438e+00,3.780888319015502930e+00,3.664391994476318359e+00,3.554860591888427734e+00,3.451686620712280273e+00,3.354332447052001953e+00,3.262319564819335938e+00,3.175220012664794922e+00,3.092650175094604492e+00,3.014266014099121094e+00,2.939756870269775391e+00,2.868842601776123047e+00,2.801268815994262695e+00,2.736804962158203125e+00,2.675241708755493164e+00,2.616386890411376953e+00,2.560065984725952148e+00,2.506118535995483398e+00,2.454397916793823242e+00,2.404769182205200195e+00,2.357107639312744141e+00,2.311298370361328125e+00,2.267235755920410156e+00,2.224822044372558594e+00,2.183965921401977539e+00,2.144583225250244141e+00,2.106595754623413086e+00,2.069930315017700195e+00,2.034519910812377930e+00,2.000300407409667969e+00,1.967213034629821777e+00,1.935202479362487793e+00,1.904216885566711426e+00,1.874207973480224609e+00,1.845130085945129395e+00
5.000000000000000000e+00,5.000000000000000000e+00,5.000000000000000000e+00,5.000000000000000000e+00,5.000000000000000000e+00,5.000000000000000000e+00,5.000000000000000000e+00,5.000000000000000000e+00,5.000000000000000000e+00,5.000000000000000000e+00,5.000000000000000000e+00,5.000000000000000000e+00,5.000000000000000000e+00,5.000000000000000000e+00,5.000000000000000000e+00,5.000000000000000000e+00,5.000000000000000000e+00,5.000000000000000000e+00,5.000000000000000000e+00,5.000000000000000000e+00,5.000000000000000000e+00,5.000000000000000000e+00,5.000000000000000000e+00,5.000000000000000000e+00,5.000000000000000000e+00,5.000000000000000000e+00,5.000000000000000000e+00,5.000000000000000000e+00,5.000000000000000000e+00,5.000000000000000000e+00,5.000000000000000000e+00,5.000000000000000000e+00,5.000000000000000000e+00,1.725938081741333008e+00,1.670841097831726074e+00,1.910431504249572754e+00,1.910593390464782715e+00,1.910952806472778320e+00,1.941107988357543945e+00,1.960806608200073242e+00,1.895967483520507812e+00,1.854344010353088379e+00,1.851350784301757812e+00,1.846689820289611816e+00,1.896474242210388184e+00,3.905124664306640625e+00,3.780972480773925781e+00,3.664470911026000977e+00,3.554934263229370117e+00,3.451756238937377930e+00,3.354398250579833984e+00,3.262381792068481445e+00,3.175278902053833008e+00,3.092705965042114258e+00,3.014318943023681641e+00,2.939807415008544922e+00,2.868890523910522461e+00,2.801314592361450195e+00,2.736848831176757812e+00,2.675283432006835938e+00,2.616426706314086914e+00,2.560104131698608398e+00,2.506155252456665039e+00,2.454433202743530273e+00,2.404802799224853516e+00,2.357140064239501953e+00,2.311329603195190430e+00,2.267265796661376953e+00,2.224850893020629883e+00,2.183993816375732422e+00,2.144609928131103516e+00,2.106621503829956055e+00,2.069955348968505859e+00,2.034544229507446289e+00,2.000323772430419922e+00,1.967235922813415527e+00,1.935224413871765137e+00,1.904238224029541016e+00,1.874228477478027344e+00,1.845150232315063477e+00
5.000000000000000000e+00,5.000000000000000000e+00,5.000000000000000000e+00,5.000000000000000000e+00,5.000000000000000000e+00,5.000000000000000000e+00,5.000000000000000000e+00,5.000000000000000000e+00,5.000000000000000000e+00,5.000000000000000000e+00,5.000000000000000000e+00,5.000000000000000000e+00,5.000000000000000000e+00,5.000000000000000000e+00,5.000000000000000000e+00,5.000000000000000000e+00,5.000000000000000000e+00,5.000000000000000000e+00,5.000000000000000000e+00,5.000000000000000000e+00,5.000000000000000000e+00,5.000000000000000000e+00,5.000000000000000000e+00,5.000000000000000000e+00,5.000000000000000000e+00,5.000000000000000000e+00,5.000000000000000000e+00,5.000000000000000000e+00,5.000000000000000000e+00,5.000000000000000000e+00,5.000000000000000000e+00,5.000000000000000000e+00,5.000000000000000000e+00,1.714326262474060059e+00,1.955631256103515625e+00,1.920869231224060059e+00,1.920313000679016113e+00,1.919863939285278320e+00,1.953349947929382324e+00,1.981848835945129395e+00,1.894876480102539062e+00,1.852427959442138672e+00,1.836798429489135742e+00,1.833951354026794434e+00,1.866250634193420410e+00,3.905213832855224609e+00,3.781055927276611328e+00,3.664549350738525391e+00,3.555008172988891602e+00,3.451825857162475586e+00,3.354464054107666016e+00,3.262444019317626953e+00,3.175337791442871094e+00,3.092761993408203125e+00,3.014372110366821289e+00,2.939857959747314453e+00,2.868938684463500977e+00,2.801360368728637695e+00,2.736892461776733398e+00,2.675325393676757812e+00,2.616466760635375977e+00,2.560142278671264648e+00,2.506191968917846680e+00,2.454468488693237305e+00,2.404836654663085938e+00,2.357172489166259766e+00,2.311360836029052734e+00,2.267296075820922852e+00,2.224879980087280273e+00,2.184021711349487305e+00,2.144637107849121094e+00,2.106647729873657227e+00,2.069980621337890625e+00,2.034568309783935547e+00,2.000347137451171875e+00,1.967258572578430176e+00,1.935246229171752930e+00,1.904259443283081055e+00,1.874248981475830078e+00,1.845170140266418457e+00
5.000000000000000000e+00,5.000000000000000000e+00,5.000000000000000000e+00,5.000000000000000000e+00,5.000000000000000000e+00,5.000000000000000000e+00,5.000000000000000000e+00,5.000000000000000000e+00,5.000000000000000000e+00,5.000000000000000000e+00,5.000000000000000000e+00,5.000000000000000000e+00,5.000000000000000000e+00,5.000000000000000000e+00,5.000000000000000000e+00,5.000000000000000000e+00,5.000000000000000000e+00,5.000000000000000000e+00,5.000000000000000000e+00,5.000000000000000000e+00,5.000000000000000000e+00,5.000000000000000000e+00,5.000000000000000000e+00,5.000000000000000000e+00,5.000000000000000000e+00,5.000000000000000000e+00,5.000000000000000000e+00,5.000000000000000000e+00,5.000000000000000000e+00,5.000000000000000000e+00,5.000000000000000000e+00,5.000000000000000000e+00,5.000000000000000000e+00,5.000000000000000000e+00,1.972638726234436035e+00,1.932733297348022461e+00,1.931188583374023438e+00,1.930734276771545410e+00,1.970654726028442383e+00,4.863544464111328125e+00,1.895590066909790039e+00,1.851178884506225586e+00,1.822664022445678711e+00,1.821053981781005859e+00,1.823712348937988281e+00,3.905302762985229492e+00,3.781139373779296875e+00,3.664627790451049805e+00,3.555082082748413086e+00,3.451895475387573242e+00,3.354529857635498047e+00,3.262506246566772461e+00,3.175396680831909180e+00,3.092817783355712891e+00,3.014425277709960938e+00,2.939908266067504883e+00,2.868986606597900391e+00,2.801406383514404297e+00,2.736936092376708984e+00,2.675367116928100586e+00,2.616506814956665039e+00,2.560180902481079102e+00,2.506228923797607422e+00,2.454503774642944336e+00,2.404870510101318359e+00,2.357205152511596680e+00,2.311392068862915039e+00,2.267326116561889648e+00,2.224908828735351562e+00,2.184049606323242188e+00,2.144663810729980469e+00,2.106673717498779297e+00,2.070005655288696289e+00,2.034592628479003906e+00,2.000370502471923828e+00,1.967281103134155273e+00,1.935268163681030273e+00,1.904280662536621094e+00,1.874269604682922363e+00,1.845189929008483887e+00
5.000000000000000000e+00,5.000000000000000000e+00,5.000000000000000000e+00,5.000000000000000000e+00,5.000000000000000000e+00,5.000000000000000000e+00,5.000000000000000000e+00,5.000000000000000000e+00,5.000000000000000000e+00,5.000000000000000000e+00,5.000000000000000000e+00,5.000000000000000000e+00,5.000000000000000000e+00,5.000000000000000000e+00,5.000000000000000000e+00,5.000000000000000000e+00,5.000000000000000000e+00,5.000000000000000000e+00,5.000000000000000000e+00,5.000000000000000000e+00,5.000000000000000000e+00,5.000000000000000000e+00,5.000000000000000000e+00,5.000000000000000000e+00,5.000000000000000000e+00,5.000000000000000000e+00,5.000000000000000000e+00,5.000000000000000000e+00,5.000000000000000000e+00,5.000000000000000000e+00,5.000000000000000000e+00,5.000000000000000000e+00,5.000000000000000000e+00,5.000000000000000000e+00,1.989944696426391602e+00,1.944745063781738281e+00,1.942372202873229980e+00,1.941728472709655762e+00,1.985607981681823730e+00,4.863682746887207031e+00,1.916871190071105957e+00,1.847167968750000000e+00,1.811357975006103516e+00,1.806377053260803223e+00,1.805947899818420410e+00,3.905391931533813477e+00,3.781222820281982422e+00,3.664706230163574219e+00,3.555155754089355469e+00,3.451964855194091797e+00,3.354595422744750977e+00,3.262568235397338867e+00,3.175455808639526367e+00,3.092874050140380859e+00,3.014478445053100586e+00,2.939959049224853516e+00,2.869035005569458008e+00,2.801452398300170898e+00,2.736979961395263672e+00,2.675408840179443359e+00,2.616546869277954102e+00,2.560219049453735352e+00,2.506265640258789062e+00,2.454539060592651367e+00,2.404904365539550781e+00,2.357237577438354492e+00,2.311423301696777344e+00,2.267356157302856445e+00,2.224937677383422852e+00,2.184077501296997070e+00,2.144690752029418945e+00,2.106699466705322266e+00,2.070030689239501953e+00,2.034616708755493164e+00,2.000394105911254883e+00,1.967303752899169922e+00,1.935289978981018066e+00,1.904301762580871582e+00,1.874290108680725098e+00,1.845209836959838867e+00
5.000000000000000000e+00,5.000000000000000000e+00,5.000000000000000000e+00,5.000000000000000000e+00,5.000000000000000000e+00,5.000000000000000000e+00,5.000000000000000000e+00,5.000000000000000000e+00,5.000000000000000000e+00,5.000000000000000000e+00,5.000000000000000000e+00,5.000000000000000000e+00,5.000000000000000000e+00,5.000000000000000000e+00,5.000000000000000000e+00,5.000000000000000000e+00,5.000000000000000000e+00,5.000000000000000000e+00,5.000000000000000000e+00,5.000000000000000000e+00,5.000000000000000000e+00,5.000000000000000000e+00,5.000000000000000000e+00,5.000000000000000000e+00,5.000000000000000000e+00,5.000000000000000000e+00,5.000000000000000000e+00,5.000000000000000000e+00,5.000000000000000000e+00,5.000000000000000000e+00,5.000000000000000000e+00,5.000000000000000000e+00,5.000000000000000000e+00,5.000000000000000000e+00,2.011088848114013672e+00,1.956906914710998535e+00,1.954504489898681641e+00,1.957222223281860352e+00,2.000282287597656250e+00,4.863821029663085938e+00,4.672719955444335938e+00,1.843174338340759277e+00,1.808273315429687500e+00,1.788587570190429688e+00,1.790378689765930176e+00,1.832950711250305176e+00,3.781306743621826172e+00,3.664785146713256836e+00,3.555230140686035156e+00,3.452034950256347656e+00,3.354661464691162109e+00,3.262630939483642578e+00,3.175514698028564453e+00,3.092929840087890625e+00,3.014531612396240234e+00,2.940009593963623047e+00,2.869083166122436523e+00,2.801497936248779297e+00,2.737023830413818359e+00,2.675450801849365234e+00,2.616586923599243164e+00,2.560257434844970703e+00,2.506302118301391602e+00,2.454574108123779297e+00,2.404938220977783203e+00,2.357270002365112305e+00,2.311454534530639648e+00,2.267386198043823242e+00,2.224966764450073242e+00,2.184105396270751953e+00,2.144717693328857422e+00,2.106725454330444336e+00,2.070055723190307617e+00,2.034640789031982422e+00,2.000417470932006836e+00,1.967326283454895020e+00,1.935311913490295410e+00,1.904322981834411621e+00,1.874310851097106934e+00,1.845229744911193848e+00
5.000000000000000000e+00,5.000000000000000000e+00,5.000000000000000000e+00,5.000000000000000000e+00,5.000000000000000000e+00,5.000000000000000000e+00,5.000000000000000000e+00,5.000000000000000000e+00,5.000000000000000000e+00,5.000000000000000000e+00,5.000000000000000000e+00,5.000000000000000000e+00,5.000000000000000000e+00,5.000000000000000000e+00,5.000000000000000000e+00,5.000000000000000000e+00,5.000000000000000000e+00,5.000000000000000000e+00,5.000000000000000000e+00,5.000000000000000000e+00,5.000000000000000000e+00,5.000000000000000000e+00,5.000000000000000000e+00,5.000000000000000000e+00,5.000000000000000000e+00,5.000000000000000000e+00,5.000000000000000000e+00,5.000000000000000000e+00,5.000000000000000000e+00,5.000000000000000000e+00,5.000000000000000000e+00,5.000000000000000000e+00,5.000000000000000000e+00,5.000000000000000000e+00,2.037779331207275391e+00,1.968087673187255859e+00,1.964083552360534668e+00,1.972350478172302246e+00,5.000000000000000000e+00,4.863959789276123047e+00,4.672847747802734375e+00,1.850441336631774902e+00,1.804860472679138184e+00,1.776360273361206055e+00,1.777391672134399414e+00,1.781144380569458008e+00,3.781390428543090820e+00,3.664863586425781250e+00,3.555303812026977539e+00,3.452104568481445312e+00,3.354727268218994141e+00,3.262692928314208984e+00,3.175573587417602539e+00,3.092985630035400391e+00,3.014584779739379883e+00,2.940060138702392578e+00,2.869131088256835938e+00,2.801543712615966797e+00,2.737067461013793945e+00,2.675492525100708008e+00,2.616626739501953125e+00,2.560295581817626953e+00,2.506338834762573242e+00,2.454609394073486328e+00,2.404972076416015625e+00,2.357302427291870117e+00,2.311485767364501953e+00,2.267416238784790039e+00,2.224995613098144531e+00,2.184133052825927734e+00,2.144744634628295898e+00,2.106751441955566406e+00,2.070080757141113281e+00,2.034665107727050781e+00,2.000440835952758789e+00,1.967348933219909668e+00,1.935333967208862305e+00,1.904344201087951660e+00,1.874331355094909668e+00,1.845249652862548828e+00
5.000000000000000000e+00,5.000000000000000000e+00,5.000000000000000000e+00,5.000000000000000000e+00,5.000000000000000000e+00,5.000000000000000000e+00,5.000000000000000000e+00,5.000000000000000000e+00,5.000000000000000000e+00,5.000000000000000000e+00,5.000000000000000000e+00,5.000000000000000000e+00,5.000000000000000000e+00,5.000000000000000000e+00,5.000000000000000000e+00,5.000000000000000000e+00,5.000000000000000000e+00,5.000000000000000000e+00,5.000000000000000000e+00,5.000000000000000000e+00,5.000000000000000000e+00,5.000000000000000000e+00,5.000000000000000000e+00,5.000000000000000000e+00,5.000000000000000000e+00,5.000000000000000000e+00,5.000000000000000000e+00,5.000000000000000000e+00,5.000000000000000000e+00,5.000000000000000000e+00,5.000000000000000000e+00,5.000000000000000000e+00,5.000000000000000000e+00,5.000000000000000000e+00,2.058542490005493164e+00,1.981194853782653809e+00,1.972780108451843262e+00,1.987443804740905762e+00,5.000000000000000000e+00,4.864098072052001953e+00,4.672975063323974609e+00,4.496304512023925781e+00,1.803119897842407227e+00,1.777098894119262695e+00,1.775446891784667969e+00,1.779904365539550781e+00,3.781473875045776367e+00,3.664942026138305664e+00,3.555377721786499023e+00,3.452174186706542969e+00,3.354793071746826172e+00,3.262755155563354492e+00,3.175632476806640625e+00,3.093041658401489258e+00,3.014637708663940430e+00,2.940110445022583008e+00,2.869179010391235352e+00,2.801589727401733398e+00,2.737111330032348633e+00,2.675534248352050781e+00,2.616666793823242188e+00,2.560333967208862305e+00,2.506375551223754883e+00,2.454644680023193359e+00,2.405005931854248047e+00,2.357335090637207031e+00,2.311517000198364258e+00,2.267446279525756836e+00,2.225024700164794922e+00,2.184161186218261719e+00,2.144771575927734375e+00,2.106777429580688477e+00,2.070105791091918945e+00,2.034689426422119141e+00,2.000464200973510742e+00,1.967371582984924316e+00,1.935355901718139648e+00,1.904365420341491699e+00,1.874351859092712402e+00,1.845269560813903809e+00
5.000000000000000000e+00,5.000000000000000000e+00,5.000000000000000000e+00,5.000000000000000000e+00,5.000000000000000000e+00,5.000000000000000000e+00,5.000000000000000000e+00,5.000000000000000000e+00,5.000000000000000000e+00,5.000000000000000000e+00,5.000000000000000000e+00,5.000000000000000000e+00,5.000000000000000000e+00,5.000000000000000000e+00,5.000000000000000000e+00,5.000000000000000000e+00,5.000000000000000000e+00,5.000000000000000000e+00,5.000000000000000000e+00,5.000000000000000000e+00,5.000000000000000000e+00,5.000000000000000000e+00,5.000000000000000000e+00,5.000000000000000000e+00,5.000000000000000000e+00,5.000000000000000000e+00,5.000000000000000000e+00,5.000000000000000000e+00,5.000000000000000000e+00,5.000000000000000000e+00,5.000000000000000000e+00,5.000000000000000000e+00,5.000000000000000000e+00,5.000000000000000000e+00,2.076033115386962891e+00,1.998210072517395020e+00,1.981554269790649414e+00,2.001224994659423828e+00,5.000000000000000000e+00,4.864235877990722656e+00,4.673103332519531250e+00,4.496422767639160156e+00,1.808624029159545898e+00,1.782661318778991699e+00,1.779918551445007324e+00,1.793162703514099121e+00,3.781557321548461914e+00,3.665020465850830078e+00,3.555451631546020508e+00,3.452243804931640625e+00,3.354858875274658203e+00,3.262817382812500000e+00,3.175691366195678711e+00,3.093097448348999023e+00,3.014690637588500977e+00,2.940160751342773438e+00,2.869227409362792969e+00,2.801635742187500000e+00,2.737155437469482422e+00,2.675576448440551758e+00,2.616707086563110352e+00,2.560372591018676758e+00,2.506412506103515625e+00,2.454679965972900391e+00,2.405039787292480469e+00,2.357367515563964844e+00,2.311548233032226562e+00,2.267476320266723633e+00,2.225053548812866211e+00,2.184189081192016602e+00,2.144798278808593750e+00,2.106803417205810547e+00,2.070130825042724609e+00,2.034713506698608398e+00,2.000487565994262695e+00,1.967394113540649414e+00,1.935377717018127441e+00,1.904386520385742188e+00,1.874372363090515137e+00,1.845289468765258789e+00
5.000000000000000000e+00,5.000000000000000000e+00,5.000000000000000000e+00,5.000000000000000000e+00,5.000000000000000000e+00,5.000000000000000000e+00,5.000000000000000000e+00,5.000000000000000000e+00,5.000000000000000000e+00,5.000000000000000000e+00,5.000000000000000000e+00,5.000000000000000000e+00,5.000000000000000000e+00,5.000000000000000000e+00,5.000000000000000000e+00,5.000000000000000000e+00,5.000000000000000000e+00,5.000000000000000000e+00,5.000000000000000000e+00,5.000000000000000000e+00,5.000000000000000000e+00,5.000000000000000000e+00,5.000000000000000000e+00,5.000000000000000000e+00,5.000000000000000000e+00,5.000000000000000000e+00,5.000000000000000000e+00,5.000000000000000000e+00,5.000000000000000000e+00,5.000000000000000000e+00,5.000000000000000000e+00,5.000000000000000000e+00,5.000000000000000000e+00,5.000000000000000000e+00,2.095123529434204102e+00,2.016979932785034180e+00,1.994231343269348145e+00,2.012690544128417969e+00,5.000000000000000000e+00,4.864374637603759766e+00,4.673230648040771484e+00,4.496541023254394531e+00,1.817190051078796387e+00,1.789365768432617188e+00,1.784811735153198242e+00,1.813385844230651855e+00,3.781641006469726562e+00,3.665098905563354492e+00,3.555525302886962891e+00,3.452313661575317383e+00,3.354924917221069336e+00,3.262879848480224609e+00,3.175750732421875000e+00,3.093153476715087891e+00,3.014744043350219727e+00,2.940211534500122070e+00,2.869275569915771484e+00,2.801681518554687500e+00,2.737199068069458008e+00,2.675618171691894531e+00,2.616747140884399414e+00,2.560410737991333008e+00,2.506449222564697266e+00,2.454715013504028320e+00,2.405073404312133789e+00,2.357399940490722656e+00,2.311579465866088867e+00,2.267506361007690430e+00,2.225082397460937500e+00,2.184216976165771484e+00,2.144825220108032227e+00,2.106829404830932617e+00,2.070155858993530273e+00,2.034737825393676758e+00,2.000510931015014648e+00,1.967416763305664062e+00,1.935399651527404785e+00,1.904407739639282227e+00,1.874392867088317871e+00,1.845309257507324219e+00
5.000000000000000000e+00,5.000000000000000000e+00,5.000000000000000000e+00,5.000000000000000000e+00,5.000000000000000000e+00,5.000000000000000000e+00,5.000000000000000000e+00,5.000000000000000000e+00,5.000000000000000000e+00,5.000000000000000000e+00,5.000000000000000000e+00,5.000000000000000000e+00,5.000000000000000000e+00,5.000000000000000000e+00,5.000000000000000000e+00,5.000000000000000000e+00,5.000000000000000000e+00,5.000000000000000000e+00,5.000000000000000000e+00,5.000000000000000000e+00,5.000000000000000000e+00,5.000000000000000000e+00,5.000000000000000000e+00,5.000000000000000000e+00,5.000000000000000000e+00,5.000000000000000000e+00,5.000000000000000000e+00,5.000000000000000000e+00,5.000000000000000000e+00,5.000000000000000000e+00,5.000000000000000000e+00,5.000000000000000000e+00,5.000000000000000000e+00,5.000000000000000000e+00,2.092981815338134766e+00,2.033849239349365234e+00,2.007137298583984375e+00,2.034445047378540039e+00,5.000000000000000000e+00,4.864512920379638672e+00,4.673358440399169922e+00,4.496658802032470703e+00,1.825837373733520508e+00,1.798305630683898926e+00,1.792797923088073730e+00,1.816429972648620605e+00,3.781724929809570312e+00,3.665177822113037109e+00,3.555599689483642578e+00,3.452383279800415039e+00,3.354990482330322266e+00,3.262942075729370117e+00,3.175809383392333984e+00,3.093209266662597656e+00,3.014796972274780273e+00,2.940262079238891602e+00,2.869323492050170898e+00,2.801727533340454102e+00,2.737242937088012695e+00,2.675659894943237305e+00,2.616786956787109375e+00,2.560449123382568359e+00,2.506485939025878906e+00,2.454750299453735352e+00,2.405107259750366211e+00,2.357432365417480469e+00,2.311610698699951172e+00,2.267536401748657227e+00,2.225111484527587891e+00,2.184244871139526367e+00,2.144852161407470703e+00,2.106855154037475586e+00,2.070180892944335938e+00,2.034761905670166016e+00,2.000534534454345703e+00,1.967439651489257812e+00,1.935421586036682129e+00,1.904429197311401367e+00,1.874413371086120605e+00,1.845329403877258301e+00
5.000000000000000000e+00,5.000000000000000000e+00,5.000000000000000000e+00,5.000000000000000000e+00,5.000000000000000000e+00,5.000000000000000000e+00,5.000000000000000000e+00,5.000000000000000000e+00,5.000000000000000000e+00,5.000000000000000000e+00,5.000000000000000000e+00,5.000000000000000000e+00,5.000000000000000000e+00,5.000000000000000000e+00,5.000000000000000000e+00,5.000000000000000000e+00,5.000000000000000000e+00,5.000000000000000000e+00,5.000000000000000000e+00,5.000000000000000000e+00,5.000000000000000000e+00,5.000000000000000000e+00,5.000000000000000000e+00,5.000000000000000000e+00,5.000000000000000000e+00,5.000000000000000000e+00,5.000000000000000000e+00,5.000000000000000000e+00,5.000000000000000000e+00,5.000000000000000000e+00,5.000000000000000000e+00,5.000000000000000000e+00,5.000000000000000000e+00,5.000000000000000000e+00,2.090529441833496094e+00,2.057456731796264648e+00,2.039697647094726562e+00,5.000000000000000000e+00,5.000000000000000000e+00,4.864651679992675781e+00,4.673486232757568359e+00,4.496777534484863281e+00,1.832340598106384277e+00,1.803799629211425781e+00,1.798099398612976074e+00,1.816710948944091797e+00,3.781808376312255859e+00,3.665256261825561523e+00,3.555673599243164062e+00,3.452452898025512695e+00,3.355056285858154297e+00,3.263004064559936523e+00,3.175868272781372070e+00,3.093265295028686523e+00,3.014850139617919922e+00,2.940312623977661133e+00,2.869371652603149414e+00,2.801773309707641602e+00,2.737286567687988281e+00,2.675701856613159180e+00,2.616827011108398438e+00,2.560487270355224609e+00,2.506522655487060547e+00,2.454785585403442383e+00,2.405141115188598633e+00,2.357464790344238281e+00,2.311641931533813477e+00,2.267566680908203125e+00,2.225140571594238281e+00,2.184272766113281250e+00,2.144879102706909180e+00,2.106881380081176758e+00,2.070206165313720703e+00,2.034786224365234375e+00,2.000557899475097656e+00,1.967462182044982910e+00,1.935443401336669922e+00,1.904450297355651855e+00,1.874433994293212891e+00,1.845349311828613281e+00
5.000000000000000000e+00,5.000000000000000000e+00,5.000000000000000000e+00,5.000000000000000000e+00,5.000000000000000000e+00,5.000000000000000000e+00,5.000000000000000000e+00,5.000000000000000000e+00,5.000000000000000000e+00,5.000000000000000000e+00,5.000000000000000000e+00,5.000000000000000000e+00,5.000000000000000000e+00,5.000000000000000000e+00,5.000000000000000000e+00,5.000000000000000000e+00,5.000000000000000000e+00,5.000000000000000000e+00,5.000000000000000000e+00,5.000000000000000000e+00,5.000000000000000000e+00,5.000000000000000000e+00,5.000000000000000000e+00,5.000000000000000000e+00,5.000000000000000000e+00,5.000000000000000000e+00,5.000000000000000000e+00,5.000000000000000000e+00,5.000000000000000000e+00,5.000000000000000000e+00,5.000000000000000000e+00,5.000000000000000000e+00,5.000000000000000000e+00,5.000000000000000000e+00,2.105728626251220703e+00,2.084756612777709961e+00,2.086078166961669922e+00,5.000000000000000000e+00,5.000000000000000000e+00,4.864788532257080078e+00,4.673614025115966797e+00,4.496895313262939453e+00,1.832016825675964355e+00,1.798922657966613770e+00,1.794085979461669922e+00,1.802073240280151367e+00,3.781892061233520508e+00,3.665334701538085938e+00,3.555747270584106445e+00,3.452522516250610352e+00,3.355121850967407227e+00,3.263066291809082031e+00,3.175927162170410156e+00,3.093321084976196289e+00,3.014903306961059570e+00,2.940363168716430664e+00,2.869419813156127930e+00,2.801819086074829102e+00,2.737330436706542969e+00,2.675743579864501953e+00,2.616867303848266602e+00,2.560525894165039062e+00,2.506559371948242188e+00,2.454820871353149414e+00,2.405174970626831055e+00,2.357497453689575195e+00,2.311673402786254883e+00,2.267596721649169922e+00,2.225169420242309570e+00,2.184300661087036133e+00,2.144906044006347656e+00,2.106907129287719727e+00,2.070231199264526367e+00,2.034810304641723633e+00,2.000581264495849609e+00,1.967484831809997559e+00,1.935465335845947266e+00,1.904471516609191895e+00,1.874454498291015625e+00,1.845369219779968262e+00
5.000000000000000000e+00,5.000000000000000000e+00,5.000000000000000000e+00,5.000000000000000000e+00,5.000000000000000000e+00,5.000000000000000000e+00,5.000000000000000000e+00,5.000000000000000000e+00,5.000000000000000000e+00,5.000000000000000000e+00,5.000000000000000000e+00,5.000000000000000000e+00,5.000000000000000000e+00,5.000000000000000000e+00,5.000000000000000000e+00,5.000000000000000000e+00,5.000000000000000000e+00,5.000000000000000000e+00,5.000000000000000000e+00,5.000000000000000000e+00,5.000000000000000000e+00,5.000000000000000000e+00,5.000000000000000000e+00,5.000000000000000000e+00,5.000000000000000000e+00,5.000000000000000000e+00,5.000000000000000000e+00,5.000000000000000000e+00,5.000000000000000000e+00,5.000000000000000000e+00,5.000000000000000000e+00,5.000000000000000000e+00,5.000000000000000000e+00,5.000000000000000000e+00,2.124696969985961914e+00,2.107803821563720703e+00,2.136343479156494141e+00,5.000000000000000000e+00,5.000000000000000000e+00,4.864927768707275391e+00,4.673740386962890625e+00,4.497014045715332031e+00,1.830958962440490723e+00,1.793899893760681152e+00,1.789952516555786133e+00,1.787669658660888672e+00,3.781975507736206055e+00,3.665413141250610352e+00,3.555821180343627930e+00,3.452591896057128906e+00,3.355187654495239258e+00,3.263128519058227539e+00,3.175986051559448242e+00,3.093377351760864258e+00,3.014956712722778320e+00,2.940413951873779297e+00,2.869468212127685547e+00,2.801865339279174805e+00,2.737374305725097656e+00,2.675785541534423828e+00,2.616907358169555664e+00,2.560564041137695312e+00,2.506596088409423828e+00,2.454856157302856445e+00,2.405208826065063477e+00,2.357530117034912109e+00,2.311704635620117188e+00,2.267626762390136719e+00,2.225198268890380859e+00,2.184328556060791016e+00,2.144932746887207031e+00,2.106933116912841797e+00,2.070256233215332031e+00,2.034834623336791992e+00,2.000604629516601562e+00,1.967507481575012207e+00,1.935487151145935059e+00,1.904492735862731934e+00,1.874475002288818359e+00,1.845389127731323242e+00
5.000000000000000000e+00,5.000000000000000000e+00,5.000000000000000000e+00,5.000000000000000000e+00,5.000000000000000000e+00,5.000000000000000000e+00,5.000000000000000000e+00,5.000000000000000000e+00,5.000000000000000000e+00,5.000000000000000000e+00,5.000000000000000000e+00,5.000000000000000000e+00,5.000000000000000000e+00,5.000000000000000000e+00,5.000000000000000000e+00,5.000000000000000000e+00,5.000000000000000000e+00,5.000000000000000000e+00,5.000000000000000000e+00,5.000000000000000000e+00,5.000000000000000000e+00,5.000000000000000000e+00,5.000000000000000000e+00,5.000000000000000000e+00,5.000000000000000000e+00,5.000000000000000000e+00,5.000000000000000000e+00,5.000000000000000000e+00,5.000000000000000000e+00,5.000000000000000000e+00,5.000000000000000000e+00,5.000000000000000000e+00,5.000000000000000000e+00,5.000000000000000000e+00,2.143644571304321289e+00,2.124251365661621094e+00,2.160864114761352539e+00,5.000000000000000000e+00,5.000000000000000000e+00,4.865066528320312500e+00,4.673868656158447266e+00,4.497131824493408203e+00,4.333273887634277344e+00,1.793233871459960938e+00,1.784854054450988770e+00,1.780523657798767090e+00,3.782059431076049805e+00,3.665492057800292969e+00,3.555895090103149414e+00,3.452661991119384766e+00,3.355253696441650391e+00,3.263190984725952148e+00,3.176045417785644531e+00,3.093433141708374023e+00,3.015009641647338867e+00,2.940464258193969727e+00,2.869516134262084961e+00,2.801911115646362305e+00,2.737418174743652344e+00,2.675827503204345703e+00,2.616947174072265625e+00,2.560602426528930664e+00,2.506632804870605469e+00,2.454891204833984375e+00,2.405242681503295898e+00,2.357562541961669922e+00,2.311735868453979492e+00,2.267656803131103516e+00,2.225227117538452148e+00,2.184356451034545898e+00,2.144959688186645508e+00,2.106959104537963867e+00,2.070281267166137695e+00,2.034858703613281250e+00,2.000627994537353516e+00,1.967530012130737305e+00,1.935509085655212402e+00,1.904513835906982422e+00,1.874495744705200195e+00,1.845408916473388672e+00
5.000000000000000000e+00,5.000000000000000000e+00,5.000000000000000000e+00,5.000000000000000000e+00,5.000000000000000000e+00,5.000000000000000000e+00,5.000000000000000000e+00,5.000000000000000000e+00,5.000000000000000000e+00,5.000000000000000000e+00,5.000000000000000000e+00,5.000000000000000000e+00,5.000000000000000000e+00,5.000000000000000000e+00,5.000000000000000000e+00,5.000000000000000000e+00,5.000000000000000000e+00,5.000000000000000000e+00,5.000000000000000000e+00,5.000000000000000000e+00,5.000000000000000000e+00,5.000000000000000000e+00,5.000000000000000000e+00,5.000000000000000000e+00,5.000000000000000000e+00,5.000000000000000000e+00,5.000000000000000000e+00,5.000000000000000000e+00,5.000000000000000000e+00,5.000000000000000000e+00,5.000000000000000000e+00,5.000000000000000000e+00,5.000000000000000000e+00,5.000000000000000000e+00,2.163125038146972656e+00,2.140957593917846680e+00,2.184763908386230469e+00,5.000000000000000000e+00,5.000000000000000000e+00,4.865206241607666016e+00,4.673996925354003906e+00,4.497249126434326172e+00,4.333383560180664062e+00,1.792897462844848633e+00,1.779920935630798340e+00,1.776131033897399902e+00,3.782143115997314453e+00,3.665570259094238281e+00,3.555968999862670898e+00,3.452731609344482422e+00,3.355319499969482422e+00,3.263253211975097656e+00,3.176104307174682617e+00,3.093489170074462891e+00,3.015062808990478516e+00,2.940514802932739258e+00,2.869564294815063477e+00,2.801956892013549805e+00,2.737461805343627930e+00,2.675869226455688477e+00,2.616987228393554688e+00,2.560640811920166016e+00,2.506669521331787109e+00,2.454926490783691406e+00,2.405276536941528320e+00,2.357594966888427734e+00,2.311767101287841797e+00,2.267686843872070312e+00,2.225256204605102539e+00,2.184384346008300781e+00,2.144986629486083984e+00,2.106985092163085938e+00,2.070306301116943359e+00,2.034883022308349609e+00,2.000651597976684570e+00,1.967552661895751953e+00,1.935531139373779297e+00,1.904535055160522461e+00,1.874516248703002930e+00,1.845428824424743652e+00
5.000000000000000000e+00,5.000000000000000000e+00,5.000000000000000000e+00,5.000000000000000000e+00,5.000000000000000000e+00,5.000000000000000000e+00,5.000000000000000000e+00,5.000000000000000000e+00,5.000000000000000000e+00,5.000000000000000000e+00,5.000000000000000000e+00,5.000000000000000000e+00,5.000000000000000000e+00,5.000000000000000000e+00,5.000000000000000000e+00,5.000000000000000000e+00,5.000000000000000000e+00,5.000000000000000000e+00,5.000000000000000000e+00,5.000000000000000000e+00,5.000000000000000000e+00,5.000000000000000000e+00,5.000000000000000000e+00,5.000000000000000000e+00,5.000000000000000000e+00,5.000000000000000000e+00,5.000000000000000000e+00,5.000000000000000000e+00,5.000000000000000000e+00,5.000000000000000000e+00,5.000000000000000000e+00,5.000000000000000000e+00,5.000000000000000000e+00,5.000000000000000000e+00,2.183797597885131836e+00,2.160782814025878906e+00,5.000000000000000000e+00,5.000000000000000000e+00,5.000000000000000000e+00,4.865345478057861328e+00,4.674125671386718750e+00,4.497368335723876953e+00,4.333492279052734375e+00,1.795239806175231934e+00,1.775830030441284180e+00,1.772057414054870605e+00,3.782226324081420898e+00,3.665648937225341797e+00,3.556042909622192383e+00,3.452801227569580078e+00,3.355385303497314453e+00,3.263315439224243164e+00,3.176163196563720703e+00,3.093544960021972656e+00,3.015115976333618164e+00,2.940565347671508789e+00,2.869612455368041992e+00,2.802002906799316406e+00,2.737505674362182617e+00,2.675911188125610352e+00,2.617027282714843750e+00,2.560678958892822266e+00,2.506706237792968750e+00,2.454961776733398438e+00,2.405310392379760742e+00,2.357627630233764648e+00,2.311798334121704102e+00,2.267716884613037109e+00,2.225285291671752930e+00,2.184412240982055664e+00,2.145013570785522461e+00,2.107011079788208008e+00,2.070331335067749023e+00,2.034907341003417969e+00,2.000674962997436523e+00,1.967575311660766602e+00,1.935553073883056641e+00,1.904556274414062500e+00,1.874536752700805664e+00,1.845448732376098633e+00
5.000000000000000000e+00,5.000000000000000000e+00,5.000000000000000000e+00,5.000000000000000000e+00,5.000000000000000000e+00,5.000000000000000000e+00,5.000000000000000000e+00,5.000000000000000000e+00,5.000000000000000000e+00,5.000000000000000000e+00,5.000000000000000000e+00,5.000000000000000000e+00,5.000000000000000000e+00,5.000000000000000000e+00,5.000000000000000000e+00,5.000000000000000000e+00,5.000000000000000000e+00,5.000000000000000000e+00,5.000000000000000000e+00,5.000000000000000000e+00,5.000000000000000000e+00,5.000000000000000000e+00,5.000000000000000000e+00,5.000000000000000000e+00,5.000000000000000000e+00,5.000000000000000000e+00,5.000000000000000000e+00,5.000000000000000000e+00,5.000000000000000000e+00,5.000000000000000000e+00,5.000000000000000000e+00,5.000000000000000000e+00,5.000000000000000000e+00,5.000000000000000000e+00,2.206281661987304688e+00,2.189035415649414062e+00,5.000000000000000000e+00,5.000000000000000000e+00,5.000000000000000000e+00,4.865484714508056641e+00,4.674254417419433594e+00,4.497487068176269531e+00,4.333602905273437500e+00,1.797588229179382324e+00,1.771791458129882812e+00,1.768002510070800781e+00,3.782310009002685547e+00,3.665727376937866211e+00,3.556116819381713867e+00,3.452870845794677734e+00,3.355451107025146484e+00,3.263377428054809570e+00,3.176222085952758789e+00,3.093600988388061523e+00,3.015168905258178711e+00,2.940615892410278320e+00,2.869660377502441406e+00,2.802048921585083008e+00,2.737549781799316406e+00,2.675953149795532227e+00,2.617067575454711914e+00,2.560717582702636719e+00,2.506743192672729492e+00,2.454997062683105469e+00,2.405344247817993164e+00,2.357660055160522461e+00,2.311829566955566406e+00,2.267746925354003906e+00,2.225314140319824219e+00,2.184440135955810547e+00,2.145040512084960938e+00,2.107036828994750977e+00,2.070356369018554688e+00,2.034931421279907227e+00,2.000698328018188477e+00,1.967597842216491699e+00,1.935574889183044434e+00,1.904577493667602539e+00,1.874557256698608398e+00,1.845468640327453613e+00
4.875786781311035156e+00,4.874575614929199219e+00,4.873364925384521484e+00,4.872155666351318359e+00,4.870945930480957031e+00,4.869737625122070312e+00,4.868529319763183594e+00,4.867321968078613281e+00,4.866115093231201172e+00,4.864908695220947266e+00,4.863703250885009766e+00,4.862498283386230469e+00,4.861293792724609375e+00,4.860089778900146484e+00,4.858886718750000000e+00,4.857683658599853516e+00,4.856482028961181641e+00,4.855280876159667969e+00,4.854079723358154297e+00,4.852879524230957031e+00,4.851679801940917969e+00,4.850481033325195312e+00,4.849282264709472656e+00,4.848084449768066406e+00,4.846887111663818359e+00,4.845690250396728516e+00,4.844494342803955078e+00,4.843298435211181641e+00,4.842103958129882812e+00,4.840909004211425781e+00,4.839715480804443359e+00,4.838521957397460938e+00,4.837329864501953125e+00,4.836137771606445312e+00,2.229590892791748047e+00,2.218036651611328125e+00,4.832564830780029297e+00,4.831375598907470703e+00,4.830186367034912109e+00,4.828998088836669922e+00,4.674382686614990234e+00,4.497606277465820312e+00,4.333713054656982422e+00,1.799942731857299805e+00,1.769751906394958496e+00,1.765741825103759766e+00,3.782393455505371094e+00,3.665805816650390625e+00,3.556190729141235352e+00,3.452940464019775391e+00,3.355517148971557617e+00,3.263440132141113281e+00,3.176281213760375977e+00,3.093657016754150391e+00,3.015222311019897461e+00,2.940666675567626953e+00,2.869708776473999023e+00,2.802094697952270508e+00,2.737593412399291992e+00,2.675995111465454102e+00,2.617107391357421875e+00,2.560755729675292969e+00,2.506779909133911133e+00,2.455032348632812500e+00,2.405377864837646484e+00,2.357692480087280273e+00,2.311860799789428711e+00,2.267776966094970703e+00,2.225342988967895508e+00,2.184468030929565430e+00,2.145067453384399414e+00,2.107062816619873047e+00,2.070381402969360352e+00,2.034955739974975586e+00,2.000721693038940430e+00,1.967620491981506348e+00,1.935596823692321777e+00,1.904598593711853027e+00,1.874577879905700684e+00,1.845488548278808594e+00
3.778606176376342773e+00,3.777878761291503906e+00,3.777151584625244141e+00,3.776425123214721680e+00,3.775698423385620117e+00,3.774971961975097656e+00,3.774245977401733398e+00,3.773520469665527344e+00,3.772794961929321289e+00,3.772069692611694336e+00,3.771345138549804688e+00,3.770620584487915039e+00,3.769896030426025391e+00,3.769171953201293945e+00,3.768448591232299805e+00,3.767724990844726562e+00,3.767001628875732422e+00,3.766278982162475586e+00,3.765556335449218750e+00,3.764833927154541016e+00,3.764111518859863281e+00,3.763390064239501953e+00,3.762668371200561523e+00,3.761947154998779297e+00,3.761226177215576172e+00,3.760505676269531250e+00,3.759785175323486328e+00,3.759064912796020508e+00,3.758345365524291992e+00,3.757625579833984375e+00,3.756906270980834961e+00,3.756186962127685547e+00,3.755468606948852539e+00,3.754750013351440430e+00,2.264524459838867188e+00,2.253954172134399414e+00,3.752596139907836914e+00,3.751878738403320312e+00,3.751161336898803711e+00,3.750444889068603516e+00,3.749728202819824219e+00,3.749011754989624023e+00,3.748296022415161133e+00,1.807649850845336914e+00,1.768052935600280762e+00,1.765025019645690918e+00,3.745434761047363281e+00,3.665884733200073242e+00,3.556264877319335938e+00,3.453010559082031250e+00,3.355582952499389648e+00,3.263502359390258789e+00,3.176340341567993164e+00,3.093713045120239258e+00,3.015275478363037109e+00,2.940717220306396484e+00,2.869756937026977539e+00,2.802140712738037109e+00,2.737637281417846680e+00,2.676036834716796875e+00,2.617147445678710938e+00,2.560794115066528320e+00,2.506816625595092773e+00,2.455067396163940430e+00,2.405411720275878906e+00,2.357724905014038086e+00,2.311892032623291016e+00,2.267807006835937500e+00,2.225372076034545898e+00,2.184495925903320312e+00,2.145094156265258789e+00,2.107088804244995117e+00,2.070406436920166016e+00,2.034979820251464844e+00,2.000745058059692383e+00,1.967643380165100098e+00,1.935618638992309570e+00,1.904620051383972168e+00,1.874598383903503418e+00,1.845508694648742676e+00
3.084510087966918945e+00,3.084025621414184570e+00,3.083540916442871094e+00,3.083056449890136719e+00,3.082572221755981445e+00,3.082088232040405273e+00,3.081604242324829102e+00,3.081120252609252930e+00,3.080636501312255859e+00,3.080153226852416992e+00,3.079669952392578125e+00,3.079186677932739258e+00,3.078703880310058594e+00,3.078220844268798828e+00,3.077738046646118164e+00,3.077255249023437500e+00,3.076773166656494141e+00,3.076290845870971680e+00,3.075808525085449219e+00,3.075326681137084961e+00,3.074844837188720703e+00,3.074362993240356445e+00,3.073881626129150391e+00,3.073400259017944336e+00,3.072919130325317383e+00,3.072437763214111328e+00,3.071957111358642578e+00,3.071476221084594727e+00,3.070995569229125977e+00,3.070515155792236328e+00,3.070034980773925781e+00,3.069554567337036133e+00,3.069074630737304688e+00,3.068594932556152344e+00,2.259576082229614258e+00,2.236981868743896484e+00,3.067156076431274414e+00,3.066676855087280273e+00,3.066197633743286133e+00,3.065718650817871094e+00,3.065239906311035156e+00,3.064761400222778320e+00,3.064282894134521484e+00,3.063804388046264648e+00,1.781693220138549805e+00,1.771707773208618164e+00,3.062370061874389648e+00,3.061892509460449219e+00,3.061414957046508789e+00,3.060937404632568359e+00,3.060459852218627930e+00,3.059983015060424805e+00,3.059505939483642578e+00,3.059028863906860352e+00,3.015328645706176758e+00,2.940767765045166016e+00,2.869805097579956055e+00,2.802186489105224609e+00,2.737680912017822266e+00,2.676078557968139648e+00,2.617187500000000000e+00,2.560832500457763672e+00,2.506853342056274414e+00,2.455102682113647461e+00,2.405445575714111328e+00,2.357757329940795898e+00,2.311923265457153320e+00,2.267837047576904297e+00,2.225401163101196289e+00,2.184523820877075195e+00,2.145121335983276367e+00,2.107114791870117188e+00,2.070431709289550781e+00,2.035004138946533203e+00,2.000768423080444336e+00,1.967665910720825195e+00,1.935640573501586914e+00,1.904641270637512207e+00,1.874618887901306152e+00,1.845528483390808105e+00
2.605840682983398438e+00,2.605494499206542969e+00,2.605148792266845703e+00,2.604803085327148438e+00,2.604457378387451172e+00,2.604111671447753906e+00,2.603766202926635742e+00,2.603420972824096680e+00,2.603075504302978516e+00,2.602730274200439453e+00,2.602385282516479492e+00,2.602040052413940430e+00,2.601695060729980469e+00,2.601350307464599609e+00,2.601005554199218750e+00,2.600660800933837891e+00,2.600316286087036133e+00,2.599972009658813477e+00,2.599627494812011719e+00,2.599283218383789062e+00,2.598938941955566406e+00,2.598594903945922852e+00,2.598250865936279297e+00,2.597906827926635742e+00,2.597562789916992188e+00,2.597219228744506836e+00,2.596875667572021484e+00,2.596531867980957031e+00,2.596188545227050781e+00,2.595845222473144531e+00,2.595501899719238281e+00,2.595158576965332031e+00,2.594815492630004883e+00,2.594472408294677734e+00,2.229191303253173828e+00,2.208969831466674805e+00,2.211288690567016602e+00,2.593101263046264648e+00,2.592758655548095703e+00,2.592416286468505859e+00,2.592073678970336914e+00,2.591731548309326172e+00,2.591389417648315430e+00,2.591047286987304688e+00,1.770525097846984863e+00,1.736302018165588379e+00,1.728506445884704590e+00,2.589679479598999023e+00,2.589337825775146484e+00,2.588996410369873047e+00,2.588654756546020508e+00,2.588313341140747070e+00,2.587971925735473633e+00,2.587630987167358398e+00,2.587289810180664062e+00,2.586948633193969727e+00,2.586607933044433594e+00,2.586266994476318359e+00,2.585926055908203125e+00,2.585585355758666992e+00,2.585244894027709961e+00,2.560870885848999023e+00,2.506890296936035156e+00,2.455138206481933594e+00,2.405479431152343750e+00,2.357789993286132812e+00,2.311954736709594727e+00,2.267867326736450195e+00,2.225430011749267578e+00,2.184551715850830078e+00,2.145148038864135742e+00,2.107140779495239258e+00,2.070456743240356445e+00,2.035028457641601562e+00,2.000791788101196289e+00,1.967688560485839844e+00,1.935662508010864258e+00,1.904662370681762695e+00,1.874639391899108887e+00,1.845548391342163086e+00
2.255776882171630859e+00,2.255517721176147461e+00,2.255258560180664062e+00,2.254999637603759766e+00,2.254740476608276367e+00,2.254481554031372070e+00,2.254222631454467773e+00,2.253963708877563477e+00,2.253705024719238281e+00,2.253446340560913086e+00,2.253187417984008789e+00,2.252928972244262695e+00,2.252670288085937500e+00,2.252411842346191406e+00,2.252153396606445312e+00,2.251895189285278320e+00,2.251636743545532227e+00,2.251378536224365234e+00,2.251120328903198242e+00,2.250862121582031250e+00,2.250603914260864258e+00,2.250345945358276367e+00,2.250087976455688477e+00,2.249830245971679688e+00,2.249572277069091797e+00,2.249314308166503906e+00,2.249056816101074219e+00,2.248799085617065430e+00,2.248541355133056641e+00,2.248283624649047852e+00,2.248026132583618164e+00,2.247768640518188477e+00,2.247511386871337891e+00,2.247254133224487305e+00,2.246996641159057617e+00,2.170457124710083008e+00,2.159862279891967773e+00,2.169441699981689453e+00,2.245968103408813477e+00,2.245711088180541992e+00,2.245454072952270508e+00,2.245197296142578125e+00,2.244940280914306641e+00,2.244683504104614258e+00,1.769397377967834473e+00,1.716536521911621094e+00,1.661520123481750488e+00,1.622005820274353027e+00,1.636223196983337402e+00,2.243144273757934570e+00,2.242887973785400391e+00,2.242631673812866211e+00,2.242375373840332031e+00,2.242119312286376953e+00,2.241863012313842773e+00,2.241607189178466797e+00,2.241351127624511719e+00,2.241095066070556641e+00,2.240839242935180664e+00,2.240583419799804688e+00,2.240327596664428711e+00,2.240071773529052734e+00,2.239816188812255859e+00,2.239560604095458984e+00,2.239305019378662109e+00,2.239049673080444336e+00,2.238794326782226562e+00,2.238538742065429688e+00,2.225458860397338867e+00,2.184579610824584961e+00,2.145174980163574219e+00,2.107166767120361328e+00,2.070481777191162109e+00,2.035052537918090820e+00,2.000815391540527344e+00,1.967711210250854492e+00,1.935684323310852051e+00,1.904683589935302734e+00,1.874659895896911621e+00,1.845568299293518066e+00
1.988627076148986816e+00,1.988425612449645996e+00,1.988224148750305176e+00,1.988022923469543457e+00,1.987821578979492188e+00,1.987620234489440918e+00,1.987418889999389648e+00,1.987217783927917480e+00,1.987016558647155762e+00,1.986815452575683594e+00,1.986614227294921875e+00,1.986413478851318359e+00,1.986212372779846191e+00,1.986011385917663574e+00,1.985810399055480957e+00,1.985609650611877441e+00,1.985408782958984375e+00,1.985207915306091309e+00,1.985007047653198242e+00,1.984806537628173828e+00,1.984605789184570312e+00,1.984405040740966797e+00,1.984204411506652832e+00,1.984004020690917969e+00,1.983803391456604004e+00,1.983602881431579590e+00,1.983402371406555176e+00,1.983202219009399414e+00,1.983001828193664551e+00,1.982801437377929688e+00,1.982601046562194824e+00,1.982401013374328613e+00,1.982200741767883301e+00,1.982000470161437988e+00,1.981800317764282227e+00,1.981600403785705566e+00,1.981400370597839355e+00,1.981200337409973145e+00,1.981000304222106934e+00,1.980800509452819824e+00,1.980600595474243164e+00,1.980400681495666504e+00,1.980200886726379395e+00,1.980001330375671387e+00,1.775968194007873535e+00,1.761335134506225586e+00,1.979402065277099609e+00,1.979202628135681152e+00,1.979003071784973145e+00,1.978803515434265137e+00,1.978603959083557129e+00,1.978404641151428223e+00,1.978205204010009766e+00,1.978005886077880859e+00,1.977806448936462402e+00,1.977607369422912598e+00,1.977408051490783691e+00,1.977208852767944336e+00,1.977009654045104980e+00,1.976810693740844727e+00,1.976611495018005371e+00,1.976412415504455566e+00,1.976213455200195312e+00,1.976014614105224609e+00,1.975815653800964355e+00,1.975616693496704102e+00,1.975417852401733398e+00,1.975219249725341797e+00,1.975020408630371094e+00,1.974821686744689941e+00,1.974622964859008789e+00,1.974424481391906738e+00,1.974225759506225586e+00,1.974027156829833984e+00,1.973828911781311035e+00,1.967733860015869141e+00,1.935706257820129395e+00,1.904704809188842773e+00,1.874680399894714355e+00,1.845588207244873047e+00
1.778053641319274902e+00,1.777892470359802246e+00,1.777731418609619141e+00,1.777570605278015137e+00,1.777409553527832031e+00,1.777248620986938477e+00,1.777087688446044922e+00,1.776926875114440918e+00,1.776766061782836914e+00,1.776605129241943359e+00,1.776444315910339355e+00,1.776283740997314453e+00,1.776122927665710449e+00,1.775962114334106445e+00,1.775801420211791992e+00,1.775640964508056641e+00,1.775480270385742188e+00,1.775319695472717285e+00,1.775159001350402832e+00,1.774998664855957031e+00,1.774838089942932129e+00,1.774677634239196777e+00,1.774517059326171875e+00,1.774356842041015625e+00,1.774196386337280273e+00,1.774035930633544922e+00,1.773875594139099121e+00,1.773715496063232422e+00,1.773555159568786621e+00,1.773394823074340820e+00,1.773234605789184570e+00,1.773074507713317871e+00,1.772914409637451172e+00,1.772754192352294922e+00,1.772593975067138672e+00,1.772434115409851074e+00,1.772274017333984375e+00,1.772113919258117676e+00,1.771953940391540527e+00,1.771794080734252930e+00,1.771634101867675781e+00,1.771474242210388184e+00,1.771314263343811035e+00,1.771154642105102539e+00,1.770994782447814941e+00,1.770834922790527344e+00,1.770675063133239746e+00,1.770515561103820801e+00,1.770355820655822754e+00,1.770196080207824707e+00,1.770036458969116211e+00,1.769876956939697266e+00,1.769717335700988770e+00,1.769557714462280273e+00,1.769398212432861328e+00,1.769238829612731934e+00,1.769079327583312988e+00,1.768919825553894043e+00,1.768760323524475098e+00,1.768601179122924805e+00,1.768441796302795410e+00,1.768282413482666016e+00,1.768123030662536621e+00,1.767963886260986328e+00,1.767804622650146484e+00,1.767645359039306641e+00,1.767486214637756348e+00,1.767327189445495605e+00,1.767168045043945312e+00,1.767008900642395020e+00,1.766849756240844727e+00,1.766690850257873535e+00,1.766531825065612793e+00,1.766372799873352051e+00,1.766213774681091309e+00,1.766054987907409668e+00,1.765896081924438477e+00,1.765737175941467285e+00,1.765578269958496094e+00,1.765419721603393555e+00
1.607804894447326660e+00,1.607673168182373047e+00,1.607541441917419434e+00,1.607409834861755371e+00,1.607278347015380859e+00,1.607146620750427246e+00,1.607015013694763184e+00,1.606883406639099121e+00,1.606752038002014160e+00,1.606620430946350098e+00,1.606488943099975586e+00,1.606357574462890625e+00,1.606226086616516113e+00,1.606094598770141602e+00,1.605963230133056641e+00,1.605831861495971680e+00,1.605700492858886719e+00,1.605569124221801758e+00,1.605437755584716797e+00,1.605306625366210938e+00,1.605175256729125977e+00,1.605044007301330566e+00,1.604912638664245605e+00,1.604781627655029297e+00,1.604650378227233887e+00,1.604519128799438477e+00,1.604387879371643066e+00,1.604256868362426758e+00,1.604125738143920898e+00,1.603994607925415039e+00,1.603863596916198730e+00,1.603732585906982422e+00,1.603601574897766113e+00,1.603470563888549805e+00,1.603339552879333496e+00,1.603208661079406738e+00,1.603077650070190430e+00,1.602946758270263672e+00,1.602815747261047363e+00,1.602684974670410156e+00,1.602554082870483398e+00,1.602423310279846191e+00,1.602292418479919434e+00,1.602161765098571777e+00,1.602030992507934570e+00,1.601900219917297363e+00,1.601769447326660156e+00,1.601638793945312500e+00,1.601508140563964844e+00,1.601377367973327637e+00,1.601246714591979980e+00,1.601116180419921875e+00,1.600985646247863770e+00,1.600854992866516113e+00,1.600724339485168457e+00,1.600593924522399902e+00,1.600463390350341797e+00,1.600332856178283691e+00,1.600202441215515137e+00,1.600072026252746582e+00,1.599941611289978027e+00,1.599811077117919922e+00,1.599680662155151367e+00,1.599550485610961914e+00,1.599420070648193359e+00,1.599289774894714355e+00,1.599159359931945801e+00,1.599029183387756348e+00,1.598898887634277344e+00,1.598768711090087891e+00,1.598638415336608887e+00,1.598508358001708984e+00,1.598378181457519531e+00,1.598248004913330078e+00,1.598117828369140625e+00,1.597987771034240723e+00,1.597857713699340820e+00,1.597727537155151367e+00,1.597597479820251465e+00,1.597467541694641113e+00
1.467309951782226562e+00,1.467200279235839844e+00,1.467090606689453125e+00,1.466980934143066406e+00,1.466871380805969238e+00,1.466761708259582520e+00,1.466652035713195801e+00,1.466542482376098633e+00,1.466432929039001465e+00,1.466323375701904297e+00,1.466213822364807129e+00,1.466104269027709961e+00,1.465994834899902344e+00,1.465885400772094727e+00,1.465775847434997559e+00,1.465666413307189941e+00,1.465556979179382324e+00,1.465447545051574707e+00,1.465338110923767090e+00,1.465228676795959473e+00,1.465119481086730957e+00,1.465010046958923340e+00,1.464900732040405273e+00,1.464791297912597656e+00,1.464682102203369141e+00,1.464572787284851074e+00,1.464463472366333008e+00,1.464354157447814941e+00,1.464245080947875977e+00,1.464135766029357910e+00,1.464026570320129395e+00,1.463917374610900879e+00,1.463808298110961914e+00,1.463699102401733398e+00,1.463589906692504883e+00,1.463480710983276367e+00,1.463371753692626953e+00,1.463262557983398438e+00,1.463153481483459473e+00,1.463044404983520508e+00,1.462935447692871094e+00,1.462826371192932129e+00,1.462717413902282715e+00,1.462608456611633301e+00,1.462499499320983887e+00,1.462390422821044922e+00,1.462281465530395508e+00,1.462172627449035645e+00,1.462063670158386230e+00,1.461954832077026367e+00,1.461845874786376953e+00,1.461737036705017090e+00,1.461628198623657227e+00,1.461519360542297363e+00,1.461410522460937500e+00,1.461301803588867188e+00,1.461192965507507324e+00,1.461084127426147461e+00,1.460975408554077148e+00,1.460866808891296387e+00,1.460757970809936523e+00,1.460649251937866211e+00,1.460540533065795898e+00,1.460431933403015137e+00,1.460323333740234375e+00,1.460214614868164062e+00,1.460106015205383301e+00,1.459997415542602539e+00,1.459888815879821777e+00,1.459780216217041016e+00,1.459671616554260254e+00,1.459563255310058594e+00,1.459454655647277832e+00,1.459346055984497070e+00,1.459237575531005859e+00,1.459129214286804199e+00,1.459020733833312988e+00,1.458912253379821777e+00,1.458803772926330566e+00,1.458695411682128906e+00
1.349395513534545898e+00,1.349302768707275391e+00,1.349210023880004883e+00,1.349117279052734375e+00,1.349024653434753418e+00,1.348931908607482910e+00,1.348839163780212402e+00,1.348746418952941895e+00,1.348653793334960938e+00,1.348561167716979980e+00,1.348468422889709473e+00,1.348375797271728516e+00,1.348283290863037109e+00,1.348190665245056152e+00,1.348098039627075195e+00,1.348005414009094238e+00,1.347912907600402832e+00,1.347820281982421875e+00,1.347727775573730469e+00,1.347635149955749512e+00,1.347542762756347656e+00,1.347450256347656250e+00,1.347357749938964844e+00,1.347265243530273438e+00,1.347172856330871582e+00,1.347080349922180176e+00,1.346987843513488770e+00,1.346895456314086914e+00,1.346803069114685059e+00,1.346710681915283203e+00,1.346618294715881348e+00,1.346525788307189941e+00,1.346433520317077637e+00,1.346341133117675781e+00,1.346248865127563477e+00,1.346156477928161621e+00,1.346064209938049316e+00,1.345971941947937012e+00,1.345879554748535156e+00,1.345787286758422852e+00,1.345695137977600098e+00,1.345602750778198242e+00,1.345510482788085938e+00,1.345418334007263184e+00,1.345326185226440430e+00,1.345233917236328125e+00,1.345141649246215820e+00,1.345049500465393066e+00,1.344957351684570312e+00,1.344865202903747559e+00,1.344773054122924805e+00,1.344680905342102051e+00,1.344588875770568848e+00,1.344496726989746094e+00,1.344404578208923340e+00,1.344312548637390137e+00,1.344220519065856934e+00,1.344128489494323730e+00,1.344036340713500977e+00,1.343944311141967773e+00,1.343852400779724121e+00,1.343760371208190918e+00,1.343668341636657715e+00,1.343576312065124512e+00,1.343484520912170410e+00,1.343392491340637207e+00,1.343300461769104004e+00,1.343208551406860352e+00,1.343116760253906250e+00,1.343024849891662598e+00,1.342932939529418945e+00,1.342841029167175293e+00,1.342749238014221191e+00,1.342657327651977539e+00,1.342565417289733887e+00,1.342473745346069336e+00,1.342381834983825684e+00,1.342290043830871582e+00,1.342198252677917480e+00,1.342106580734252930e+00
1.249022960662841797e+00,1.248943448066711426e+00,1.248863935470581055e+00,1.248784422874450684e+00,1.248705148696899414e+00,1.248625636100769043e+00,1.248546242713928223e+00,1.248466730117797852e+00,1.248387455940246582e+00,1.248308062553405762e+00,1.248228669166564941e+00,1.248149156570434570e+00,1.248069882392883301e+00,1.247990489006042480e+00,1.247911214828491211e+00,1.247831821441650391e+00,1.247752547264099121e+00,1.247673273086547852e+00,1.247593879699707031e+00,1.247514605522155762e+00,1.247435331344604492e+00,1.247356057167053223e+00,1.247276782989501953e+00,1.247197508811950684e+00,1.247118353843688965e+00,1.247039079666137695e+00,1.246959805488586426e+00,1.246880531311035156e+00,1.246801495552062988e+00,1.246722221374511719e+00,1.246643066406250000e+00,1.246563792228698730e+00,1.246484756469726562e+00,1.246405601501464844e+00,1.246326446533203125e+00,1.246247291564941406e+00,1.246168136596679688e+00,1.246089100837707520e+00,1.246009945869445801e+00,1.245930790901184082e+00,1.245851755142211914e+00,1.245772719383239746e+00,1.245693564414978027e+00,1.245614528656005859e+00,1.245535612106323242e+00,1.245456576347351074e+00,1.245377421379089355e+00,1.245298385620117188e+00,1.245219469070434570e+00,1.245140433311462402e+00,1.245061516761779785e+00,1.244982481002807617e+00,1.244903564453125000e+00,1.244824647903442383e+00,1.244745612144470215e+00,1.244666695594787598e+00,1.244587898254394531e+00,1.244508862495422363e+00,1.244429945945739746e+00,1.244351029396057129e+00,1.244272232055664062e+00,1.244193315505981445e+00,1.244114518165588379e+00,1.244035601615905762e+00,1.243956804275512695e+00,1.243878006935119629e+00,1.243799090385437012e+00,1.243720293045043945e+00,1.243641614913940430e+00,1.243562698364257812e+00,1.243483901023864746e+00,1.243405103683471680e+00,1.243326425552368164e+00,1.243247747421264648e+00,1.243168950080871582e+00,1.243090152740478516e+00,1.243011474609375000e+00,1.242932796478271484e+00,1.242854118347167969e+00,1.242775321006774902e+00
1.162548542022705078e+00,1.162479758262634277e+00,1.162410974502563477e+00,1.162342071533203125e+00,1.162273168563842773e+00,1.162204504013061523e+00,1.162135601043701172e+00,1.162066817283630371e+00,1.161998033523559570e+00,1.161929249763488770e+00,1.161860466003417969e+00,1.161791682243347168e+00,1.161722898483276367e+00,1.161654233932495117e+00,1.161585450172424316e+00,1.161516666412353516e+00,1.161447882652282715e+00,1.161379218101501465e+00,1.161310553550720215e+00,1.161241769790649414e+00,1.161173224449157715e+00,1.161104440689086914e+00,1.161035776138305664e+00,1.160967111587524414e+00,1.160898447036743164e+00,1.160829782485961914e+00,1.160761117935180664e+00,1.160692453384399414e+00,1.160623908042907715e+00,1.160555243492126465e+00,1.160486578941345215e+00,1.160417914390563965e+00,1.160349369049072266e+00,1.160280823707580566e+00,1.160212159156799316e+00,1.160143613815307617e+00,1.160075068473815918e+00,1.160006523132324219e+00,1.159937977790832520e+00,1.159869432449340820e+00,1.159800887107849121e+00,1.159732341766357422e+00,1.159663796424865723e+00,1.159595251083374023e+00,1.159526824951171875e+00,1.159458279609680176e+00,1.159389853477478027e+00,1.159321308135986328e+00,1.159252882003784180e+00,1.159184455871582031e+00,1.159115910530090332e+00,1.159047484397888184e+00,1.158979058265686035e+00,1.158910632133483887e+00,1.158842206001281738e+00,1.158773779869079590e+00,1.158705472946166992e+00,1.158637046813964844e+00,1.158568620681762695e+00,1.158500194549560547e+00,1.158431887626647949e+00,1.158363461494445801e+00,1.158295154571533203e+00,1.158226728439331055e+00,1.158158540725708008e+00,1.158090114593505859e+00,1.158021807670593262e+00,1.157953500747680664e+00,1.157885193824768066e+00,1.157816886901855469e+00,1.157748579978942871e+00,1.157680273056030273e+00,1.157612085342407227e+00,1.157543778419494629e+00,1.157475471496582031e+00,1.157407283782958984e+00,1.157339096069335938e+00,1.157270789146423340e+00,1.157202482223510742e+00,1.157134294509887695e+00
1.087272763252258301e+00,1.087212562561035156e+00,1.087152361869812012e+00,1.087092161178588867e+00,1.087031960487365723e+00,1.086971759796142578e+00,1.086911559104919434e+00,1.086851358413696289e+00,1.086791157722473145e+00,1.086731076240539551e+00,1.086670875549316406e+00,1.086610674858093262e+00,1.086550593376159668e+00,1.086490392684936523e+00,1.086430311203002930e+00,1.086370110511779785e+00,1.086310029029846191e+00,1.086249947547912598e+00,1.086189866065979004e+00,1.086129665374755859e+00,1.086069583892822266e+00,1.086009502410888672e+00,1.085949420928955078e+00,1.085889339447021484e+00,1.085829257965087891e+00,1.085769295692443848e+00,1.085709214210510254e+00,1.085649132728576660e+00,1.085589051246643066e+00,1.085529088973999023e+00,1.085469007492065430e+00,1.085408926010131836e+00,1.085348963737487793e+00,1.085289001464843750e+00,1.085228919982910156e+00,1.085168957710266113e+00,1.085108876228332520e+00,1.085049033164978027e+00,1.084988951683044434e+00,1.084928989410400391e+00,1.084869027137756348e+00,1.084809184074401855e+00,1.084749221801757812e+00,1.084689140319824219e+00,1.084629178047180176e+00,1.084569334983825684e+00,1.084509372711181641e+00,1.084449410438537598e+00,1.084389567375183105e+00,1.084329724311828613e+00,1.084269762039184570e+00,1.084209918975830078e+00,1.084150075912475586e+00,1.084090113639831543e+00,1.084030270576477051e+00,1.083970308303833008e+00,1.083910584449768066e+00,1.083850741386413574e+00,1.083790779113769531e+00,1.083730936050415039e+00,1.083671212196350098e+00,1.083611369132995605e+00,1.083551526069641113e+00,1.083491683006286621e+00,1.083431959152221680e+00,1.083372116088867188e+00,1.083312273025512695e+00,1.083252549171447754e+00,1.083192825317382812e+00,1.083132982254028320e+00,1.083073139190673828e+00,1.083013415336608887e+00,1.082953691482543945e+00,1.082893967628479004e+00,1.082834243774414062e+00,1.082774400711059570e+00,1.082714796066284180e+00,1.082655072212219238e+00,1.082595348358154297e+00,1.082535624504089355e+00
1.021152496337890625e+00,1.021099448204040527e+00,1.021046280860900879e+00,1.020993113517761230e+00,1.020940065383911133e+00,1.020887017250061035e+00,1.020833849906921387e+00,1.020780801773071289e+00,1.020727634429931641e+00,1.020674705505371094e+00,1.020621538162231445e+00,1.020568490028381348e+00,1.020515441894531250e+00,1.020462393760681152e+00,1.020409345626831055e+00,1.020356297492980957e+00,1.020303249359130859e+00,1.020250201225280762e+00,1.020197153091430664e+00,1.020144104957580566e+00,1.020091056823730469e+00,1.020038127899169922e+00,1.019985079765319824e+00,1.019932150840759277e+00,1.019879102706909180e+00,1.019826173782348633e+00,1.019773125648498535e+00,1.019720196723937988e+00,1.019667148590087891e+00,1.019614219665527344e+00,1.019561290740966797e+00,1.019508242607116699e+00,1.019455313682556152e+00,1.019402384757995605e+00,1.019349455833435059e+00,1.019296526908874512e+00,1.019243597984313965e+00,1.019190669059753418e+00,1.019137740135192871e+00,1.019084811210632324e+00,1.019031882286071777e+00,1.018979072570800781e+00,1.018926143646240234e+00,1.018873214721679688e+00,1.018820405006408691e+00,1.018767476081848145e+00,1.018714666366577148e+00,1.018661737442016602e+00,1.018608808517456055e+00,1.018555998802185059e+00,1.018503189086914062e+00,1.018450379371643066e+00,1.018397450447082520e+00,1.018344640731811523e+00,1.018291831016540527e+00,1.018239021301269531e+00,1.018186211585998535e+00,1.018133401870727539e+00,1.018080592155456543e+00,1.018027782440185547e+00,1.017974972724914551e+00,1.017922163009643555e+00,1.017869353294372559e+00,1.017816543579101562e+00,1.017763853073120117e+00,1.017711043357849121e+00,1.017658233642578125e+00,1.017605543136596680e+00,1.017552733421325684e+00,1.017500042915344238e+00,1.017447233200073242e+00,1.017394542694091797e+00,1.017341732978820801e+00,1.017289161682128906e+00,1.017236351966857910e+00,1.017183661460876465e+00,1.017130970954895020e+00,1.017078280448913574e+00,1.017025589942932129e+00,1.016972780227661133e+00
9.626132249832153320e-01,9.625660777091979980e-01,9.625188112258911133e-01,9.624716043472290039e-01,9.624243378639221191e-01,9.623771905899047852e-01,9.623300433158874512e-01,9.622828364372253418e-01,9.622356891632080078e-01,9.621885418891906738e-01,9.621413350105285645e-01,9.620941877365112305e-01,9.620469808578491211e-01,9.619998931884765625e-01,9.619527459144592285e-01,9.619055390357971191e-01,9.618584513664245605e-01,9.618113636970520020e-01,9.617641568183898926e-01,9.617170691490173340e-01,9.616699218750000000e-01,9.616228342056274414e-01,9.615757465362548828e-01,9.615285992622375488e-01,9.614815115928649902e-01,9.614344835281372070e-01,9.613873362541198730e-01,9.613402485847473145e-01,9.612931013107299805e-01,9.612460732460021973e-01,9.611990451812744141e-01,9.611518979072570801e-01,9.611049294471740723e-01,9.610579013824462891e-01,9.610107541084289551e-01,9.609637856483459473e-01,9.609166383743286133e-01,9.608696699142456055e-01,9.608226418495178223e-01,9.607755541801452637e-01,9.607285857200622559e-01,9.606815576553344727e-01,9.606345295906066895e-01,9.605875611305236816e-01,9.605404734611511230e-01,9.604935050010681152e-01,9.604465365409851074e-01,9.603994488716125488e-01,9.603525400161743164e-01,9.603055715560913086e-01,9.602585434913635254e-01,9.602115750312805176e-01,9.601645469665527344e-01,9.601176381111145020e-01,9.600707292556762695e-01,9.600237011909484863e-01,9.599767923355102539e-01,9.599298834800720215e-01,9.598828554153442383e-01,9.598359465599060059e-01,9.597889184951782227e-01,9.597420692443847656e-01,9.596951603889465332e-01,9.596481919288635254e-01,9.596012830734252930e-01,9.595544338226318359e-01,9.595074653625488281e-01,9.594606161117553711e-01,9.594136476516723633e-01,9.593667984008789062e-01,9.593199491500854492e-01,9.592729806900024414e-01,9.592261314392089844e-01,9.591792821884155273e-01,9.591323733329772949e-01,9.590855240821838379e-01,9.590386152267456055e-01,9.589917659759521484e-01,9.589449763298034668e-01,9.588980674743652344e-01
9.104216694831848145e-01,9.103794097900390625e-01,9.103372097015380859e-01,9.102950096130371094e-01,9.102527499198913574e-01,9.102105498313903809e-01,9.101684093475341797e-01,9.101261496543884277e-01,9.100839495658874512e-01,9.100416898727416992e-01,9.099995493888854980e-01,9.099574089050292969e-01,9.099151492118835449e-01,9.098730087280273438e-01,9.098308682441711426e-01,9.097886681556701660e-01,9.097465276718139648e-01,9.097043871879577637e-01,9.096621870994567871e-01,9.096200466156005859e-01,9.095778465270996094e-01,9.095357060432434082e-01,9.094936251640319824e-01,9.094514250755310059e-01,9.094093441963195801e-01,9.093672037124633789e-01,9.093250036239624023e-01,9.092829227447509766e-01,9.092407822608947754e-01,9.091987013816833496e-01,9.091566205024719238e-01,9.091144204139709473e-01,9.090723395347595215e-01,9.090303182601928711e-01,9.089881181716918945e-01,9.089460968971252441e-01,9.089039564132690430e-01,9.088618755340576172e-01,9.088198542594909668e-01,9.087777137756347656e-01,9.087356925010681152e-01,9.086936116218566895e-01,9.086515307426452637e-01,9.086094498634338379e-01,9.085673689842224121e-01,9.085253477096557617e-01,9.084833264350891113e-01,9.084412455558776855e-01,9.083992242813110352e-01,9.083572030067443848e-01,9.083151221275329590e-01,9.082731008529663086e-01,9.082310199737548828e-01,9.081890583038330078e-01,9.081470966339111328e-01,9.081050157546997070e-01,9.080629944801330566e-01,9.080210328102111816e-01,9.079790115356445312e-01,9.079370498657226562e-01,9.078949689865112305e-01,9.078530073165893555e-01,9.078110456466674805e-01,9.077690243721008301e-01,9.077270627021789551e-01,9.076851010322570801e-01,9.076430797576904297e-01,9.076011776924133301e-01,9.075591564178466797e-01,9.075171947479248047e-01,9.074752926826477051e-01,9.074332714080810547e-01,9.073913693428039551e-01,9.073494672775268555e-01,9.073074460029602051e-01,9.072655439376831055e-01,9.072235822677612305e-01,9.071816802024841309e-01,9.071397781372070312e-01,9.070978164672851562e-01
8.635985851287841797e-01,8.635605573654174805e-01,8.635225892066955566e-01,8.634846210479736328e-01,8.634465932846069336e-01,8.634086251258850098e-01,8.633706569671630859e-01,8.633326292037963867e-01,8.632947206497192383e-01,8.632566928863525391e-01,8.632187843322753906e-01,8.631808161735534668e-01,8.631427884101867676e-01,8.631048798561096191e-01,8.630669713020324707e-01,8.630290031433105469e-01,8.629910945892333984e-01,8.629530668258666992e-01,8.629151582717895508e-01,8.628772497177124023e-01,8.628392815589904785e-01,8.628013730049133301e-01,8.627634644508361816e-01,8.627254962921142578e-01,8.626876473426818848e-01,8.626496791839599609e-01,8.626117706298828125e-01,8.625739216804504395e-01,8.625359535217285156e-01,8.624980449676513672e-01,8.624601960182189941e-01,8.624222874641418457e-01,8.623843789100646973e-01,8.623464703559875488e-01,8.623086214065551758e-01,8.622707724571228027e-01,8.622328042984008789e-01,8.621949553489685059e-01,8.621571660041809082e-01,8.621191978454589844e-01,8.620814085006713867e-01,8.620435595512390137e-01,8.620056509971618652e-01,8.619678020477294922e-01,8.619298934936523438e-01,8.618921041488647461e-01,8.618543148040771484e-01,8.618164062500000000e-01,8.617786169052124023e-01,8.617407679557800293e-01,8.617029190063476562e-01,8.616651296615600586e-01,8.616272211074829102e-01,8.615894317626953125e-01,8.615516424179077148e-01,8.615137934684753418e-01,8.614760041236877441e-01,8.614382147789001465e-01,8.614003658294677734e-01,8.613625764846801758e-01,8.613247275352478027e-01,8.612869977951049805e-01,8.612492084503173828e-01,8.612113595008850098e-01,8.611736297607421875e-01,8.611359000205993652e-01,8.610980510711669922e-01,8.610603213310241699e-01,8.610224723815917969e-01,8.609847426414489746e-01,8.609470129013061523e-01,8.609092235565185547e-01,8.608714938163757324e-01,8.608337640762329102e-01,8.607959151268005371e-01,8.607582449913024902e-01,8.607203960418701172e-01,8.606827259063720703e-01,8.606449961662292480e-01,8.606072068214416504e-01
8.213561177253723145e-01,8.213217258453369141e-01,8.212873935699462891e-01,8.212530612945556641e-01,8.212186098098754883e-01,8.211843371391296387e-01,8.211500048637390137e-01,8.211156129837036133e-01,8.210812807083129883e-01,8.210468888282775879e-01,8.210125565528869629e-01,8.209782242774963379e-01,8.209438920021057129e-01,8.209095597267150879e-01,8.208752870559692383e-01,8.208408951759338379e-01,8.208065629005432129e-01,8.207722306251525879e-01,8.207378983497619629e-01,8.207036256790161133e-01,8.206692934036254883e-01,8.206350207328796387e-01,8.206006884574890137e-01,8.205663561820983887e-01,8.205320835113525391e-01,8.204977512359619141e-01,8.204634785652160645e-01,8.204292058944702148e-01,8.203948736190795898e-01,8.203606009483337402e-01,8.203263878822326660e-01,8.202920556068420410e-01,8.202577829360961914e-01,8.202234506607055664e-01,8.201892375946044922e-01,8.201549649238586426e-01,8.201206326484680176e-01,8.200864195823669434e-01,8.200522065162658691e-01,8.200178742408752441e-01,8.199836611747741699e-01,8.199493288993835449e-01,8.199151158332824707e-01,8.198809027671813965e-01,8.198466300964355469e-01,8.198124170303344727e-01,8.197782039642333984e-01,8.197438716888427734e-01,8.197097182273864746e-01,8.196753859519958496e-01,8.196412324905395508e-01,8.196070194244384766e-01,8.195727467536926270e-01,8.195385336875915527e-01,8.195043802261352539e-01,8.194701075553894043e-01,8.194358944892883301e-01,8.194016814231872559e-01,8.193674683570861816e-01,8.193333148956298828e-01,8.192990422248840332e-01,8.192648887634277344e-01,8.192307353019714355e-01,8.191965222358703613e-01,8.191623091697692871e-01,8.191280961036682129e-01,8.190939426422119141e-01,8.190597891807556152e-01,8.190255761146545410e-01,8.189914226531982422e-01,8.189572691917419434e-01,8.189230561256408691e-01,8.188889026641845703e-01,8.188548088073730469e-01,8.188205957412719727e-01,8.187864422798156738e-01,8.187522292137145996e-01,8.187181353569030762e-01,8.186840415000915527e-01,8.186498284339904785e-01
7.830535173416137695e-01,7.830222249031066895e-01,7.829910516738891602e-01,7.829598188400268555e-01,7.829285264015197754e-01,7.828973531723022461e-01,7.828661799430847168e-01,7.828348875045776367e-01,7.828037142753601074e-01,7.827724218368530273e-01,7.827412486076354980e-01,7.827100753784179688e-01,7.826787829399108887e-01,7.826476097106933594e-01,7.826164364814758301e-01,7.825852036476135254e-01,7.825540304183959961e-01,7.825227975845336914e-01,7.824916243553161621e-01,7.824604511260986328e-01,7.824292182922363281e-01,7.823980450630187988e-01,7.823668718338012695e-01,7.823356389999389648e-01,7.823044657707214355e-01,7.822732925415039062e-01,7.822421193122863770e-01,7.822109460830688477e-01,7.821797728538513184e-01,7.821485996246337891e-01,7.821174860000610352e-01,7.820862531661987305e-01,7.820551395416259766e-01,7.820239067077636719e-01,7.819927930831909180e-01,7.819616794586181641e-01,7.819304466247558594e-01,7.818993330001831055e-01,7.818682193756103516e-01,7.818370461463928223e-01,7.818059325218200684e-01,7.817747592926025391e-01,7.817436456680297852e-01,7.817125320434570312e-01,7.816813588142395020e-01,7.816502451896667480e-01,7.816191315650939941e-01,7.815879583358764648e-01,7.815569043159484863e-01,7.815257310867309570e-01,7.814946174621582031e-01,7.814635634422302246e-01,7.814323902130126953e-01,7.814012765884399414e-01,7.813702225685119629e-01,7.813390493392944336e-01,7.813079953193664551e-01,7.812768816947937012e-01,7.812457680702209473e-01,7.812147140502929688e-01,7.811836004257202148e-01,7.811525464057922363e-01,7.811214327812194824e-01,7.810903191566467285e-01,7.810592651367187500e-01,7.810281515121459961e-01,7.809970974922180176e-01,7.809660434722900391e-01,7.809349298477172852e-01,7.809038758277893066e-01,7.808728814125061035e-01,7.808417677879333496e-01,7.808107137680053711e-01,7.807796001434326172e-01,7.807486057281494141e-01,7.807175517082214355e-01,7.806864380836486816e-01,7.806554436683654785e-01,7.806243896484375000e-01,7.805933356285095215e-01
7.481641173362731934e-01,7.481355667114257812e-01,7.481070756912231445e-01,7.480785846710205078e-01,7.480500340461730957e-01,7.480215430259704590e-01,7.479929924011230469e-01,7.479645013809204102e-01,7.479360103607177734e-01,7.479074597358703613e-01,7.478790283203125000e-01,7.478505373001098633e-01,7.478219866752624512e-01,7.477935552597045898e-01,7.477650046348571777e-01,7.477365732192993164e-01,7.477080821990966797e-01,7.476795911788940430e-01,7.476511001586914062e-01,7.476226687431335449e-01,7.475941181182861328e-01,7.475656867027282715e-01,7.475372552871704102e-01,7.475087642669677734e-01,7.474802732467651367e-01,7.474517822265625000e-01,7.474233508110046387e-01,7.473949193954467773e-01,7.473664283752441406e-01,7.473379969596862793e-01,7.473095655441284180e-01,7.472810745239257812e-01,7.472526431083679199e-01,7.472241520881652832e-01,7.471957206726074219e-01,7.471672892570495605e-01,7.471388578414916992e-01,7.471104264259338379e-01,7.470819950103759766e-01,7.470535039901733398e-01,7.470251321792602539e-01,7.469966411590576172e-01,7.469682693481445312e-01,7.469398379325866699e-01,7.469114065170288086e-01,7.468829751014709473e-01,7.468546032905578613e-01,7.468261122703552246e-01,7.467977404594421387e-01,7.467693090438842773e-01,7.467408776283264160e-01,7.467125058174133301e-01,7.466840744018554688e-01,7.466557025909423828e-01,7.466273307800292969e-01,7.465988993644714355e-01,7.465705275535583496e-01,7.465420365333557129e-01,7.465137243270874023e-01,7.464853525161743164e-01,7.464569211006164551e-01,7.464285492897033691e-01,7.464001774787902832e-01,7.463717460632324219e-01,7.463433742523193359e-01,7.463150024414062500e-01,7.462866306304931641e-01,7.462582588195800781e-01,7.462298870086669922e-01,7.462015151977539062e-01,7.461732029914855957e-01,7.461447715759277344e-01,7.461164593696594238e-01,7.460880279541015625e-01,7.460597157478332520e-01,7.460313439369201660e-01,7.460029721260070801e-01,7.459746599197387695e-01,7.459463477134704590e-01,7.459179162979125977e-01
7.162510752677917480e-01,7.162249088287353516e-01,7.161988019943237305e-01,7.161726951599121094e-01,7.161465287208557129e-01,7.161204218864440918e-01,7.160942554473876953e-01,7.160681486129760742e-01,7.160420417785644531e-01,7.160158753395080566e-01,7.159897685050964355e-01,7.159637212753295898e-01,7.159375548362731934e-01,7.159114480018615723e-01,7.158852815628051758e-01,7.158592343330383301e-01,7.158331274986267090e-01,7.158070206642150879e-01,7.157809138298034668e-01,7.157548666000366211e-01,7.157287001609802246e-01,7.157026529312133789e-01,7.156764864921569824e-01,7.156504392623901367e-01,7.156243324279785156e-01,7.155982255935668945e-01,7.155721783638000488e-01,7.155460715293884277e-01,7.155199646949768066e-01,7.154939174652099609e-01,7.154678106307983398e-01,7.154417634010314941e-01,7.154157161712646484e-01,7.153895497322082520e-01,7.153635025024414062e-01,7.153374552726745605e-01,7.153113484382629395e-01,7.152853012084960938e-01,7.152591943740844727e-01,7.152332067489624023e-01,7.152071595191955566e-01,7.151810526847839355e-01,7.151550054550170898e-01,7.151289582252502441e-01,7.151029109954833984e-01,7.150768637657165527e-01,7.150508165359497070e-01,7.150247693061828613e-01,7.149987220764160156e-01,7.149726152420043945e-01,7.149466276168823242e-01,7.149205803871154785e-01,7.148945331573486328e-01,7.148685455322265625e-01,7.148424983024597168e-01,7.148164510726928711e-01,7.147904038429260254e-01,7.147643566131591797e-01,7.147383689880371094e-01,7.147123217582702637e-01,7.146862745285034180e-01,7.146602869033813477e-01,7.146342992782592773e-01,7.146082520484924316e-01,7.145822644233703613e-01,7.145562171936035156e-01,7.145302295684814453e-01,7.145042419433593750e-01,7.144781947135925293e-01,7.144522070884704590e-01,7.144262194633483887e-01,7.144001722335815430e-01,7.143741846084594727e-01,7.143481373786926270e-01,7.143221497535705566e-01,7.142962217330932617e-01,7.142701745033264160e-01,7.142441868782043457e-01,7.142182588577270508e-01,7.141922116279602051e-01
6.869491934776306152e-01,6.869251132011413574e-01,6.869010925292968750e-01,6.868770718574523926e-01,6.868530511856079102e-01,6.868290305137634277e-01,6.868049502372741699e-01,6.867809295654296875e-01,6.867569088935852051e-01,6.867328882217407227e-01,6.867088675498962402e-01,6.866848468780517578e-01,6.866608262062072754e-01,6.866368055343627930e-01,6.866127252578735352e-01,6.865887641906738281e-01,6.865647435188293457e-01,6.865407228469848633e-01,6.865167021751403809e-01,6.864927411079406738e-01,6.864686608314514160e-01,6.864446997642517090e-01,6.864206790924072266e-01,6.863966584205627441e-01,6.863726973533630371e-01,6.863486766815185547e-01,6.863246560096740723e-01,6.863006949424743652e-01,6.862766742706298828e-01,6.862527132034301758e-01,6.862286925315856934e-01,6.862046718597412109e-01,6.861807107925415039e-01,6.861566901206970215e-01,6.861327290534973145e-01,6.861087679862976074e-01,6.860847473144531250e-01,6.860607862472534180e-01,6.860367655754089355e-01,6.860128045082092285e-01,6.859889030456542969e-01,6.859648823738098145e-01,6.859409213066101074e-01,6.859169602394104004e-01,6.858929395675659180e-01,6.858690381050109863e-01,6.858450174331665039e-01,6.858210563659667969e-01,6.857971549034118652e-01,6.857731342315673828e-01,6.857491731643676758e-01,6.857252717018127441e-01,6.857012510299682617e-01,6.856773495674133301e-01,6.856533288955688477e-01,6.856294274330139160e-01,6.856054663658142090e-01,6.855815052986145020e-01,6.855576038360595703e-01,6.855336427688598633e-01,6.855096817016601562e-01,6.854857802391052246e-01,6.854618191719055176e-01,6.854378581047058105e-01,6.854139566421508789e-01,6.853899955749511719e-01,6.853660941123962402e-01,6.853421926498413086e-01,6.853182315826416016e-01,6.852943301200866699e-01,6.852703690528869629e-01,6.852464675903320312e-01,6.852225661277770996e-01,6.851986050605773926e-01,6.851747035980224609e-01,6.851508021354675293e-01,6.851268410682678223e-01,6.851029396057128906e-01,6.850790381431579590e-01,6.850551366806030273e-01
6.599505543708801270e-01,6.599283814430236816e-01,6.599062085151672363e-01,6.598840355873107910e-01,6.598618030548095703e-01,6.598396301269531250e-01,6.598174571990966797e-01,6.597952842712402344e-01,6.597731113433837891e-01,6.597509384155273438e-01,6.597287654876708984e-01,6.597065925598144531e-01,6.596844196319580078e-01,6.596622467041015625e-01,6.596400737762451172e-01,6.596179008483886719e-01,6.595957279205322266e-01,6.595735549926757812e-01,6.595514416694641113e-01,6.595292687416076660e-01,6.595070958137512207e-01,6.594849228858947754e-01,6.594627499580383301e-01,6.594406366348266602e-01,6.594184637069702148e-01,6.593962907791137695e-01,6.593741774559020996e-01,6.593520641326904297e-01,6.593298316001892090e-01,6.593077182769775391e-01,6.592855453491210938e-01,6.592634320259094238e-01,6.592413187026977539e-01,6.592191457748413086e-01,6.591970324516296387e-01,6.591749191284179688e-01,6.591527462005615234e-01,6.591306328773498535e-01,6.591084599494934082e-01,6.590863466262817383e-01,6.590642333030700684e-01,6.590420603752136230e-01,6.590199470520019531e-01,6.589978337287902832e-01,6.589756608009338379e-01,6.589536070823669434e-01,6.589314341545104980e-01,6.589093208312988281e-01,6.588872075080871582e-01,6.588650941848754883e-01,6.588429808616638184e-01,6.588208675384521484e-01,6.587987542152404785e-01,6.587766408920288086e-01,6.587545275688171387e-01,6.587324142456054688e-01,6.587103605270385742e-01,6.586881875991821289e-01,6.586661338806152344e-01,6.586440205574035645e-01,6.586219072341918945e-01,6.585997939109802246e-01,6.585776805877685547e-01,6.585556268692016602e-01,6.585335135459899902e-01,6.585114002227783203e-01,6.584893465042114258e-01,6.584672927856445312e-01,6.584451198577880859e-01,6.584230661392211914e-01,6.584009528160095215e-01,6.583788990974426270e-01,6.583568453788757324e-01,6.583347320556640625e-01,6.583126783370971680e-01,6.582905650138854980e-01,6.582685112953186035e-01,6.582464575767517090e-01,6.582243442535400391e-01,6.582022905349731445e-01
6.349939107894897461e-01,6.349733471870422363e-01,6.349527835845947266e-01,6.349322199821472168e-01,6.349117159843444824e-01,6.348912119865417480e-01,6.348706483840942383e-01,6.348501443862915039e-01,6.348295807838439941e-01,6.348090171813964844e-01,6.347885131835937500e-01,6.347680091857910156e-01,6.347474455833435059e-01,6.347269415855407715e-01,6.347063779830932617e-01,6.346858739852905273e-01,6.346653699874877930e-01,6.346448659896850586e-01,6.346243619918823242e-01,6.346038579940795898e-01,6.345832943916320801e-01,6.345627903938293457e-01,6.345422267913818359e-01,6.345217823982238770e-01,6.345012784004211426e-01,6.344807147979736328e-01,6.344602108001708984e-01,6.344397664070129395e-01,6.344192028045654297e-01,6.343986988067626953e-01,6.343781948089599609e-01,6.343576908111572266e-01,6.343372464179992676e-01,6.343166828155517578e-01,6.342962384223937988e-01,6.342757344245910645e-01,6.342552304267883301e-01,6.342347264289855957e-01,6.342142224311828613e-01,6.341937184333801270e-01,6.341732740402221680e-01,6.341527700424194336e-01,6.341322660446166992e-01,6.341118216514587402e-01,6.340913176536560059e-01,6.340708136558532715e-01,6.340503096580505371e-01,6.340298652648925781e-01,6.340093612670898438e-01,6.339888572692871094e-01,6.339684128761291504e-01,6.339479684829711914e-01,6.339274644851684570e-01,6.339070200920104980e-01,6.338865160942077637e-01,6.338660717010498047e-01,6.338456273078918457e-01,6.338251233100891113e-01,6.338046789169311523e-01,6.337842345237731934e-01,6.337637305259704590e-01,6.337432861328125000e-01,6.337227821350097656e-01,6.337023377418518066e-01,6.336818933486938477e-01,6.336613893508911133e-01,6.336409449577331543e-01,6.336205005645751953e-01,6.336000561714172363e-01,6.335796117782592773e-01,6.335591077804565430e-01,6.335387229919433594e-01,6.335182785987854004e-01,6.334977746009826660e-01,6.334773898124694824e-01,6.334569454193115234e-01,6.334364414215087891e-01,6.334160566329956055e-01,6.333955526351928711e-01,6.333751678466796875e-01
6.118559837341308594e-01,6.118369102478027344e-01,6.118178367614746094e-01,6.117987632751464844e-01,6.117796897888183594e-01,6.117606759071350098e-01,6.117415428161621094e-01,6.117225289344787598e-01,6.117034554481506348e-01,6.116843819618225098e-01,6.116653084754943848e-01,6.116462349891662598e-01,6.116272211074829102e-01,6.116081476211547852e-01,6.115890741348266602e-01,6.115700006484985352e-01,6.115509867668151855e-01,6.115319132804870605e-01,6.115128993988037109e-01,6.114937663078308105e-01,6.114747524261474609e-01,6.114557385444641113e-01,6.114366650581359863e-01,6.114176511764526367e-01,6.113985776901245117e-01,6.113795042037963867e-01,6.113604903221130371e-01,6.113414168357849121e-01,6.113224029541015625e-01,6.113033890724182129e-01,6.112843155860900879e-01,6.112653017044067383e-01,6.112462878227233887e-01,6.112272143363952637e-01,6.112082004547119141e-01,6.111891269683837891e-01,6.111701130867004395e-01,6.111510992050170898e-01,6.111320257186889648e-01,6.111130714416503906e-01,6.110940575599670410e-01,6.110749840736389160e-01,6.110559701919555664e-01,6.110369563102722168e-01,6.110179424285888672e-01,6.109989285469055176e-01,6.109798550605773926e-01,6.109608411788940430e-01,6.109418869018554688e-01,6.109228134155273438e-01,6.109037995338439941e-01,6.108848452568054199e-01,6.108657717704772949e-01,6.108468174934387207e-01,6.108277440071105957e-01,6.108087897300720215e-01,6.107897758483886719e-01,6.107707619667053223e-01,6.107517480850219727e-01,6.107327938079833984e-01,6.107137203216552734e-01,6.106947660446166992e-01,6.106756925582885742e-01,6.106567382812500000e-01,6.106377840042114258e-01,6.106187105178833008e-01,6.105997562408447266e-01,6.105808019638061523e-01,6.105617284774780273e-01,6.105427742004394531e-01,6.105237603187561035e-01,6.105048060417175293e-01,6.104857921600341797e-01,6.104667782783508301e-01,6.104478240013122559e-01,6.104288697242736816e-01,6.104098558425903320e-01,6.103909015655517578e-01,6.103718876838684082e-01,6.103529334068298340e-01
5.903449654579162598e-01,5.903272032737731934e-01,5.903094410896301270e-01,5.902916789054870605e-01,5.902739763259887695e-01,5.902562141418457031e-01,5.902384519577026367e-01,5.902206897735595703e-01,5.902029871940612793e-01,5.901852250099182129e-01,5.901674628257751465e-01,5.901497006416320801e-01,5.901319980621337891e-01,5.901142358779907227e-01,5.900964736938476562e-01,5.900787711143493652e-01,5.900610089302062988e-01,5.900432467460632324e-01,5.900255441665649414e-01,5.900077819824218750e-01,5.899900794029235840e-01,5.899723768234252930e-01,5.899546146392822266e-01,5.899368524551391602e-01,5.899191498756408691e-01,5.899013876914978027e-01,5.898836851119995117e-01,5.898659229278564453e-01,5.898482203483581543e-01,5.898305177688598633e-01,5.898128151893615723e-01,5.897950530052185059e-01,5.897773504257202148e-01,5.897596478462219238e-01,5.897419452667236328e-01,5.897241830825805664e-01,5.897064805030822754e-01,5.896887779235839844e-01,5.896710157394409180e-01,5.896533131599426270e-01,5.896356701850891113e-01,5.896179080009460449e-01,5.896002054214477539e-01,5.895824432373046875e-01,5.895648002624511719e-01,5.895470976829528809e-01,5.895293354988098145e-01,5.895116925239562988e-01,5.894939899444580078e-01,5.894762277603149414e-01,5.894585847854614258e-01,5.894408226013183594e-01,5.894231200218200684e-01,5.894054770469665527e-01,5.893877148628234863e-01,5.893700718879699707e-01,5.893523693084716797e-01,5.893346667289733887e-01,5.893169641494750977e-01,5.892992615699768066e-01,5.892815589904785156e-01,5.892639160156250000e-01,5.892462134361267090e-01,5.892285108566284180e-01,5.892108678817749023e-01,5.891931056976318359e-01,5.891754627227783203e-01,5.891577601432800293e-01,5.891400575637817383e-01,5.891224145889282227e-01,5.891047120094299316e-01,5.890870690345764160e-01,5.890693664550781250e-01,5.890516638755798340e-01,5.890340209007263184e-01,5.890163779258728027e-01,5.889986753463745117e-01,5.889809727668762207e-01,5.889632701873779297e-01,5.889456272125244141e-01
