5.000000000000000000e+00,5.000000000000000000e+00,5.000000000000000000e+00,5.000000000000000000e+00,5.000000000000000000e+00,5.000000000000000000e+00,5.000000000000000000e+00,5.000000000000000000e+00,5.000000000000000000e+00,5.000000000000000000e+00,5.000000000000000000e+00,5.000000000000000000e+00,5.000000000000000000e+00,5.000000000000000000e+00,5.000000000000000000e+00,5.000000000000000000e+00,5.000000000000000000e+00,5.000000000000000000e+00,5.000000000000000000e+00,5.000000000000000000e+00,5.000000000000000000e+00,5.000000000000000000e+00,5.000000000000000000e+00,5.000000000000000000e+00,5.000000000000000000e+00,5.000000000000000000e+00,5.000000000000000000e+00,5.000000000000000000e+00,5.000000000000000000e+00,5.000000000000000000e+00,5.000000000000000000e+00,5.000000000000000000e+00,5.000000000000000000e+00,5.000000000000000000e+00,5.000000000000000000e+00,5.000000000000000000e+00,5.000000000000000000e+00,5.000000000000000000e+00,5.000000000000000000e+00,4.847156524658203125e+00,4.657442092895507812e+00,4.482018947601318359e+00,4.319330692291259766e+00,4.168039321899414062e+00,4.026987552642822266e+00,3.895170450210571289e+00,3.771709442138671875e+00,3.655833959579467773e+00,3.546866655349731445e+00,3.444206476211547852e+00,3.347322463989257812e+00,3.255740165710449219e+00,3.169035196304321289e+00,3.086828947067260742e+00,3.008779764175415039e+00,2.934579849243164062e+00,2.863951921463012695e+00,2.796643495559692383e+00,2.732426166534423828e+00,2.671092033386230469e+00,2.612451076507568359e+00,2.556329250335693359e+00,2.502568006515502930e+00,2.451021671295166016e+00,2.401555538177490234e+00,2.354047060012817383e+00,2.308381319046020508e+00,2.264453649520874023e+00,2.222166776657104492e+00,2.181430339813232422e+00,2.142160415649414062e+00,2.104279279708862305e+00,2.067714691162109375e+00,2.032399415969848633e+00,1.998269915580749512e+00,1.965267896652221680e+00,1.933338165283203125e+00,1.902429461479187012e+00,1.872493386268615723e+00,1.843484640121459961e+00
5.000000000000000000e+00,5.000000000000000000e+00,5.000000000000000000e+00,5.000000000000000000e+00,5.000000000000000000e+00,5.000000000000000000e+00,5.000000000000000000e+00,5.000000000000000000e+00,5.000000000000000000e+00,5.000000000000000000e+00,5.000000000000000000e+00,5.000000000000000000e+00,5.000000000000000000e+00,5.000000000000000000e+00,5.000000000000000000e+00,5.000000000000000000e+00,5.000000000000000000e+00,5.000000000000000000e+00,5.000000000000000000e+00,5.000000000000000000e+00,5.000000000000000000e+00,5.000000000000000000e+00,5.000000000000000000e+00,5.000000000000000000e+00,5.000000000000000000e+00,5.000000000000000000e+00,5.000000000000000000e+00,5.000000000000000000e+00,5.000000000000000000e+00,5.000000000000000000e+00,5.000000000000000000e+00,5.000000000000000000e+00,5.000000000000000000e+00,5.000000000000000000e+00,5.000000000000000000e+00,5.000000000000000000e+00,5.000000000000000000e+00,5.000000000000000000e+00,5.000000000000000000e+00,4.847293853759765625e+00,4.657568454742431641e+00,4.482136249542236328e+00,4.319439411163330078e+00,4.168140411376953125e+00,4.027081966400146484e+00,3.895259141921997070e+00,3.771791934967041016e+00,3.655911922454833984e+00,3.546940088272094727e+00,3.444275856018066406e+00,3.347388029098510742e+00,3.255802154541015625e+00,3.169093847274780273e+00,3.086884498596191406e+00,3.008832693099975586e+00,2.934630155563354492e+00,2.863999843597412109e+00,2.796689271926879883e+00,2.732469797134399414e+00,2.671133756637573242e+00,2.612490653991699219e+00,2.556367397308349609e+00,2.502604484558105469e+00,2.451056480407714844e+00,2.401589393615722656e+00,2.354079484939575195e+00,2.308412075042724609e+00,2.264483690261840820e+00,2.222195625305175781e+00,2.181457996368408203e+00,2.142187118530273438e+00,2.104305267333984375e+00,2.067739725112915039e+00,2.032423496246337891e+00,1.998293280601501465e+00,1.965290546417236328e+00,1.933359980583190918e+00,1.902450561523437500e+00,1.872513651847839355e+00,1.843504548072814941e+00
5.000000000000000000e+00,5.000000000000000000e+00,5.000000000000000000e+00,5.000000000000000000e+00,5.000000000000000000e+00,5.000000000000000000e+00,5.000000000000000000e+00,5.000000000000000000e+00,5.000000000000000000e+00,5.000000000000000000e+00,5.000000000000000000e+00,5.000000000000000000e+00,5.000000000000000000e+00,5.000000000000000000e+00,5.000000000000000000e+00,5.000000000000000000e+00,5.000000000000000000e+00,5.000000000000000000e+00,5.000000000000000000e+00,5.000000000000000000e+00,5.000000000000000000e+00,5.000000000000000000e+00,5.000000000000000000e+00,5.000000000000000000e+00,4.099292755126953125e+00,4.119674682617187500e+00,5.000000000000000000e+00,5.000000000000000000e+00,5.000000000000000000e+00,5.000000000000000000e+00,5.000000000000000000e+00,5.000000000000000000e+00,5.000000000000000000e+00,5.000000000000000000e+00,5.000000000000000000e+00,5.000000000000000000e+00,5.000000000000000000e+00,5.000000000000000000e+00,5.000000000000000000e+00,4.847430706024169922e+00,4.657695293426513672e+00,4.482253074645996094e+00,4.319548130035400391e+00,4.168241977691650391e+00,4.027176856994628906e+00,3.895347356796264648e+00,3.771875143051147461e+00,3.655990123748779297e+00,3.547013282775878906e+00,3.444345235824584961e+00,3.347453355789184570e+00,3.255863666534423828e+00,3.169152498245239258e+00,3.086940288543701172e+00,3.008885145187377930e+00,2.934680461883544922e+00,2.864047765731811523e+00,2.796734809875488281e+00,2.732513427734375000e+00,2.671175479888916016e+00,2.612530469894409180e+00,2.556405544281005859e+00,2.502641201019287109e+00,2.451091527938842773e+00,2.401623010635375977e+00,2.354111433029174805e+00,2.308443307876586914e+00,2.264513492584228516e+00,2.222224473953247070e+00,2.181485652923583984e+00,2.142213821411132812e+00,2.104331016540527344e+00,2.067764520645141602e+00,2.032447576522827148e+00,1.998316645622253418e+00,1.965313076972961426e+00,1.933381915092468262e+00,1.902471423149108887e+00,1.872534155845642090e+00,1.843524336814880371e+00
5.000000000000000000e+00,5.000000000000000000e+00,5.000000000000000000e+00,5.000000000000000000e+00,5.000000000000000000e+00,5.000000000000000000e+00,5.000000000000000000e+00,5.000000000000000000e+00,5.000000000000000000e+00,5.000000000000000000e+00,5.000000000000000000e+00,5.000000000000000000e+00,5.000000000000000000e+00,5.000000000000000000e+00,5.000000000000000000e+00,5.000000000000000000e+00,5.000000000000000000e+00,5.000000000000000000e+00,5.000000000000000000e+00,5.000000000000000000e+00,5.000000000000000000e+00,5.000000000000000000e+00,5.000000000000000000e+00,5.000000000000000000e+00,4.112731933593750000e+00,4.116538047790527344e+00,5.000000000000000000e+00,5.000000000000000000e+00,5.000000000000000000e+00,5.000000000000000000e+00,5.000000000000000000e+00,5.000000000000000000e+00,5.000000000000000000e+00,5.000000000000000000e+00,5.000000000000000000e+00,5.000000000000000000e+00,5.000000000000000000e+00,5.000000000000000000e+00,5.000000000000000000e+00,4.847568035125732422e+00,4.657821655273437500e+00,4.482370853424072266e+00,4.319657325744628906e+00,4.168343067169189453e+00,4.027271747589111328e+00,3.895435810089111328e+00,3.771958112716674805e+00,3.656068086624145508e+00,3.547086715698242188e+00,3.444414377212524414e+00,3.347518682479858398e+00,3.255925655364990234e+00,3.169211149215698242e+00,3.086995601654052734e+00,3.008938074111938477e+00,2.934730768203735352e+00,2.864095449447631836e+00,2.796780347824096680e+00,2.732557058334350586e+00,2.671216964721679688e+00,2.612570285797119141e+00,2.556443691253662109e+00,2.502677679061889648e+00,2.451126813888549805e+00,2.401656389236450195e+00,2.354143619537353516e+00,2.308474302291870117e+00,2.264543533325195312e+00,2.222253084182739258e+00,2.181513547897338867e+00,2.142240762710571289e+00,2.104356765747070312e+00,2.067789554595947266e+00,2.032471656799316406e+00,1.998339891433715820e+00,1.965335607528686523e+00,1.933403730392456055e+00,1.902492642402648926e+00,1.872554540634155273e+00,1.843544244766235352e+00
5.000000000000000000e+00,5.000000000000000000e+00,5.000000000000000000e+00,5.000000000000000000e+00,5.000000000000000000e+00,5.000000000000000000e+00,5.000000000000000000e+00,5.000000000000000000e+00,5.000000000000000000e+00,5.000000000000000000e+00,5.000000000000000000e+00,5.000000000000000000e+00,5.000000000000000000e+00,5.000000000000000000e+00,5.000000000000000000e+00,5.000000000000000000e+00,5.000000000000000000e+00,5.000000000000000000e+00,5.000000000000000000e+00,5.000000000000000000e+00,5.000000000000000000e+00,5.000000000000000000e+00,5.000000000000000000e+00,5.000000000000000000e+00,4.130335330963134766e+00,4.132913589477539062e+00,5.000000000000000000e+00,5.000000000000000000e+00,5.000000000000000000e+00,5.000000000000000000e+00,5.000000000000000000e+00,5.000000000000000000e+00,5.000000000000000000e+00,5.000000000000000000e+00,5.000000000000000000e+00,5.000000000000000000e+00,5.000000000000000000e+00,5.000000000000000000e+00,5.000000000000000000e+00,4.847704887390136719e+00,4.657948493957519531e+00,4.482487678527832031e+00,4.319766044616699219e+00,4.168444633483886719e+00,4.027366161346435547e+00,3.895524501800537109e+00,3.772041320800781250e+00,3.656145811080932617e+00,3.547160148620605469e+00,3.444483757019042969e+00,3.347584009170532227e+00,3.255987405776977539e+00,3.169269800186157227e+00,3.087051153182983398e+00,3.008991003036499023e+00,2.934781074523925781e+00,2.864143371582031250e+00,2.796826124191284180e+00,2.732600688934326172e+00,2.671258687973022461e+00,2.612610340118408203e+00,2.556481599807739258e+00,2.502714157104492188e+00,2.451161623001098633e+00,2.401690006256103516e+00,2.354176044464111328e+00,2.308505535125732422e+00,2.264573335647583008e+00,2.222281932830810547e+00,2.181541442871093750e+00,2.142267465591430664e+00,2.104382753372192383e+00,2.067814588546752930e+00,2.032495737075805664e+00,1.998363256454467773e+00,1.965358257293701172e+00,1.933425307273864746e+00,1.902513742446899414e+00,1.872575044631958008e+00,1.843564033508300781e+00
5.000000000000000000e+00,5.000000000000000000e+00,5.000000000000000000e+00,5.000000000000000000e+00,5.000000000000000000e+00,5.000000000000000000e+00,5.000000000000000000e+00,5.000000000000000000e+00,5.000000000000000000e+00,5.000000000000000000e+00,5.000000000000000000e+00,5.000000000000000000e+00,5.000000000000000000e+00,5.000000000000000000e+00,5.000000000000000000e+00,5.000000000000000000e+00,5.000000000000000000e+00,5.000000000000000000e+00,5.000000000000000000e+00,5.000000000000000000e+00,5.000000000000000000e+00,5.000000000000000000e+00,5.000000000000000000e+00,5.000000000000000000e+00,5.000000000000000000e+00,4.129350662231445312e+00,4.168900012969970703e+00,4.176977157592773438e+00,5.000000000000000000e+00,5.000000000000000000e+00,5.000000000000000000e+00,5.000000000000000000e+00,5.000000000000000000e+00,5.000000000000000000e+00,5.000000000000000000e+00,5.000000000000000000e+00,5.000000000000000000e+00,5.000000000000000000e+00,5.000000000000000000e+00,4.847842216491699219e+00,4.658074855804443359e+00,4.482604980468750000e+00,4.319874763488769531e+00,4.168546199798583984e+00,4.027460575103759766e+00,3.895613193511962891e+00,3.772124052047729492e+00,3.656224012374877930e+00,3.547233581542968750e+00,3.444552659988403320e+00,3.347649574279785156e+00,3.256049394607543945e+00,3.169328212738037109e+00,3.087106943130493164e+00,3.009043931961059570e+00,2.934831142425537109e+00,2.864191293716430664e+00,2.796871662139892578e+00,2.732644081115722656e+00,2.671300172805786133e+00,2.612650156021118164e+00,2.556519746780395508e+00,2.502750396728515625e+00,2.451196670532226562e+00,2.401723623275756836e+00,2.354208469390869141e+00,2.308536767959594727e+00,2.264603376388549805e+00,2.222310781478881836e+00,2.181569099426269531e+00,2.142294168472290039e+00,2.104408502578735352e+00,2.067839384078979492e+00,2.032519817352294922e+00,1.998386621475219727e+00,1.965380549430847168e+00,1.933447122573852539e+00,1.902534961700439453e+00,1.872595548629760742e+00,1.843583941459655762e+00
5.000000000000000000e+00,5.000000000000000000e+00,5.000000000000000000e+00,5.000000000000000000e+00,5.000000000000000000e+00,5.000000000000000000e+00,5.000000000000000000e+00,5.000000000000000000e+00,5.000000000000000000e+00,5.000000000000000000e+00,5.000000000000000000e+00,5.000000000000000000e+00,5.000000000000000000e+00,5.000000000000000000e+00,5.000000000000000000e+00,5.000000000000000000e+00,5.000000000000000000e+00,5.000000000000000000e+00,5.000000000000000000e+00,5.000000000000000000e+00,5.000000000000000000e+00,5.000000000000000000e+00,4.157106399536132812e+00,4.125388145446777344e+00,4.108992099761962891e+00,4.109050273895263672e+00,4.115465164184570312e+00,4.160156250000000000e+00,4.177418231964111328e+00,5.000000000000000000e+00,5.000000000000000000e+00,5.000000000000000000e+00,5.000000000000000000e+00,5.000000000000000000e+00,5.000000000000000000e+00,5.000000000000000000e+00,5.000000000000000000e+00,5.000000000000000000e+00,5.000000000000000000e+00,4.847979545593261719e+00,4.658201694488525391e+00,4.482722282409667969e+00,4.319983959197998047e+00,4.168647289276123047e+00,4.027555465698242188e+00,3.895701885223388672e+00,3.772207260131835938e+00,3.656301975250244141e+00,3.547306776046752930e+00,3.444622039794921875e+00,3.347714900970458984e+00,3.256111145019531250e+00,3.169386863708496094e+00,3.087162494659423828e+00,3.009096622467041016e+00,2.934881448745727539e+00,2.864239215850830078e+00,2.796917200088500977e+00,2.732687711715698242e+00,2.671341896057128906e+00,2.612689733505249023e+00,2.556557893753051758e+00,2.502787113189697266e+00,2.451231718063354492e+00,2.401757240295410156e+00,2.354240894317626953e+00,2.308567523956298828e+00,2.264633178710937500e+00,2.222339630126953125e+00,2.181596755981445312e+00,2.142321109771728516e+00,2.104434490203857422e+00,2.067864418029785156e+00,2.032543897628784180e+00,1.998409867286682129e+00,1.965403079986572266e+00,1.933468937873840332e+00,1.902556061744689941e+00,1.872616052627563477e+00,1.843603730201721191e+00
5.000000000000000000e+00,5.000000000000000000e+00,5.000000000000000000e+00,5.000000000000000000e+00,5.000000000000000000e+00,5.000000000000000000e+00,5.000000000000000000e+00,5.000000000000000000e+00,5.000000000000000000e+00,5.000000000000000000e+00,5.000000000000000000e+00,5.000000000000000000e+00,5.000000000000000000e+00,5.000000000000000000e+00,5.000000000000000000e+00,5.000000000000000000e+00,5.000000000000000000e+00,5.000000000000000000e+00,5.000000000000000000e+00,5.000000000000000000e+00,5.000000000000000000e+00,5.000000000000000000e+00,4.178065299987792969e+00,4.096193313598632812e+00,4.084370136260986328e+00,4.082885265350341797e+00,4.105540275573730469e+00,4.177047252655029297e+00,4.188764572143554688e+00,5.000000000000000000e+00,5.000000000000000000e+00,5.000000000000000000e+00,5.000000000000000000e+00,5.000000000000000000e+00,5.000000000000000000e+00,5.000000000000000000e+00,5.000000000000000000e+00,5.000000000000000000e+00,5.000000000000000000e+00,4.848116397857666016e+00,4.658328056335449219e+00,4.482839584350585938e+00,4.320092678070068359e+00,4.168748855590820312e+00,4.027649879455566406e+00,3.895790100097656250e+00,3.772290229797363281e+00,3.656380176544189453e+00,3.547380208969116211e+00,3.444691419601440430e+00,3.347780466079711914e+00,3.256172895431518555e+00,3.169445514678955078e+00,3.087218284606933594e+00,3.009149312973022461e+00,2.934931755065917969e+00,2.864287137985229492e+00,2.796962976455688477e+00,2.732731342315673828e+00,2.671383380889892578e+00,2.612729549407958984e+00,2.556596040725708008e+00,2.502823591232299805e+00,2.451266765594482422e+00,2.401791095733642578e+00,2.354273080825805664e+00,2.308598756790161133e+00,2.264663219451904297e+00,2.222368478775024414e+00,2.181624650955200195e+00,2.142347812652587891e+00,2.104460239410400391e+00,2.067889451980590820e+00,2.032568216323852539e+00,1.998432993888854980e+00,1.965425610542297363e+00,1.933490872383117676e+00,1.902577161788940430e+00,1.872636556625366211e+00,1.843623638153076172e+00
5.000000000000000000e+00,5.000000000000000000e+00,5.000000000000000000e+00,5.000000000000000000e+00,5.000000000000000000e+00,5.000000000000000000e+00,5.000000000000000000e+00,5.000000000000000000e+00,5.000000000000000000e+00,5.000000000000000000e+00,5.000000000000000000e+00,5.000000000000000000e+00,5.000000000000000000e+00,5.000000000000000000e+00,5.000000000000000000e+00,5.000000000000000000e+00,5.000000000000000000e+00,5.000000000000000000e+00,5.000000000000000000e+00,5.000000000000000000e+00,5.000000000000000000e+00,5.000000000000000000e+00,4.192918300628662109e+00,4.113296985626220703e+00,4.072237014770507812e+00,4.080409049987792969e+00,4.120419025421142578e+00,4.195512294769287109e+00,4.189815998077392578e+00,5.000000000000000000e+00,5.000000000000000000e+00,5.000000000000000000e+00,5.000000000000000000e+00,5.000000000000000000e+00,5.000000000000000000e+00,5.000000000000000000e+00,5.000000000000000000e+00,5.000000000000000000e+00,5.000000000000000000e+00,4.848253726959228516e+00,4.658454895019531250e+00,4.482956409454345703e+00,4.320201873779296875e+00,4.168850421905517578e+00,4.027744770050048828e+00,3.895878791809082031e+00,3.772373437881469727e+00,3.656457901000976562e+00,3.547453880310058594e+00,3.444760560989379883e+00,3.347845554351806641e+00,3.256234884262084961e+00,3.169504165649414062e+00,3.087273597717285156e+00,3.009202241897583008e+00,2.934982061386108398e+00,2.864334821701049805e+00,2.797008514404296875e+00,2.732774972915649414e+00,2.671425104141235352e+00,2.612769365310668945e+00,2.556634187698364258e+00,2.502860069274902344e+00,2.451301813125610352e+00,2.401824712753295898e+00,2.354305505752563477e+00,2.308629989624023438e+00,2.264693260192871094e+00,2.222397327423095703e+00,2.181652307510375977e+00,2.142374515533447266e+00,2.104485988616943359e+00,2.067914247512817383e+00,2.032592058181762695e+00,1.998456358909606934e+00,1.965448260307312012e+00,1.933512687683105469e+00,1.902598381042480469e+00,1.872657060623168945e+00,1.843643307685852051e+00
5.000000000000000000e+00,5.000000000000000000e+00,5.000000000000000000e+00,5.000000000000000000e+00,5.000000000000000000e+00,5.000000000000000000e+00,5.000000000000000000e+00,5.000000000000000000e+00,5.000000000000000000e+00,5.000000000000000000e+00,5.000000000000000000e+00,5.000000000000000000e+00,5.000000000000000000e+00,5.000000000000000000e+00,5.000000000000000000e+00,5.000000000000000000e+00,5.000000000000000000e+00,5.000000000000000000e+00,5.000000000000000000e+00,5.000000000000000000e+00,5.000000000000000000e+00,5.000000000000000000e+00,4.204408645629882812e+00,4.106722354888916016e+00,4.075932025909423828e+00,4.082090854644775391e+00,4.119494915008544922e+00,5.000000000000000000e+00,4.193896293640136719e+00,5.000000000000000000e+00,5.000000000000000000e+00,5.000000000000000000e+00,5.000000000000000000e+00,5.000000000000000000e+00,5.000000000000000000e+00,5.000000000000000000e+00,5.000000000000000000e+00,5.000000000000000000e+00,5.000000000000000000e+00,4.848390579223632812e+00,4.658581256866455078e+00,4.483074188232421875e+00,4.320310592651367188e+00,4.168951988220214844e+00,4.027839183807373047e+00,3.895967245101928711e+00,3.772456645965576172e+00,3.656535863876342773e+00,3.547527313232421875e+00,3.444829702377319336e+00,3.347911119461059570e+00,3.256296873092651367e+00,3.169562578201293945e+00,3.087329387664794922e+00,3.009255170822143555e+00,2.935032129287719727e+00,2.864382743835449219e+00,2.797054290771484375e+00,2.732818126678466797e+00,2.671466588973999023e+00,2.612809181213378906e+00,2.556672096252441406e+00,2.502896785736083984e+00,2.451336860656738281e+00,2.401858329772949219e+00,2.354337692260742188e+00,2.308660984039306641e+00,2.264723062515258789e+00,2.222426176071166992e+00,2.181680202484130859e+00,2.142401456832885742e+00,2.104511976242065430e+00,2.067939281463623047e+00,2.032616138458251953e+00,1.998479723930358887e+00,1.965470790863037109e+00,1.933534502983093262e+00,1.902619481086730957e+00,1.872677445411682129e+00,1.843663096427917480e+00
5.000000000000000000e+00,5.000000000000000000e+00,5.000000000000000000e+00,5.000000000000000000e+00,5.000000000000000000e+00,5.000000000000000000e+00,5.000000000000000000e+00,5.000000000000000000e+00,5.000000000000000000e+00,5.000000000000000000e+00,5.000000000000000000e+00,5.000000000000000000e+00,5.000000000000000000e+00,5.000000000000000000e+00,5.000000000000000000e+00,5.000000000000000000e+00,5.000000000000000000e+00,5.000000000000000000e+00,5.000000000000000000e+00,5.000000000000000000e+00,5.000000000000000000e+00,5.000000000000000000e+00,4.237534523010253906e+00,4.084034919738769531e+00,4.066574096679687500e+00,4.073839664459228516e+00,4.110511779785156250e+00,5.000000000000000000e+00,4.195445537567138672e+00,5.000000000000000000e+00,5.000000000000000000e+00,5.000000000000000000e+00,5.000000000000000000e+00,5.000000000000000000e+00,5.000000000000000000e+00,5.000000000000000000e+00,5.000000000000000000e+00,5.000000000000000000e+00,5.000000000000000000e+00,4.848527908325195312e+00,4.658708095550537109e+00,4.483191490173339844e+00,4.320419311523437500e+00,4.169053077697753906e+00,4.027934074401855469e+00,3.896055936813354492e+00,3.772539138793945312e+00,3.656614065170288086e+00,3.547600746154785156e+00,3.444898843765258789e+00,3.347976446151733398e+00,3.256358861923217773e+00,3.169621229171752930e+00,3.087384939193725586e+00,3.009308099746704102e+00,2.935082435607910156e+00,2.864430665969848633e+00,2.797100067138671875e+00,2.732861757278442383e+00,2.671508312225341797e+00,2.612848758697509766e+00,2.556710243225097656e+00,2.502933263778686523e+00,2.451371908187866211e+00,2.401891946792602539e+00,2.354370117187500000e+00,2.308691978454589844e+00,2.264752864837646484e+00,2.222455024719238281e+00,2.181707859039306641e+00,2.142428159713745117e+00,2.104537725448608398e+00,2.067964076995849609e+00,2.032640457153320312e+00,1.998502969741821289e+00,1.965493321418762207e+00,1.933556318283081055e+00,1.902640700340270996e+00,1.872697830200195312e+00,1.843683004379272461e+00
5.000000000000000000e+00,5.000000000000000000e+00,5.000000000000000000e+00,5.000000000000000000e+00,5.000000000000000000e+00,5.000000000000000000e+00,5.000000000000000000e+00,5.000000000000000000e+00,5.000000000000000000e+00,5.000000000000000000e+00,5.000000000000000000e+00,5.000000000000000000e+00,5.000000000000000000e+00,5.000000000000000000e+00,5.000000000000000000e+00,5.000000000000000000e+00,5.000000000000000000e+00,5.000000000000000000e+00,5.000000000000000000e+00,5.000000000000000000e+00,5.000000000000000000e+00,5.000000000000000000e+00,4.238168239593505859e+00,4.096189022064208984e+00,4.073498249053955078e+00,4.084797859191894531e+00,4.122143745422363281e+00,5.000000000000000000e+00,4.161528587341308594e+00,5.000000000000000000e+00,5.000000000000000000e+00,5.000000000000000000e+00,5.000000000000000000e+00,5.000000000000000000e+00,5.000000000000000000e+00,5.000000000000000000e+00,5.000000000000000000e+00,5.000000000000000000e+00,5.000000000000000000e+00,4.848664760589599609e+00,4.658834457397460938e+00,4.483308315277099609e+00,4.320528507232666016e+00,4.169154644012451172e+00,4.028028488159179688e+00,3.896144151687622070e+00,3.772622346878051758e+00,3.656692028045654297e+00,3.547673940658569336e+00,3.444968223571777344e+00,3.348042011260986328e+00,3.256420373916625977e+00,3.169679880142211914e+00,3.087440729141235352e+00,3.009360790252685547e+00,2.935132741928100586e+00,2.864478349685668945e+00,2.797145128250122070e+00,2.732905387878417969e+00,2.671550035476684570e+00,2.612888813018798828e+00,2.556748390197753906e+00,2.502969980239868164e+00,2.451406955718994141e+00,2.401925563812255859e+00,2.354402542114257812e+00,2.308723211288452148e+00,2.264782905578613281e+00,2.222483873367309570e+00,2.181735754013061523e+00,2.142455101013183594e+00,2.104563474655151367e+00,2.067989110946655273e+00,2.032664537429809570e+00,1.998526334762573242e+00,1.965515971183776855e+00,1.933578133583068848e+00,1.902661561965942383e+00,1.872718214988708496e+00,1.843702793121337891e+00
5.000000000000000000e+00,5.000000000000000000e+00,5.000000000000000000e+00,5.000000000000000000e+00,5.000000000000000000e+00,5.000000000000000000e+00,5.000000000000000000e+00,5.000000000000000000e+00,5.000000000000000000e+00,5.000000000000000000e+00,5.000000000000000000e+00,5.000000000000000000e+00,5.000000000000000000e+00,5.000000000000000000e+00,5.000000000000000000e+00,5.000000000000000000e+00,5.000000000000000000e+00,5.000000000000000000e+00,5.000000000000000000e+00,5.000000000000000000e+00,5.000000000000000000e+00,5.000000000000000000e+00,4.191371917724609375e+00,4.085100650787353516e+00,4.109922409057617188e+00,4.110067844390869141e+00,4.110186576843261719e+00,5.000000000000000000e+00,4.126903533935546875e+00,5.000000000000000000e+00,5.000000000000000000e+00,5.000000000000000000e+00,5.000000000000000000e+00,5.000000000000000000e+00,5.000000000000000000e+00,5.000000000000000000e+00,5.000000000000000000e+00,5.000000000000000000e+00,5.000000000000000000e+00,4.848802089691162109e+00,4.658961296081542969e+00,4.483426094055175781e+00,4.320637226104736328e+00,4.169255733489990234e+00,4.028123378753662109e+00,3.896232843399047852e+00,3.772705554962158203e+00,3.656770229339599609e+00,3.547747373580932617e+00,3.445037603378295898e+00,3.348107099533081055e+00,3.256482362747192383e+00,3.169738531112670898e+00,3.087496042251586914e+00,3.009413719177246094e+00,2.935183048248291016e+00,2.864526033401489258e+00,2.797190904617309570e+00,2.732949018478393555e+00,2.671591520309448242e+00,2.612928628921508789e+00,2.556786775588989258e+00,2.503006219863891602e+00,2.451442003250122070e+00,2.401959419250488281e+00,2.354434728622436523e+00,2.308754205703735352e+00,2.264812946319580078e+00,2.222512483596801758e+00,2.181763410568237305e+00,2.142481803894042969e+00,2.104589462280273438e+00,2.068014144897460938e+00,2.032688617706298828e+00,1.998549699783325195e+00,1.965538501739501953e+00,1.933600068092346191e+00,1.902682662010192871e+00,1.872738718986511230e+00,1.843722701072692871e+00
5.000000000000000000e+00,5.000000000000000000e+00,5.000000000000000000e+00,5.000000000000000000e+00,5.000000000000000000e+00,5.000000000000000000e+00,5.000000000000000000e+00,5.000000000000000000e+00,5.000000000000000000e+00,5.000000000000000000e+00,5.000000000000000000e+00,5.000000000000000000e+00,5.000000000000000000e+00,5.000000000000000000e+00,5.000000000000000000e+00,5.000000000000000000e+00,5.000000000000000000e+00,5.000000000000000000e+00,5.000000000000000000e+00,5.000000000000000000e+00,5.000000000000000000e+00,5.000000000000000000e+00,4.162912845611572266e+00,4.055726528167724609e+00,4.078003883361816406e+00,4.068403720855712891e+00,4.075512886047363281e+00,5.000000000000000000e+00,4.103603363037109375e+00,5.000000000000000000e+00,5.000000000000000000e+00,5.000000000000000000e+00,5.000000000000000000e+00,5.000000000000000000e+00,5.000000000000000000e+00,5.000000000000000000e+00,5.000000000000000000e+00,5.000000000000000000e+00,5.000000000000000000e+00,4.848939418792724609e+00,4.659088134765625000e+00,4.483542919158935547e+00,4.320745944976806641e+00,4.169357299804687500e+00,4.028217792510986328e+00,3.896321535110473633e+00,3.772788524627685547e+00,3.656847953796386719e+00,3.547821044921875000e+00,3.445106983184814453e+00,3.348172664642333984e+00,3.256544351577758789e+00,3.169797420501708984e+00,3.087551832199096680e+00,3.009466648101806641e+00,2.935233354568481445e+00,2.864573955535888672e+00,2.797236680984497070e+00,2.732992649078369141e+00,2.671633005142211914e+00,2.612968444824218750e+00,2.556824684143066406e+00,2.503042936325073242e+00,2.451477050781250000e+00,2.401992797851562500e+00,2.354467153549194336e+00,2.308785438537597656e+00,2.264842748641967773e+00,2.222541332244873047e+00,2.181791305541992188e+00,2.142508506774902344e+00,2.104615211486816406e+00,2.068039178848266602e+00,2.032712697982788086e+00,1.998572945594787598e+00,1.965561032295227051e+00,1.933621644973754883e+00,1.902703881263732910e+00,1.872759222984313965e+00,1.843742609024047852e+00
5.000000000000000000e+00,5.000000000000000000e+00,5.000000000000000000e+00,5.000000000000000000e+00,5.000000000000000000e+00,5.000000000000000000e+00,5.000000000000000000e+00,5.000000000000000000e+00,5.000000000000000000e+00,5.000000000000000000e+00,5.000000000000000000e+00,5.000000000000000000e+00,5.000000000000000000e+00,5.000000000000000000e+00,5.000000000000000000e+00,5.000000000000000000e+00,5.000000000000000000e+00,5.000000000000000000e+00,5.000000000000000000e+00,5.000000000000000000e+00,5.000000000000000000e+00,5.000000000000000000e+00,4.152964591979980469e+00,4.049882888793945312e+00,4.069470405578613281e+00,4.057355880737304688e+00,4.062921524047851562e+00,5.000000000000000000e+00,4.088595867156982422e+00,5.000000000000000000e+00,5.000000000000000000e+00,5.000000000000000000e+00,5.000000000000000000e+00,5.000000000000000000e+00,5.000000000000000000e+00,5.000000000000000000e+00,5.000000000000000000e+00,5.000000000000000000e+00,5.000000000000000000e+00,4.849076271057128906e+00,4.659214496612548828e+00,4.483660697937011719e+00,4.320855140686035156e+00,4.169458866119384766e+00,4.028312683105468750e+00,3.896410226821899414e+00,3.772871255874633789e+00,3.656925916671752930e+00,3.547894477844238281e+00,3.445175886154174805e+00,3.348237991333007812e+00,3.256606340408325195e+00,3.169855833053588867e+00,3.087607383728027344e+00,3.009519100189208984e+00,2.935283422470092773e+00,2.864621877670288086e+00,2.797282457351684570e+00,2.733036041259765625e+00,2.671674728393554688e+00,2.613008499145507812e+00,2.556862831115722656e+00,2.503079414367675781e+00,2.451512336730957031e+00,2.402026653289794922e+00,2.354499578475952148e+00,2.308816671371459961e+00,2.264872550964355469e+00,2.222570180892944336e+00,2.181818962097167969e+00,2.142535209655761719e+00,2.104641199111938477e+00,2.068063974380493164e+00,2.032736778259277344e+00,1.998596310615539551e+00,1.965583443641662598e+00,1.933643460273742676e+00,1.902724981307983398e+00,1.872779726982116699e+00,1.843762397766113281e+00
5.000000000000000000e+00,5.000000000000000000e+00,5.000000000000000000e+00,5.000000000000000000e+00,5.000000000000000000e+00,5.000000000000000000e+00,5.000000000000000000e+00,5.000000000000000000e+00,5.000000000000000000e+00,5.000000000000000000e+00,5.000000000000000000e+00,5.000000000000000000e+00,5.000000000000000000e+00,5.000000000000000000e+00,5.000000000000000000e+00,5.000000000000000000e+00,5.000000000000000000e+00,5.000000000000000000e+00,5.000000000000000000e+00,5.000000000000000000e+00,5.000000000000000000e+00,5.000000000000000000e+00,4.120896816253662109e+00,4.047733783721923828e+00,4.061080455780029297e+00,4.048068046569824219e+00,4.054199695587158203e+00,5.000000000000000000e+00,5.000000000000000000e+00,5.000000000000000000e+00,5.000000000000000000e+00,5.000000000000000000e+00,5.000000000000000000e+00,5.000000000000000000e+00,5.000000000000000000e+00,5.000000000000000000e+00,5.000000000000000000e+00,5.000000000000000000e+00,5.000000000000000000e+00,4.849213600158691406e+00,4.659341335296630859e+00,4.483777523040771484e+00,4.320963859558105469e+00,4.169560432434082031e+00,4.028407096862792969e+00,3.896498918533325195e+00,3.772954463958740234e+00,3.657004117965698242e+00,3.547967672348022461e+00,3.445245265960693359e+00,3.348303556442260742e+00,3.256667852401733398e+00,3.169914484024047852e+00,3.087662935256958008e+00,3.009571790695190430e+00,2.935333728790283203e+00,2.864669799804687500e+00,2.797327756881713867e+00,2.733079671859741211e+00,2.671716451644897461e+00,2.613048076629638672e+00,2.556900978088378906e+00,2.503116130828857422e+00,2.451547145843505859e+00,2.402060270309448242e+00,2.354532003402709961e+00,2.308847427368164062e+00,2.264902591705322266e+00,2.222599029541015625e+00,2.181846857070922852e+00,2.142562150955200195e+00,2.104666948318481445e+00,2.068089008331298828e+00,2.032760858535766602e+00,1.998619675636291504e+00,1.965605974197387695e+00,1.933665275573730469e+00,1.902746200561523438e+00,1.872800230979919434e+00,1.843782305717468262e+00
5.000000000000000000e+00,5.000000000000000000e+00,5.000000000000000000e+00,5.000000000000000000e+00,5.000000000000000000e+00,5.000000000000000000e+00,5.000000000000000000e+00,5.000000000000000000e+00,5.000000000000000000e+00,5.000000000000000000e+00,5.000000000000000000e+00,5.000000000000000000e+00,5.000000000000000000e+00,5.000000000000000000e+00,5.000000000000000000e+00,5.000000000000000000e+00,5.000000000000000000e+00,5.000000000000000000e+00,5.000000000000000000e+00,5.000000000000000000e+00,5.000000000000000000e+00,5.000000000000000000e+00,5.000000000000000000e+00,4.038276195526123047e+00,4.050871849060058594e+00,4.039695739746093750e+00,4.041682243347167969e+00,5.000000000000000000e+00,5.000000000000000000e+00,5.000000000000000000e+00,5.000000000000000000e+00,5.000000000000000000e+00,5.000000000000000000e+00,5.000000000000000000e+00,5.000000000000000000e+00,5.000000000000000000e+00,5.000000000000000000e+00,5.000000000000000000e+00,5.000000000000000000e+00,4.849350929260253906e+00,4.659468173980712891e+00,4.483894824981689453e+00,4.321072578430175781e+00,4.169661521911621094e+00,4.028501987457275391e+00,3.896587133407592773e+00,3.773037672042846680e+00,3.657082319259643555e+00,3.548041105270385742e+00,3.445314645767211914e+00,3.348369121551513672e+00,3.256729841232299805e+00,3.169972896575927734e+00,3.087718486785888672e+00,3.009624719619750977e+00,2.935384035110473633e+00,2.864717721939086914e+00,2.797373533248901367e+00,2.733123302459716797e+00,2.671757936477661133e+00,2.613087892532348633e+00,2.556939125061035156e+00,2.503152608871459961e+00,2.451582193374633789e+00,2.402093887329101562e+00,2.354564189910888672e+00,2.308878660202026367e+00,2.264932632446289062e+00,2.222627639770507812e+00,2.181874513626098633e+00,2.142588853836059570e+00,2.104692697525024414e+00,2.068114042282104492e+00,2.032785177230834961e+00,1.998642802238464355e+00,1.965628504753112793e+00,1.933687210083007812e+00,1.902767300605773926e+00,1.872820734977722168e+00,1.843802094459533691e+00
5.000000000000000000e+00,5.000000000000000000e+00,5.000000000000000000e+00,5.000000000000000000e+00,5.000000000000000000e+00,5.000000000000000000e+00,5.000000000000000000e+00,5.000000000000000000e+00,5.000000000000000000e+00,5.000000000000000000e+00,5.000000000000000000e+00,5.000000000000000000e+00,5.000000000000000000e+00,5.000000000000000000e+00,5.000000000000000000e+00,5.000000000000000000e+00,5.000000000000000000e+00,5.000000000000000000e+00,5.000000000000000000e+00,5.000000000000000000e+00,5.000000000000000000e+00,5.000000000000000000e+00,5.000000000000000000e+00,4.039532661437988281e+00,4.039350986480712891e+00,4.027498245239257812e+00,4.032739162445068359e+00,5.000000000000000000e+00,5.000000000000000000e+00,5.000000000000000000e+00,5.000000000000000000e+00,5.000000000000000000e+00,5.000000000000000000e+00,5.000000000000000000e+00,5.000000000000000000e+00,5.000000000000000000e+00,5.000000000000000000e+00,5.000000000000000000e+00,5.000000000000000000e+00,4.849488258361816406e+00,4.659594535827636719e+00,4.484012126922607422e+00,4.321181774139404297e+00,4.169763088226318359e+00,4.028596401214599609e+00,3.896675825119018555e+00,3.773120880126953125e+00,3.657160043716430664e+00,3.548114776611328125e+00,3.445383787155151367e+00,3.348434209823608398e+00,3.256791591644287109e+00,3.170031547546386719e+00,3.087774038314819336e+00,3.009677648544311523e+00,2.935434341430664062e+00,2.864765405654907227e+00,2.797419309616088867e+00,2.733166933059692383e+00,2.671799659729003906e+00,2.613127946853637695e+00,2.556977510452270508e+00,2.503189086914062500e+00,2.451617479324340820e+00,2.402127742767333984e+00,2.354596614837646484e+00,2.308909893035888672e+00,2.264962434768676758e+00,2.222656726837158203e+00,2.181902408599853516e+00,2.142615556716918945e+00,2.104718685150146484e+00,2.068138837814331055e+00,2.032809019088745117e+00,1.998666048049926758e+00,1.965651154518127441e+00,1.933709025382995605e+00,1.902788400650024414e+00,1.872841238975524902e+00,1.843821763992309570e+00
5.000000000000000000e+00,5.000000000000000000e+00,5.000000000000000000e+00,5.000000000000000000e+00,5.000000000000000000e+00,5.000000000000000000e+00,5.000000000000000000e+00,5.000000000000000000e+00,5.000000000000000000e+00,5.000000000000000000e+00,5.000000000000000000e+00,5.000000000000000000e+00,5.000000000000000000e+00,5.000000000000000000e+00,5.000000000000000000e+00,5.000000000000000000e+00,5.000000000000000000e+00,5.000000000000000000e+00,5.000000000000000000e+00,5.000000000000000000e+00,5.000000000000000000e+00,5.000000000000000000e+00,5.000000000000000000e+00,5.000000000000000000e+00,4.057514667510986328e+00,4.051655769348144531e+00,4.048219203948974609e+00,5.000000000000000000e+00,5.000000000000000000e+00,5.000000000000000000e+00,5.000000000000000000e+00,5.000000000000000000e+00,5.000000000000000000e+00,5.000000000000000000e+00,5.000000000000000000e+00,5.000000000000000000e+00,5.000000000000000000e+00,5.000000000000000000e+00,5.000000000000000000e+00,4.849624156951904297e+00,4.659721374511718750e+00,4.484129428863525391e+00,4.321290493011474609e+00,4.169864654541015625e+00,4.028691291809082031e+00,3.896764516830444336e+00,3.773204088211059570e+00,3.657238245010375977e+00,3.548188209533691406e+00,3.445452928543090820e+00,3.348499536514282227e+00,3.256853580474853516e+00,3.170089960098266602e+00,3.087829589843750000e+00,3.009730577468872070e+00,2.935484409332275391e+00,2.864813327789306641e+00,2.797464847564697266e+00,2.733210325241088867e+00,2.671841382980346680e+00,2.613167762756347656e+00,2.557015419006347656e+00,2.503225803375244141e+00,2.451652526855468750e+00,2.402161359786987305e+00,2.354628801345825195e+00,2.308940887451171875e+00,2.264992237091064453e+00,2.222685575485229492e+00,2.181930065155029297e+00,2.142642498016357422e+00,2.104744434356689453e+00,2.068163871765136719e+00,2.032833337783813477e+00,1.998689413070678711e+00,1.965673685073852539e+00,1.933730840682983398e+00,1.902809619903564453e+00,1.872861623764038086e+00,1.843841671943664551e+00
5.000000000000000000e+00,5.000000000000000000e+00,5.000000000000000000e+00,5.000000000000000000e+00,5.000000000000000000e+00,5.000000000000000000e+00,5.000000000000000000e+00,5.000000000000000000e+00,5.000000000000000000e+00,5.000000000000000000e+00,5.000000000000000000e+00,5.000000000000000000e+00,5.000000000000000000e+00,5.000000000000000000e+00,5.000000000000000000e+00,5.000000000000000000e+00,5.000000000000000000e+00,5.000000000000000000e+00,5.000000000000000000e+00,5.000000000000000000e+00,5.000000000000000000e+00,5.000000000000000000e+00,5.000000000000000000e+00,5.000000000000000000e+00,4.094032764434814453e+00,5.000000000000000000e+00,4.142464637756347656e+00,5.000000000000000000e+00,5.000000000000000000e+00,5.000000000000000000e+00,5.000000000000000000e+00,5.000000000000000000e+00,5.000000000000000000e+00,5.000000000000000000e+00,5.000000000000000000e+00,5.000000000000000000e+00,5.000000000000000000e+00,5.000000000000000000e+00,5.000000000000000000e+00,4.849761962890625000e+00,4.659847736358642578e+00,4.484247207641601562e+00,4.321399688720703125e+00,4.169966220855712891e+00,4.028786182403564453e+00,3.896853208541870117e+00,3.773286819458007812e+00,3.657316207885742188e+00,3.548261880874633789e+00,3.445522069931030273e+00,3.348564863204956055e+00,3.256915569305419922e+00,3.170148611068725586e+00,3.087885379791259766e+00,3.009783506393432617e+00,2.935534715652465820e+00,2.864861249923706055e+00,2.797510623931884766e+00,2.733253955841064453e+00,2.671883106231689453e+00,2.613207340240478516e+00,2.557053565979003906e+00,2.503262281417846680e+00,2.451687335968017578e+00,2.402194976806640625e+00,2.354661226272583008e+00,2.308971881866455078e+00,2.265022277832031250e+00,2.222714424133300781e+00,2.181957960128784180e+00,2.142669200897216797e+00,2.104770421981811523e+00,2.068188667297363281e+00,2.032857418060302734e+00,1.998712778091430664e+00,1.965696215629577637e+00,1.933752655982971191e+00,1.902830719947814941e+00,1.872881889343261719e+00,1.843861460685729980e+00
5.000000000000000000e+00,5.000000000000000000e+00,5.000000000000000000e+00,5.000000000000000000e+00,5.000000000000000000e+00,5.000000000000000000e+00,5.000000000000000000e+00,5.000000000000000000e+00,5.000000000000000000e+00,5.000000000000000000e+00,5.000000000000000000e+00,5.000000000000000000e+00,5.000000000000000000e+00,5.000000000000000000e+00,5.000000000000000000e+00,5.000000000000000000e+00,5.000000000000000000e+00,5.000000000000000000e+00,5.000000000000000000e+00,5.000000000000000000e+00,5.000000000000000000e+00,5.000000000000000000e+00,5.000000000000000000e+00,5.000000000000000000e+00,4.100555896759033203e+00,5.000000000000000000e+00,4.238943576812744141e+00,5.000000000000000000e+00,5.000000000000000000e+00,5.000000000000000000e+00,5.000000000000000000e+00,5.000000000000000000e+00,5.000000000000000000e+00,5.000000000000000000e+00,5.000000000000000000e+00,5.000000000000000000e+00,5.000000000000000000e+00,5.000000000000000000e+00,5.000000000000000000e+00,4.849899291992187500e+00,4.659974098205566406e+00,4.484364032745361328e+00,4.321508407592773438e+00,4.170067787170410156e+00,4.028880596160888672e+00,3.896941661834716797e+00,3.773369789123535156e+00,3.657394409179687500e+00,3.548334836959838867e+00,3.445591211318969727e+00,3.348630428314208984e+00,3.256977081298828125e+00,3.170207500457763672e+00,3.087941169738769531e+00,3.009836196899414062e+00,2.935585021972656250e+00,2.864909172058105469e+00,2.797556161880493164e+00,2.733297586441040039e+00,2.671924829483032227e+00,2.613247394561767578e+00,2.557091712951660156e+00,2.503298997879028320e+00,2.451722621917724609e+00,2.402228593826293945e+00,2.354693651199340820e+00,2.309003114700317383e+00,2.265052318572998047e+00,2.222743272781372070e+00,2.181985616683959961e+00,2.142696142196655273e+00,2.104796171188354492e+00,2.068213701248168945e+00,2.032881498336791992e+00,1.998736023902893066e+00,1.965718746185302734e+00,1.933774471282958984e+00,1.902851700782775879e+00,1.872902393341064453e+00,1.843881368637084961e+00
5.000000000000000000e+00,5.000000000000000000e+00,5.000000000000000000e+00,5.000000000000000000e+00,5.000000000000000000e+00,5.000000000000000000e+00,5.000000000000000000e+00,5.000000000000000000e+00,5.000000000000000000e+00,5.000000000000000000e+00,5.000000000000000000e+00,5.000000000000000000e+00,5.000000000000000000e+00,5.000000000000000000e+00,5.000000000000000000e+00,5.000000000000000000e+00,5.000000000000000000e+00,5.000000000000000000e+00,5.000000000000000000e+00,5.000000000000000000e+00,5.000000000000000000e+00,5.000000000000000000e+00,5.000000000000000000e+00,5.000000000000000000e+00,4.104729175567626953e+00,5.000000000000000000e+00,4.338562965393066406e+00,5.000000000000000000e+00,5.000000000000000000e+00,5.000000000000000000e+00,5.000000000000000000e+00,5.000000000000000000e+00,5.000000000000000000e+00,5.000000000000000000e+00,5.000000000000000000e+00,5.000000000000000000e+00,5.000000000000000000e+00,5.000000000000000000e+00,5.000000000000000000e+00,4.850037097930908203e+00,4.660100936889648438e+00,4.484480857849121094e+00,4.321617603302001953e+00,4.170168876647949219e+00,4.028975486755371094e+00,3.897030353546142578e+00,3.773452997207641602e+00,3.657472372055053711e+00,3.548408269882202148e+00,3.445660591125488281e+00,3.348695516586303711e+00,3.257039070129394531e+00,3.170266151428222656e+00,3.087996482849121094e+00,3.009889125823974609e+00,2.935635328292846680e+00,2.864956855773925781e+00,2.797601938247680664e+00,2.733341217041015625e+00,2.671966314315795898e+00,2.613287210464477539e+00,2.557130098342895508e+00,2.503335237503051758e+00,2.451757669448852539e+00,2.402262449264526367e+00,2.354725837707519531e+00,2.309034109115600586e+00,2.265082120895385742e+00,2.222771883010864258e+00,2.182013511657714844e+00,2.142722845077514648e+00,2.104822158813476562e+00,2.068238735198974609e+00,2.032905578613281250e+00,1.998759388923645020e+00,1.965741395950317383e+00,1.933796405792236328e+00,1.902872800827026367e+00,1.872922897338867188e+00,1.843901276588439941e+00
5.000000000000000000e+00,5.000000000000000000e+00,5.000000000000000000e+00,5.000000000000000000e+00,5.000000000000000000e+00,5.000000000000000000e+00,5.000000000000000000e+00,5.000000000000000000e+00,5.000000000000000000e+00,5.000000000000000000e+00,5.000000000000000000e+00,5.000000000000000000e+00,5.000000000000000000e+00,5.000000000000000000e+00,5.000000000000000000e+00,5.000000000000000000e+00,5.000000000000000000e+00,5.000000000000000000e+00,5.000000000000000000e+00,5.000000000000000000e+00,5.000000000000000000e+00,5.000000000000000000e+00,5.000000000000000000e+00,5.000000000000000000e+00,4.130033016204833984e+00,4.185245037078857422e+00,5.000000000000000000e+00,4.453761100769042969e+00,5.000000000000000000e+00,5.000000000000000000e+00,5.000000000000000000e+00,5.000000000000000000e+00,5.000000000000000000e+00,5.000000000000000000e+00,5.000000000000000000e+00,5.000000000000000000e+00,5.000000000000000000e+00,5.000000000000000000e+00,5.000000000000000000e+00,4.850174427032470703e+00,4.660227775573730469e+00,4.484598636627197266e+00,4.321725845336914062e+00,4.170270442962646484e+00,4.029070377349853516e+00,3.897119045257568359e+00,3.773535966873168945e+00,3.657550096511840820e+00,3.548481941223144531e+00,3.445729970932006836e+00,3.348761081695556641e+00,3.257101058959960938e+00,3.170324802398681641e+00,3.088052272796630859e+00,3.009942054748535156e+00,2.935685634613037109e+00,2.865004777908325195e+00,2.797647476196289062e+00,2.733384609222412109e+00,2.672008037567138672e+00,2.613327026367187500e+00,2.557168006896972656e+00,2.503371953964233398e+00,2.451792716979980469e+00,2.402295827865600586e+00,2.354758262634277344e+00,2.309065341949462891e+00,2.265111923217773438e+00,2.222800731658935547e+00,2.182041168212890625e+00,2.142749547958374023e+00,2.104847908020019531e+00,2.068263769149780273e+00,2.032929658889770508e+00,1.998782753944396973e+00,1.965763926506042480e+00,1.933817982673645020e+00,1.902894020080566406e+00,1.872943401336669922e+00,1.843921065330505371e+00
5.000000000000000000e+00,5.000000000000000000e+00,5.000000000000000000e+00,5.000000000000000000e+00,5.000000000000000000e+00,5.000000000000000000e+00,5.000000000000000000e+00,5.000000000000000000e+00,5.000000000000000000e+00,5.000000000000000000e+00,5.000000000000000000e+00,5.000000000000000000e+00,5.000000000000000000e+00,5.000000000000000000e+00,5.000000000000000000e+00,5.000000000000000000e+00,5.000000000000000000e+00,5.000000000000000000e+00,5.000000000000000000e+00,5.000000000000000000e+00,5.000000000000000000e+00,5.000000000000000000e+00,5.000000000000000000e+00,5.000000000000000000e+00,5.000000000000000000e+00,5.000000000000000000e+00,4.391878128051757812e+00,4.421320438385009766e+00,5.000000000000000000e+00,5.000000000000000000e+00,5.000000000000000000e+00,5.000000000000000000e+00,5.000000000000000000e+00,5.000000000000000000e+00,5.000000000000000000e+00,5.000000000000000000e+00,5.000000000000000000e+00,5.000000000000000000e+00,5.000000000000000000e+00,4.850312232971191406e+00,4.660355091094970703e+00,4.484716415405273438e+00,4.321835041046142578e+00,4.170372009277343750e+00,4.029165267944335938e+00,3.897207498550415039e+00,3.773618698120117188e+00,3.657628297805786133e+00,3.548555374145507812e+00,3.445799112319946289e+00,3.348826646804809570e+00,3.257163047790527344e+00,3.170383214950561523e+00,3.088107824325561523e+00,3.009994983673095703e+00,2.935735940933227539e+00,2.865052700042724609e+00,2.797693252563476562e+00,2.733428239822387695e+00,2.672049760818481445e+00,2.613367080688476562e+00,2.557206153869628906e+00,2.503408432006835938e+00,2.451827764511108398e+00,2.402329683303833008e+00,2.354790687561035156e+00,2.309096574783325195e+00,2.265141963958740234e+00,2.222829580307006836e+00,2.182069063186645508e+00,2.142776250839233398e+00,2.104873895645141602e+00,2.068288564682006836e+00,2.032953739166259766e+00,1.998806118965148926e+00,1.965786337852478027e+00,1.933839797973632812e+00,1.902915120124816895e+00,1.872963905334472656e+00,1.843940973281860352e+00
4.875669479370117188e+00,4.874458789825439453e+00,4.873249053955078125e+00,4.872040271759033203e+00,4.870831489562988281e+00,4.869623184204101562e+00,4.868416309356689453e+00,4.867209434509277344e+00,4.866003036499023438e+00,4.864797592163085938e+00,4.863592624664306641e+00,4.862388134002685547e+00,4.861184120178222656e+00,4.859981536865234375e+00,4.858778953552246094e+00,4.857576847076416016e+00,4.856375694274902344e+00,4.855174541473388672e+00,4.853974342346191406e+00,4.852775096893310547e+00,4.851575851440429688e+00,4.850377559661865234e+00,4.849179267883300781e+00,4.847982406616210938e+00,4.147246837615966797e+00,4.111914634704589844e+00,4.844394207000732422e+00,4.843199253082275391e+00,4.842004776000976562e+00,4.840811252593994141e+00,4.839618206024169922e+00,4.838425636291503906e+00,4.837233543395996094e+00,4.836042404174804688e+00,4.834851264953613281e+00,4.833661079406738281e+00,4.832471847534179688e+00,4.831282615661621094e+00,4.830094337463378906e+00,4.828906536102294922e+00,4.660481929779052734e+00,4.484833717346191406e+00,4.321944236755371094e+00,4.170472621917724609e+00,4.029259681701660156e+00,3.897296190261840820e+00,3.773701906204223633e+00,3.657706499099731445e+00,3.548628568649291992e+00,3.445868492126464844e+00,3.348892211914062500e+00,3.257224559783935547e+00,3.170441865921020508e+00,3.088163614273071289e+00,3.010047435760498047e+00,2.935786247253417969e+00,2.865100622177124023e+00,2.797738790512084961e+00,2.733471870422363281e+00,2.672091484069824219e+00,2.613406658172607422e+00,2.557244300842285156e+00,2.503445148468017578e+00,2.451862812042236328e+00,2.402363300323486328e+00,2.354823112487792969e+00,2.309127569198608398e+00,2.265172004699707031e+00,2.222858428955078125e+00,2.182096719741821289e+00,2.142803192138671875e+00,2.104899644851684570e+00,2.068313598632812500e+00,2.032978057861328125e+00,1.998829483985900879e+00,1.965808868408203125e+00,1.933861732482910156e+00,1.902936339378356934e+00,1.872984409332275391e+00,1.843960762023925781e+00
3.778537034988403320e+00,3.777809858322143555e+00,3.777083158493041992e+00,3.776357173919677734e+00,3.775630950927734375e+00,3.774904966354370117e+00,3.774179220199584961e+00,3.773453950881958008e+00,3.772728919982910156e+00,3.772004127502441406e+00,3.771279811859130859e+00,3.770555734634399414e+00,3.769831657409667969e+00,3.769108057022094727e+00,3.768384695053100586e+00,3.767661571502685547e+00,3.766939163208007812e+00,3.766216516494750977e+00,3.765494108200073242e+00,3.764772176742553711e+00,3.764050483703613281e+00,3.763328790664672852e+00,3.762607812881469727e+00,3.761887311935424805e+00,3.761166572570800781e+00,3.760446310043334961e+00,3.759726047515869141e+00,3.759006261825561523e+00,3.758286714553833008e+00,3.757567882537841797e+00,3.756849050521850586e+00,3.756130218505859375e+00,3.755411863327026367e+00,3.754693746566772461e+00,3.753975868225097656e+00,3.753258228302001953e+00,3.752541303634643555e+00,3.751824140548706055e+00,3.751107215881347656e+00,3.750390768051147461e+00,3.749674558639526367e+00,3.748958587646484375e+00,3.748243331909179688e+00,3.747527837753295898e+00,3.746812820434570312e+00,3.746097803115844727e+00,3.745383262634277344e+00,3.657784461975097656e+00,3.548702239990234375e+00,3.445937633514404297e+00,3.348957777023315430e+00,3.257286548614501953e+00,3.170500755310058594e+00,3.088219404220581055e+00,3.010100364685058594e+00,2.935836553573608398e+00,2.865148782730102539e+00,2.797784566879272461e+00,2.733515501022338867e+00,2.672132968902587891e+00,2.613446474075317383e+00,2.557282686233520508e+00,2.503481626510620117e+00,2.451897859573364258e+00,2.402396917343139648e+00,2.354855298995971680e+00,2.309158563613891602e+00,2.265202045440673828e+00,2.222887277603149414e+00,2.182124614715576172e+00,2.142829895019531250e+00,2.104925394058227539e+00,2.068338632583618164e+00,2.033002138137817383e+00,1.998852491378784180e+00,1.965831398963928223e+00,1.933883547782897949e+00,1.902957439422607422e+00,1.873004913330078125e+00,1.843980669975280762e+00
3.084465026855468750e+00,3.083980560302734375e+00,3.083496093750000000e+00,3.083011865615844727e+00,3.082527875900268555e+00,3.082044124603271484e+00,3.081560611724853516e+00,3.081077098846435547e+00,3.080593585968017578e+00,3.080110311508178711e+00,3.079627275466918945e+00,3.079144239425659180e+00,3.078661441802978516e+00,3.078179121017456055e+00,3.077696561813354492e+00,3.077214241027832031e+00,3.076731920242309570e+00,3.076249837875366211e+00,3.075767993927001953e+00,3.075286388397216797e+00,3.074804782867431641e+00,3.074323415756225586e+00,3.073842048645019531e+00,3.073360919952392578e+00,3.072879791259765625e+00,3.072399139404296875e+00,3.071918725967407227e+00,3.071438074111938477e+00,3.070957660675048828e+00,3.070477485656738281e+00,3.069997310638427734e+00,3.069517374038696289e+00,3.069037437438964844e+00,3.068558216094970703e+00,3.068078756332397461e+00,3.067599296569824219e+00,3.067120075225830078e+00,3.066641092300415039e+00,3.066162109375000000e+00,3.065683841705322266e+00,3.065205097198486328e+00,3.064726591110229492e+00,3.064248323440551758e+00,3.063770294189453125e+00,3.063292264938354492e+00,3.062814235687255859e+00,3.062336921691894531e+00,3.061859369277954102e+00,3.061381816864013672e+00,3.060904741287231445e+00,3.060427665710449219e+00,3.059950590133666992e+00,3.059473991394042969e+00,3.058997392654418945e+00,3.010153293609619141e+00,2.935886859893798828e+00,2.865196466445922852e+00,2.797830343246459961e+00,2.733559131622314453e+00,2.672174692153930664e+00,2.613486528396606445e+00,2.557320833206176758e+00,2.503518104553222656e+00,2.451933145523071289e+00,2.402430772781372070e+00,2.354887723922729492e+00,2.309189796447753906e+00,2.265231847763061523e+00,2.222916126251220703e+00,2.182152509689331055e+00,2.142856597900390625e+00,2.104951381683349609e+00,2.068363666534423828e+00,2.033026218414306641e+00,1.998875856399536133e+00,1.965854048728942871e+00,1.933905363082885742e+00,1.902978658676147461e+00,1.873025417327880859e+00,1.844000339508056641e+00
2.605808734893798828e+00,2.605463027954101562e+00,2.605117321014404297e+00,2.604771852493286133e+00,2.604426383972167969e+00,2.604080915451049805e+00,2.603735685348510742e+00,2.603390455245971680e+00,2.603045225143432617e+00,2.602700233459472656e+00,2.602355480194091797e+00,2.602010488510131836e+00,2.601665735244750977e+00,2.601320981979370117e+00,2.600976467132568359e+00,2.600631952285766602e+00,2.600287675857543945e+00,2.599943399429321289e+00,2.599599123001098633e+00,2.599255084991455078e+00,2.598910808563232422e+00,2.598567008972167969e+00,2.598222970962524414e+00,2.597879409790039062e+00,2.597535848617553711e+00,2.597192049026489258e+00,2.596848726272583008e+00,2.596505165100097656e+00,2.596161842346191406e+00,2.595818758010864258e+00,2.595475673675537109e+00,2.595132589340209961e+00,2.594789743423461914e+00,2.594446897506713867e+00,2.594104051589965820e+00,2.593761205673217773e+00,2.593418836593627930e+00,2.593076467514038086e+00,2.592733860015869141e+00,2.592391729354858398e+00,2.592049360275268555e+00,2.591707229614257812e+00,2.591365337371826172e+00,2.591023445129394531e+00,2.590681552886962891e+00,2.590339660644531250e+00,2.589998006820678711e+00,2.589656352996826172e+00,2.589314937591552734e+00,2.588973522186279297e+00,2.588632345199584961e+00,2.588290929794311523e+00,2.587949991226196289e+00,2.587608814239501953e+00,2.587267875671386719e+00,2.586927175521850586e+00,2.586586236953735352e+00,2.586245536804199219e+00,2.585905075073242188e+00,2.585564613342285156e+00,2.585224151611328125e+00,2.557358741760253906e+00,2.503554821014404297e+00,2.451968193054199219e+00,2.402464389801025391e+00,2.354920148849487305e+00,2.309221029281616211e+00,2.265261650085449219e+00,2.222944974899291992e+00,2.182180166244506836e+00,2.142883539199829102e+00,2.104977130889892578e+00,2.068388462066650391e+00,2.033050298690795898e+00,1.998899221420288086e+00,1.965876579284667969e+00,1.933927178382873535e+00,1.902999758720397949e+00,1.873045921325683594e+00,1.844020128250122070e+00
2.255753993988037109e+00,2.255494832992553711e+00,2.255235910415649414e+00,2.254976987838745117e+00,2.254718065261840820e+00,2.254459381103515625e+00,2.254200458526611328e+00,2.253941774368286133e+00,2.253683090209960938e+00,2.253424406051635742e+00,2.253165960311889648e+00,2.252907514572143555e+00,2.252649068832397461e+00,2.252390623092651367e+00,2.252132415771484375e+00,2.251873970031738281e+00,2.251615762710571289e+00,2.251357793807983398e+00,2.251099586486816406e+00,2.250841617584228516e+00,2.250583648681640625e+00,2.250325918197631836e+00,2.250067949295043945e+00,2.249810218811035156e+00,2.249552249908447266e+00,2.249294519424438477e+00,2.249037027359008789e+00,2.248779296875000000e+00,2.248521804809570312e+00,2.248264312744140625e+00,2.248007059097290039e+00,2.247749567031860352e+00,2.247492313385009766e+00,2.247235298156738281e+00,2.246978044509887695e+00,2.246721029281616211e+00,2.246463775634765625e+00,2.246206760406494141e+00,2.245949983596801758e+00,2.245693206787109375e+00,2.245436191558837891e+00,2.245179414749145508e+00,2.244922876358032227e+00,2.244666099548339844e+00,2.244409561157226562e+00,2.244153022766113281e+00,2.243896722793579102e+00,2.243640184402465820e+00,2.243383884429931641e+00,2.243127584457397461e+00,2.242871284484863281e+00,2.242615222930908203e+00,2.242359161376953125e+00,2.242103099822998047e+00,2.241847276687622070e+00,2.241591215133666992e+00,2.241335391998291016e+00,2.241079568862915039e+00,2.240823745727539062e+00,2.240568161010742188e+00,2.240312576293945312e+00,2.240056991577148438e+00,2.239801406860351562e+00,2.239545822143554688e+00,2.239290475845336914e+00,2.239035129547119141e+00,2.238780021667480469e+00,2.238524675369262695e+00,2.222973823547363281e+00,2.182207822799682617e+00,2.142910242080688477e+00,2.105003118515014648e+00,2.068413496017456055e+00,2.033074378967285156e+00,1.998922586441040039e+00,1.965899109840393066e+00,1.933949112892150879e+00,1.903020858764648438e+00,1.873066186904907227e+00,1.844040036201477051e+00
1.988610148429870605e+00,1.988408803939819336e+00,1.988207340240478516e+00,1.988006234169006348e+00,1.987805008888244629e+00,1.987603664398193359e+00,1.987402677536010742e+00,1.987201571464538574e+00,1.987000346183776855e+00,1.986799478530883789e+00,1.986598491668701172e+00,1.986397385597229004e+00,1.986196637153625488e+00,1.985995531082153320e+00,1.985794782638549805e+00,1.985594153404235840e+00,1.985393285751342773e+00,1.985192656517028809e+00,1.984992027282714844e+00,1.984791278839111328e+00,1.984590768814086914e+00,1.984390258789062500e+00,1.984189629554748535e+00,1.983989238739013672e+00,1.983788847923278809e+00,1.983588337898254395e+00,1.983388066291809082e+00,1.983187913894653320e+00,1.982987523078918457e+00,1.982787370681762695e+00,1.982587218284606934e+00,1.982386946678161621e+00,1.982186913490295410e+00,1.981986999511718750e+00,1.981786727905273438e+00,1.981586933135986328e+00,1.981387019157409668e+00,1.981186985969543457e+00,1.980987191200256348e+00,1.980787396430969238e+00,1.980587482452392578e+00,1.980387926101684570e+00,1.980188250541687012e+00,1.979988455772399902e+00,1.979788899421691895e+00,1.979589462280273438e+00,1.979389667510986328e+00,1.979190349578857422e+00,1.978990912437438965e+00,1.978791356086730957e+00,1.978592038154602051e+00,1.978392839431762695e+00,1.978193402290344238e+00,1.977994203567504883e+00,1.977795004844665527e+00,1.977595686912536621e+00,1.977396607398986816e+00,1.977197647094726562e+00,1.976998448371887207e+00,1.976799488067626953e+00,1.976600646972656250e+00,1.976401567459106445e+00,1.976202726364135742e+00,1.976003885269165039e+00,1.975804924964904785e+00,1.975606203079223633e+00,1.975407600402832031e+00,1.975208759307861328e+00,1.975010156631469727e+00,1.974811673164367676e+00,1.974612951278686523e+00,1.974414467811584473e+00,1.974215984344482422e+00,1.974017381668090820e+00,1.973819136619567871e+00,1.965921759605407715e+00,1.933970928192138672e+00,1.903041839599609375e+00,1.873086690902709961e+00,1.844059944152832031e+00
1.778040766716003418e+00,1.777879714965820312e+00,1.777718782424926758e+00,1.777557969093322754e+00,1.777396917343139648e+00,1.777236104011535645e+00,1.777075171470642090e+00,1.776914477348327637e+00,1.776753783226013184e+00,1.776592969894409180e+00,1.776432275772094727e+00,1.776271700859069824e+00,1.776110887527465820e+00,1.775950312614440918e+00,1.775789737701416016e+00,1.775629043579101562e+00,1.775468587875366211e+00,1.775308132171630859e+00,1.775147557258605957e+00,1.774987220764160156e+00,1.774826884269714355e+00,1.774666309356689453e+00,1.774505972862243652e+00,1.774345755577087402e+00,1.774185299873352051e+00,1.774025082588195801e+00,1.773864865303039551e+00,1.773704528808593750e+00,1.773544430732727051e+00,1.773384332656860352e+00,1.773224115371704102e+00,1.773064017295837402e+00,1.772904038429260254e+00,1.772743821144104004e+00,1.772583961486816406e+00,1.772423982620239258e+00,1.772263884544372559e+00,1.772104024887084961e+00,1.771944165229797363e+00,1.771784186363220215e+00,1.771624445915222168e+00,1.771464705467224121e+00,1.771304726600646973e+00,1.771145105361938477e+00,1.770985364913940430e+00,1.770825624465942383e+00,1.770666003227233887e+00,1.770506381988525391e+00,1.770346641540527344e+00,1.770187139511108398e+00,1.770027637481689453e+00,1.769868016242980957e+00,1.769708514213562012e+00,1.769549131393432617e+00,1.769389629364013672e+00,1.769230246543884277e+00,1.769070863723754883e+00,1.768911480903625488e+00,1.768752217292785645e+00,1.768592953681945801e+00,1.768433570861816406e+00,1.768274307250976562e+00,1.768115162849426270e+00,1.767955899238586426e+00,1.767796874046325684e+00,1.767637729644775391e+00,1.767478585243225098e+00,1.767319560050964355e+00,1.767160415649414062e+00,1.767001390457153320e+00,1.766842484474182129e+00,1.766683459281921387e+00,1.766524553298950195e+00,1.766365766525268555e+00,1.766206741333007812e+00,1.766047954559326172e+00,1.765889286994934082e+00,1.765730381011962891e+00,1.765571594238281250e+00,1.765413045883178711e+00
1.607794880867004395e+00,1.607663393020629883e+00,1.607531666755676270e+00,1.607400059700012207e+00,1.607268571853637695e+00,1.607136964797973633e+00,1.607005476951599121e+00,1.606874108314514160e+00,1.606742501258850098e+00,1.606611132621765137e+00,1.606479763984680176e+00,1.606348156929016113e+00,1.606216907501220703e+00,1.606085538864135742e+00,1.605954051017761230e+00,1.605822801589965820e+00,1.605691552162170410e+00,1.605560183525085449e+00,1.605429053306579590e+00,1.605297803878784180e+00,1.605166435241699219e+00,1.605035305023193359e+00,1.604904174804687500e+00,1.604772925376892090e+00,1.604641914367675781e+00,1.604510784149169922e+00,1.604379653930664062e+00,1.604248642921447754e+00,1.604117631912231445e+00,1.603986501693725586e+00,1.603855609893798828e+00,1.603724598884582520e+00,1.603593587875366211e+00,1.603462696075439453e+00,1.603331804275512695e+00,1.603200793266296387e+00,1.603070020675659180e+00,1.602939248085021973e+00,1.602808237075805664e+00,1.602677583694458008e+00,1.602546811103820801e+00,1.602415919303894043e+00,1.602285265922546387e+00,1.602154612541198730e+00,1.602023720741271973e+00,1.601893186569213867e+00,1.601762533187866211e+00,1.601631760597229004e+00,1.601501226425170898e+00,1.601370692253112793e+00,1.601240038871765137e+00,1.601109504699707031e+00,1.600978970527648926e+00,1.600848436355590820e+00,1.600718021392822266e+00,1.600587606430053711e+00,1.600457072257995605e+00,1.600326657295227051e+00,1.600196242332458496e+00,1.600065827369689941e+00,1.599935412406921387e+00,1.599805116653442383e+00,1.599674701690673828e+00,1.599544525146484375e+00,1.599414110183715820e+00,1.599283933639526367e+00,1.599153757095336914e+00,1.599023461341857910e+00,1.598893284797668457e+00,1.598763227462768555e+00,1.598632931709289551e+00,1.598502874374389648e+00,1.598372817039489746e+00,1.598242640495300293e+00,1.598112583160400391e+00,1.597982645034790039e+00,1.597852468490600586e+00,1.597722530364990234e+00,1.597592592239379883e+00,1.597462534904479980e+00
1.467302203178405762e+00,1.467192411422729492e+00,1.467082858085632324e+00,1.466973304748535156e+00,1.466863632202148438e+00,1.466754078865051270e+00,1.466644644737243652e+00,1.466534972190856934e+00,1.466425538063049316e+00,1.466316103935241699e+00,1.466206550598144531e+00,1.466097116470336914e+00,1.465987682342529297e+00,1.465878129005432129e+00,1.465768814086914062e+00,1.465659499168395996e+00,1.465549945831298828e+00,1.465440630912780762e+00,1.465331315994262695e+00,1.465221881866455078e+00,1.465112686157226562e+00,1.465003371238708496e+00,1.464894056320190430e+00,1.464784860610961914e+00,1.464675545692443848e+00,1.464566230773925781e+00,1.464457154273986816e+00,1.464347958564758301e+00,1.464238643646240234e+00,1.464129567146301270e+00,1.464020490646362305e+00,1.463911175727844238e+00,1.463802099227905273e+00,1.463693022727966309e+00,1.463583946228027344e+00,1.463474869728088379e+00,1.463365912437438965e+00,1.463256716728210449e+00,1.463147759437561035e+00,1.463038802146911621e+00,1.462929725646972656e+00,1.462820768356323242e+00,1.462711930274963379e+00,1.462602853775024414e+00,1.462494015693664551e+00,1.462385058403015137e+00,1.462276101112365723e+00,1.462167263031005859e+00,1.462058424949645996e+00,1.461949586868286133e+00,1.461840748786926270e+00,1.461732029914855957e+00,1.461623072624206543e+00,1.461514353752136230e+00,1.461405515670776367e+00,1.461296796798706055e+00,1.461188197135925293e+00,1.461079359054565430e+00,1.460970640182495117e+00,1.460862040519714355e+00,1.460753321647644043e+00,1.460644721984863281e+00,1.460536122322082520e+00,1.460427403450012207e+00,1.460318803787231445e+00,1.460210323333740234e+00,1.460101604461669922e+00,1.459993124008178711e+00,1.459884643554687500e+00,1.459776043891906738e+00,1.459667563438415527e+00,1.459559082984924316e+00,1.459450602531433105e+00,1.459342122077941895e+00,1.459233760833740234e+00,1.459125280380249023e+00,1.459016919136047363e+00,1.458908557891845703e+00,1.458800077438354492e+00,1.458691716194152832e+00
1.349389314651489258e+00,1.349296569824218750e+00,1.349203944206237793e+00,1.349111199378967285e+00,1.349018573760986328e+00,1.348925948143005371e+00,1.348833203315734863e+00,1.348740577697753906e+00,1.348647952079772949e+00,1.348555326461791992e+00,1.348462700843811035e+00,1.348370194435119629e+00,1.348277568817138672e+00,1.348184943199157715e+00,1.348092436790466309e+00,1.347999930381774902e+00,1.347907423973083496e+00,1.347814917564392090e+00,1.347722291946411133e+00,1.347629904747009277e+00,1.347537517547607422e+00,1.347444891929626465e+00,1.347352504730224609e+00,1.347260117530822754e+00,1.347167611122131348e+00,1.347075343132019043e+00,1.346982955932617188e+00,1.346890449523925781e+00,1.346798181533813477e+00,1.346705794334411621e+00,1.346613407135009766e+00,1.346521139144897461e+00,1.346428751945495605e+00,1.346336483955383301e+00,1.346244215965270996e+00,1.346151947975158691e+00,1.346059560775756836e+00,1.345967411994934082e+00,1.345875144004821777e+00,1.345782876014709473e+00,1.345690608024597168e+00,1.345598459243774414e+00,1.345506191253662109e+00,1.345414042472839355e+00,1.345321774482727051e+00,1.345229744911193848e+00,1.345137596130371094e+00,1.345045447349548340e+00,1.344953298568725586e+00,1.344861268997192383e+00,1.344769120216369629e+00,1.344676971435546875e+00,1.344584941864013672e+00,1.344492912292480469e+00,1.344400882720947266e+00,1.344308853149414062e+00,1.344216704368591309e+00,1.344124794006347656e+00,1.344032883644104004e+00,1.343940734863281250e+00,1.343848824501037598e+00,1.343756914138793945e+00,1.343664884567260742e+00,1.343572974205017090e+00,1.343481183052062988e+00,1.343389153480529785e+00,1.343297243118286133e+00,1.343205451965332031e+00,1.343113541603088379e+00,1.343021631240844727e+00,1.342929840087890625e+00,1.342837929725646973e+00,1.342746138572692871e+00,1.342654466629028320e+00,1.342562556266784668e+00,1.342470765113830566e+00,1.342379093170166016e+00,1.342287302017211914e+00,1.342195510864257812e+00,1.342103838920593262e+00
1.249017953872680664e+00,1.248938441276550293e+00,1.248859047889709473e+00,1.248779654502868652e+00,1.248700261116027832e+00,1.248620867729187012e+00,1.248541474342346191e+00,1.248462080955505371e+00,1.248382687568664551e+00,1.248303413391113281e+00,1.248224020004272461e+00,1.248144626617431641e+00,1.248065352439880371e+00,1.247986078262329102e+00,1.247906684875488281e+00,1.247827410697937012e+00,1.247748255729675293e+00,1.247668862342834473e+00,1.247589588165283203e+00,1.247510433197021484e+00,1.247431159019470215e+00,1.247351884841918945e+00,1.247272729873657227e+00,1.247193455696105957e+00,1.247114300727844238e+00,1.247035145759582520e+00,1.246955871582031250e+00,1.246876716613769531e+00,1.246797561645507812e+00,1.246718406677246094e+00,1.246639251708984375e+00,1.246560096740722656e+00,1.246480941772460938e+00,1.246401906013488770e+00,1.246322751045227051e+00,1.246243596076965332e+00,1.246164560317993164e+00,1.246085524559020996e+00,1.246006369590759277e+00,1.245927333831787109e+00,1.245848298072814941e+00,1.245769262313842773e+00,1.245690345764160156e+00,1.245611190795898438e+00,1.245532274246215820e+00,1.245453238487243652e+00,1.245374202728271484e+00,1.245295286178588867e+00,1.245216369628906250e+00,1.245137333869934082e+00,1.245058417320251465e+00,1.244979500770568848e+00,1.244900584220886230e+00,1.244821667671203613e+00,1.244742751121520996e+00,1.244663834571838379e+00,1.244585037231445312e+00,1.244506120681762695e+00,1.244427204132080078e+00,1.244348406791687012e+00,1.244269609451293945e+00,1.244190692901611328e+00,1.244111895561218262e+00,1.244033098220825195e+00,1.243954300880432129e+00,1.243875503540039062e+00,1.243796706199645996e+00,1.243717908859252930e+00,1.243639230728149414e+00,1.243560433387756348e+00,1.243481636047363281e+00,1.243402957916259766e+00,1.243324279785156250e+00,1.243245482444763184e+00,1.243166804313659668e+00,1.243088126182556152e+00,1.243009448051452637e+00,1.242930769920349121e+00,1.242852091789245605e+00,1.242773413658142090e+00
1.162544608116149902e+00,1.162475705146789551e+00,1.162406921386718750e+00,1.162338256835937500e+00,1.162269353866577148e+00,1.162200570106506348e+00,1.162131905555725098e+00,1.162063002586364746e+00,1.161994338035583496e+00,1.161925554275512695e+00,1.161856770515441895e+00,1.161788105964660645e+00,1.161719322204589844e+00,1.161650538444519043e+00,1.161581873893737793e+00,1.161513209342956543e+00,1.161444425582885742e+00,1.161375761032104492e+00,1.161307215690612793e+00,1.161238431930541992e+00,1.161169767379760742e+00,1.161101222038269043e+00,1.161032438278198242e+00,1.160963892936706543e+00,1.160895228385925293e+00,1.160826563835144043e+00,1.160758018493652344e+00,1.160689353942871094e+00,1.160620689392089844e+00,1.160552144050598145e+00,1.160483598709106445e+00,1.160415053367614746e+00,1.160346508026123047e+00,1.160277843475341797e+00,1.160209298133850098e+00,1.160140752792358398e+00,1.160072207450866699e+00,1.160003662109375000e+00,1.159935235977172852e+00,1.159866690635681152e+00,1.159798145294189453e+00,1.159729719161987305e+00,1.159661173820495605e+00,1.159592747688293457e+00,1.159524321556091309e+00,1.159455776214599609e+00,1.159387350082397461e+00,1.159318923950195312e+00,1.159250378608703613e+00,1.159182071685791016e+00,1.159113645553588867e+00,1.159045100212097168e+00,1.158976793289184570e+00,1.158908367156982422e+00,1.158839941024780273e+00,1.158771634101867676e+00,1.158703207969665527e+00,1.158634901046752930e+00,1.158566474914550781e+00,1.158498167991638184e+00,1.158429741859436035e+00,1.158361554145812988e+00,1.158293247222900391e+00,1.158224821090698242e+00,1.158156633377075195e+00,1.158088326454162598e+00,1.158020019531250000e+00,1.157951712608337402e+00,1.157883405685424805e+00,1.157815098762512207e+00,1.157746911048889160e+00,1.157678723335266113e+00,1.157610416412353516e+00,1.157542228698730469e+00,1.157473921775817871e+00,1.157405734062194824e+00,1.157337546348571777e+00,1.157269358634948730e+00,1.157201051712036133e+00,1.157132983207702637e+00
1.087269544601440430e+00,1.087209343910217285e+00,1.087149262428283691e+00,1.087088942527770996e+00,1.087028861045837402e+00,1.086968660354614258e+00,1.086908459663391113e+00,1.086848378181457520e+00,1.086788177490234375e+00,1.086728096008300781e+00,1.086667895317077637e+00,1.086607813835144043e+00,1.086547613143920898e+00,1.086487531661987305e+00,1.086427450180053711e+00,1.086367368698120117e+00,1.086307287216186523e+00,1.086247205734252930e+00,1.086187124252319336e+00,1.086127042770385742e+00,1.086066961288452148e+00,1.086006879806518555e+00,1.085946798324584961e+00,1.085886716842651367e+00,1.085826754570007324e+00,1.085766673088073730e+00,1.085706591606140137e+00,1.085646629333496094e+00,1.085586667060852051e+00,1.085526585578918457e+00,1.085466623306274414e+00,1.085406661033630371e+00,1.085346579551696777e+00,1.085286617279052734e+00,1.085226655006408691e+00,1.085166692733764648e+00,1.085106730461120605e+00,1.085046768188476562e+00,1.084986805915832520e+00,1.084926962852478027e+00,1.084867000579833984e+00,1.084807038307189941e+00,1.084747076034545898e+00,1.084687232971191406e+00,1.084627270698547363e+00,1.084567427635192871e+00,1.084507465362548828e+00,1.084447622299194336e+00,1.084387660026550293e+00,1.084327816963195801e+00,1.084267973899841309e+00,1.084208130836486816e+00,1.084148287773132324e+00,1.084088444709777832e+00,1.084028601646423340e+00,1.083968758583068848e+00,1.083908915519714355e+00,1.083849072456359863e+00,1.083789229393005371e+00,1.083729386329650879e+00,1.083669662475585938e+00,1.083609938621520996e+00,1.083550095558166504e+00,1.083490252494812012e+00,1.083430528640747070e+00,1.083370685577392578e+00,1.083310961723327637e+00,1.083251237869262695e+00,1.083191394805908203e+00,1.083131670951843262e+00,1.083071947097778320e+00,1.083012223243713379e+00,1.082952499389648438e+00,1.082892775535583496e+00,1.082833051681518555e+00,1.082773447036743164e+00,1.082713723182678223e+00,1.082653999328613281e+00,1.082594275474548340e+00,1.082534670829772949e+00
1.021149873733520508e+00,1.021096825599670410e+00,1.021043658256530762e+00,1.020990610122680664e+00,1.020937561988830566e+00,1.020884394645690918e+00,1.020831346511840820e+00,1.020778298377990723e+00,1.020725250244140625e+00,1.020672202110290527e+00,1.020619153976440430e+00,1.020566105842590332e+00,1.020513057708740234e+00,1.020460009574890137e+00,1.020407080650329590e+00,1.020354032516479492e+00,1.020300984382629395e+00,1.020247936248779297e+00,1.020195007324218750e+00,1.020141959190368652e+00,1.020089030265808105e+00,1.020035982131958008e+00,1.019983053207397461e+00,1.019930005073547363e+00,1.019877076148986816e+00,1.019824147224426270e+00,1.019771218299865723e+00,1.019718289375305176e+00,1.019665241241455078e+00,1.019612312316894531e+00,1.019559383392333984e+00,1.019506454467773438e+00,1.019453525543212891e+00,1.019400596618652344e+00,1.019347667694091797e+00,1.019294738769531250e+00,1.019241929054260254e+00,1.019189000129699707e+00,1.019136071205139160e+00,1.019083261489868164e+00,1.019030332565307617e+00,1.018977403640747070e+00,1.018924593925476074e+00,1.018871665000915527e+00,1.018818855285644531e+00,1.018766045570373535e+00,1.018713116645812988e+00,1.018660306930541992e+00,1.018607497215270996e+00,1.018554687500000000e+00,1.018501877784729004e+00,1.018449068069458008e+00,1.018396139144897461e+00,1.018343329429626465e+00,1.018290638923645020e+00,1.018237709999084473e+00,1.018185019493103027e+00,1.018132209777832031e+00,1.018079400062561035e+00,1.018026590347290039e+00,1.017973899841308594e+00,1.017921090126037598e+00,1.017868280410766602e+00,1.017815589904785156e+00,1.017762780189514160e+00,1.017710089683532715e+00,1.017657399177551270e+00,1.017604589462280273e+00,1.017551898956298828e+00,1.017499208450317383e+00,1.017446398735046387e+00,1.017393708229064941e+00,1.017341017723083496e+00,1.017288327217102051e+00,1.017235636711120605e+00,1.017182946205139160e+00,1.017130255699157715e+00,1.017077565193176270e+00,1.017024874687194824e+00,1.016972184181213379e+00
9.626111388206481934e-01,9.625638127326965332e-01,9.625166654586791992e-01,9.624695181846618652e-01,9.624223709106445312e-01,9.623752236366271973e-01,9.623279571533203125e-01,9.622808098793029785e-01,9.622336626052856445e-01,9.621865749359130859e-01,9.621394276618957520e-01,9.620923399925231934e-01,9.620450735092163086e-01,9.619979858398437500e-01,9.619508981704711914e-01,9.619038105010986328e-01,9.618567228317260742e-01,9.618095755577087402e-01,9.617624282836914062e-01,9.617153406143188477e-01,9.616682529449462891e-01,9.616211652755737305e-01,9.615741372108459473e-01,9.615270495414733887e-01,9.614799022674560547e-01,9.614328145980834961e-01,9.613857865333557129e-01,9.613387584686279297e-01,9.612916707992553711e-01,9.612446427345275879e-01,9.611974954605102539e-01,9.611504673957824707e-01,9.611034989356994629e-01,9.610564708709716797e-01,9.610094428062438965e-01,9.609624147415161133e-01,9.609153270721435547e-01,9.608682990074157715e-01,9.608213305473327637e-01,9.607743620872497559e-01,9.607273340225219727e-01,9.606803655624389648e-01,9.606332778930664062e-01,9.605863094329833984e-01,9.605393409729003906e-01,9.604923725128173828e-01,9.604454040527343750e-01,9.603984951972961426e-01,9.603514075279235840e-01,9.603044986724853516e-01,9.602575302124023438e-01,9.602106213569641113e-01,9.601636528968811035e-01,9.601167440414428711e-01,9.600697159767150879e-01,9.600228071212768555e-01,9.599758982658386230e-01,9.599289894104003906e-01,9.598820805549621582e-01,9.598351716995239258e-01,9.597882032394409180e-01,9.597412943840026855e-01,9.596943855285644531e-01,9.596475362777709961e-01,9.596006274223327637e-01,9.595537781715393066e-01,9.595068097114562988e-01,9.594599604606628418e-01,9.594131112098693848e-01,9.593662023544311523e-01,9.593193531036376953e-01,9.592724442481994629e-01,9.592255949974060059e-01,9.591787457466125488e-01,9.591319561004638672e-01,9.590851068496704102e-01,9.590382575988769531e-01,9.589913487434387207e-01,9.589445590972900391e-01,9.588977098464965820e-01
9.104198813438415527e-01,9.103776812553405762e-01,9.103355407714843750e-01,9.102933406829833984e-01,9.102511405944824219e-01,9.102088809013366699e-01,9.101667404174804688e-01,9.101245403289794922e-01,9.100823998451232910e-01,9.100402593612670898e-01,9.099980592727661133e-01,9.099558591842651367e-01,9.099136590957641602e-01,9.098715186119079590e-01,9.098293781280517578e-01,9.097872972488403320e-01,9.097451567649841309e-01,9.097028970718383789e-01,9.096608161926269531e-01,9.096186757087707520e-01,9.095765352249145508e-01,9.095344543457031250e-01,9.094923138618469238e-01,9.094501137733459473e-01,9.094080328941345215e-01,9.093659520149230957e-01,9.093238711357116699e-01,9.092817902565002441e-01,9.092396497726440430e-01,9.091975092887878418e-01,9.091554284095764160e-01,9.091133475303649902e-01,9.090712666511535645e-01,9.090291857719421387e-01,9.089871644973754883e-01,9.089450240135192871e-01,9.089029431343078613e-01,9.088609218597412109e-01,9.088188409805297852e-01,9.087768197059631348e-01,9.087347984313964844e-01,9.086926579475402832e-01,9.086506366729736328e-01,9.086086153984069824e-01,9.085665941238403320e-01,9.085245728492736816e-01,9.084825515747070312e-01,9.084404110908508301e-01,9.083984494209289551e-01,9.083564281463623047e-01,9.083144068717956543e-01,9.082724452018737793e-01,9.082304239273071289e-01,9.081883430480957031e-01,9.081463813781738281e-01,9.081044197082519531e-01,9.080624580383300781e-01,9.080204367637634277e-01,9.079784750938415527e-01,9.079364538192749023e-01,9.078944921493530273e-01,9.078525304794311523e-01,9.078105688095092773e-01,9.077686071395874023e-01,9.077265858650207520e-01,9.076846241950988770e-01,9.076427221298217773e-01,9.076007604598999023e-01,9.075588583946228027e-01,9.075168967247009277e-01,9.074748754501342773e-01,9.074329733848571777e-01,9.073910713195800781e-01,9.073491692543029785e-01,9.073072671890258789e-01,9.072653651237487793e-01,9.072233438491821289e-01,9.071814417839050293e-01,9.071395993232727051e-01,9.070976972579956055e-01
8.635971546173095703e-01,8.635591864585876465e-01,8.635212182998657227e-01,8.634833097457885742e-01,8.634452223777770996e-01,8.634073138236999512e-01,8.633693456649780273e-01,8.633314371109008789e-01,8.632934689521789551e-01,8.632555603981018066e-01,8.632175326347351074e-01,8.631795644760131836e-01,8.631416559219360352e-01,8.631037473678588867e-01,8.630658388137817383e-01,8.630279302597045898e-01,8.629899024963378906e-01,8.629519939422607422e-01,8.629140853881835938e-01,8.628761768341064453e-01,8.628382682800292969e-01,8.628004193305969238e-01,8.627624511718750000e-01,8.627245426177978516e-01,8.626866340637207031e-01,8.626487851142883301e-01,8.626108765602111816e-01,8.625730276107788086e-01,8.625350594520568848e-01,8.624972105026245117e-01,8.624593019485473633e-01,8.624214529991149902e-01,8.623836040496826172e-01,8.623457551002502441e-01,8.623077869415283203e-01,8.622699379920959473e-01,8.622320890426635742e-01,8.621942996978759766e-01,8.621564507484436035e-01,8.621186017990112305e-01,8.620806932449340820e-01,8.620428442955017090e-01,8.620049953460693359e-01,8.619672060012817383e-01,8.619294166564941406e-01,8.618915677070617676e-01,8.618536591529846191e-01,8.618158698081970215e-01,8.617780804634094238e-01,8.617402315139770508e-01,8.617024421691894531e-01,8.616646528244018555e-01,8.616268038749694824e-01,8.615890145301818848e-01,8.615512251853942871e-01,8.615134358406066895e-01,8.614756464958190918e-01,8.614377975463867188e-01,8.614000082015991211e-01,8.613622188568115234e-01,8.613244891166687012e-01,8.612866997718811035e-01,8.612489700317382812e-01,8.612111210823059082e-01,8.611733913421630859e-01,8.611356019973754883e-01,8.610978722572326660e-01,8.610601425170898438e-01,8.610224127769470215e-01,8.609845638275146484e-01,8.609468340873718262e-01,8.609091043472290039e-01,8.608713746070861816e-01,8.608336448669433594e-01,8.607959151268005371e-01,8.607581257820129395e-01,8.607203960418701172e-01,8.606827259063720703e-01,8.606449961662292480e-01,8.606073260307312012e-01
8.213549852371215820e-01,8.213206529617309570e-01,8.212863206863403320e-01,8.212519288063049316e-01,8.212175965309143066e-01,8.211832642555236816e-01,8.211489319801330566e-01,8.211145997047424316e-01,8.210803270339965820e-01,8.210459351539611816e-01,8.210116028785705566e-01,8.209772706031799316e-01,8.209429979324340820e-01,8.209086656570434570e-01,8.208743929862976074e-01,8.208400011062622070e-01,8.208057284355163574e-01,8.207713961601257324e-01,8.207371234893798828e-01,8.207028508186340332e-01,8.206685781478881836e-01,8.206341862678527832e-01,8.205999135971069336e-01,8.205656409263610840e-01,8.205313682556152344e-01,8.204970955848693848e-01,8.204628229141235352e-01,8.204284906387329102e-01,8.203942179679870605e-01,8.203599452972412109e-01,8.203257322311401367e-01,8.202914595603942871e-01,8.202572464942932129e-01,8.202229142189025879e-01,8.201886415481567383e-01,8.201544284820556641e-01,8.201201558113098145e-01,8.200859427452087402e-01,8.200517296791076660e-01,8.200173974037170410e-01,8.199831843376159668e-01,8.199489116668701172e-01,8.199146986007690430e-01,8.198804855346679688e-01,8.198462128639221191e-01,8.198119997978210449e-01,8.197777867317199707e-01,8.197435736656188965e-01,8.197093605995178223e-01,8.196751475334167480e-01,8.196408748626708984e-01,8.196067214012145996e-01,8.195725083351135254e-01,8.195382952690124512e-01,8.195041418075561523e-01,8.194699287414550781e-01,8.194356560707092285e-01,8.194015026092529297e-01,8.193673491477966309e-01,8.193331360816955566e-01,8.192989826202392578e-01,8.192648291587829590e-01,8.192305564880371094e-01,8.191964030265808105e-01,8.191622495651245117e-01,8.191280961036682129e-01,8.190939426422119141e-01,8.190597891807556152e-01,8.190255761146545410e-01,8.189914226531982422e-01,8.189572691917419434e-01,8.189231753349304199e-01,8.188890218734741211e-01,8.188548684120178223e-01,8.188206553459167480e-01,8.187865614891052246e-01,8.187524080276489258e-01,8.187183141708374023e-01,8.186841607093811035e-01,8.186500668525695801e-01
7.830526232719421387e-01,7.830214500427246094e-01,7.829901576042175293e-01,7.829589247703552246e-01,7.829277515411376953e-01,7.828965783119201660e-01,7.828653454780578613e-01,7.828341722488403320e-01,7.828028798103332520e-01,7.827717065811157227e-01,7.827405333518981934e-01,7.827093005180358887e-01,7.826781272888183594e-01,7.826469540596008301e-01,7.826157212257385254e-01,7.825845479965209961e-01,7.825533747673034668e-01,7.825222015380859375e-01,7.824910283088684082e-01,7.824598550796508789e-01,7.824286222457885742e-01,7.823974490165710449e-01,7.823662757873535156e-01,7.823351621627807617e-01,7.823039889335632324e-01,7.822728157043457031e-01,7.822415828704833984e-01,7.822104692459106445e-01,7.821792960166931152e-01,7.821481823921203613e-01,7.821170687675476074e-01,7.820858955383300781e-01,7.820547223091125488e-01,7.820235490798950195e-01,7.819924354553222656e-01,7.819613218307495117e-01,7.819302082061767578e-01,7.818990349769592285e-01,7.818678617477416992e-01,7.818367481231689453e-01,7.818056344985961914e-01,7.817745208740234375e-01,7.817434072494506836e-01,7.817122340202331543e-01,7.816811203956604004e-01,7.816500067710876465e-01,7.816189527511596680e-01,7.815878391265869141e-01,7.815567255020141602e-01,7.815255522727966309e-01,7.814944982528686523e-01,7.814633846282958984e-01,7.814323306083679199e-01,7.814012169837951660e-01,7.813701629638671875e-01,7.813389897346496582e-01,7.813079357147216797e-01,7.812768816947937012e-01,7.812457680702209473e-01,7.812147140502929688e-01,7.811836600303649902e-01,7.811525464057922363e-01,7.811214327812194824e-01,7.810903787612915039e-01,7.810593247413635254e-01,7.810282707214355469e-01,7.809972763061523438e-01,7.809661030769348145e-01,7.809351086616516113e-01,7.809040546417236328e-01,7.808730006217956543e-01,7.808419466018676758e-01,7.808109521865844727e-01,7.807798385620117188e-01,7.807487845420837402e-01,7.807177901268005371e-01,7.806867361068725586e-01,7.806557416915893555e-01,7.806246876716613770e-01,7.805936336517333984e-01
7.481634020805358887e-01,7.481348514556884766e-01,7.481063604354858398e-01,7.480778694152832031e-01,7.480494379997253418e-01,7.480209469795227051e-01,7.479924559593200684e-01,7.479639053344726562e-01,7.479354143142700195e-01,7.479069232940673828e-01,7.478784918785095215e-01,7.478500008583068848e-01,7.478215694427490234e-01,7.477930188179016113e-01,7.477645277976989746e-01,7.477360963821411133e-01,7.477076053619384766e-01,7.476791739463806152e-01,7.476507425308227539e-01,7.476221919059753418e-01,7.475937604904174805e-01,7.475652694702148438e-01,7.475368380546569824e-01,7.475084066390991211e-01,7.474799752235412598e-01,7.474514842033386230e-01,7.474229931831359863e-01,7.473945617675781250e-01,7.473661303520202637e-01,7.473376989364624023e-01,7.473092079162597656e-01,7.472807765007019043e-01,7.472524046897888184e-01,7.472239732742309570e-01,7.471955418586730957e-01,7.471671104431152344e-01,7.471386194229125977e-01,7.471102476119995117e-01,7.470818161964416504e-01,7.470533847808837891e-01,7.470250129699707031e-01,7.469965815544128418e-01,7.469680905342102051e-01,7.469397187232971191e-01,7.469112873077392578e-01,7.468829154968261719e-01,7.468545436859130859e-01,7.468261122703552246e-01,7.467976808547973633e-01,7.467693090438842773e-01,7.467408776283264160e-01,7.467125058174133301e-01,7.466841340065002441e-01,7.466557621955871582e-01,7.466273307800292969e-01,7.465989589691162109e-01,7.465705871582031250e-01,7.465422153472900391e-01,7.465138435363769531e-01,7.464854717254638672e-01,7.464570403099060059e-01,7.464286684989929199e-01,7.464002966880798340e-01,7.463719248771667480e-01,7.463436126708984375e-01,7.463152408599853516e-01,7.462868094444274902e-01,7.462584972381591797e-01,7.462301254272460938e-01,7.462018132209777832e-01,7.461734414100646973e-01,7.461451292037963867e-01,7.461166977882385254e-01,7.460883855819702148e-01,7.460600137710571289e-01,7.460317015647888184e-01,7.460033893585205078e-01,7.459750175476074219e-01,7.459466457366943359e-01,7.459183335304260254e-01
7.162505388259887695e-01,7.162244319915771484e-01,7.161983251571655273e-01,7.161722183227539062e-01,7.161461114883422852e-01,7.161200046539306641e-01,7.160938382148742676e-01,7.160677313804626465e-01,7.160416245460510254e-01,7.160155177116394043e-01,7.159894108772277832e-01,7.159633636474609375e-01,7.159371972084045410e-01,7.159110903739929199e-01,7.158849835395812988e-01,7.158589363098144531e-01,7.158328294754028320e-01,7.158067822456359863e-01,7.157806158065795898e-01,7.157545089721679688e-01,7.157284617424011230e-01,7.157023549079895020e-01,7.156763076782226562e-01,7.156502008438110352e-01,7.156240940093994141e-01,7.155980467796325684e-01,7.155719995498657227e-01,7.155458927154541016e-01,7.155198454856872559e-01,7.154937386512756348e-01,7.154676914215087891e-01,7.154416441917419434e-01,7.154155969619750977e-01,7.153894901275634766e-01,7.153634428977966309e-01,7.153373360633850098e-01,7.153112888336181641e-01,7.152852416038513184e-01,7.152591943740844727e-01,7.152332067489624023e-01,7.152071595191955566e-01,7.151810526847839355e-01,7.151550054550170898e-01,7.151289582252502441e-01,7.151029706001281738e-01,7.150769233703613281e-01,7.150508761405944824e-01,7.150248289108276367e-01,7.149987816810607910e-01,7.149727940559387207e-01,7.149467468261718750e-01,7.149206995964050293e-01,7.148947119712829590e-01,7.148686647415161133e-01,7.148426175117492676e-01,7.148166298866271973e-01,7.147905826568603516e-01,7.147645950317382812e-01,7.147386074066162109e-01,7.147125601768493652e-01,7.146865129470825195e-01,7.146605253219604492e-01,7.146345376968383789e-01,7.146085500717163086e-01,7.145825624465942383e-01,7.145565152168273926e-01,7.145305275917053223e-01,7.145045399665832520e-01,7.144785523414611816e-01,7.144525647163391113e-01,7.144265770912170410e-01,7.144005298614501953e-01,7.143745422363281250e-01,7.143485546112060547e-01,7.143226265907287598e-01,7.142966389656066895e-01,7.142706513404846191e-01,7.142446041107177734e-01,7.142186760902404785e-01,7.141926884651184082e-01
6.869488358497619629e-01,6.869248151779174805e-01,6.869007945060729980e-01,6.868767738342285156e-01,6.868527531623840332e-01,6.868286728858947754e-01,6.868046522140502930e-01,6.867806315422058105e-01,6.867566704750061035e-01,6.867326498031616211e-01,6.867086291313171387e-01,6.866845488548278809e-01,6.866605877876281738e-01,6.866365671157836914e-01,6.866125464439392090e-01,6.865885853767395020e-01,6.865645051002502441e-01,6.865405440330505371e-01,6.865165233612060547e-01,6.864925622940063477e-01,6.864685416221618652e-01,6.864445805549621582e-01,6.864205598831176758e-01,6.863965392112731934e-01,6.863725781440734863e-01,6.863486170768737793e-01,6.863245964050292969e-01,6.863006353378295898e-01,6.862766146659851074e-01,6.862526535987854004e-01,6.862286925315856934e-01,6.862046718597412109e-01,6.861807107925415039e-01,6.861567497253417969e-01,6.861327290534973145e-01,6.861087679862976074e-01,6.860848069190979004e-01,6.860608458518981934e-01,6.860368847846984863e-01,6.860129237174987793e-01,6.859889030456542969e-01,6.859650015830993652e-01,6.859410405158996582e-01,6.859170794486999512e-01,6.858931183815002441e-01,6.858691573143005371e-01,6.858451962471008301e-01,6.858212351799011230e-01,6.857972741127014160e-01,6.857733726501464844e-01,6.857494115829467773e-01,6.857255101203918457e-01,6.857014894485473633e-01,6.856775879859924316e-01,6.856536269187927246e-01,6.856297254562377930e-01,6.856057643890380859e-01,6.855818629264831543e-01,6.855578422546386719e-01,6.855339407920837402e-01,6.855100393295288086e-01,6.854860782623291016e-01,6.854621767997741699e-01,6.854382753372192383e-01,6.854143142700195312e-01,6.853904128074645996e-01,6.853664517402648926e-01,6.853425502777099609e-01,6.853186488151550293e-01,6.852947473526000977e-01,6.852707862854003906e-01,6.852468848228454590e-01,6.852229833602905273e-01,6.851990818977355957e-01,6.851751804351806641e-01,6.851512789726257324e-01,6.851273179054260254e-01,6.851034760475158691e-01,6.850795745849609375e-01,6.850556731224060059e-01
6.599503159523010254e-01,6.599281430244445801e-01,6.599059700965881348e-01,6.598837971687316895e-01,6.598616242408752441e-01,6.598394513130187988e-01,6.598172783851623535e-01,6.597951054573059082e-01,6.597729921340942383e-01,6.597507596015930176e-01,6.597285866737365723e-01,6.597064733505249023e-01,6.596843004226684570e-01,6.596621274948120117e-01,6.596400141716003418e-01,6.596177816390991211e-01,6.595956683158874512e-01,6.595734953880310059e-01,6.595513820648193359e-01,6.595292091369628906e-01,6.595070958137512207e-01,6.594848632812500000e-01,6.594627499580383301e-01,6.594406366348266602e-01,6.594184637069702148e-01,6.593963503837585449e-01,6.593742370605468750e-01,6.593520641326904297e-01,6.593298912048339844e-01,6.593077778816223145e-01,6.592856645584106445e-01,6.592635512351989746e-01,6.592413783073425293e-01,6.592192053794860840e-01,6.591970920562744141e-01,6.591749787330627441e-01,6.591528654098510742e-01,6.591307520866394043e-01,6.591086387634277344e-01,6.590864658355712891e-01,6.590643525123596191e-01,6.590422391891479492e-01,6.590201854705810547e-01,6.589980721473693848e-01,6.589759588241577148e-01,6.589537858963012695e-01,6.589316725730895996e-01,6.589095592498779297e-01,6.588875055313110352e-01,6.588653922080993652e-01,6.588432788848876953e-01,6.588211655616760254e-01,6.587990522384643555e-01,6.587769389152526855e-01,6.587548851966857910e-01,6.587327718734741211e-01,6.587107181549072266e-01,6.586885452270507812e-01,6.586664915084838867e-01,6.586443781852722168e-01,6.586223244667053223e-01,6.586002111434936523e-01,6.585781574249267578e-01,6.585560441017150879e-01,6.585339307785034180e-01,6.585118770599365234e-01,6.584898233413696289e-01,6.584677100181579590e-01,6.584455966949462891e-01,6.584235429763793945e-01,6.584014892578125000e-01,6.583794355392456055e-01,6.583573222160339355e-01,6.583352684974670410e-01,6.583131551742553711e-01,6.582911014556884766e-01,6.582690477371215820e-01,6.582469940185546875e-01,6.582249402999877930e-01,6.582028865814208984e-01
