5.000000000000000000e+00,5.000000000000000000e+00,5.000000000000000000e+00,5.000000000000000000e+00,5.000000000000000000e+00,5.000000000000000000e+00,5.000000000000000000e+00,5.000000000000000000e+00,5.000000000000000000e+00,5.000000000000000000e+00,5.000000000000000000e+00,5.000000000000000000e+00,5.000000000000000000e+00,5.000000000000000000e+00,5.000000000000000000e+00,5.000000000000000000e+00,5.000000000000000000e+00,5.000000000000000000e+00,5.000000000000000000e+00,5.000000000000000000e+00,5.000000000000000000e+00,5.000000000000000000e+00,5.000000000000000000e+00,5.000000000000000000e+00,5.000000000000000000e+00,5.000000000000000000e+00,5.000000000000000000e+00,5.000000000000000000e+00,2.555207014083862305e+00,2.574532747268676758e+00,2.605371713638305664e+00,2.610996007919311523e+00,2.596012115478515625e+00,2.699850082397460938e+00,2.664939165115356445e+00,5.000000000000000000e+00,5.000000000000000000e+00,5.000000000000000000e+00,5.000000000000000000e+00,4.848859786987304688e+00,4.658997058868408203e+00,4.483442783355712891e+00,4.320638179779052734e+00,4.169242858886718750e+00,4.028098106384277344e+00,3.896197080612182617e+00,3.772660017013549805e+00,3.656716823577880859e+00,3.547687530517578125e+00,3.444971323013305664e+00,3.348035573959350586e+00,3.256406307220458984e+00,3.169658422470092773e+00,3.087412357330322266e+00,3.009326696395874023e+00,2.935093641281127930e+00,2.864434480667114258e+00,2.797097206115722656e+00,2.732853412628173828e+00,2.671494722366333008e+00,2.612830638885498047e+00,2.556687355041503906e+00,2.502906322479248047e+00,2.451341152191162109e+00,2.401857852935791016e+00,2.354332923889160156e+00,2.308652162551879883e+00,2.264710426330566406e+00,2.222409725189208984e+00,2.181660652160644531e+00,2.142379045486450195e+00,2.104486703872680664e+00,2.067911624908447266e+00,2.032586097717285156e+00,1.998447418212890625e+00,1.965436339378356934e+00,1.933498024940490723e+00,1.902581453323364258e+00,1.872637748718261719e+00,1.843621969223022461e+00
5.000000000000000000e+00,5.000000000000000000e+00,5.000000000000000000e+00,5.000000000000000000e+00,5.000000000000000000e+00,5.000000000000000000e+00,5.000000000000000000e+00,5.000000000000000000e+00,5.000000000000000000e+00,5.000000000000000000e+00,5.000000000000000000e+00,5.000000000000000000e+00,5.000000000000000000e+00,5.000000000000000000e+00,5.000000000000000000e+00,5.000000000000000000e+00,5.000000000000000000e+00,5.000000000000000000e+00,5.000000000000000000e+00,5.000000000000000000e+00,5.000000000000000000e+00,5.000000000000000000e+00,5.000000000000000000e+00,5.000000000000000000e+00,5.000000000000000000e+00,5.000000000000000000e+00,5.000000000000000000e+00,2.583391666412353516e+00,2.549330711364746094e+00,2.565856933593750000e+00,2.562500000000000000e+00,2.575299978256225586e+00,2.594695329666137695e+00,2.619174957275390625e+00,2.653820514678955078e+00,2.691710948944091797e+00,2.751066446304321289e+00,5.000000000000000000e+00,5.000000000000000000e+00,4.848998069763183594e+00,4.659124851226806641e+00,4.483561038970947266e+00,4.320747852325439453e+00,4.169344902038574219e+00,4.028193473815917969e+00,3.896286249160766602e+00,3.772744178771972656e+00,3.656795740127563477e+00,3.547761440277099609e+00,3.445041179656982422e+00,3.348101854324340820e+00,3.256468772888183594e+00,3.169717311859130859e+00,3.087468385696411133e+00,3.009380102157592773e+00,2.935144186019897461e+00,2.864482641220092773e+00,2.797143459320068359e+00,2.732897520065307617e+00,2.671536684036254883e+00,2.612870693206787109e+00,2.556725978851318359e+00,2.502943277359008789e+00,2.451376438140869141e+00,2.401891946792602539e+00,2.354365587234497070e+00,2.308683395385742188e+00,2.264740467071533203e+00,2.222439050674438477e+00,2.181688785552978516e+00,2.142405986785888672e+00,2.104512929916381836e+00,2.067936658859252930e+00,2.032610416412353516e+00,1.998470783233642578e+00,1.965459108352661133e+00,1.933520078659057617e+00,1.902602553367614746e+00,1.872658371925354004e+00,1.843641996383666992e+00
5.000000000000000000e+00,5.000000000000000000e+00,5.000000000000000000e+00,5.000000000000000000e+00,5.000000000000000000e+00,5.000000000000000000e+00,5.000000000000000000e+00,5.000000000000000000e+00,5.000000000000000000e+00,5.000000000000000000e+00,5.000000000000000000e+00,5.000000000000000000e+00,5.000000000000000000e+00,5.000000000000000000e+00,5.000000000000000000e+00,5.000000000000000000e+00,5.000000000000000000e+00,5.000000000000000000e+00,5.000000000000000000e+00,5.000000000000000000e+00,5.000000000000000000e+00,5.000000000000000000e+00,5.000000000000000000e+00,5.000000000000000000e+00,5.000000000000000000e+00,5.000000000000000000e+00,5.000000000000000000e+00,2.599811315536499023e+00,2.566554546356201172e+00,2.579600811004638672e+00,2.568734407424926758e+00,2.557548999786376953e+00,2.563094615936279297e+00,2.581613779067993164e+00,2.605522871017456055e+00,2.648010492324829102e+00,2.747004985809326172e+00,2.776727914810180664e+00,5.000000000000000000e+00,4.849136829376220703e+00,4.659252643585205078e+00,4.483679771423339844e+00,4.320857524871826172e+00,4.169447422027587891e+00,4.028288841247558594e+00,3.896375894546508789e+00,3.772828102111816406e+00,3.656874179840087891e+00,3.547835588455200195e+00,3.445111036300659180e+00,3.348167657852172852e+00,3.256531000137329102e+00,3.169776678085327148e+00,3.087524652481079102e+00,3.009433269500732422e+00,2.935194969177246094e+00,2.864531040191650391e+00,2.797189474105834961e+00,2.732941389083862305e+00,2.671578645706176758e+00,2.612910985946655273e+00,2.556764364242553711e+00,2.502979993820190430e+00,2.451411962509155273e+00,2.401925802230834961e+00,2.354398250579833984e+00,2.308714866638183594e+00,2.264770746231079102e+00,2.222467899322509766e+00,2.181716680526733398e+00,2.142433166503906250e+00,2.104538917541503906e+00,2.067961931228637695e+00,2.032634735107421875e+00,1.998494267463684082e+00,1.965481758117675781e+00,1.933542251586914062e+00,1.902623891830444336e+00,1.872679114341735840e+00,1.843662023544311523e+00
5.000000000000000000e+00,5.000000000000000000e+00,5.000000000000000000e+00,5.000000000000000000e+00,5.000000000000000000e+00,5.000000000000000000e+00,5.000000000000000000e+00,5.000000000000000000e+00,5.000000000000000000e+00,5.000000000000000000e+00,5.000000000000000000e+00,5.000000000000000000e+00,5.000000000000000000e+00,5.000000000000000000e+00,5.000000000000000000e+00,5.000000000000000000e+00,5.000000000000000000e+00,5.000000000000000000e+00,5.000000000000000000e+00,5.000000000000000000e+00,5.000000000000000000e+00,5.000000000000000000e+00,5.000000000000000000e+00,5.000000000000000000e+00,5.000000000000000000e+00,5.000000000000000000e+00,5.000000000000000000e+00,5.000000000000000000e+00,2.585102796554565430e+00,2.594030618667602539e+00,2.574700832366943359e+00,2.561683654785156250e+00,2.567055463790893555e+00,2.583576202392578125e+00,2.613753318786621094e+00,2.646456003189086914e+00,2.744419336318969727e+00,2.790199518203735352e+00,5.000000000000000000e+00,4.849275112152099609e+00,4.659380435943603516e+00,4.483798027038574219e+00,4.320967674255371094e+00,4.169549942016601562e+00,4.028384685516357422e+00,3.896465063095092773e+00,3.772911787033081055e+00,3.656953096389770508e+00,3.547909975051879883e+00,3.445180892944335938e+00,3.348233699798583984e+00,3.256593704223632812e+00,3.169835567474365234e+00,3.087580680847167969e+00,3.009486675262451172e+00,2.935245752334594727e+00,2.864579200744628906e+00,2.797235488891601562e+00,2.732985496520996094e+00,2.671620845794677734e+00,2.612951040267944336e+00,2.556802988052368164e+00,2.503016948699951172e+00,2.451447248458862305e+00,2.401959657669067383e+00,2.354430913925170898e+00,2.308746337890625000e+00,2.264800786972045898e+00,2.222497224807739258e+00,2.181744813919067383e+00,2.142460107803344727e+00,2.104564905166625977e+00,2.067987203598022461e+00,2.032659292221069336e+00,1.998517870903015137e+00,1.965504527091979980e+00,1.933564305305480957e+00,1.902645230293273926e+00,1.872699618339538574e+00,1.843682050704956055e+00
5.000000000000000000e+00,5.000000000000000000e+00,5.000000000000000000e+00,5.000000000000000000e+00,5.000000000000000000e+00,5.000000000000000000e+00,5.000000000000000000e+00,5.000000000000000000e+00,5.000000000000000000e+00,5.000000000000000000e+00,5.000000000000000000e+00,5.000000000000000000e+00,5.000000000000000000e+00,5.000000000000000000e+00,5.000000000000000000e+00,5.000000000000000000e+00,5.000000000000000000e+00,5.000000000000000000e+00,5.000000000000000000e+00,5.000000000000000000e+00,5.000000000000000000e+00,5.000000000000000000e+00,5.000000000000000000e+00,5.000000000000000000e+00,5.000000000000000000e+00,5.000000000000000000e+00,5.000000000000000000e+00,5.000000000000000000e+00,2.599718332290649414e+00,2.604711771011352539e+00,2.586243152618408203e+00,2.570689916610717773e+00,2.567633867263793945e+00,2.573542833328247070e+00,2.603494167327880859e+00,2.662398576736450195e+00,2.773101568222045898e+00,2.788685083389282227e+00,5.000000000000000000e+00,4.849413394927978516e+00,4.659508228302001953e+00,4.483916282653808594e+00,4.321077346801757812e+00,4.169651985168457031e+00,4.028480052947998047e+00,3.896554708480834961e+00,3.772995710372924805e+00,3.657031536102294922e+00,3.547983884811401367e+00,3.445250988006591797e+00,3.348299980163574219e+00,3.256655931472778320e+00,3.169894933700561523e+00,3.087636947631835938e+00,3.009540081024169922e+00,2.935296297073364258e+00,2.864627599716186523e+00,2.797281742095947266e+00,2.733029365539550781e+00,2.671662807464599609e+00,2.612991333007812500e+00,2.556841373443603516e+00,2.503053665161132812e+00,2.451482772827148438e+00,2.401993751525878906e+00,2.354463338851928711e+00,2.308777570724487305e+00,2.264831066131591797e+00,2.222526311874389648e+00,2.181772708892822266e+00,2.142487049102783203e+00,2.104591131210327148e+00,2.068012237548828125e+00,2.032683372497558594e+00,1.998541474342346191e+00,1.965527296066284180e+00,1.933586120605468750e+00,1.902666687965393066e+00,1.872720241546630859e+00,1.843701958656311035e+00
5.000000000000000000e+00,5.000000000000000000e+00,5.000000000000000000e+00,5.000000000000000000e+00,5.000000000000000000e+00,5.000000000000000000e+00,5.000000000000000000e+00,5.000000000000000000e+00,5.000000000000000000e+00,5.000000000000000000e+00,5.000000000000000000e+00,5.000000000000000000e+00,5.000000000000000000e+00,5.000000000000000000e+00,5.000000000000000000e+00,5.000000000000000000e+00,5.000000000000000000e+00,5.000000000000000000e+00,5.000000000000000000e+00,5.000000000000000000e+00,5.000000000000000000e+00,5.000000000000000000e+00,5.000000000000000000e+00,5.000000000000000000e+00,5.000000000000000000e+00,5.000000000000000000e+00,5.000000000000000000e+00,5.000000000000000000e+00,2.607964277267456055e+00,2.606163501739501953e+00,2.595848083496093750e+00,2.569452285766601562e+00,2.564979076385498047e+00,2.575862407684326172e+00,2.602314472198486328e+00,2.653707981109619141e+00,2.770364999771118164e+00,2.788081407546997070e+00,5.000000000000000000e+00,4.849552154541015625e+00,4.659636020660400391e+00,4.484034538269042969e+00,4.321187496185302734e+00,4.169754505157470703e+00,4.028575420379638672e+00,3.896644115447998047e+00,3.773079156875610352e+00,3.657110452651977539e+00,3.548058032989501953e+00,3.445320606231689453e+00,3.348365783691406250e+00,3.256718397140502930e+00,3.169954299926757812e+00,3.087692975997924805e+00,3.009593486785888672e+00,2.935347318649291992e+00,2.864675760269165039e+00,2.797327518463134766e+00,2.733073472976684570e+00,2.671704769134521484e+00,2.613031387329101562e+00,2.556879758834838867e+00,2.503090620040893555e+00,2.451518297195434570e+00,2.402027606964111328e+00,2.354496240615844727e+00,2.308809041976928711e+00,2.264861106872558594e+00,2.222555160522460938e+00,2.181800842285156250e+00,2.142514228820800781e+00,2.104617118835449219e+00,2.068037509918212891e+00,2.032707929611206055e+00,1.998564720153808594e+00,1.965550065040588379e+00,1.933608174324035645e+00,1.902688026428222656e+00,1.872740983963012695e+00,1.843721985816955566e+00
5.000000000000000000e+00,5.000000000000000000e+00,5.000000000000000000e+00,5.000000000000000000e+00,5.000000000000000000e+00,5.000000000000000000e+00,5.000000000000000000e+00,5.000000000000000000e+00,5.000000000000000000e+00,5.000000000000000000e+00,5.000000000000000000e+00,5.000000000000000000e+00,5.000000000000000000e+00,5.000000000000000000e+00,5.000000000000000000e+00,5.000000000000000000e+00,5.000000000000000000e+00,5.000000000000000000e+00,5.000000000000000000e+00,5.000000000000000000e+00,5.000000000000000000e+00,5.000000000000000000e+00,5.000000000000000000e+00,5.000000000000000000e+00,5.000000000000000000e+00,5.000000000000000000e+00,5.000000000000000000e+00,5.000000000000000000e+00,2.617350339889526367e+00,2.611159801483154297e+00,2.602707147598266602e+00,2.567841291427612305e+00,2.563202142715454102e+00,2.579537153244018555e+00,2.605424880981445312e+00,2.653737783432006836e+00,2.776631593704223633e+00,2.779789447784423828e+00,5.000000000000000000e+00,4.849690437316894531e+00,4.659763813018798828e+00,4.484152793884277344e+00,4.321297168731689453e+00,4.169857025146484375e+00,4.028671264648437500e+00,3.896733283996582031e+00,3.773163318634033203e+00,3.657189607620239258e+00,3.548131942749023438e+00,3.445390701293945312e+00,3.348431825637817383e+00,3.256780624389648438e+00,3.170013189315795898e+00,3.087749242782592773e+00,3.009646892547607422e+00,2.935397863388061523e+00,2.864724159240722656e+00,2.797373771667480469e+00,2.733117341995239258e+00,2.671746730804443359e+00,2.613071680068969727e+00,2.556918382644653320e+00,2.503127574920654297e+00,2.451553583145141602e+00,2.402061700820922852e+00,2.354528903961181641e+00,2.308840274810791016e+00,2.264891386032104492e+00,2.222584486007690430e+00,2.181828737258911133e+00,2.142541170120239258e+00,2.104643344879150391e+00,2.068062782287597656e+00,2.032732009887695312e+00,1.998588323593139648e+00,1.965572953224182129e+00,1.933630228042602539e+00,1.902709126472473145e+00,1.872761607170104980e+00,1.843742012977600098e+00
5.000000000000000000e+00,5.000000000000000000e+00,5.000000000000000000e+00,5.000000000000000000e+00,5.000000000000000000e+00,5.000000000000000000e+00,5.000000000000000000e+00,5.000000000000000000e+00,5.000000000000000000e+00,5.000000000000000000e+00,5.000000000000000000e+00,5.000000000000000000e+00,5.000000000000000000e+00,5.000000000000000000e+00,5.000000000000000000e+00,5.000000000000000000e+00,5.000000000000000000e+00,5.000000000000000000e+00,5.000000000000000000e+00,5.000000000000000000e+00,5.000000000000000000e+00,5.000000000000000000e+00,5.000000000000000000e+00,5.000000000000000000e+00,5.000000000000000000e+00,5.000000000000000000e+00,5.000000000000000000e+00,5.000000000000000000e+00,2.628796339035034180e+00,2.625581741333007812e+00,2.581290960311889648e+00,2.558324575424194336e+00,2.552918672561645508e+00,2.568814754486083984e+00,2.602106571197509766e+00,2.638034820556640625e+00,2.789322137832641602e+00,2.787453651428222656e+00,5.000000000000000000e+00,4.849828720092773438e+00,4.659892082214355469e+00,4.484271526336669922e+00,4.321407318115234375e+00,4.169959068298339844e+00,4.028766632080078125e+00,3.896822929382324219e+00,3.773246765136718750e+00,3.657268047332763672e+00,3.548206329345703125e+00,3.445460557937622070e+00,3.348497629165649414e+00,3.256843328475952148e+00,3.170072555541992188e+00,3.087805271148681641e+00,3.009700059890747070e+00,2.935448646545410156e+00,2.864772796630859375e+00,2.797419786453247070e+00,2.733161449432373047e+00,2.671788930892944336e+00,2.613111734390258789e+00,2.556956768035888672e+00,2.503164529800415039e+00,2.451588869094848633e+00,2.402095556259155273e+00,2.354561328887939453e+00,2.308871746063232422e+00,2.264921665191650391e+00,2.222613334655761719e+00,2.181856870651245117e+00,2.142568111419677734e+00,2.104669332504272461e+00,2.068087816238403320e+00,2.032756567001342773e+00,1.998611927032470703e+00,1.965595483779907227e+00,1.933652281761169434e+00,1.902730584144592285e+00,1.872782111167907715e+00,1.843762159347534180e+00
5.000000000000000000e+00,5.000000000000000000e+00,5.000000000000000000e+00,5.000000000000000000e+00,5.000000000000000000e+00,5.000000000000000000e+00,5.000000000000000000e+00,5.000000000000000000e+00,5.000000000000000000e+00,5.000000000000000000e+00,5.000000000000000000e+00,5.000000000000000000e+00,5.000000000000000000e+00,5.000000000000000000e+00,5.000000000000000000e+00,5.000000000000000000e+00,5.000000000000000000e+00,5.000000000000000000e+00,5.000000000000000000e+00,5.000000000000000000e+00,5.000000000000000000e+00,5.000000000000000000e+00,5.000000000000000000e+00,5.000000000000000000e+00,5.000000000000000000e+00,5.000000000000000000e+00,5.000000000000000000e+00,5.000000000000000000e+00,2.637715101242065430e+00,2.640603542327880859e+00,2.582838535308837891e+00,2.562288999557495117e+00,2.568681716918945312e+00,2.575419425964355469e+00,2.591454744338989258e+00,2.646455764770507812e+00,2.799157619476318359e+00,2.789460659027099609e+00,5.000000000000000000e+00,4.849967479705810547e+00,4.660019874572753906e+00,4.484389781951904297e+00,4.321517467498779297e+00,4.170061588287353516e+00,4.028862476348876953e+00,3.896912097930908203e+00,3.773330926895141602e+00,3.657346963882446289e+00,3.548280239105224609e+00,3.445530414581298828e+00,3.348563909530639648e+00,3.256905794143676758e+00,3.170131444931030273e+00,3.087861537933349609e+00,3.009753465652465820e+00,2.935499191284179688e+00,2.864820957183837891e+00,2.797465801239013672e+00,2.733205556869506836e+00,2.671830892562866211e+00,2.613152027130126953e+00,2.556995391845703125e+00,2.503201246261596680e+00,2.451624155044555664e+00,2.402129650115966797e+00,2.354593992233276367e+00,2.308902978897094727e+00,2.264951944351196289e+00,2.222642660140991211e+00,2.181885004043579102e+00,2.142595052719116211e+00,2.104695320129394531e+00,2.068113088607788086e+00,2.032780647277832031e+00,1.998635530471801758e+00,1.965618252754211426e+00,1.933674335479736328e+00,1.902751922607421875e+00,1.872802853584289551e+00,1.843782186508178711e+00
5.000000000000000000e+00,5.000000000000000000e+00,5.000000000000000000e+00,5.000000000000000000e+00,5.000000000000000000e+00,5.000000000000000000e+00,5.000000000000000000e+00,5.000000000000000000e+00,5.000000000000000000e+00,5.000000000000000000e+00,5.000000000000000000e+00,5.000000000000000000e+00,5.000000000000000000e+00,5.000000000000000000e+00,5.000000000000000000e+00,5.000000000000000000e+00,5.000000000000000000e+00,5.000000000000000000e+00,5.000000000000000000e+00,5.000000000000000000e+00,5.000000000000000000e+00,5.000000000000000000e+00,5.000000000000000000e+00,5.000000000000000000e+00,5.000000000000000000e+00,5.000000000000000000e+00,5.000000000000000000e+00,5.000000000000000000e+00,2.622175931930541992e+00,2.620700836181640625e+00,2.591906070709228516e+00,2.572730779647827148e+00,2.567984580993652344e+00,2.581948041915893555e+00,2.599752902984619141e+00,2.644456863403320312e+00,2.817959785461425781e+00,2.771580934524536133e+00,2.779560089111328125e+00,4.850106239318847656e+00,4.660147666931152344e+00,4.484508037567138672e+00,4.321627140045166016e+00,4.170164108276367188e+00,4.028957843780517578e+00,3.897001743316650391e+00,3.773414850234985352e+00,3.657425642013549805e+00,3.548354625701904297e+00,3.445600509643554688e+00,3.348629713058471680e+00,3.256968259811401367e+00,3.170190811157226562e+00,3.087917804718017578e+00,3.009806632995605469e+00,2.935550212860107422e+00,2.864869356155395508e+00,2.797511816024780273e+00,2.733249425888061523e+00,2.671872854232788086e+00,2.613192319869995117e+00,2.557033777236938477e+00,2.503238201141357422e+00,2.451659679412841797e+00,2.402163505554199219e+00,2.354626655578613281e+00,2.308934450149536133e+00,2.264982223510742188e+00,2.222671508789062500e+00,2.181912899017333984e+00,2.142622232437133789e+00,2.104721546173095703e+00,2.068138122558593750e+00,2.032805204391479492e+00,1.998659014701843262e+00,1.965641140937805176e+00,1.933696150779724121e+00,1.902773261070251465e+00,1.872823476791381836e+00,1.843802094459533691e+00
5.000000000000000000e+00,5.000000000000000000e+00,5.000000000000000000e+00,5.000000000000000000e+00,5.000000000000000000e+00,5.000000000000000000e+00,5.000000000000000000e+00,5.000000000000000000e+00,5.000000000000000000e+00,5.000000000000000000e+00,5.000000000000000000e+00,5.000000000000000000e+00,5.000000000000000000e+00,5.000000000000000000e+00,5.000000000000000000e+00,5.000000000000000000e+00,5.000000000000000000e+00,5.000000000000000000e+00,5.000000000000000000e+00,5.000000000000000000e+00,5.000000000000000000e+00,5.000000000000000000e+00,5.000000000000000000e+00,5.000000000000000000e+00,5.000000000000000000e+00,5.000000000000000000e+00,5.000000000000000000e+00,5.000000000000000000e+00,2.612877130508422852e+00,2.607143640518188477e+00,2.574562072753906250e+00,2.528743505477905273e+00,2.532562732696533203e+00,2.600101709365844727e+00,2.622396707534790039e+00,2.651498794555664062e+00,5.000000000000000000e+00,2.767224311828613281e+00,2.754379749298095703e+00,4.850244522094726562e+00,4.660275459289550781e+00,4.484626770019531250e+00,4.321737289428710938e+00,4.170266151428222656e+00,4.029053688049316406e+00,3.897090911865234375e+00,3.773498535156250000e+00,3.657504558563232422e+00,3.548428773880004883e+00,3.445670127868652344e+00,3.348695755004882812e+00,3.257030725479125977e+00,3.170249938964843750e+00,3.087973594665527344e+00,3.009860038757324219e+00,2.935600996017456055e+00,2.864917516708374023e+00,2.797558069229125977e+00,2.733293294906616211e+00,2.671914815902709961e+00,2.613232374191284180e+00,2.557072401046752930e+00,2.503275156021118164e+00,2.451694965362548828e+00,2.402197599411010742e+00,2.354659318923950195e+00,2.308965921401977539e+00,2.265012264251708984e+00,2.222700834274291992e+00,2.181941032409667969e+00,2.142649173736572266e+00,2.104747533798217773e+00,2.068163394927978516e+00,2.032829523086547852e+00,1.998682379722595215e+00,1.965663909912109375e+00,1.933718204498291016e+00,1.902794361114501953e+00,1.872844219207763672e+00,1.843822121620178223e+00
5.000000000000000000e+00,5.000000000000000000e+00,5.000000000000000000e+00,5.000000000000000000e+00,5.000000000000000000e+00,5.000000000000000000e+00,5.000000000000000000e+00,5.000000000000000000e+00,5.000000000000000000e+00,5.000000000000000000e+00,5.000000000000000000e+00,5.000000000000000000e+00,5.000000000000000000e+00,5.000000000000000000e+00,5.000000000000000000e+00,5.000000000000000000e+00,5.000000000000000000e+00,5.000000000000000000e+00,5.000000000000000000e+00,5.000000000000000000e+00,5.000000000000000000e+00,5.000000000000000000e+00,5.000000000000000000e+00,5.000000000000000000e+00,5.000000000000000000e+00,5.000000000000000000e+00,5.000000000000000000e+00,5.000000000000000000e+00,2.605778455734252930e+00,2.589671611785888672e+00,2.537212133407592773e+00,2.494203567504882812e+00,2.489038944244384766e+00,2.521691322326660156e+00,2.649312734603881836e+00,2.654019117355346680e+00,2.714321613311767578e+00,5.000000000000000000e+00,2.741263151168823242e+00,2.774521589279174805e+00,4.660403251647949219e+00,4.484745025634765625e+00,4.321847438812255859e+00,4.170369148254394531e+00,4.029149055480957031e+00,3.897180557250976562e+00,3.773582458496093750e+00,3.657582998275756836e+00,3.548502683639526367e+00,3.445740222930908203e+00,3.348762035369873047e+00,3.257092952728271484e+00,3.170309066772460938e+00,3.088029861450195312e+00,3.009913206100463867e+00,2.935651540756225586e+00,2.864965915679931641e+00,2.797604322433471680e+00,2.733337163925170898e+00,2.671957015991210938e+00,2.613272666931152344e+00,2.557110786437988281e+00,2.503312110900878906e+00,2.451730489730834961e+00,2.402231693267822266e+00,2.354691982269287109e+00,2.308997392654418945e+00,2.265042543411254883e+00,2.222729682922363281e+00,2.181968927383422852e+00,2.142676353454589844e+00,2.104773759841918945e+00,2.068188428878784180e+00,2.032853841781616211e+00,1.998705983161926270e+00,1.965686678886413574e+00,1.933740377426147461e+00,1.902815818786621094e+00,1.872864961624145508e+00,1.843842148780822754e+00
5.000000000000000000e+00,5.000000000000000000e+00,5.000000000000000000e+00,5.000000000000000000e+00,5.000000000000000000e+00,5.000000000000000000e+00,5.000000000000000000e+00,5.000000000000000000e+00,5.000000000000000000e+00,5.000000000000000000e+00,5.000000000000000000e+00,5.000000000000000000e+00,5.000000000000000000e+00,5.000000000000000000e+00,5.000000000000000000e+00,5.000000000000000000e+00,5.000000000000000000e+00,5.000000000000000000e+00,5.000000000000000000e+00,5.000000000000000000e+00,5.000000000000000000e+00,5.000000000000000000e+00,5.000000000000000000e+00,5.000000000000000000e+00,5.000000000000000000e+00,5.000000000000000000e+00,5.000000000000000000e+00,5.000000000000000000e+00,2.601064205169677734e+00,2.574122190475463867e+00,2.521188497543334961e+00,2.474218606948852539e+00,2.469123125076293945e+00,2.486574411392211914e+00,2.637128114700317383e+00,2.642291784286499023e+00,2.694858312606811523e+00,5.000000000000000000e+00,2.792574882507324219e+00,2.732300281524658203e+00,4.660531044006347656e+00,4.484863758087158203e+00,4.321957111358642578e+00,4.170471191406250000e+00,4.029244422912597656e+00,3.897270202636718750e+00,3.773666143417358398e+00,3.657661914825439453e+00,3.548577070236206055e+00,3.445809841156005859e+00,3.348827838897705078e+00,3.257155656814575195e+00,3.170368432998657227e+00,3.088085889816284180e+00,3.009966850280761719e+00,2.935702323913574219e+00,2.865014076232910156e+00,2.797650098800659180e+00,2.733381271362304688e+00,2.671998977661132812e+00,2.613312959671020508e+00,2.557149410247802734e+00,2.503349065780639648e+00,2.451765775680541992e+00,2.402265548706054688e+00,2.354724645614624023e+00,2.309028625488281250e+00,2.265072584152221680e+00,2.222758769989013672e+00,2.181997060775756836e+00,2.142703294754028320e+00,2.104799747467041016e+00,2.068213701248168945e+00,2.032878160476684570e+00,1.998729586601257324e+00,1.965709209442138672e+00,1.933762431144714355e+00,1.902837157249450684e+00,1.872885346412658691e+00,1.843862175941467285e+00
5.000000000000000000e+00,5.000000000000000000e+00,5.000000000000000000e+00,5.000000000000000000e+00,5.000000000000000000e+00,5.000000000000000000e+00,5.000000000000000000e+00,5.000000000000000000e+00,5.000000000000000000e+00,5.000000000000000000e+00,5.000000000000000000e+00,5.000000000000000000e+00,5.000000000000000000e+00,5.000000000000000000e+00,5.000000000000000000e+00,5.000000000000000000e+00,5.000000000000000000e+00,5.000000000000000000e+00,5.000000000000000000e+00,5.000000000000000000e+00,5.000000000000000000e+00,5.000000000000000000e+00,5.000000000000000000e+00,5.000000000000000000e+00,5.000000000000000000e+00,5.000000000000000000e+00,5.000000000000000000e+00,5.000000000000000000e+00,5.000000000000000000e+00,2.573775768280029297e+00,2.543353319168090820e+00,2.458964586257934570e+00,2.450799226760864258e+00,2.456405401229858398e+00,2.631311893463134766e+00,2.636690616607666016e+00,2.693501949310302734e+00,5.000000000000000000e+00,5.000000000000000000e+00,2.705955505371093750e+00,4.660658836364746094e+00,4.484982013702392578e+00,4.322067260742187500e+00,4.170573711395263672e+00,4.029340267181396484e+00,3.897359371185302734e+00,3.773750066757202148e+00,3.657740831375122070e+00,3.548650979995727539e+00,3.445879936218261719e+00,3.348894119262695312e+00,3.257217884063720703e+00,3.170427560806274414e+00,3.088142156600952148e+00,3.010020256042480469e+00,2.935753107070922852e+00,2.865062475204467773e+00,2.797696352005004883e+00,2.733425140380859375e+00,2.672040939331054688e+00,2.613353252410888672e+00,2.557187795639038086e+00,2.503385782241821289e+00,2.451801300048828125e+00,2.402299642562866211e+00,2.354757308959960938e+00,2.309060096740722656e+00,2.265102863311767578e+00,2.222788095474243164e+00,2.182024955749511719e+00,2.142730236053466797e+00,2.104825735092163086e+00,2.068238973617553711e+00,2.032902479171752930e+00,1.998753070831298828e+00,1.965732097625732422e+00,1.933784246444702148e+00,1.902858495712280273e+00,1.872906088829040527e+00,1.843882322311401367e+00
5.000000000000000000e+00,5.000000000000000000e+00,5.000000000000000000e+00,5.000000000000000000e+00,5.000000000000000000e+00,5.000000000000000000e+00,5.000000000000000000e+00,5.000000000000000000e+00,5.000000000000000000e+00,5.000000000000000000e+00,5.000000000000000000e+00,5.000000000000000000e+00,5.000000000000000000e+00,5.000000000000000000e+00,5.000000000000000000e+00,5.000000000000000000e+00,5.000000000000000000e+00,5.000000000000000000e+00,5.000000000000000000e+00,5.000000000000000000e+00,5.000000000000000000e+00,5.000000000000000000e+00,5.000000000000000000e+00,5.000000000000000000e+00,5.000000000000000000e+00,5.000000000000000000e+00,5.000000000000000000e+00,5.000000000000000000e+00,5.000000000000000000e+00,2.544917821884155273e+00,2.559236526489257812e+00,2.467612743377685547e+00,2.431708335876464844e+00,2.424831151962280273e+00,2.478987693786621094e+00,2.639124631881713867e+00,2.700191736221313477e+00,5.000000000000000000e+00,5.000000000000000000e+00,4.850798606872558594e+00,2.676425933837890625e+00,4.485100269317626953e+00,4.322176933288574219e+00,4.170676231384277344e+00,4.029435634613037109e+00,3.897449016571044922e+00,3.773833751678466797e+00,3.657819509506225586e+00,3.548725366592407227e+00,3.445950031280517578e+00,3.348959922790527344e+00,3.257280588150024414e+00,3.170486688613891602e+00,3.088198184967041016e+00,3.010073423385620117e+00,2.935803890228271484e+00,2.865110874176025391e+00,2.797742366790771484e+00,2.733469247817993164e+00,2.672083139419555664e+00,2.613393306732177734e+00,2.557226181030273438e+00,2.503422737121582031e+00,2.451836585998535156e+00,2.402333498001098633e+00,2.354789972305297852e+00,2.309091567993164062e+00,2.265133142471313477e+00,2.222816944122314453e+00,2.182053089141845703e+00,2.142757415771484375e+00,2.104851961135864258e+00,2.068264007568359375e+00,2.032926797866821289e+00,1.998776435852050781e+00,1.965754866600036621e+00,1.933806300163269043e+00,1.902879834175109863e+00,1.872926831245422363e+00,1.843902111053466797e+00
5.000000000000000000e+00,5.000000000000000000e+00,5.000000000000000000e+00,5.000000000000000000e+00,5.000000000000000000e+00,5.000000000000000000e+00,5.000000000000000000e+00,5.000000000000000000e+00,5.000000000000000000e+00,5.000000000000000000e+00,5.000000000000000000e+00,5.000000000000000000e+00,5.000000000000000000e+00,5.000000000000000000e+00,5.000000000000000000e+00,5.000000000000000000e+00,5.000000000000000000e+00,5.000000000000000000e+00,5.000000000000000000e+00,5.000000000000000000e+00,5.000000000000000000e+00,5.000000000000000000e+00,5.000000000000000000e+00,5.000000000000000000e+00,5.000000000000000000e+00,5.000000000000000000e+00,5.000000000000000000e+00,5.000000000000000000e+00,2.596553325653076172e+00,2.529472351074218750e+00,2.544168472290039062e+00,2.479733705520629883e+00,2.414130926132202148e+00,2.402109861373901367e+00,2.443222522735595703e+00,2.643464803695678711e+00,2.713831901550292969e+00,5.000000000000000000e+00,5.000000000000000000e+00,4.850936889648437500e+00,4.660914897918701172e+00,4.485218524932861328e+00,4.322287559509277344e+00,4.170778274536132812e+00,4.029531478881835938e+00,3.897538185119628906e+00,3.773917913436889648e+00,3.657898426055908203e+00,3.548799276351928711e+00,3.446019649505615234e+00,3.349026203155517578e+00,3.257343053817749023e+00,3.170545816421508789e+00,3.088254451751708984e+00,3.010126829147338867e+00,2.935854434967041016e+00,2.865159273147583008e+00,2.797788381576538086e+00,2.733513355255126953e+00,2.672125101089477539e+00,2.613433599472045898e+00,2.557264804840087891e+00,2.503459692001342773e+00,2.451872110366821289e+00,2.402367591857910156e+00,2.354822635650634766e+00,2.309122800827026367e+00,2.265163421630859375e+00,2.222846269607543945e+00,2.182081222534179688e+00,2.142784357070922852e+00,2.104877948760986328e+00,2.068289279937744141e+00,2.032951116561889648e+00,1.998800039291381836e+00,1.965777635574340820e+00,1.933828353881835938e+00,1.902901053428649902e+00,1.872947454452514648e+00,1.843922257423400879e+00
5.000000000000000000e+00,5.000000000000000000e+00,5.000000000000000000e+00,5.000000000000000000e+00,5.000000000000000000e+00,5.000000000000000000e+00,5.000000000000000000e+00,5.000000000000000000e+00,5.000000000000000000e+00,5.000000000000000000e+00,5.000000000000000000e+00,5.000000000000000000e+00,5.000000000000000000e+00,5.000000000000000000e+00,5.000000000000000000e+00,5.000000000000000000e+00,5.000000000000000000e+00,5.000000000000000000e+00,5.000000000000000000e+00,5.000000000000000000e+00,5.000000000000000000e+00,5.000000000000000000e+00,5.000000000000000000e+00,5.000000000000000000e+00,5.000000000000000000e+00,5.000000000000000000e+00,5.000000000000000000e+00,5.000000000000000000e+00,5.000000000000000000e+00,5.000000000000000000e+00,5.000000000000000000e+00,2.505354166030883789e+00,2.414419412612915039e+00,2.383433580398559570e+00,2.407901048660278320e+00,2.647184133529663086e+00,5.000000000000000000e+00,5.000000000000000000e+00,5.000000000000000000e+00,4.851075649261474609e+00,4.661042690277099609e+00,4.485337257385253906e+00,4.322397232055664062e+00,4.170880794525146484e+00,4.029627323150634766e+00,3.897627830505371094e+00,3.774001359939575195e+00,3.657976865768432617e+00,3.548873424530029297e+00,3.446089744567871094e+00,3.349092006683349609e+00,3.257405519485473633e+00,3.170605182647705078e+00,3.088310718536376953e+00,3.010179996490478516e+00,2.935905456542968750e+00,2.865207672119140625e+00,2.797834634780883789e+00,2.733557224273681641e+00,2.672167062759399414e+00,2.613473892211914062e+00,2.557303190231323242e+00,2.503496646881103516e+00,2.451907396316528320e+00,2.402401447296142578e+00,2.354855298995971680e+00,2.309154272079467773e+00,2.265193700790405273e+00,2.222875118255615234e+00,2.182109117507934570e+00,2.142811536788940430e+00,2.104903936386108398e+00,2.068314552307128906e+00,2.032975435256958008e+00,1.998823642730712891e+00,1.965800285339355469e+00,1.933850407600402832e+00,1.902922391891479492e+00,1.872967958450317383e+00,1.843942284584045410e+00
5.000000000000000000e+00,5.000000000000000000e+00,5.000000000000000000e+00,5.000000000000000000e+00,5.000000000000000000e+00,5.000000000000000000e+00,5.000000000000000000e+00,5.000000000000000000e+00,5.000000000000000000e+00,5.000000000000000000e+00,5.000000000000000000e+00,5.000000000000000000e+00,5.000000000000000000e+00,5.000000000000000000e+00,5.000000000000000000e+00,5.000000000000000000e+00,5.000000000000000000e+00,5.000000000000000000e+00,5.000000000000000000e+00,5.000000000000000000e+00,5.000000000000000000e+00,5.000000000000000000e+00,5.000000000000000000e+00,5.000000000000000000e+00,5.000000000000000000e+00,5.000000000000000000e+00,5.000000000000000000e+00,5.000000000000000000e+00,5.000000000000000000e+00,5.000000000000000000e+00,5.000000000000000000e+00,5.000000000000000000e+00,2.427974700927734375e+00,2.374958276748657227e+00,2.386624336242675781e+00,2.650634527206420898e+00,5.000000000000000000e+00,5.000000000000000000e+00,5.000000000000000000e+00,4.851214408874511719e+00,4.661170482635498047e+00,4.485455513000488281e+00,4.322507381439208984e+00,4.170983314514160156e+00,4.029722690582275391e+00,3.897716999053955078e+00,3.774085521697998047e+00,3.658056020736694336e+00,3.548947572708129883e+00,3.446159601211547852e+00,3.349158048629760742e+00,3.257467985153198242e+00,3.170664072036743164e+00,3.088366746902465820e+00,3.010233640670776367e+00,2.935956239700317383e+00,2.865255832672119141e+00,2.797880649566650391e+00,2.733601331710815430e+00,2.672209024429321289e+00,2.613513946533203125e+00,2.557341814041137695e+00,2.503533601760864258e+00,2.451942682266235352e+00,2.402435541152954102e+00,2.354887962341308594e+00,2.309185504913330078e+00,2.265223741531372070e+00,2.222904443740844727e+00,2.182137250900268555e+00,2.142838478088378906e+00,2.104930162429809570e+00,2.068339586257934570e+00,2.032999753952026367e+00,1.998847126960754395e+00,1.965823054313659668e+00,1.933872461318969727e+00,1.902943730354309082e+00,1.872988700866699219e+00,1.843962311744689941e+00
5.000000000000000000e+00,5.000000000000000000e+00,5.000000000000000000e+00,5.000000000000000000e+00,5.000000000000000000e+00,5.000000000000000000e+00,5.000000000000000000e+00,5.000000000000000000e+00,5.000000000000000000e+00,5.000000000000000000e+00,5.000000000000000000e+00,5.000000000000000000e+00,5.000000000000000000e+00,5.000000000000000000e+00,5.000000000000000000e+00,5.000000000000000000e+00,5.000000000000000000e+00,5.000000000000000000e+00,5.000000000000000000e+00,5.000000000000000000e+00,5.000000000000000000e+00,5.000000000000000000e+00,5.000000000000000000e+00,5.000000000000000000e+00,5.000000000000000000e+00,5.000000000000000000e+00,5.000000000000000000e+00,5.000000000000000000e+00,5.000000000000000000e+00,5.000000000000000000e+00,5.000000000000000000e+00,5.000000000000000000e+00,2.435166597366333008e+00,2.379951238632202148e+00,2.392660379409790039e+00,2.654127120971679688e+00,5.000000000000000000e+00,5.000000000000000000e+00,5.000000000000000000e+00,4.851352691650390625e+00,4.661298274993896484e+00,4.485574245452880859e+00,4.322617053985595703e+00,4.171085834503173828e+00,4.029818058013916016e+00,3.897806644439697266e+00,3.774169445037841797e+00,3.658134460449218750e+00,3.549021720886230469e+00,3.446229696273803711e+00,3.349224328994750977e+00,3.257530450820922852e+00,3.170723438262939453e+00,3.088423013687133789e+00,3.010286808013916016e+00,2.936006784439086914e+00,2.865304231643676758e+00,2.797926902770996094e+00,2.733645200729370117e+00,2.672251224517822266e+00,2.613554239273071289e+00,2.557380199432373047e+00,2.503570318222045898e+00,2.451978206634521484e+00,2.402469635009765625e+00,2.354920387268066406e+00,2.309216976165771484e+00,2.265254020690917969e+00,2.222933292388916016e+00,2.182165384292602539e+00,2.142865419387817383e+00,2.104956388473510742e+00,2.068364858627319336e+00,2.033024072647094727e+00,1.998870730400085449e+00,1.965845823287963867e+00,1.933894395828247070e+00,1.902965068817138672e+00,1.873009443283081055e+00,1.843982219696044922e+00
5.000000000000000000e+00,5.000000000000000000e+00,5.000000000000000000e+00,5.000000000000000000e+00,5.000000000000000000e+00,5.000000000000000000e+00,5.000000000000000000e+00,5.000000000000000000e+00,5.000000000000000000e+00,5.000000000000000000e+00,5.000000000000000000e+00,5.000000000000000000e+00,5.000000000000000000e+00,5.000000000000000000e+00,5.000000000000000000e+00,5.000000000000000000e+00,5.000000000000000000e+00,5.000000000000000000e+00,5.000000000000000000e+00,5.000000000000000000e+00,5.000000000000000000e+00,5.000000000000000000e+00,5.000000000000000000e+00,5.000000000000000000e+00,5.000000000000000000e+00,5.000000000000000000e+00,5.000000000000000000e+00,5.000000000000000000e+00,5.000000000000000000e+00,5.000000000000000000e+00,5.000000000000000000e+00,5.000000000000000000e+00,2.424632310867309570e+00,2.398828506469726562e+00,2.413261890411376953e+00,2.657325506210327148e+00,5.000000000000000000e+00,5.000000000000000000e+00,5.000000000000000000e+00,4.851491451263427734e+00,4.661426544189453125e+00,4.485692501068115234e+00,4.322727203369140625e+00,4.171188354492187500e+00,4.029913902282714844e+00,3.897895812988281250e+00,3.774253129959106445e+00,3.658213376998901367e+00,3.549096107482910156e+00,3.446299314498901367e+00,3.349290132522583008e+00,3.257592916488647461e+00,3.170782804489135742e+00,3.088479042053222656e+00,3.010340213775634766e+00,2.936057567596435547e+00,2.865352392196655273e+00,2.797972917556762695e+00,2.733689308166503906e+00,2.672293424606323242e+00,2.613594293594360352e+00,2.557418823242187500e+00,2.503607273101806641e+00,2.452013492584228516e+00,2.402503490447998047e+00,2.354953289031982422e+00,2.309248447418212891e+00,2.265284061431884766e+00,2.222962617874145508e+00,2.182193279266357422e+00,2.142892599105834961e+00,2.104982376098632812e+00,2.068390130996704102e+00,2.033048629760742188e+00,1.998894095420837402e+00,1.965868592262268066e+00,1.933916449546813965e+00,1.902986288070678711e+00,1.873030066490173340e+00,1.844002246856689453e+00
5.000000000000000000e+00,5.000000000000000000e+00,5.000000000000000000e+00,5.000000000000000000e+00,5.000000000000000000e+00,5.000000000000000000e+00,5.000000000000000000e+00,5.000000000000000000e+00,5.000000000000000000e+00,5.000000000000000000e+00,5.000000000000000000e+00,5.000000000000000000e+00,5.000000000000000000e+00,5.000000000000000000e+00,5.000000000000000000e+00,5.000000000000000000e+00,5.000000000000000000e+00,5.000000000000000000e+00,5.000000000000000000e+00,5.000000000000000000e+00,5.000000000000000000e+00,5.000000000000000000e+00,5.000000000000000000e+00,5.000000000000000000e+00,5.000000000000000000e+00,5.000000000000000000e+00,5.000000000000000000e+00,5.000000000000000000e+00,5.000000000000000000e+00,5.000000000000000000e+00,5.000000000000000000e+00,5.000000000000000000e+00,2.431592464447021484e+00,2.415061235427856445e+00,2.449159145355224609e+00,5.000000000000000000e+00,5.000000000000000000e+00,5.000000000000000000e+00,5.000000000000000000e+00,4.851629734039306641e+00,4.661554336547851562e+00,4.485811233520507812e+00,4.322837352752685547e+00,4.171290874481201172e+00,4.030009269714355469e+00,3.897985458374023438e+00,3.774337291717529297e+00,3.658292055130004883e+00,3.549170017242431641e+00,3.446369409561157227e+00,3.349356412887573242e+00,3.257655382156372070e+00,3.170841932296752930e+00,3.088535308837890625e+00,3.010393619537353516e+00,2.936108350753784180e+00,2.865401029586791992e+00,2.798019170761108398e+00,2.733733177185058594e+00,2.672335386276245117e+00,2.613634586334228516e+00,2.557457447052001953e+00,2.503644227981567383e+00,2.452049016952514648e+00,2.402537584304809570e+00,2.354985713958740234e+00,2.309279918670654297e+00,2.265314340591430664e+00,2.222991704940795898e+00,2.182221412658691406e+00,2.142919540405273438e+00,2.105008363723754883e+00,2.068415164947509766e+00,2.033072710037231445e+00,1.998917698860168457e+00,1.965891480445861816e+00,1.933938503265380859e+00,1.903007626533508301e+00,1.873050808906555176e+00,1.844022274017333984e+00
5.000000000000000000e+00,5.000000000000000000e+00,5.000000000000000000e+00,5.000000000000000000e+00,5.000000000000000000e+00,5.000000000000000000e+00,5.000000000000000000e+00,5.000000000000000000e+00,5.000000000000000000e+00,5.000000000000000000e+00,5.000000000000000000e+00,5.000000000000000000e+00,5.000000000000000000e+00,5.000000000000000000e+00,5.000000000000000000e+00,5.000000000000000000e+00,5.000000000000000000e+00,5.000000000000000000e+00,5.000000000000000000e+00,5.000000000000000000e+00,5.000000000000000000e+00,5.000000000000000000e+00,5.000000000000000000e+00,5.000000000000000000e+00,5.000000000000000000e+00,5.000000000000000000e+00,5.000000000000000000e+00,5.000000000000000000e+00,5.000000000000000000e+00,5.000000000000000000e+00,5.000000000000000000e+00,5.000000000000000000e+00,2.441044807434082031e+00,2.424519538879394531e+00,2.465378999710083008e+00,5.000000000000000000e+00,5.000000000000000000e+00,5.000000000000000000e+00,5.000000000000000000e+00,4.851768493652343750e+00,4.661682605743408203e+00,4.485929489135742188e+00,4.322947025299072266e+00,4.171392917633056641e+00,4.030105113983154297e+00,3.898075103759765625e+00,3.774420738220214844e+00,3.658370971679687500e+00,3.549244403839111328e+00,3.446439266204833984e+00,3.349422216415405273e+00,3.257717847824096680e+00,3.170901060104370117e+00,3.088591337203979492e+00,3.010447025299072266e+00,2.936159133911132812e+00,2.865449428558349609e+00,2.798064947128295898e+00,2.733777284622192383e+00,2.672377347946166992e+00,2.613674879074096680e+00,2.557495832443237305e+00,2.503681182861328125e+00,2.452084541320800781e+00,2.402571439743041992e+00,2.355018377304077148e+00,2.309311389923095703e+00,2.265344619750976562e+00,2.223020792007446289e+00,2.182249307632446289e+00,2.142946720123291016e+00,2.105034589767456055e+00,2.068440437316894531e+00,2.033097267150878906e+00,1.998941183090209961e+00,1.965914011001586914e+00,1.933960556983947754e+00,1.903028964996337891e+00,1.873071312904357910e+00,1.844042420387268066e+00
5.000000000000000000e+00,5.000000000000000000e+00,5.000000000000000000e+00,5.000000000000000000e+00,5.000000000000000000e+00,5.000000000000000000e+00,5.000000000000000000e+00,5.000000000000000000e+00,5.000000000000000000e+00,5.000000000000000000e+00,5.000000000000000000e+00,5.000000000000000000e+00,5.000000000000000000e+00,5.000000000000000000e+00,5.000000000000000000e+00,5.000000000000000000e+00,5.000000000000000000e+00,5.000000000000000000e+00,5.000000000000000000e+00,5.000000000000000000e+00,5.000000000000000000e+00,5.000000000000000000e+00,5.000000000000000000e+00,5.000000000000000000e+00,5.000000000000000000e+00,5.000000000000000000e+00,5.000000000000000000e+00,5.000000000000000000e+00,5.000000000000000000e+00,5.000000000000000000e+00,5.000000000000000000e+00,5.000000000000000000e+00,2.450175523757934570e+00,2.429014921188354492e+00,2.470433235168457031e+00,5.000000000000000000e+00,5.000000000000000000e+00,5.000000000000000000e+00,5.000000000000000000e+00,4.851906299591064453e+00,4.661810398101806641e+00,4.486048221588134766e+00,4.323057651519775391e+00,4.171495437622070312e+00,4.030200481414794922e+00,3.898164272308349609e+00,3.774504899978637695e+00,3.658449888229370117e+00,3.549318313598632812e+00,3.446509361267089844e+00,3.349488496780395508e+00,3.257780313491821289e+00,3.170960187911987305e+00,3.088647603988647461e+00,3.010500431060791016e+00,2.936209678649902344e+00,2.865497589111328125e+00,2.798111200332641602e+00,2.733821392059326172e+00,2.672419309616088867e+00,2.613715171813964844e+00,2.557534456253051758e+00,2.503717899322509766e+00,2.452119827270507812e+00,2.402605533599853516e+00,2.355051279067993164e+00,2.309342622756958008e+00,2.265374898910522461e+00,2.223049879074096680e+00,2.182277441024780273e+00,2.142973661422729492e+00,2.105060577392578125e+00,2.068465709686279297e+00,2.033121347427368164e+00,1.998964786529541016e+00,1.965936779975891113e+00,1.933982372283935547e+00,1.903050422668457031e+00,1.873092055320739746e+00,1.844062447547912598e+00
5.000000000000000000e+00,5.000000000000000000e+00,5.000000000000000000e+00,5.000000000000000000e+00,5.000000000000000000e+00,5.000000000000000000e+00,5.000000000000000000e+00,5.000000000000000000e+00,5.000000000000000000e+00,5.000000000000000000e+00,5.000000000000000000e+00,5.000000000000000000e+00,5.000000000000000000e+00,5.000000000000000000e+00,5.000000000000000000e+00,5.000000000000000000e+00,5.000000000000000000e+00,5.000000000000000000e+00,5.000000000000000000e+00,5.000000000000000000e+00,5.000000000000000000e+00,5.000000000000000000e+00,5.000000000000000000e+00,5.000000000000000000e+00,5.000000000000000000e+00,5.000000000000000000e+00,5.000000000000000000e+00,5.000000000000000000e+00,5.000000000000000000e+00,5.000000000000000000e+00,5.000000000000000000e+00,5.000000000000000000e+00,2.459623813629150391e+00,2.433588504791259766e+00,2.475508213043212891e+00,5.000000000000000000e+00,5.000000000000000000e+00,5.000000000000000000e+00,5.000000000000000000e+00,4.852044582366943359e+00,4.661937713623046875e+00,4.486166477203369141e+00,4.323167324066162109e+00,4.171597957611083984e+00,4.030296325683593750e+00,3.898254156112670898e+00,3.774588584899902344e+00,3.658528566360473633e+00,3.549392700195312500e+00,3.446579456329345703e+00,3.349554300308227539e+00,3.257842779159545898e+00,3.171019554138183594e+00,3.088703632354736328e+00,3.010553598403930664e+00,2.936260700225830078e+00,2.865545988082885742e+00,2.798157215118408203e+00,2.733865261077880859e+00,2.672461509704589844e+00,2.613755464553833008e+00,2.557572841644287109e+00,2.503754854202270508e+00,2.452155351638793945e+00,2.402639389038085938e+00,2.355083703994750977e+00,2.309374094009399414e+00,2.265405178070068359e+00,2.223078966140747070e+00,2.182305574417114258e+00,2.143000841140747070e+00,2.105086565017700195e+00,2.068490743637084961e+00,2.033145904541015625e+00,1.998988389968872070e+00,1.965959668159484863e+00,1.934004426002502441e+00,1.903071761131286621e+00,1.873112678527832031e+00,1.844082355499267578e+00
5.000000000000000000e+00,5.000000000000000000e+00,5.000000000000000000e+00,5.000000000000000000e+00,5.000000000000000000e+00,5.000000000000000000e+00,5.000000000000000000e+00,5.000000000000000000e+00,5.000000000000000000e+00,5.000000000000000000e+00,5.000000000000000000e+00,5.000000000000000000e+00,5.000000000000000000e+00,5.000000000000000000e+00,5.000000000000000000e+00,5.000000000000000000e+00,5.000000000000000000e+00,5.000000000000000000e+00,5.000000000000000000e+00,5.000000000000000000e+00,5.000000000000000000e+00,5.000000000000000000e+00,5.000000000000000000e+00,5.000000000000000000e+00,5.000000000000000000e+00,5.000000000000000000e+00,5.000000000000000000e+00,5.000000000000000000e+00,5.000000000000000000e+00,5.000000000000000000e+00,5.000000000000000000e+00,5.000000000000000000e+00,2.469700336456298828e+00,2.443440198898315430e+00,2.483203172683715820e+00,5.000000000000000000e+00,5.000000000000000000e+00,5.000000000000000000e+00,5.000000000000000000e+00,4.852182865142822266e+00,4.662065505981445312e+00,4.486284732818603516e+00,4.323277473449707031e+00,4.171700477600097656e+00,4.030392169952392578e+00,3.898343324661254883e+00,3.774672746658325195e+00,3.658607482910156250e+00,3.549466609954833984e+00,3.446649074554443359e+00,3.349620580673217773e+00,3.257905483245849609e+00,3.171078681945800781e+00,3.088759899139404297e+00,3.010607004165649414e+00,2.936311244964599609e+00,2.865594148635864258e+00,2.798203468322753906e+00,2.733909368515014648e+00,2.672503471374511719e+00,2.613795518875122070e+00,2.557611465454101562e+00,2.503791809082031250e+00,2.452190637588500977e+00,2.402673482894897461e+00,2.355116605758666992e+00,2.309405326843261719e+00,2.265435218811035156e+00,2.223108053207397461e+00,2.182333469390869141e+00,2.143027782440185547e+00,2.105112791061401367e+00,2.068516016006469727e+00,2.033169984817504883e+00,1.999011754989624023e+00,1.965982437133789062e+00,1.934026598930358887e+00,1.903092861175537109e+00,1.873133420944213867e+00,1.844102382659912109e+00
5.000000000000000000e+00,5.000000000000000000e+00,5.000000000000000000e+00,5.000000000000000000e+00,5.000000000000000000e+00,5.000000000000000000e+00,5.000000000000000000e+00,5.000000000000000000e+00,5.000000000000000000e+00,5.000000000000000000e+00,5.000000000000000000e+00,5.000000000000000000e+00,5.000000000000000000e+00,5.000000000000000000e+00,5.000000000000000000e+00,5.000000000000000000e+00,5.000000000000000000e+00,5.000000000000000000e+00,5.000000000000000000e+00,5.000000000000000000e+00,5.000000000000000000e+00,5.000000000000000000e+00,5.000000000000000000e+00,5.000000000000000000e+00,5.000000000000000000e+00,5.000000000000000000e+00,5.000000000000000000e+00,5.000000000000000000e+00,5.000000000000000000e+00,5.000000000000000000e+00,5.000000000000000000e+00,5.000000000000000000e+00,2.481181859970092773e+00,2.458183288574218750e+00,5.000000000000000000e+00,5.000000000000000000e+00,5.000000000000000000e+00,5.000000000000000000e+00,5.000000000000000000e+00,4.852321147918701172e+00,4.662192821502685547e+00,4.486402988433837891e+00,4.323387622833251953e+00,4.171802997589111328e+00,4.030487537384033203e+00,3.898432970046997070e+00,3.774756669998168945e+00,3.658686161041259766e+00,3.549540996551513672e+00,3.446719169616699219e+00,3.349686384201049805e+00,3.257967710494995117e+00,3.171137809753417969e+00,3.088816165924072266e+00,3.010660409927368164e+00,2.936362266540527344e+00,2.865642786026000977e+00,2.798249483108520508e+00,2.733953237533569336e+00,2.672545671463012695e+00,2.613835811614990234e+00,2.557649850845336914e+00,2.503828763961791992e+00,2.452226161956787109e+00,2.402707338333129883e+00,2.355149030685424805e+00,2.309436798095703125e+00,2.265465497970581055e+00,2.223137140274047852e+00,2.182361602783203125e+00,2.143054723739624023e+00,2.105139017105102539e+00,2.068541049957275391e+00,2.033194541931152344e+00,1.999035358428955078e+00,1.966004967689514160e+00,1.934048652648925781e+00,1.903114318847656250e+00,1.873154163360595703e+00,1.844122409820556641e+00
5.000000000000000000e+00,5.000000000000000000e+00,5.000000000000000000e+00,5.000000000000000000e+00,5.000000000000000000e+00,5.000000000000000000e+00,5.000000000000000000e+00,5.000000000000000000e+00,5.000000000000000000e+00,5.000000000000000000e+00,5.000000000000000000e+00,5.000000000000000000e+00,5.000000000000000000e+00,5.000000000000000000e+00,5.000000000000000000e+00,5.000000000000000000e+00,5.000000000000000000e+00,5.000000000000000000e+00,5.000000000000000000e+00,5.000000000000000000e+00,5.000000000000000000e+00,5.000000000000000000e+00,5.000000000000000000e+00,5.000000000000000000e+00,5.000000000000000000e+00,5.000000000000000000e+00,5.000000000000000000e+00,5.000000000000000000e+00,5.000000000000000000e+00,5.000000000000000000e+00,5.000000000000000000e+00,2.811991691589355469e+00,2.492770671844482422e+00,2.465943098068237305e+00,5.000000000000000000e+00,5.000000000000000000e+00,5.000000000000000000e+00,5.000000000000000000e+00,5.000000000000000000e+00,4.852458953857421875e+00,4.662320613861083984e+00,4.486520767211914062e+00,4.323496818542480469e+00,4.171905517578125000e+00,4.030583381652832031e+00,3.898522138595581055e+00,3.774840354919433594e+00,3.658765077590942383e+00,3.549615383148193359e+00,3.446789026260375977e+00,3.349752664566040039e+00,3.258030414581298828e+00,3.171196937561035156e+00,3.088872194290161133e+00,3.010713815689086914e+00,2.936413049697875977e+00,2.865690946578979492e+00,2.798295497894287109e+00,2.733997344970703125e+00,2.672587633132934570e+00,2.613875865936279297e+00,2.557688474655151367e+00,2.503865718841552734e+00,2.452261447906494141e+00,2.402741432189941406e+00,2.355181932449340820e+00,2.309468269348144531e+00,2.265495538711547852e+00,2.223166227340698242e+00,2.182389736175537109e+00,2.143081665039062500e+00,2.105165004730224609e+00,2.068566322326660156e+00,2.033218860626220703e+00,1.999058842658996582e+00,1.966027855873107910e+00,1.934070706367492676e+00,1.903135657310485840e+00,1.873174667358398438e+00,1.844142556190490723e+00
4.875375747680664062e+00,4.874165534973144531e+00,4.872955799102783203e+00,4.871746063232421875e+00,4.870537757873535156e+00,4.869329929351806641e+00,4.868122100830078125e+00,4.866915225982666016e+00,4.865708827972412109e+00,4.864503383636474609e+00,4.863298416137695312e+00,4.862093925476074219e+00,4.860889911651611328e+00,4.859686851501464844e+00,4.858483791351318359e+00,4.857282161712646484e+00,4.856080532073974609e+00,4.854879379272460938e+00,4.853679656982421875e+00,4.852479934692382812e+00,4.851280689239501953e+00,4.850082397460937500e+00,4.848884582519531250e+00,4.847686767578125000e+00,4.846490383148193359e+00,4.845294475555419922e+00,4.844098567962646484e+00,4.842903614044189453e+00,4.841709136962890625e+00,4.840515136718750000e+00,4.839322090148925781e+00,2.831415653228759766e+00,2.797778129577636719e+00,2.487148046493530273e+00,4.834555149078369141e+00,4.833364963531494141e+00,4.832175254821777344e+00,4.830986499786376953e+00,4.829797744750976562e+00,4.828609943389892578e+00,4.662447929382324219e+00,4.486639022827148438e+00,4.323606967926025391e+00,4.172007560729980469e+00,4.030678749084472656e+00,3.898611783981323242e+00,3.774924516677856445e+00,3.658843755722045898e+00,3.549689292907714844e+00,3.446859121322631836e+00,3.349818706512451172e+00,3.258092641830444336e+00,3.171256303787231445e+00,3.088928461074829102e+00,3.010766983032226562e+00,2.936463594436645508e+00,2.865739345550537109e+00,2.798341751098632812e+00,2.734041213989257812e+00,2.672629594802856445e+00,2.613916158676147461e+00,2.557726860046386719e+00,2.503902435302734375e+00,2.452296972274780273e+00,2.402775287628173828e+00,2.355214357376098633e+00,2.309499740600585938e+00,2.265525817871093750e+00,2.223195314407348633e+00,2.182417631149291992e+00,2.143108844757080078e+00,2.105191230773925781e+00,2.068591594696044922e+00,2.033243179321289062e+00,1.999082446098327637e+00,1.966050624847412109e+00,1.934092521667480469e+00,1.903156995773315430e+00,1.873195290565490723e+00,1.844162344932556152e+00
3.778210163116455078e+00,3.777483224868774414e+00,3.776756525039672852e+00,3.776029825210571289e+00,3.775303840637207031e+00,3.774577856063842773e+00,3.773852348327636719e+00,3.773127079010009766e+00,3.772402286529541016e+00,3.771677017211914062e+00,3.770952701568603516e+00,3.770228624343872070e+00,3.769504785537719727e+00,3.768781185150146484e+00,3.768057823181152344e+00,3.767334461212158203e+00,3.766611814498901367e+00,3.765889406204223633e+00,3.765167236328125000e+00,3.764445304870605469e+00,3.763723611831665039e+00,3.763001918792724609e+00,3.762280702590942383e+00,3.761559963226318359e+00,3.760839462280273438e+00,3.760119199752807617e+00,3.759399175643920898e+00,3.758679151535034180e+00,3.757959842681884766e+00,3.757240533828735352e+00,3.756521701812744141e+00,2.810913801193237305e+00,2.797988891601562500e+00,2.464092731475830078e+00,3.753648519515991211e+00,3.752931118011474609e+00,3.752213954925537109e+00,3.751497030258178711e+00,3.750779867172241211e+00,3.750063419342041016e+00,3.749347448348999023e+00,3.748631477355957031e+00,3.747915983200073242e+00,3.747200489044189453e+00,3.746485233306884766e+00,3.745770454406738281e+00,3.745055913925170898e+00,3.658922672271728516e+00,3.549763679504394531e+00,3.446928739547729492e+00,3.349884748458862305e+00,3.258155345916748047e+00,3.171315670013427734e+00,3.088984489440917969e+00,3.010820388793945312e+00,2.936514616012573242e+00,2.865787506103515625e+00,2.798387765884399414e+00,2.734085321426391602e+00,2.672671794891357422e+00,2.613956451416015625e+00,2.557765483856201172e+00,2.503939628601074219e+00,2.452332258224487305e+00,2.402809381484985352e+00,2.355247020721435547e+00,2.309531211853027344e+00,2.265555858612060547e+00,2.223224401473999023e+00,2.182445764541625977e+00,2.143136024475097656e+00,2.105217218399047852e+00,2.068616867065429688e+00,2.033267498016357422e+00,1.999105811119079590e+00,1.966073393821716309e+00,1.934114575386047363e+00,1.903178453445434570e+00,1.873216032981872559e+00,1.844182491302490234e+00
3.084146976470947266e+00,3.083662271499633789e+00,3.083178043365478516e+00,3.082693815231323242e+00,3.082210063934326172e+00,3.081726074218750000e+00,3.081242561340332031e+00,3.080758810043334961e+00,3.080275535583496094e+00,3.079792261123657227e+00,3.079309225082397461e+00,3.078826427459716797e+00,3.078343629837036133e+00,3.077860832214355469e+00,3.077378511428833008e+00,3.076896190643310547e+00,3.076414108276367188e+00,3.075932025909423828e+00,3.075450181961059570e+00,3.074968338012695312e+00,3.074486732482910156e+00,3.074005365371704102e+00,3.073524236679077148e+00,3.073043107986450195e+00,3.072562217712402344e+00,3.072081089019775391e+00,3.071600675582885742e+00,3.071120023727416992e+00,3.070639848709106445e+00,3.070159673690795898e+00,3.069679260253906250e+00,3.069199562072753906e+00,2.710377216339111328e+00,2.421186208724975586e+00,2.414675235748291016e+00,3.067281484603881836e+00,3.066802263259887695e+00,3.066323280334472656e+00,3.065844535827636719e+00,3.065365791320800781e+00,3.064887285232543945e+00,3.064409017562866211e+00,3.063930511474609375e+00,3.063452482223510742e+00,3.062974452972412109e+00,3.062496900558471680e+00,3.062019109725952148e+00,3.061541795730590820e+00,3.061064004898071289e+00,3.060586929321289062e+00,3.060109853744506836e+00,3.059633016586303711e+00,3.059156417846679688e+00,3.058679819107055664e+00,3.010874032974243164e+00,2.936565160751342773e+00,2.865836143493652344e+00,2.798434019088745117e+00,2.734129190444946289e+00,2.672713756561279297e+00,2.613996744155883789e+00,2.557804107666015625e+00,2.503976345062255859e+00,2.452367544174194336e+00,2.402843475341796875e+00,2.355279684066772461e+00,2.309562444686889648e+00,2.265586137771606445e+00,2.223253488540649414e+00,2.182473659515380859e+00,2.143162965774536133e+00,2.105243206024169922e+00,2.068642139434814453e+00,2.033291816711425781e+00,1.999129414558410645e+00,1.966096282005310059e+00,1.934136629104614258e+00,1.903199553489685059e+00,1.873236775398254395e+00,1.844202518463134766e+00
2.605510234832763672e+00,2.605164527893066406e+00,2.604818820953369141e+00,2.604473352432250977e+00,2.604127883911132812e+00,2.603782415390014648e+00,2.603436946868896484e+00,2.603091955184936523e+00,2.602746725082397461e+00,2.602401733398437500e+00,2.602056980133056641e+00,2.601711988449096680e+00,2.601367235183715820e+00,2.601022481918334961e+00,2.600677967071533203e+00,2.600333690643310547e+00,2.599989175796508789e+00,2.599644899368286133e+00,2.599300622940063477e+00,2.598956584930419922e+00,2.598612546920776367e+00,2.598268747329711914e+00,2.597924709320068359e+00,2.597580909729003906e+00,2.597237348556518555e+00,2.596893787384033203e+00,2.596550464630126953e+00,2.596207141876220703e+00,2.595863580703735352e+00,2.595520496368408203e+00,2.595177412033081055e+00,2.594834327697753906e+00,2.594491481781005859e+00,2.594148635864257812e+00,2.593805789947509766e+00,2.593463182449340820e+00,2.593120574951171875e+00,2.592778205871582031e+00,2.592435836791992188e+00,2.592093706130981445e+00,2.591751337051391602e+00,2.591409206390380859e+00,2.591067075729370117e+00,2.590725183486938477e+00,2.590383529663085938e+00,2.590041875839233398e+00,2.589699983596801758e+00,2.589358329772949219e+00,2.589016914367675781e+00,2.588675737380981445e+00,2.588334321975708008e+00,2.587993144989013672e+00,2.587651968002319336e+00,2.587311029434204102e+00,2.586970090866088867e+00,2.586629152297973633e+00,2.586288452148437500e+00,2.585947990417480469e+00,2.585607051849365234e+00,2.585266590118408203e+00,2.584926366806030273e+00,2.557842493057250977e+00,2.504013299942016602e+00,2.452403068542480469e+00,2.402877330780029297e+00,2.355312347412109375e+00,2.309593915939331055e+00,2.265616416931152344e+00,2.223282575607299805e+00,2.182501792907714844e+00,2.143190145492553711e+00,2.105269432067871094e+00,2.068667173385620117e+00,2.033316135406494141e+00,1.999153017997741699e+00,1.966118812561035156e+00,1.934158802032470703e+00,1.903220891952514648e+00,1.873257160186767578e+00,1.844222545623779297e+00
2.255491495132446289e+00,2.255231857299804688e+00,2.254972219467163086e+00,2.254712820053100586e+00,2.254453182220458984e+00,2.254193544387817383e+00,2.253934383392333984e+00,2.253674983978271484e+00,2.253415584564208984e+00,2.253156423568725586e+00,2.252897262573242188e+00,2.252638101577758789e+00,2.252378940582275391e+00,2.252120018005371094e+00,2.251861095428466797e+00,2.251602172851562500e+00,2.251343250274658203e+00,2.251084566116333008e+00,2.250825881958007812e+00,2.250567436218261719e+00,2.250308513641357422e+00,2.250050067901611328e+00,2.249791622161865234e+00,2.249533414840698242e+00,2.249275207519531250e+00,2.249017477035522461e+00,2.248759746551513672e+00,2.248502254486083984e+00,2.248244762420654297e+00,2.247987270355224609e+00,2.247730016708374023e+00,2.247472763061523438e+00,2.247215270996093750e+00,2.246958255767822266e+00,2.246701002120971680e+00,2.246443986892700195e+00,2.246186971664428711e+00,2.245929956436157227e+00,2.245672941207885742e+00,2.245416164398193359e+00,2.245159387588500977e+00,2.244902610778808594e+00,2.244646072387695312e+00,2.244389533996582031e+00,2.244132757186889648e+00,2.243876218795776367e+00,2.243619918823242188e+00,2.243363618850708008e+00,2.243107318878173828e+00,2.242851018905639648e+00,2.242594718933105469e+00,2.242338657379150391e+00,2.242082595825195312e+00,2.241826534271240234e+00,2.241570472717285156e+00,2.241314411163330078e+00,2.241058588027954102e+00,2.240803003311157227e+00,2.240547180175781250e+00,2.240291595458984375e+00,2.240036010742187500e+00,2.239780187606811523e+00,2.239524841308593750e+00,2.239269256591796875e+00,2.239013910293579102e+00,2.238758802413940430e+00,2.238503456115722656e+00,2.238248109817504883e+00,2.223311662673950195e+00,2.182529687881469727e+00,2.143217086791992188e+00,2.105295419692993164e+00,2.068692445755004883e+00,2.033340454101562500e+00,1.999176502227783203e+00,1.966141700744628906e+00,1.934180855751037598e+00,1.903242349624633789e+00,1.873277902603149414e+00,1.844242691993713379e+00
1.988404393196105957e+00,1.988202452659606934e+00,1.988000512123107910e+00,1.987798929214477539e+00,1.987597107887268066e+00,1.987395524978637695e+00,1.987193822860717773e+00,1.986992120742797852e+00,1.986790776252746582e+00,1.986589074134826660e+00,1.986387491226196289e+00,1.986186265945434570e+00,1.985984802246093750e+00,1.985783576965332031e+00,1.985582113265991211e+00,1.985380768775939941e+00,1.985179662704467773e+00,1.984978437423706055e+00,1.984777212142944336e+00,1.984576225280761719e+00,1.984375000000000000e+00,1.984174132347106934e+00,1.983973026275634766e+00,1.983772039413452148e+00,1.983571290969848633e+00,1.983370304107666016e+00,1.983169317245483398e+00,1.982968688011169434e+00,1.982767939567565918e+00,1.982567310333251953e+00,1.982366561889648438e+00,1.982165813446044922e+00,1.981965422630310059e+00,1.981764793395996094e+00,1.981564164161682129e+00,1.981363892555236816e+00,1.981163382530212402e+00,1.980962872505187988e+00,1.980762720108032227e+00,1.980562329292297363e+00,1.980362176895141602e+00,1.980161905288696289e+00,1.979961514472961426e+00,1.979761600494384766e+00,1.979561328887939453e+00,1.979361176490783691e+00,1.979161381721496582e+00,1.978961229324340820e+00,1.978761434555053711e+00,1.978561520576477051e+00,1.978361487388610840e+00,1.978161811828613281e+00,1.977962017059326172e+00,1.977762222290039062e+00,1.977562665939331055e+00,1.977362871170043945e+00,1.977163434028625488e+00,1.976963758468627930e+00,1.976764082908630371e+00,1.976564764976501465e+00,1.976365208625793457e+00,1.976165652275085449e+00,1.975966453552246094e+00,1.975767016410827637e+00,1.975567817687988281e+00,1.975368499755859375e+00,1.975169181823730469e+00,1.974970221519470215e+00,1.974771022796630859e+00,1.974571824073791504e+00,1.974372863769531250e+00,1.974173784255981445e+00,1.973974943161010742e+00,1.973775863647460938e+00,1.973576903343200684e+00,1.966164469718933105e+00,1.934202671051025391e+00,1.903263688087463379e+00,1.873298645019531250e+00,1.844262480735778809e+00
1.777874588966369629e+00,1.777713298797607422e+00,1.777551889419555664e+00,1.777390599250793457e+00,1.777229428291320801e+00,1.777068018913269043e+00,1.776906967163085938e+00,1.776745676994323730e+00,1.776584506034851074e+00,1.776423454284667969e+00,1.776262283325195312e+00,1.776101112365722656e+00,1.775940179824829102e+00,1.775779128074645996e+00,1.775618195533752441e+00,1.775457143783569336e+00,1.775296211242675781e+00,1.775135397911071777e+00,1.774974465370178223e+00,1.774813532829284668e+00,1.774652838706970215e+00,1.774491906166076660e+00,1.774331331253051758e+00,1.774170517921447754e+00,1.774009704589843750e+00,1.773849129676818848e+00,1.773688435554504395e+00,1.773527741432189941e+00,1.773367285728454590e+00,1.773206710815429688e+00,1.773046255111694336e+00,1.772885680198669434e+00,1.772725105285644531e+00,1.772564768791198730e+00,1.772404313087463379e+00,1.772243857383728027e+00,1.772083640098571777e+00,1.771923184394836426e+00,1.771763086318969727e+00,1.771602749824523926e+00,1.771442413330078125e+00,1.771282315254211426e+00,1.771122097969055176e+00,1.770961880683898926e+00,1.770801782608032227e+00,1.770641684532165527e+00,1.770481705665588379e+00,1.770321607589721680e+00,1.770161509513854980e+00,1.770001649856567383e+00,1.769841670989990234e+00,1.769681692123413086e+00,1.769521832466125488e+00,1.769361972808837891e+00,1.769202232360839844e+00,1.769042372703552246e+00,1.768882513046264648e+00,1.768722891807556152e+00,1.768563151359558105e+00,1.768403291702270508e+00,1.768243789672851562e+00,1.768084049224853516e+00,1.767924547195434570e+00,1.767764925956726074e+00,1.767605304718017578e+00,1.767445921897888184e+00,1.767286419868469238e+00,1.767126917839050293e+00,1.766967535018920898e+00,1.766808032989501953e+00,1.766648888587951660e+00,1.766489386558532715e+00,1.766330003738403320e+00,1.766170859336853027e+00,1.766011595726013184e+00,1.765852212905883789e+00,1.765693187713623047e+00,1.765533924102783203e+00,1.765374898910522461e+00,1.765215754508972168e+00
1.607657909393310547e+00,1.607525944709777832e+00,1.607394099235534668e+00,1.607262134552001953e+00,1.607130408287048340e+00,1.606998443603515625e+00,1.606866478919982910e+00,1.606734752655029297e+00,1.606602907180786133e+00,1.606471061706542969e+00,1.606339454650878906e+00,1.606207609176635742e+00,1.606076002120971680e+00,1.605944275856018066e+00,1.605812549591064453e+00,1.605680942535400391e+00,1.605549335479736328e+00,1.605417609214782715e+00,1.605286121368408203e+00,1.605154514312744141e+00,1.605023026466369629e+00,1.604891538619995117e+00,1.604759931564331055e+00,1.604628562927246094e+00,1.604497075080871582e+00,1.604365587234497070e+00,1.604234218597412109e+00,1.604102730751037598e+00,1.603971481323242188e+00,1.603840112686157227e+00,1.603708744049072266e+00,1.603577494621276855e+00,1.603446125984191895e+00,1.603314876556396484e+00,1.603183627128601074e+00,1.603052377700805664e+00,1.602921128273010254e+00,1.602790117263793945e+00,1.602658867835998535e+00,1.602527856826782227e+00,1.602396607398986816e+00,1.602265477180480957e+00,1.602134466171264648e+00,1.602003455162048340e+00,1.601872324943542480e+00,1.601741433143615723e+00,1.601610422134399414e+00,1.601479530334472656e+00,1.601348519325256348e+00,1.601217508316040039e+00,1.601086735725402832e+00,1.600955843925476074e+00,1.600824952125549316e+00,1.600694179534912109e+00,1.600563287734985352e+00,1.600432634353637695e+00,1.600301742553710938e+00,1.600170969963073730e+00,1.600040316581726074e+00,1.599909543991088867e+00,1.599778771400451660e+00,1.599648237228393555e+00,1.599517464637756348e+00,1.599387049674987793e+00,1.599256396293640137e+00,1.599125742912292480e+00,1.598995208740234375e+00,1.598864674568176270e+00,1.598734140396118164e+00,1.598603725433349609e+00,1.598473191261291504e+00,1.598342776298522949e+00,1.598212361335754395e+00,1.598081827163696289e+00,1.597951531410217285e+00,1.597821116447448730e+00,1.597690701484680176e+00,1.597560524940490723e+00,1.597430109977722168e+00,1.597299933433532715e+00
1.467187047004699707e+00,1.467077136039733887e+00,1.466967105865478516e+00,1.466857314109802246e+00,1.466747403144836426e+00,1.466637730598449707e+00,1.466527819633483887e+00,1.466418027877807617e+00,1.466308236122131348e+00,1.466198444366455078e+00,1.466088652610778809e+00,1.465978980064392090e+00,1.465869188308715820e+00,1.465759634971618652e+00,1.465649843215942383e+00,1.465540170669555664e+00,1.465430498123168945e+00,1.465320825576782227e+00,1.465211153030395508e+00,1.465101599693298340e+00,1.464992046356201172e+00,1.464882493019104004e+00,1.464772939682006836e+00,1.464663267135620117e+00,1.464553833007812500e+00,1.464444279670715332e+00,1.464334726333618164e+00,1.464225411415100098e+00,1.464115858078002930e+00,1.464006543159484863e+00,1.463896989822387695e+00,1.463787555694580078e+00,1.463678240776062012e+00,1.463568806648254395e+00,1.463459372520446777e+00,1.463350176811218262e+00,1.463240742683410645e+00,1.463131546974182129e+00,1.463022232055664062e+00,1.462912917137145996e+00,1.462803721427917480e+00,1.462694406509399414e+00,1.462585091590881348e+00,1.462476015090942383e+00,1.462366700172424316e+00,1.462257623672485352e+00,1.462148427963256836e+00,1.462039232254028320e+00,1.461930155754089355e+00,1.461821079254150391e+00,1.461711883544921875e+00,1.461602926254272461e+00,1.461493730545043945e+00,1.461384773254394531e+00,1.461275696754455566e+00,1.461166620254516602e+00,1.461057662963867188e+00,1.460948705673217773e+00,1.460839629173278809e+00,1.460730791091918945e+00,1.460621833801269531e+00,1.460512995719909668e+00,1.460404038429260254e+00,1.460295081138610840e+00,1.460186243057250977e+00,1.460077404975891113e+00,1.459968447685241699e+00,1.459859728813171387e+00,1.459750890731811523e+00,1.459642171859741211e+00,1.459533333778381348e+00,1.459424495697021484e+00,1.459315896034240723e+00,1.459207177162170410e+00,1.459098339080810547e+00,1.458989739418029785e+00,1.458881020545959473e+00,1.458772420883178711e+00,1.458663702011108398e+00,1.458555102348327637e+00
1.349291086196899414e+00,1.349198222160339355e+00,1.349105238914489746e+00,1.349012374877929688e+00,1.348919391632080078e+00,1.348826408386230469e+00,1.348733663558959961e+00,1.348640680313110352e+00,1.348547816276550293e+00,1.348455071449279785e+00,1.348362207412719727e+00,1.348269343376159668e+00,1.348176598548889160e+00,1.348083734512329102e+00,1.347990989685058594e+00,1.347898244857788086e+00,1.347805380821228027e+00,1.347712755203247070e+00,1.347619891166687012e+00,1.347527265548706055e+00,1.347434520721435547e+00,1.347341895103454590e+00,1.347249269485473633e+00,1.347156524658203125e+00,1.347063779830932617e+00,1.346971273422241211e+00,1.346878528594970703e+00,1.346786022186279297e+00,1.346693396568298340e+00,1.346600770950317383e+00,1.346508264541625977e+00,1.346415638923645020e+00,1.346323013305664062e+00,1.346230506896972656e+00,1.346138000488281250e+00,1.346045374870300293e+00,1.345952987670898438e+00,1.345860481262207031e+00,1.345768094062805176e+00,1.345675587654113770e+00,1.345583081245422363e+00,1.345490694046020508e+00,1.345398187637329102e+00,1.345305800437927246e+00,1.345213413238525391e+00,1.345121026039123535e+00,1.345028638839721680e+00,1.344936251640319824e+00,1.344843864440917969e+00,1.344751596450805664e+00,1.344659209251403809e+00,1.344566941261291504e+00,1.344474673271179199e+00,1.344382286071777344e+00,1.344290137290954590e+00,1.344197750091552734e+00,1.344105482101440430e+00,1.344013333320617676e+00,1.343921065330505371e+00,1.343828797340393066e+00,1.343736648559570312e+00,1.343644499778747559e+00,1.343552350997924805e+00,1.343460202217102051e+00,1.343367934226989746e+00,1.343275904655456543e+00,1.343183755874633789e+00,1.343091607093811035e+00,1.342999577522277832e+00,1.342907428741455078e+00,1.342815399169921875e+00,1.342723250389099121e+00,1.342631220817565918e+00,1.342539191246032715e+00,1.342447161674499512e+00,1.342355132102966309e+00,1.342263221740722656e+00,1.342171192169189453e+00,1.342079281806945801e+00,1.341987252235412598e+00
1.248932957649230957e+00,1.248853325843811035e+00,1.248773813247680664e+00,1.248694181442260742e+00,1.248614549636840820e+00,1.248534917831420898e+00,1.248455286026000977e+00,1.248375773429870605e+00,1.248296260833740234e+00,1.248216629028320312e+00,1.248137116432189941e+00,1.248057603836059570e+00,1.247978091239929199e+00,1.247898578643798828e+00,1.247819066047668457e+00,1.247739553451538086e+00,1.247660040855407715e+00,1.247580528259277344e+00,1.247501134872436523e+00,1.247421622276306152e+00,1.247342228889465332e+00,1.247262835502624512e+00,1.247183322906494141e+00,1.247103929519653320e+00,1.247024536132812500e+00,1.246945142745971680e+00,1.246865749359130859e+00,1.246786355972290039e+00,1.246707081794738770e+00,1.246627688407897949e+00,1.246548295021057129e+00,1.246469020843505859e+00,1.246389627456665039e+00,1.246310353279113770e+00,1.246231079101562500e+00,1.246151685714721680e+00,1.246072530746459961e+00,1.245993137359619141e+00,1.245913863182067871e+00,1.245834708213806152e+00,1.245755434036254883e+00,1.245676159858703613e+00,1.245597004890441895e+00,1.245517730712890625e+00,1.245438575744628906e+00,1.245359301567077637e+00,1.245280146598815918e+00,1.245200991630554199e+00,1.245121836662292480e+00,1.245042681694030762e+00,1.244963526725769043e+00,1.244884371757507324e+00,1.244805335998535156e+00,1.244726181030273438e+00,1.244647026062011719e+00,1.244567990303039551e+00,1.244488835334777832e+00,1.244409799575805664e+00,1.244330763816833496e+00,1.244251728057861328e+00,1.244172692298889160e+00,1.244093656539916992e+00,1.244014620780944824e+00,1.243935585021972656e+00,1.243856549263000488e+00,1.243777513504028320e+00,1.243698596954345703e+00,1.243619680404663086e+00,1.243540763854980469e+00,1.243461728096008301e+00,1.243382811546325684e+00,1.243303894996643066e+00,1.243224978446960449e+00,1.243145942687988281e+00,1.243067145347595215e+00,1.242988228797912598e+00,1.242909431457519531e+00,1.242830514907836914e+00,1.242751598358154297e+00,1.242672801017761230e+00
1.162470459938049316e+00,1.162401437759399414e+00,1.162332534790039062e+00,1.162263512611389160e+00,1.162194490432739258e+00,1.162125587463378906e+00,1.162056565284729004e+00,1.161987662315368652e+00,1.161918759346008301e+00,1.161849737167358398e+00,1.161780953407287598e+00,1.161711931228637695e+00,1.161643028259277344e+00,1.161574125289916992e+00,1.161505222320556641e+00,1.161436319351196289e+00,1.161367535591125488e+00,1.161298632621765137e+00,1.161229848861694336e+00,1.161160945892333984e+00,1.161092042922973633e+00,1.161023259162902832e+00,1.160954475402832031e+00,1.160885572433471680e+00,1.160816907882690430e+00,1.160748004913330078e+00,1.160679221153259277e+00,1.160610437393188477e+00,1.160541653633117676e+00,1.160472989082336426e+00,1.160404205322265625e+00,1.160335421562194824e+00,1.160266637802124023e+00,1.160197973251342773e+00,1.160129189491271973e+00,1.160060524940490723e+00,1.159991741180419922e+00,1.159923076629638672e+00,1.159854412078857422e+00,1.159785628318786621e+00,1.159717082977294922e+00,1.159648299217224121e+00,1.159579634666442871e+00,1.159511089324951172e+00,1.159442424774169922e+00,1.159373760223388672e+00,1.159305095672607422e+00,1.159236431121826172e+00,1.159167885780334473e+00,1.159099340438842773e+00,1.159030675888061523e+00,1.158962130546569824e+00,1.158893465995788574e+00,1.158825039863586426e+00,1.158756375312805176e+00,1.158687829971313477e+00,1.158619284629821777e+00,1.158550739288330078e+00,1.158482193946838379e+00,1.158413767814636230e+00,1.158345222473144531e+00,1.158276796340942383e+00,1.158208250999450684e+00,1.158139705657958984e+00,1.158071279525756836e+00,1.158002734184265137e+00,1.157934308052062988e+00,1.157865881919860840e+00,1.157797455787658691e+00,1.157729029655456543e+00,1.157660603523254395e+00,1.157592058181762695e+00,1.157523751258850098e+00,1.157455325126647949e+00,1.157386898994445801e+00,1.157318472862243652e+00,1.157250165939331055e+00,1.157181739807128906e+00,1.157113432884216309e+00,1.157045006752014160e+00
1.087204098701477051e+00,1.087143778800964355e+00,1.087083458900451660e+00,1.087023138999938965e+00,1.086962819099426270e+00,1.086902379989624023e+00,1.086842179298400879e+00,1.086781859397888184e+00,1.086721539497375488e+00,1.086661219596862793e+00,1.086600899696350098e+00,1.086540699005126953e+00,1.086480379104614258e+00,1.086420059204101562e+00,1.086359858512878418e+00,1.086299538612365723e+00,1.086239337921142578e+00,1.086179137229919434e+00,1.086118817329406738e+00,1.086058735847473145e+00,1.085998415946960449e+00,1.085938215255737305e+00,1.085878014564514160e+00,1.085817813873291016e+00,1.085757613182067871e+00,1.085697412490844727e+00,1.085637211799621582e+00,1.085577130317687988e+00,1.085516929626464844e+00,1.085456728935241699e+00,1.085396647453308105e+00,1.085336446762084961e+00,1.085276246070861816e+00,1.085216164588928223e+00,1.085156083106994629e+00,1.085096001625061035e+00,1.085035800933837891e+00,1.084975719451904297e+00,1.084915637969970703e+00,1.084855556488037109e+00,1.084795355796813965e+00,1.084735274314880371e+00,1.084675192832946777e+00,1.084615230560302734e+00,1.084555149078369141e+00,1.084495067596435547e+00,1.084434986114501953e+00,1.084374904632568359e+00,1.084314942359924316e+00,1.084254860877990723e+00,1.084194898605346680e+00,1.084134936332702637e+00,1.084074854850769043e+00,1.084014892578125000e+00,1.083954930305480957e+00,1.083894848823547363e+00,1.083834886550903320e+00,1.083774924278259277e+00,1.083714962005615234e+00,1.083654999732971191e+00,1.083595037460327148e+00,1.083535075187683105e+00,1.083475112915039062e+00,1.083415150642395020e+00,1.083355307579040527e+00,1.083295345306396484e+00,1.083235383033752441e+00,1.083175539970397949e+00,1.083115577697753906e+00,1.083055734634399414e+00,1.082995891571044922e+00,1.082935929298400879e+00,1.082876086235046387e+00,1.082816243171691895e+00,1.082756400108337402e+00,1.082696557044982910e+00,1.082636594772338867e+00,1.082576751708984375e+00,1.082517027854919434e+00,1.082457184791564941e+00
1.021091699600219727e+00,1.021038413047790527e+00,1.020985245704650879e+00,1.020931959152221680e+00,1.020878791809082031e+00,1.020825505256652832e+00,1.020772337913513184e+00,1.020719170570373535e+00,1.020666003227233887e+00,1.020612835884094238e+00,1.020559549331665039e+00,1.020506381988525391e+00,1.020453214645385742e+00,1.020400047302246094e+00,1.020346879959106445e+00,1.020293831825256348e+00,1.020240664482116699e+00,1.020187497138977051e+00,1.020134329795837402e+00,1.020081162452697754e+00,1.020028114318847656e+00,1.019974946975708008e+00,1.019921779632568359e+00,1.019868731498718262e+00,1.019815564155578613e+00,1.019762516021728516e+00,1.019709467887878418e+00,1.019656300544738770e+00,1.019603252410888672e+00,1.019550204277038574e+00,1.019497036933898926e+00,1.019444108009338379e+00,1.019390940666198730e+00,1.019337892532348633e+00,1.019284844398498535e+00,1.019231796264648438e+00,1.019178867340087891e+00,1.019125819206237793e+00,1.019072771072387695e+00,1.019019722938537598e+00,1.018966674804687500e+00,1.018913626670837402e+00,1.018860697746276855e+00,1.018807649612426758e+00,1.018754720687866211e+00,1.018701672554016113e+00,1.018648743629455566e+00,1.018595695495605469e+00,1.018542766571044922e+00,1.018489718437194824e+00,1.018436789512634277e+00,1.018383860588073730e+00,1.018330931663513184e+00,1.018278002738952637e+00,1.018225073814392090e+00,1.018172144889831543e+00,1.018119215965270996e+00,1.018066287040710449e+00,1.018013358116149902e+00,1.017960429191589355e+00,1.017907500267028809e+00,1.017854571342468262e+00,1.017801761627197266e+00,1.017748832702636719e+00,1.017695903778076172e+00,1.017643094062805176e+00,1.017590165138244629e+00,1.017537355422973633e+00,1.017484545707702637e+00,1.017431616783142090e+00,1.017378687858581543e+00,1.017325878143310547e+00,1.017273068428039551e+00,1.017220258712768555e+00,1.017167448997497559e+00,1.017114520072937012e+00,1.017061829566955566e+00,1.017008900642395020e+00,1.016956090927124023e+00,1.016903400421142578e+00
9.625588655471801758e-01,9.625115990638732910e-01,9.624643325805664062e-01,9.624169468879699707e-01,9.623696804046630859e-01,9.623224139213562012e-01,9.622750878334045410e-01,9.622278213500976562e-01,9.621806144714355469e-01,9.621332883834838867e-01,9.620860219001770020e-01,9.620388150215148926e-01,9.619914889335632324e-01,9.619442820549011230e-01,9.618970751762390137e-01,9.618497490882873535e-01,9.618025422096252441e-01,9.617553353309631348e-01,9.617081880569458008e-01,9.616608619689941406e-01,9.616137146949768066e-01,9.615665078163146973e-01,9.615192413330078125e-01,9.614720344543457031e-01,9.614248871803283691e-01,9.613776206970214844e-01,9.613304734230041504e-01,9.612833261489868164e-01,9.612360596656799316e-01,9.611889123916625977e-01,9.611418247222900391e-01,9.610945582389831543e-01,9.610474109649658203e-01,9.610003232955932617e-01,9.609531760215759277e-01,9.609059691429138184e-01,9.608588814735412598e-01,9.608117341995239258e-01,9.607645273208618164e-01,9.607174396514892578e-01,9.606703519821166992e-01,9.606231451034545898e-01,9.605761170387268066e-01,9.605290293693542480e-01,9.604818224906921387e-01,9.604347944259643555e-01,9.603877067565917969e-01,9.603405594825744629e-01,9.602934718132019043e-01,9.602464437484741211e-01,9.601994156837463379e-01,9.601522684097290039e-01,9.601051807403564453e-01,9.600581526756286621e-01,9.600110650062561035e-01,9.599640369415283203e-01,9.599170088768005371e-01,9.598698616027832031e-01,9.598228931427001953e-01,9.597758650779724121e-01,9.597287774085998535e-01,9.596817493438720703e-01,9.596347808837890625e-01,9.595876932144165039e-01,9.595407247543334961e-01,9.594937562942504883e-01,9.594467878341674805e-01,9.593997001647949219e-01,9.593527317047119141e-01,9.593057632446289062e-01,9.592587351799011230e-01,9.592117667198181152e-01,9.591647982597351074e-01,9.591177701950073242e-01,9.590708613395690918e-01,9.590238928794860840e-01,9.589768648147583008e-01,9.589299559593200684e-01,9.588830471038818359e-01,9.588360190391540527e-01
9.103728532791137695e-01,9.103305935859680176e-01,9.102882146835327148e-01,9.102459549903869629e-01,9.102036356925964355e-01,9.101613163948059082e-01,9.101189970970153809e-01,9.100767374038696289e-01,9.100344777107238770e-01,9.099921584129333496e-01,9.099498987197875977e-01,9.099076390266418457e-01,9.098653197288513184e-01,9.098230600357055664e-01,9.097808599472045898e-01,9.097385406494140625e-01,9.096962809562683105e-01,9.096540808677673340e-01,9.096117615699768066e-01,9.095695614814758301e-01,9.095273613929748535e-01,9.094850420951843262e-01,9.094428420066833496e-01,9.094006419181823730e-01,9.093584418296813965e-01,9.093161821365356445e-01,9.092739820480346680e-01,9.092317819595336914e-01,9.091895222663879395e-01,9.091473221778869629e-01,9.091051816940307617e-01,9.090629220008850098e-01,9.090207219123840332e-01,9.089785814285278320e-01,9.089363217353820801e-01,9.088941812515258789e-01,9.088520407676696777e-01,9.088097810745239258e-01,9.087676405906677246e-01,9.087255001068115234e-01,9.086833000183105469e-01,9.086411595344543457e-01,9.085990786552429199e-01,9.085569381713867188e-01,9.085147380828857422e-01,9.084725975990295410e-01,9.084305167198181152e-01,9.083883166313171387e-01,9.083461761474609375e-01,9.083040952682495117e-01,9.082618951797485352e-01,9.082198143005371094e-01,9.081777334213256836e-01,9.081355929374694824e-01,9.080935120582580566e-01,9.080514311790466309e-01,9.080092310905456543e-01,9.079672098159790039e-01,9.079251289367675781e-01,9.078831076622009277e-01,9.078409075736999512e-01,9.077988862991333008e-01,9.077568054199218750e-01,9.077146649360656738e-01,9.076726436614990234e-01,9.076306223869323730e-01,9.075884819030761719e-01,9.075464606285095215e-01,9.075044393539428711e-01,9.074622988700866699e-01,9.074203372001647949e-01,9.073783159255981445e-01,9.073362350463867188e-01,9.072942137718200684e-01,9.072521924972534180e-01,9.072102308273315430e-01,9.071681499481201172e-01,9.071261286735534668e-01,9.070841670036315918e-01,9.070420861244201660e-01
8.635544776916503906e-01,8.635164499282836914e-01,8.634783029556274414e-01,8.634402751922607422e-01,8.634022474288940430e-01,8.633641004562377930e-01,8.633260726928710938e-01,8.632880449295043945e-01,8.632499575614929199e-01,8.632119297981262207e-01,8.631739020347595215e-01,8.631358146667480469e-01,8.630977869033813477e-01,8.630597591400146484e-01,8.630216717720031738e-01,8.629837036132812500e-01,8.629456758499145508e-01,8.629077076911926270e-01,8.628696203231811523e-01,8.628316521644592285e-01,8.627936840057373047e-01,8.627555966377258301e-01,8.627176284790039062e-01,8.626796603202819824e-01,8.626415729522705078e-01,8.626036047935485840e-01,8.625656366348266602e-01,8.625276088714599609e-01,8.624896407127380371e-01,8.624516725540161133e-01,8.624136447906494141e-01,8.623757362365722656e-01,8.623377680778503418e-01,8.622998595237731934e-01,8.622618317604064941e-01,8.622238636016845703e-01,8.621859550476074219e-01,8.621479272842407227e-01,8.621100187301635742e-01,8.620721101760864258e-01,8.620340824127197266e-01,8.619961738586425781e-01,8.619582653045654297e-01,8.619202375411987305e-01,8.618823885917663574e-01,8.618444800376892090e-01,8.618064522743225098e-01,8.617686033248901367e-01,8.617306947708129883e-01,8.616927862167358398e-01,8.616548180580139160e-01,8.616169691085815430e-01,8.615790605545043945e-01,8.615411520004272461e-01,8.615032434463500977e-01,8.614653944969177246e-01,8.614274263381958008e-01,8.613895773887634277e-01,8.613517284393310547e-01,8.613137602806091309e-01,8.612759113311767578e-01,8.612380623817443848e-01,8.612001538276672363e-01,8.611623048782348633e-01,8.611244559288024902e-01,8.610866665840148926e-01,8.610486984252929688e-01,8.610109090805053711e-01,8.609730601310729980e-01,8.609351515769958496e-01,8.608973622322082520e-01,8.608595728874206543e-01,8.608216643333435059e-01,8.607838153839111328e-01,8.607460260391235352e-01,8.607081770896911621e-01,8.606703281402587891e-01,8.606325387954711914e-01,8.605946898460388184e-01,8.605569005012512207e-01
8.213160634040832520e-01,8.212816119194030762e-01,8.212471604347229004e-01,8.212127685546875000e-01,8.211782574653625488e-01,8.211438655853271484e-01,8.211094737052917480e-01,8.210750818252563477e-01,8.210406303405761719e-01,8.210062384605407715e-01,8.209718465805053711e-01,8.209373354911804199e-01,8.209029436111450195e-01,8.208686113357543945e-01,8.208341598510742188e-01,8.207997679710388184e-01,8.207653760910034180e-01,8.207309246063232422e-01,8.206965923309326172e-01,8.206622004508972168e-01,8.206277489662170410e-01,8.205934166908264160e-01,8.205590844154357910e-01,8.205246925354003906e-01,8.204903006553649902e-01,8.204559087753295898e-01,8.204215764999389648e-01,8.203871846199035645e-01,8.203528523445129395e-01,8.203185200691223145e-01,8.202840685844421387e-01,8.202497363090515137e-01,8.202154040336608887e-01,8.201810121536254883e-01,8.201466798782348633e-01,8.201124072074890137e-01,8.200780153274536133e-01,8.200436830520629883e-01,8.200093507766723633e-01,8.199750185012817383e-01,8.199406862258911133e-01,8.199064135551452637e-01,8.198720812797546387e-01,8.198376893997192383e-01,8.198034167289733887e-01,8.197691440582275391e-01,8.197347521781921387e-01,8.197004795074462891e-01,8.196662068367004395e-01,8.196318149566650391e-01,8.195975422859191895e-01,8.195632696151733398e-01,8.195289373397827148e-01,8.194946646690368652e-01,8.194603919982910156e-01,8.194260597229003906e-01,8.193918466567993164e-01,8.193575739860534668e-01,8.193233013153076172e-01,8.192889690399169922e-01,8.192547559738159180e-01,8.192204833030700684e-01,8.191861510276794434e-01,8.191519379615783691e-01,8.191177248954772949e-01,8.190833926200866699e-01,8.190491795539855957e-01,8.190149068832397461e-01,8.189806342124938965e-01,8.189464211463928223e-01,8.189122080802917480e-01,8.188778758049011230e-01,8.188436627388000488e-01,8.188094496726989746e-01,8.187752962112426758e-01,8.187409639358520508e-01,8.187068104743957520e-01,8.186725974082946777e-01,8.186383247375488281e-01,8.186041116714477539e-01
7.830169796943664551e-01,7.829856276512145996e-01,7.829543352127075195e-01,7.829231023788452148e-01,7.828917503356933594e-01,7.828604578971862793e-01,7.828291654586791992e-01,7.827978730201721191e-01,7.827665805816650391e-01,7.827353477478027344e-01,7.827039957046508789e-01,7.826727628707885742e-01,7.826414704322814941e-01,7.826101779937744141e-01,7.825788855552673340e-01,7.825476527214050293e-01,7.825164198875427246e-01,7.824851274490356445e-01,7.824538946151733398e-01,7.824226021766662598e-01,7.823913097381591797e-01,7.823600769042968750e-01,7.823288440704345703e-01,7.822975516319274902e-01,7.822663187980651855e-01,7.822351455688476562e-01,7.822038531303405762e-01,7.821726202964782715e-01,7.821413874626159668e-01,7.821100950241088867e-01,7.820789217948913574e-01,7.820476889610290527e-01,7.820165157318115234e-01,7.819852232933044434e-01,7.819539904594421387e-01,7.819228172302246094e-01,7.818915843963623047e-01,7.818603515625000000e-01,7.818291783332824707e-01,7.817978858947753906e-01,7.817667126655578613e-01,7.817355394363403320e-01,7.817043066024780273e-01,7.816731333732604980e-01,7.816419601440429688e-01,7.816107273101806641e-01,7.815795540809631348e-01,7.815483808517456055e-01,7.815172076225280762e-01,7.814859747886657715e-01,7.814548015594482422e-01,7.814236283302307129e-01,7.813924551010131836e-01,7.813612818717956543e-01,7.813301086425781250e-01,7.812989354133605957e-01,7.812677621841430664e-01,7.812366485595703125e-01,7.812054157257080078e-01,7.811742424964904785e-01,7.811431288719177246e-01,7.811119556427001953e-01,7.810807824134826660e-01,7.810496687889099121e-01,7.810185551643371582e-01,7.809873819351196289e-01,7.809562683105468750e-01,7.809250950813293457e-01,7.808939218521118164e-01,7.808628082275390625e-01,7.808316946029663086e-01,7.808005213737487793e-01,7.807694077491760254e-01,7.807383537292480469e-01,7.807071805000305176e-01,7.806760668754577637e-01,7.806449532508850098e-01,7.806137800216674805e-01,7.805827260017395020e-01,7.805516123771667480e-01
7.481305599212646484e-01,7.481019496917724609e-01,7.480733990669250488e-01,7.480447888374328613e-01,7.480162382125854492e-01,7.479876875877380371e-01,7.479591369628906250e-01,7.479305863380432129e-01,7.479020357131958008e-01,7.478734850883483887e-01,7.478448748588562012e-01,7.478163242340087891e-01,7.477878332138061523e-01,7.477592229843139648e-01,7.477306723594665527e-01,7.477021813392639160e-01,7.476735711097717285e-01,7.476450800895690918e-01,7.476165294647216797e-01,7.475879192352294922e-01,7.475594282150268555e-01,7.475309371948242188e-01,7.475023865699768066e-01,7.474738359451293945e-01,7.474453449249267578e-01,7.474168539047241211e-01,7.473882436752319336e-01,7.473597526550292969e-01,7.473312616348266602e-01,7.473027110099792480e-01,7.472742199897766113e-01,7.472457289695739746e-01,7.472171783447265625e-01,7.471886873245239258e-01,7.471601963043212891e-01,7.471316456794738770e-01,7.471031546592712402e-01,7.470746636390686035e-01,7.470461726188659668e-01,7.470176815986633301e-01,7.469891905784606934e-01,7.469607591629028320e-01,7.469322085380554199e-01,7.469037175178527832e-01,7.468752861022949219e-01,7.468467354774475098e-01,7.468183040618896484e-01,7.467898130416870117e-01,7.467613220214843750e-01,7.467328310012817383e-01,7.467043995857238770e-01,7.466759085655212402e-01,7.466474771499633789e-01,7.466189861297607422e-01,7.465904951095581055e-01,7.465620636940002441e-01,7.465336322784423828e-01,7.465052008628845215e-01,7.464767098426818848e-01,7.464482784271240234e-01,7.464198470115661621e-01,7.463913559913635254e-01,7.463629245758056641e-01,7.463344931602478027e-01,7.463060021400451660e-01,7.462776303291320801e-01,7.462491989135742188e-01,7.462207078933715820e-01,7.461922764778137207e-01,7.461639046669006348e-01,7.461354136466979980e-01,7.461070418357849121e-01,7.460786104202270508e-01,7.460502386093139648e-01,7.460217475891113281e-01,7.459933757781982422e-01,7.459649443626403809e-01,7.459365129470825195e-01,7.459081411361694336e-01,7.458797097206115723e-01
