5.000000000000000000e+00,5.000000000000000000e+00,5.000000000000000000e+00,5.000000000000000000e+00,5.000000000000000000e+00,5.000000000000000000e+00,5.000000000000000000e+00,5.000000000000000000e+00,5.000000000000000000e+00,5.000000000000000000e+00,5.000000000000000000e+00,5.000000000000000000e+00,5.000000000000000000e+00,5.000000000000000000e+00,5.000000000000000000e+00,5.000000000000000000e+00,5.000000000000000000e+00,5.000000000000000000e+00,5.000000000000000000e+00,5.000000000000000000e+00,5.000000000000000000e+00,5.000000000000000000e+00,5.000000000000000000e+00,5.000000000000000000e+00,4.249159336090087891e+00,4.228912353515625000e+00,5.000000000000000000e+00,5.000000000000000000e+00,5.000000000000000000e+00,5.000000000000000000e+00,5.000000000000000000e+00,5.000000000000000000e+00,5.000000000000000000e+00,5.000000000000000000e+00,5.000000000000000000e+00,5.000000000000000000e+00,5.000000000000000000e+00,5.000000000000000000e+00,5.000000000000000000e+00,4.850572586059570312e+00,4.660574436187744141e+00,4.484899997711181641e+00,4.321987628936767578e+00,4.170495986938476562e+00,4.029265403747558594e+00,3.897286415100097656e+00,3.773678779602050781e+00,3.657671451568603516e+00,3.548583507537841797e+00,3.445814132690429688e+00,3.348829507827758789e+00,3.257155418395996094e+00,3.170366287231445312e+00,3.088082313537597656e+00,3.009961605072021484e+00,2.935695648193359375e+00,2.865006446838378906e+00,2.797641277313232422e+00,2.733371496200561523e+00,2.671988248825073242e+00,2.613301515579223633e+00,2.557137250900268555e+00,2.503336191177368164e+00,2.451752185821533203e+00,2.402251243591308594e+00,2.354710102081298828e+00,2.309013605117797852e+00,2.265057325363159180e+00,2.222743272781372070e+00,2.181981086730957031e+00,2.142687082290649414e+00,2.104783058166503906e+00,2.068197011947631836e+00,2.032860994338989258e+00,1.998712539672851562e+00,1.965692043304443359e+00,1.933744907379150391e+00,1.902819752693176270e+00,1.872867941856384277e+00,1.843844532966613770e+00
5.000000000000000000e+00,5.000000000000000000e+00,5.000000000000000000e+00,5.000000000000000000e+00,5.000000000000000000e+00,5.000000000000000000e+00,5.000000000000000000e+00,5.000000000000000000e+00,5.000000000000000000e+00,5.000000000000000000e+00,5.000000000000000000e+00,5.000000000000000000e+00,5.000000000000000000e+00,5.000000000000000000e+00,5.000000000000000000e+00,5.000000000000000000e+00,5.000000000000000000e+00,5.000000000000000000e+00,5.000000000000000000e+00,5.000000000000000000e+00,5.000000000000000000e+00,5.000000000000000000e+00,5.000000000000000000e+00,5.000000000000000000e+00,4.299602031707763672e+00,4.248146533966064453e+00,5.000000000000000000e+00,5.000000000000000000e+00,5.000000000000000000e+00,5.000000000000000000e+00,5.000000000000000000e+00,5.000000000000000000e+00,5.000000000000000000e+00,5.000000000000000000e+00,5.000000000000000000e+00,5.000000000000000000e+00,5.000000000000000000e+00,5.000000000000000000e+00,5.000000000000000000e+00,4.850711822509765625e+00,4.660702705383300781e+00,4.485018730163574219e+00,4.322098255157470703e+00,4.170599460601806641e+00,4.029361248016357422e+00,3.897376060485839844e+00,3.773763418197631836e+00,3.657750368118286133e+00,3.548658132553100586e+00,3.445884227752685547e+00,3.348896026611328125e+00,3.257218360900878906e+00,3.170425653457641602e+00,3.088138818740844727e+00,3.010015010833740234e+00,2.935746908187866211e+00,2.865055084228515625e+00,2.797687768936157227e+00,2.733415842056274414e+00,2.672030448913574219e+00,2.613342046737670898e+00,2.557175874710083008e+00,2.503373146057128906e+00,2.451787710189819336e+00,2.402285575866699219e+00,2.354742765426635742e+00,2.309045076370239258e+00,2.265087604522705078e+00,2.222772359848022461e+00,2.182009220123291016e+00,2.142714023590087891e+00,2.104809284210205078e+00,2.068222284317016602e+00,2.032885551452636719e+00,1.998736023902893066e+00,1.965714931488037109e+00,1.933767199516296387e+00,1.902841091156005859e+00,1.872888684272766113e+00,1.843864560127258301e+00
5.000000000000000000e+00,5.000000000000000000e+00,5.000000000000000000e+00,5.000000000000000000e+00,5.000000000000000000e+00,5.000000000000000000e+00,5.000000000000000000e+00,5.000000000000000000e+00,5.000000000000000000e+00,5.000000000000000000e+00,5.000000000000000000e+00,5.000000000000000000e+00,5.000000000000000000e+00,5.000000000000000000e+00,5.000000000000000000e+00,5.000000000000000000e+00,5.000000000000000000e+00,5.000000000000000000e+00,5.000000000000000000e+00,5.000000000000000000e+00,5.000000000000000000e+00,5.000000000000000000e+00,4.143587589263916016e+00,4.194333076477050781e+00,4.200832843780517578e+00,4.304333209991455078e+00,4.327685832977294922e+00,5.000000000000000000e+00,5.000000000000000000e+00,5.000000000000000000e+00,5.000000000000000000e+00,5.000000000000000000e+00,5.000000000000000000e+00,5.000000000000000000e+00,5.000000000000000000e+00,5.000000000000000000e+00,5.000000000000000000e+00,5.000000000000000000e+00,5.000000000000000000e+00,4.850851058959960938e+00,4.660831451416015625e+00,4.485137939453125000e+00,4.322208881378173828e+00,4.170702457427978516e+00,4.029457092285156250e+00,3.897466182708740234e+00,3.773847341537475586e+00,3.657829761505126953e+00,3.548732757568359375e+00,3.445954561233520508e+00,3.348962545394897461e+00,3.257280826568603516e+00,3.170485258102416992e+00,3.088195085525512695e+00,3.010068893432617188e+00,2.935797691345214844e+00,2.865103721618652344e+00,2.797734022140502930e+00,2.733459949493408203e+00,2.672072887420654297e+00,2.613382339477539062e+00,2.557214498519897461e+00,2.503410100936889648e+00,2.451823472976684570e+00,2.402319908142089844e+00,2.354775667190551758e+00,2.309076786041259766e+00,2.265117883682250977e+00,2.222801685333251953e+00,2.182037353515625000e+00,2.142741441726684570e+00,2.104835510253906250e+00,2.068247556686401367e+00,2.032910108566284180e+00,1.998759627342224121e+00,1.965737938880920410e+00,1.933789253234863281e+00,1.902862429618835449e+00,1.872909307479858398e+00,1.843884825706481934e+00
5.000000000000000000e+00,5.000000000000000000e+00,5.000000000000000000e+00,5.000000000000000000e+00,5.000000000000000000e+00,5.000000000000000000e+00,5.000000000000000000e+00,5.000000000000000000e+00,5.000000000000000000e+00,5.000000000000000000e+00,5.000000000000000000e+00,5.000000000000000000e+00,5.000000000000000000e+00,5.000000000000000000e+00,5.000000000000000000e+00,5.000000000000000000e+00,5.000000000000000000e+00,5.000000000000000000e+00,5.000000000000000000e+00,5.000000000000000000e+00,5.000000000000000000e+00,5.000000000000000000e+00,4.143773555755615234e+00,4.165155410766601562e+00,4.171020984649658203e+00,4.217442035675048828e+00,4.276516914367675781e+00,4.390166759490966797e+00,5.000000000000000000e+00,5.000000000000000000e+00,5.000000000000000000e+00,5.000000000000000000e+00,5.000000000000000000e+00,5.000000000000000000e+00,5.000000000000000000e+00,5.000000000000000000e+00,5.000000000000000000e+00,5.000000000000000000e+00,5.000000000000000000e+00,4.850990772247314453e+00,4.660960197448730469e+00,4.485257148742675781e+00,4.322319507598876953e+00,4.170804977416992188e+00,4.029553413391113281e+00,3.897555828094482422e+00,3.773931741714477539e+00,3.657909154891967773e+00,3.548807144165039062e+00,3.446025133132934570e+00,3.349028825759887695e+00,3.257343769073486328e+00,3.170544624328613281e+00,3.088251590728759766e+00,3.010122537612915039e+00,2.935848712921142578e+00,2.865152359008789062e+00,2.797780275344848633e+00,2.733504295349121094e+00,2.672115087509155273e+00,2.613422632217407227e+00,2.557252883911132812e+00,2.503447294235229492e+00,2.451858997344970703e+00,2.402353763580322266e+00,2.354808568954467773e+00,2.309108257293701172e+00,2.265148401260375977e+00,2.222830772399902344e+00,2.182065486907958984e+00,2.142768621444702148e+00,2.104861736297607422e+00,2.068272829055786133e+00,2.032934427261352539e+00,1.998783469200134277e+00,1.965760707855224609e+00,1.933811306953430176e+00,1.902883887290954590e+00,1.872930288314819336e+00,1.843904852867126465e+00
5.000000000000000000e+00,5.000000000000000000e+00,5.000000000000000000e+00,5.000000000000000000e+00,5.000000000000000000e+00,5.000000000000000000e+00,5.000000000000000000e+00,5.000000000000000000e+00,5.000000000000000000e+00,5.000000000000000000e+00,5.000000000000000000e+00,5.000000000000000000e+00,5.000000000000000000e+00,5.000000000000000000e+00,5.000000000000000000e+00,5.000000000000000000e+00,5.000000000000000000e+00,5.000000000000000000e+00,5.000000000000000000e+00,5.000000000000000000e+00,5.000000000000000000e+00,5.000000000000000000e+00,4.157361030578613281e+00,4.181438922882080078e+00,4.174160957336425781e+00,4.202526092529296875e+00,4.247912883758544922e+00,4.425252914428710938e+00,5.000000000000000000e+00,5.000000000000000000e+00,5.000000000000000000e+00,5.000000000000000000e+00,5.000000000000000000e+00,5.000000000000000000e+00,5.000000000000000000e+00,5.000000000000000000e+00,5.000000000000000000e+00,5.000000000000000000e+00,5.000000000000000000e+00,4.851130008697509766e+00,4.661088943481445312e+00,4.485375881195068359e+00,4.322429656982421875e+00,4.170907974243164062e+00,4.029649734497070312e+00,3.897645950317382812e+00,3.774016380310058594e+00,3.657988071441650391e+00,3.548881769180297852e+00,3.446095228195190430e+00,3.349095344543457031e+00,3.257406473159790039e+00,3.170604228973388672e+00,3.088308334350585938e+00,3.010175943374633789e+00,2.935899972915649414e+00,2.865200757980346680e+00,2.797826766967773438e+00,2.733548402786254883e+00,2.672157287597656250e+00,2.613463163375854492e+00,2.557291746139526367e+00,2.503484249114990234e+00,2.451894521713256836e+00,2.402388095855712891e+00,2.354841232299804688e+00,2.309139966964721680e+00,2.265178680419921875e+00,2.222860097885131836e+00,2.182093858718872070e+00,2.142795562744140625e+00,2.104887962341308594e+00,2.068298101425170898e+00,2.032958984375000000e+00,1.998807072639465332e+00,1.965783476829528809e+00,1.933833599090576172e+00,1.902905464172363281e+00,1.872950911521911621e+00,1.843924880027770996e+00
5.000000000000000000e+00,5.000000000000000000e+00,5.000000000000000000e+00,5.000000000000000000e+00,5.000000000000000000e+00,5.000000000000000000e+00,5.000000000000000000e+00,5.000000000000000000e+00,5.000000000000000000e+00,5.000000000000000000e+00,5.000000000000000000e+00,5.000000000000000000e+00,5.000000000000000000e+00,5.000000000000000000e+00,5.000000000000000000e+00,5.000000000000000000e+00,5.000000000000000000e+00,5.000000000000000000e+00,5.000000000000000000e+00,5.000000000000000000e+00,5.000000000000000000e+00,5.000000000000000000e+00,4.157094001770019531e+00,4.196619510650634766e+00,4.179272651672363281e+00,4.194950580596923828e+00,4.250401496887207031e+00,4.426853656768798828e+00,5.000000000000000000e+00,5.000000000000000000e+00,5.000000000000000000e+00,5.000000000000000000e+00,5.000000000000000000e+00,5.000000000000000000e+00,5.000000000000000000e+00,5.000000000000000000e+00,5.000000000000000000e+00,5.000000000000000000e+00,5.000000000000000000e+00,4.851269245147705078e+00,4.661217212677001953e+00,4.485495090484619141e+00,4.322540760040283203e+00,4.171011447906494141e+00,4.029745578765869141e+00,3.897736072540283203e+00,3.774100303649902344e+00,3.658067464828491211e+00,3.548956155776977539e+00,3.446165561676025391e+00,3.349161863327026367e+00,3.257469415664672852e+00,3.170663833618164062e+00,3.088364601135253906e+00,3.010229825973510742e+00,2.935950756072998047e+00,2.865249395370483398e+00,2.797873020172119141e+00,2.733592510223388672e+00,2.672199487686157227e+00,2.613503456115722656e+00,2.557330608367919922e+00,2.503521442413330078e+00,2.451930284500122070e+00,2.402422189712524414e+00,2.354874134063720703e+00,2.309171438217163086e+00,2.265209197998046875e+00,2.222889423370361328e+00,2.182121992111206055e+00,2.142822980880737305e+00,2.104914188385009766e+00,2.068323612213134766e+00,2.032983303070068359e+00,1.998830556869506836e+00,1.965806603431701660e+00,1.933855652809143066e+00,1.902926802635192871e+00,1.872971653938293457e+00,1.843945145606994629e+00
5.000000000000000000e+00,5.000000000000000000e+00,5.000000000000000000e+00,5.000000000000000000e+00,5.000000000000000000e+00,5.000000000000000000e+00,5.000000000000000000e+00,5.000000000000000000e+00,5.000000000000000000e+00,5.000000000000000000e+00,5.000000000000000000e+00,5.000000000000000000e+00,5.000000000000000000e+00,5.000000000000000000e+00,5.000000000000000000e+00,5.000000000000000000e+00,5.000000000000000000e+00,5.000000000000000000e+00,5.000000000000000000e+00,5.000000000000000000e+00,5.000000000000000000e+00,5.000000000000000000e+00,4.160113811492919922e+00,4.210270404815673828e+00,4.174788475036621094e+00,4.200217247009277344e+00,4.247258186340332031e+00,4.444897174835205078e+00,5.000000000000000000e+00,5.000000000000000000e+00,5.000000000000000000e+00,5.000000000000000000e+00,5.000000000000000000e+00,5.000000000000000000e+00,5.000000000000000000e+00,5.000000000000000000e+00,5.000000000000000000e+00,5.000000000000000000e+00,5.000000000000000000e+00,4.851408481597900391e+00,4.661345958709716797e+00,4.485614299774169922e+00,4.322651386260986328e+00,4.171113967895507812e+00,4.029841899871826172e+00,3.897825717926025391e+00,3.774184703826904297e+00,3.658146381378173828e+00,3.549030780792236328e+00,3.446235895156860352e+00,3.349227905273437500e+00,3.257532358169555664e+00,3.170723199844360352e+00,3.088421106338500977e+00,3.010283231735229492e+00,2.936002016067504883e+00,2.865297794342041016e+00,2.797919511795043945e+00,2.733636856079101562e+00,2.672241687774658203e+00,2.613543748855590820e+00,2.557369232177734375e+00,2.503558635711669922e+00,2.451965570449829102e+00,2.402456283569335938e+00,2.354907035827636719e+00,2.309202909469604492e+00,2.265239477157592773e+00,2.222918510437011719e+00,2.182150125503540039e+00,2.142849922180175781e+00,2.104940414428710938e+00,2.068348884582519531e+00,2.033007860183715820e+00,1.998854398727416992e+00,1.965829372406005859e+00,1.933877706527709961e+00,1.902948141098022461e+00,1.872992515563964844e+00,1.843965291976928711e+00
5.000000000000000000e+00,5.000000000000000000e+00,5.000000000000000000e+00,5.000000000000000000e+00,5.000000000000000000e+00,5.000000000000000000e+00,5.000000000000000000e+00,5.000000000000000000e+00,5.000000000000000000e+00,5.000000000000000000e+00,5.000000000000000000e+00,5.000000000000000000e+00,5.000000000000000000e+00,5.000000000000000000e+00,5.000000000000000000e+00,5.000000000000000000e+00,5.000000000000000000e+00,5.000000000000000000e+00,5.000000000000000000e+00,5.000000000000000000e+00,5.000000000000000000e+00,5.000000000000000000e+00,4.136346340179443359e+00,4.198508262634277344e+00,4.181500434875488281e+00,4.187164306640625000e+00,4.232358455657958984e+00,4.480357646942138672e+00,5.000000000000000000e+00,5.000000000000000000e+00,5.000000000000000000e+00,5.000000000000000000e+00,5.000000000000000000e+00,5.000000000000000000e+00,5.000000000000000000e+00,5.000000000000000000e+00,5.000000000000000000e+00,5.000000000000000000e+00,5.000000000000000000e+00,4.851547718048095703e+00,4.661474704742431641e+00,4.485733509063720703e+00,4.322762012481689453e+00,4.171216964721679688e+00,4.029937744140625000e+00,3.897915840148925781e+00,3.774268865585327148e+00,3.658225774765014648e+00,3.549105405807495117e+00,3.446305990219116211e+00,3.349294424057006836e+00,3.257594823837280273e+00,3.170782804489135742e+00,3.088477373123168945e+00,3.010337114334106445e+00,2.936053037643432617e+00,2.865346670150756836e+00,2.797965764999389648e+00,2.733680725097656250e+00,2.672283887863159180e+00,2.613584280014038086e+00,2.557407855987548828e+00,2.503595590591430664e+00,2.452001333236694336e+00,2.402490615844726562e+00,2.354939699172973633e+00,2.309234619140625000e+00,2.265269756317138672e+00,2.222947835922241211e+00,2.182178258895874023e+00,2.142877101898193359e+00,2.104966878890991211e+00,2.068374156951904297e+00,2.033032417297363281e+00,1.998878002166748047e+00,1.965852141380310059e+00,1.933899760246276855e+00,1.902969717979431152e+00,1.873013257980346680e+00,1.843985319137573242e+00
5.000000000000000000e+00,5.000000000000000000e+00,5.000000000000000000e+00,5.000000000000000000e+00,5.000000000000000000e+00,5.000000000000000000e+00,5.000000000000000000e+00,5.000000000000000000e+00,5.000000000000000000e+00,5.000000000000000000e+00,5.000000000000000000e+00,5.000000000000000000e+00,5.000000000000000000e+00,5.000000000000000000e+00,5.000000000000000000e+00,5.000000000000000000e+00,5.000000000000000000e+00,5.000000000000000000e+00,5.000000000000000000e+00,5.000000000000000000e+00,5.000000000000000000e+00,5.000000000000000000e+00,4.099729537963867188e+00,4.139843940734863281e+00,4.179909229278564453e+00,4.205799102783203125e+00,4.259598255157470703e+00,4.465007305145263672e+00,5.000000000000000000e+00,5.000000000000000000e+00,5.000000000000000000e+00,5.000000000000000000e+00,5.000000000000000000e+00,5.000000000000000000e+00,5.000000000000000000e+00,5.000000000000000000e+00,5.000000000000000000e+00,5.000000000000000000e+00,5.000000000000000000e+00,4.851686954498291016e+00,4.661602973937988281e+00,4.485852718353271484e+00,4.322872161865234375e+00,4.171319961547851562e+00,4.030034065246582031e+00,3.898005962371826172e+00,3.774353265762329102e+00,3.658305168151855469e+00,3.549179792404174805e+00,3.446376562118530273e+00,3.349360704421997070e+00,3.257657766342163086e+00,3.170842170715332031e+00,3.088533878326416016e+00,3.010390758514404297e+00,2.936103820800781250e+00,2.865395069122314453e+00,2.798011779785156250e+00,2.733725070953369141e+00,2.672326087951660156e+00,2.613624572753906250e+00,2.557446718215942383e+00,2.503632783889770508e+00,2.452036857604980469e+00,2.402524709701538086e+00,2.354972600936889648e+00,2.309266090393066406e+00,2.265300273895263672e+00,2.222976922988891602e+00,2.182206392288208008e+00,2.142904520034790039e+00,2.104992866516113281e+00,2.068399429321289062e+00,2.033056735992431641e+00,1.998901605606079102e+00,1.965875029563903809e+00,1.933922052383422852e+00,1.902991175651550293e+00,1.873034000396728516e+00,1.844005584716796875e+00
5.000000000000000000e+00,5.000000000000000000e+00,5.000000000000000000e+00,5.000000000000000000e+00,5.000000000000000000e+00,5.000000000000000000e+00,5.000000000000000000e+00,5.000000000000000000e+00,5.000000000000000000e+00,5.000000000000000000e+00,5.000000000000000000e+00,5.000000000000000000e+00,5.000000000000000000e+00,5.000000000000000000e+00,5.000000000000000000e+00,5.000000000000000000e+00,5.000000000000000000e+00,5.000000000000000000e+00,5.000000000000000000e+00,5.000000000000000000e+00,5.000000000000000000e+00,5.000000000000000000e+00,4.074226379394531250e+00,4.183310508728027344e+00,4.185826301574707031e+00,4.270947456359863281e+00,4.209274291992187500e+00,4.265270233154296875e+00,5.000000000000000000e+00,5.000000000000000000e+00,5.000000000000000000e+00,5.000000000000000000e+00,5.000000000000000000e+00,5.000000000000000000e+00,5.000000000000000000e+00,5.000000000000000000e+00,5.000000000000000000e+00,5.000000000000000000e+00,5.000000000000000000e+00,4.851826190948486328e+00,4.661731719970703125e+00,4.485971450805664062e+00,4.322982788085937500e+00,4.171423435211181641e+00,4.030130386352539062e+00,3.898095607757568359e+00,3.774437904357910156e+00,3.658384084701538086e+00,3.549254655838012695e+00,3.446446657180786133e+00,3.349427223205566406e+00,3.257720708847045898e+00,3.170901775360107422e+00,3.088590383529663086e+00,3.010444164276123047e+00,2.936154842376708984e+00,2.865443468093872070e+00,2.798058271408081055e+00,2.733769178390502930e+00,2.672368526458740234e+00,2.613665103912353516e+00,2.557485342025756836e+00,2.503669738769531250e+00,2.452072381973266602e+00,2.402558803558349609e+00,2.355005264282226562e+00,2.309297800064086914e+00,2.265330791473388672e+00,2.223006248474121094e+00,2.182234764099121094e+00,2.142931461334228516e+00,2.105019092559814453e+00,2.068424701690673828e+00,2.033081293106079102e+00,1.998925209045410156e+00,1.965898036956787109e+00,1.933944106101989746e+00,1.903012514114379883e+00,1.873054862022399902e+00,1.844025611877441406e+00
5.000000000000000000e+00,5.000000000000000000e+00,5.000000000000000000e+00,5.000000000000000000e+00,5.000000000000000000e+00,5.000000000000000000e+00,5.000000000000000000e+00,5.000000000000000000e+00,5.000000000000000000e+00,5.000000000000000000e+00,5.000000000000000000e+00,5.000000000000000000e+00,5.000000000000000000e+00,5.000000000000000000e+00,5.000000000000000000e+00,5.000000000000000000e+00,5.000000000000000000e+00,5.000000000000000000e+00,5.000000000000000000e+00,5.000000000000000000e+00,5.000000000000000000e+00,5.000000000000000000e+00,5.000000000000000000e+00,4.028190612792968750e+00,4.189316749572753906e+00,4.262764453887939453e+00,4.181450366973876953e+00,4.216804027557373047e+00,5.000000000000000000e+00,5.000000000000000000e+00,5.000000000000000000e+00,5.000000000000000000e+00,5.000000000000000000e+00,5.000000000000000000e+00,5.000000000000000000e+00,5.000000000000000000e+00,5.000000000000000000e+00,5.000000000000000000e+00,5.000000000000000000e+00,4.851965427398681641e+00,4.661860466003417969e+00,4.486091136932373047e+00,4.323093891143798828e+00,4.171525955200195312e+00,4.030226230621337891e+00,3.898185729980468750e+00,3.774521827697753906e+00,3.658463478088378906e+00,3.549328804016113281e+00,3.446516990661621094e+00,3.349493741989135742e+00,3.257783412933349609e+00,3.170961380004882812e+00,3.088646888732910156e+00,3.010497808456420898e+00,2.936205625534057617e+00,2.865492105484008789e+00,2.798104763031005859e+00,2.733813524246215820e+00,2.672410726547241211e+00,2.613705396652221680e+00,2.557523965835571289e+00,2.503706932067871094e+00,2.452108144760131836e+00,2.402592897415161133e+00,2.355038166046142578e+00,2.309329271316528320e+00,2.265361070632934570e+00,2.223035573959350586e+00,2.182262897491455078e+00,2.142958879470825195e+00,2.105045318603515625e+00,2.068450212478637695e+00,2.033105850219726562e+00,1.998948931694030762e+00,1.965920805931091309e+00,1.933966279029846191e+00,1.903034090995788574e+00,1.873075604438781738e+00,1.844045758247375488e+00
5.000000000000000000e+00,5.000000000000000000e+00,5.000000000000000000e+00,5.000000000000000000e+00,5.000000000000000000e+00,5.000000000000000000e+00,5.000000000000000000e+00,5.000000000000000000e+00,5.000000000000000000e+00,5.000000000000000000e+00,5.000000000000000000e+00,5.000000000000000000e+00,5.000000000000000000e+00,5.000000000000000000e+00,5.000000000000000000e+00,5.000000000000000000e+00,5.000000000000000000e+00,5.000000000000000000e+00,5.000000000000000000e+00,5.000000000000000000e+00,5.000000000000000000e+00,5.000000000000000000e+00,5.000000000000000000e+00,4.199917316436767578e+00,4.205610275268554688e+00,5.000000000000000000e+00,4.152668476104736328e+00,4.173550605773925781e+00,5.000000000000000000e+00,5.000000000000000000e+00,5.000000000000000000e+00,5.000000000000000000e+00,5.000000000000000000e+00,5.000000000000000000e+00,5.000000000000000000e+00,5.000000000000000000e+00,5.000000000000000000e+00,5.000000000000000000e+00,5.000000000000000000e+00,4.852104663848876953e+00,4.661989212036132812e+00,4.486209869384765625e+00,4.323204517364501953e+00,4.171628952026367188e+00,4.030322551727294922e+00,3.898275375366210938e+00,3.774606466293334961e+00,3.658542394638061523e+00,3.549403667449951172e+00,3.446587562561035156e+00,3.349560022354125977e+00,3.257846355438232422e+00,3.171020746231079102e+00,3.088703155517578125e+00,3.010551214218139648e+00,2.936256885528564453e+00,2.865540981292724609e+00,2.798151016235351562e+00,2.733857870101928711e+00,2.672452926635742188e+00,2.613745927810668945e+00,2.557562589645385742e+00,2.503744125366210938e+00,2.452143669128417969e+00,2.402627229690551758e+00,2.355071067810058594e+00,2.309360742568969727e+00,2.265391349792480469e+00,2.223064899444580078e+00,2.182291030883789062e+00,2.142985820770263672e+00,2.105071544647216797e+00,2.068475484848022461e+00,2.033130168914794922e+00,1.998972535133361816e+00,1.965943574905395508e+00,1.933988571166992188e+00,1.903055429458618164e+00,1.873096227645874023e+00,1.844065785408020020e+00
5.000000000000000000e+00,5.000000000000000000e+00,5.000000000000000000e+00,5.000000000000000000e+00,5.000000000000000000e+00,5.000000000000000000e+00,5.000000000000000000e+00,5.000000000000000000e+00,5.000000000000000000e+00,5.000000000000000000e+00,5.000000000000000000e+00,5.000000000000000000e+00,5.000000000000000000e+00,5.000000000000000000e+00,5.000000000000000000e+00,5.000000000000000000e+00,5.000000000000000000e+00,5.000000000000000000e+00,5.000000000000000000e+00,5.000000000000000000e+00,5.000000000000000000e+00,5.000000000000000000e+00,5.000000000000000000e+00,4.221741199493408203e+00,4.227356910705566406e+00,5.000000000000000000e+00,4.137880325317382812e+00,4.137000560760498047e+00,5.000000000000000000e+00,5.000000000000000000e+00,5.000000000000000000e+00,5.000000000000000000e+00,5.000000000000000000e+00,5.000000000000000000e+00,5.000000000000000000e+00,5.000000000000000000e+00,5.000000000000000000e+00,5.000000000000000000e+00,5.000000000000000000e+00,4.852244377136230469e+00,4.662117958068847656e+00,4.486329078674316406e+00,4.323314666748046875e+00,4.171731948852539062e+00,4.030418395996093750e+00,3.898365497589111328e+00,3.774690866470336914e+00,3.658621788024902344e+00,3.549478292465209961e+00,3.446657657623291016e+00,3.349626541137695312e+00,3.257909059524536133e+00,3.171080112457275391e+00,3.088759422302246094e+00,3.010604858398437500e+00,2.936307907104492188e+00,2.865589380264282227e+00,2.798197269439697266e+00,2.733901977539062500e+00,2.672495365142822266e+00,2.613786220550537109e+00,2.557601451873779297e+00,2.503781318664550781e+00,2.452179193496704102e+00,2.402661323547363281e+00,2.355103969573974609e+00,2.309392452239990234e+00,2.265421628952026367e+00,2.223094224929809570e+00,2.182319164276123047e+00,2.143013000488281250e+00,2.105098009109497070e+00,2.068500757217407227e+00,2.033154726028442383e+00,1.998996138572692871e+00,1.965966701507568359e+00,1.934010624885559082e+00,1.903076767921447754e+00,1.873117208480834961e+00,1.844086050987243652e+00
5.000000000000000000e+00,5.000000000000000000e+00,5.000000000000000000e+00,5.000000000000000000e+00,5.000000000000000000e+00,5.000000000000000000e+00,5.000000000000000000e+00,5.000000000000000000e+00,5.000000000000000000e+00,5.000000000000000000e+00,5.000000000000000000e+00,5.000000000000000000e+00,5.000000000000000000e+00,5.000000000000000000e+00,5.000000000000000000e+00,5.000000000000000000e+00,5.000000000000000000e+00,5.000000000000000000e+00,5.000000000000000000e+00,5.000000000000000000e+00,5.000000000000000000e+00,5.000000000000000000e+00,5.000000000000000000e+00,4.256646156311035156e+00,4.253369331359863281e+00,5.000000000000000000e+00,4.125865459442138672e+00,4.113121509552001953e+00,5.000000000000000000e+00,5.000000000000000000e+00,5.000000000000000000e+00,5.000000000000000000e+00,5.000000000000000000e+00,5.000000000000000000e+00,5.000000000000000000e+00,5.000000000000000000e+00,5.000000000000000000e+00,5.000000000000000000e+00,5.000000000000000000e+00,4.852383613586425781e+00,4.662246227264404297e+00,4.486448287963867188e+00,4.323425292968750000e+00,4.171834945678710938e+00,4.030514717102050781e+00,3.898455619812011719e+00,3.774775028228759766e+00,3.658701181411743164e+00,3.549552679061889648e+00,3.446727991104125977e+00,3.349692821502685547e+00,3.257971763610839844e+00,3.171139717102050781e+00,3.088815927505493164e+00,3.010658740997314453e+00,2.936358928680419922e+00,2.865638017654418945e+00,2.798243522644042969e+00,2.733946323394775391e+00,2.672537565231323242e+00,2.613826751708984375e+00,2.557640314102172852e+00,2.503818273544311523e+00,2.452214956283569336e+00,2.402695417404174805e+00,2.355136871337890625e+00,2.309423923492431641e+00,2.265452146530151367e+00,2.223123311996459961e+00,2.182347297668457031e+00,2.143040418624877930e+00,2.105123996734619141e+00,2.068526029586791992e+00,2.033179044723510742e+00,1.999019980430603027e+00,1.965989470481872559e+00,1.934032678604125977e+00,1.903098464012145996e+00,1.873137831687927246e+00,1.844106078147888184e+00
5.000000000000000000e+00,5.000000000000000000e+00,5.000000000000000000e+00,5.000000000000000000e+00,5.000000000000000000e+00,5.000000000000000000e+00,5.000000000000000000e+00,5.000000000000000000e+00,5.000000000000000000e+00,5.000000000000000000e+00,5.000000000000000000e+00,5.000000000000000000e+00,5.000000000000000000e+00,5.000000000000000000e+00,5.000000000000000000e+00,5.000000000000000000e+00,5.000000000000000000e+00,5.000000000000000000e+00,5.000000000000000000e+00,5.000000000000000000e+00,5.000000000000000000e+00,5.000000000000000000e+00,5.000000000000000000e+00,4.294915199279785156e+00,4.275226593017578125e+00,5.000000000000000000e+00,4.142889499664306641e+00,4.127643585205078125e+00,5.000000000000000000e+00,5.000000000000000000e+00,5.000000000000000000e+00,5.000000000000000000e+00,5.000000000000000000e+00,5.000000000000000000e+00,5.000000000000000000e+00,5.000000000000000000e+00,5.000000000000000000e+00,5.000000000000000000e+00,5.000000000000000000e+00,4.852520942687988281e+00,4.662374973297119141e+00,4.486567020416259766e+00,4.323536396026611328e+00,4.171938419342041016e+00,4.030611038208007812e+00,3.898545265197753906e+00,3.774859428405761719e+00,3.658780336380004883e+00,3.549627304077148438e+00,3.446798086166381836e+00,3.349759101867675781e+00,3.258034706115722656e+00,3.171199083328247070e+00,3.088872671127319336e+00,3.010712146759033203e+00,2.936409950256347656e+00,2.865686416625976562e+00,2.798290014266967773e+00,2.733990669250488281e+00,2.672579765319824219e+00,2.613867282867431641e+00,2.557678937911987305e+00,2.503855466842651367e+00,2.452250480651855469e+00,2.402729749679565430e+00,2.355169534683227539e+00,2.309455633163452148e+00,2.265482664108276367e+00,2.223152637481689453e+00,2.182375669479370117e+00,2.143067359924316406e+00,2.105150222778320312e+00,2.068551301956176758e+00,2.033203601837158203e+00,1.999043583869934082e+00,1.966012239456176758e+00,1.934054970741271973e+00,1.903119802474975586e+00,1.873158574104309082e+00,1.844126224517822266e+00
5.000000000000000000e+00,5.000000000000000000e+00,5.000000000000000000e+00,5.000000000000000000e+00,5.000000000000000000e+00,5.000000000000000000e+00,5.000000000000000000e+00,5.000000000000000000e+00,5.000000000000000000e+00,5.000000000000000000e+00,5.000000000000000000e+00,5.000000000000000000e+00,5.000000000000000000e+00,5.000000000000000000e+00,5.000000000000000000e+00,5.000000000000000000e+00,5.000000000000000000e+00,5.000000000000000000e+00,5.000000000000000000e+00,5.000000000000000000e+00,5.000000000000000000e+00,5.000000000000000000e+00,5.000000000000000000e+00,4.336065769195556641e+00,5.000000000000000000e+00,5.000000000000000000e+00,4.155045032501220703e+00,4.144879817962646484e+00,5.000000000000000000e+00,5.000000000000000000e+00,5.000000000000000000e+00,5.000000000000000000e+00,5.000000000000000000e+00,5.000000000000000000e+00,5.000000000000000000e+00,5.000000000000000000e+00,5.000000000000000000e+00,5.000000000000000000e+00,5.000000000000000000e+00,4.852658748626708984e+00,4.662503719329833984e+00,4.486686706542968750e+00,4.323647022247314453e+00,4.172041416168212891e+00,4.030706882476806641e+00,3.898635387420654297e+00,3.774943590164184570e+00,3.658859729766845703e+00,3.549702167510986328e+00,3.446868419647216797e+00,3.349825620651245117e+00,3.258097171783447266e+00,3.171258687973022461e+00,3.088928937911987305e+00,3.010766029357910156e+00,2.936460733413696289e+00,2.865735292434692383e+00,2.798336505889892578e+00,2.734034776687622070e+00,2.672622203826904297e+00,2.613907575607299805e+00,2.557717561721801758e+00,2.503892421722412109e+00,2.452286005020141602e+00,2.402764081954956055e+00,2.355202436447143555e+00,2.309487104415893555e+00,2.265512704849243164e+00,2.223181962966918945e+00,2.182403802871704102e+00,2.143094778060913086e+00,2.105176448822021484e+00,2.068576812744140625e+00,2.033228158950805664e+00,1.999067068099975586e+00,1.966035366058349609e+00,1.934077024459838867e+00,1.903141140937805176e+00,1.873179316520690918e+00,1.844146490097045898e+00
5.000000000000000000e+00,5.000000000000000000e+00,5.000000000000000000e+00,5.000000000000000000e+00,5.000000000000000000e+00,5.000000000000000000e+00,5.000000000000000000e+00,5.000000000000000000e+00,5.000000000000000000e+00,5.000000000000000000e+00,5.000000000000000000e+00,5.000000000000000000e+00,5.000000000000000000e+00,5.000000000000000000e+00,5.000000000000000000e+00,5.000000000000000000e+00,5.000000000000000000e+00,5.000000000000000000e+00,5.000000000000000000e+00,5.000000000000000000e+00,5.000000000000000000e+00,5.000000000000000000e+00,4.505132198333740234e+00,4.405531406402587891e+00,5.000000000000000000e+00,5.000000000000000000e+00,4.151201248168945312e+00,4.140701293945312500e+00,5.000000000000000000e+00,5.000000000000000000e+00,5.000000000000000000e+00,5.000000000000000000e+00,5.000000000000000000e+00,5.000000000000000000e+00,5.000000000000000000e+00,5.000000000000000000e+00,5.000000000000000000e+00,5.000000000000000000e+00,5.000000000000000000e+00,4.852796077728271484e+00,4.662629604339599609e+00,4.486805438995361328e+00,4.323757648468017578e+00,4.172143936157226562e+00,4.030803203582763672e+00,3.898725032806396484e+00,3.775027990341186523e+00,3.658939123153686523e+00,3.549776315689086914e+00,3.446938753128051758e+00,3.349891901016235352e+00,3.258160114288330078e+00,3.171318054199218750e+00,3.088985443115234375e+00,3.010819435119628906e+00,2.936511993408203125e+00,2.865783929824829102e+00,2.798382520675659180e+00,2.734079122543334961e+00,2.672664403915405273e+00,2.613948106765747070e+00,2.557756185531616211e+00,2.503929615020751953e+00,2.452321767807006836e+00,2.402797937393188477e+00,2.355235338211059570e+00,2.309518575668334961e+00,2.265543222427368164e+00,2.223211050033569336e+00,2.182431936264038086e+00,2.143121719360351562e+00,2.105202674865722656e+00,2.068602085113525391e+00,2.033252477645874023e+00,1.999090909957885742e+00,1.966058135032653809e+00,1.934099078178405762e+00,1.903162479400634766e+00,1.873200178146362305e+00,1.844166517257690430e+00
5.000000000000000000e+00,5.000000000000000000e+00,5.000000000000000000e+00,5.000000000000000000e+00,5.000000000000000000e+00,5.000000000000000000e+00,5.000000000000000000e+00,5.000000000000000000e+00,5.000000000000000000e+00,5.000000000000000000e+00,5.000000000000000000e+00,5.000000000000000000e+00,5.000000000000000000e+00,5.000000000000000000e+00,5.000000000000000000e+00,5.000000000000000000e+00,5.000000000000000000e+00,5.000000000000000000e+00,5.000000000000000000e+00,5.000000000000000000e+00,5.000000000000000000e+00,5.000000000000000000e+00,4.518332481384277344e+00,4.490490436553955078e+00,5.000000000000000000e+00,5.000000000000000000e+00,4.151661396026611328e+00,4.137557029724121094e+00,5.000000000000000000e+00,5.000000000000000000e+00,5.000000000000000000e+00,5.000000000000000000e+00,5.000000000000000000e+00,5.000000000000000000e+00,5.000000000000000000e+00,5.000000000000000000e+00,5.000000000000000000e+00,5.000000000000000000e+00,5.000000000000000000e+00,4.852933883666992188e+00,4.662756443023681641e+00,4.486922264099121094e+00,4.323868274688720703e+00,4.172246932983398438e+00,4.030899524688720703e+00,3.898815155029296875e+00,3.775112628936767578e+00,3.659017801284790039e+00,3.549850940704345703e+00,3.447008848190307617e+00,3.349958419799804688e+00,3.258222818374633789e+00,3.171377658843994141e+00,3.089041948318481445e+00,3.010873317718505859e+00,2.936563014984130859e+00,2.865832328796386719e+00,2.798429012298583984e+00,2.734123229980468750e+00,2.672706604003906250e+00,2.613988637924194336e+00,2.557795047760009766e+00,2.503966808319091797e+00,2.452357292175292969e+00,2.402832269668579102e+00,2.355268001556396484e+00,2.309550285339355469e+00,2.265573501586914062e+00,2.223240375518798828e+00,2.182460308074951172e+00,2.143148899078369141e+00,2.105229139328002930e+00,2.068627357482910156e+00,2.033277034759521484e+00,1.999114513397216797e+00,1.966080904006958008e+00,1.934121131896972656e+00,1.903184056282043457e+00,1.873220920562744141e+00,1.844186544418334961e+00
5.000000000000000000e+00,5.000000000000000000e+00,5.000000000000000000e+00,5.000000000000000000e+00,5.000000000000000000e+00,5.000000000000000000e+00,5.000000000000000000e+00,5.000000000000000000e+00,5.000000000000000000e+00,5.000000000000000000e+00,5.000000000000000000e+00,5.000000000000000000e+00,5.000000000000000000e+00,5.000000000000000000e+00,5.000000000000000000e+00,5.000000000000000000e+00,5.000000000000000000e+00,5.000000000000000000e+00,5.000000000000000000e+00,5.000000000000000000e+00,5.000000000000000000e+00,5.000000000000000000e+00,4.589428424835205078e+00,5.000000000000000000e+00,5.000000000000000000e+00,5.000000000000000000e+00,4.156699180603027344e+00,4.152701854705810547e+00,5.000000000000000000e+00,5.000000000000000000e+00,5.000000000000000000e+00,5.000000000000000000e+00,5.000000000000000000e+00,5.000000000000000000e+00,5.000000000000000000e+00,5.000000000000000000e+00,5.000000000000000000e+00,5.000000000000000000e+00,5.000000000000000000e+00,4.853071212768554688e+00,4.662883281707763672e+00,4.487040042877197266e+00,4.323976993560791016e+00,4.172350406646728516e+00,4.030995845794677734e+00,3.898905515670776367e+00,3.775196552276611328e+00,3.659097194671630859e+00,3.549925327301025391e+00,3.447079420089721680e+00,3.350024700164794922e+00,3.258285760879516602e+00,3.171437501907348633e+00,3.089098453521728516e+00,3.010926961898803711e+00,2.936614036560058594e+00,2.865881204605102539e+00,2.798475265502929688e+00,2.734167575836181641e+00,2.672749042510986328e+00,2.614028930664062500e+00,2.557833909988403320e+00,2.504003763198852539e+00,2.452392816543579102e+00,2.402866363525390625e+00,2.355300903320312500e+00,2.309581756591796875e+00,2.265604019165039062e+00,2.223269701004028320e+00,2.182488441467285156e+00,2.143176317214965820e+00,2.105255126953125000e+00,2.068652868270874023e+00,2.033301353454589844e+00,1.999138116836547852e+00,1.966103911399841309e+00,1.934143424034118652e+00,1.903205513954162598e+00,1.873241662979125977e+00,1.844206929206848145e+00
5.000000000000000000e+00,5.000000000000000000e+00,5.000000000000000000e+00,5.000000000000000000e+00,5.000000000000000000e+00,5.000000000000000000e+00,5.000000000000000000e+00,5.000000000000000000e+00,5.000000000000000000e+00,5.000000000000000000e+00,5.000000000000000000e+00,5.000000000000000000e+00,5.000000000000000000e+00,5.000000000000000000e+00,5.000000000000000000e+00,5.000000000000000000e+00,5.000000000000000000e+00,5.000000000000000000e+00,5.000000000000000000e+00,5.000000000000000000e+00,5.000000000000000000e+00,5.000000000000000000e+00,4.566658020019531250e+00,4.583084106445312500e+00,5.000000000000000000e+00,5.000000000000000000e+00,5.000000000000000000e+00,5.000000000000000000e+00,5.000000000000000000e+00,5.000000000000000000e+00,5.000000000000000000e+00,5.000000000000000000e+00,5.000000000000000000e+00,5.000000000000000000e+00,5.000000000000000000e+00,5.000000000000000000e+00,5.000000000000000000e+00,5.000000000000000000e+00,5.000000000000000000e+00,4.853208541870117188e+00,4.663010597229003906e+00,4.487157821655273438e+00,4.324086189270019531e+00,4.172453403472900391e+00,4.031091690063476562e+00,3.898994922637939453e+00,3.775280952453613281e+00,3.659176111221313477e+00,3.549999952316284180e+00,3.447149991989135742e+00,3.350091218948364258e+00,3.258348703384399414e+00,3.171496868133544922e+00,3.089154958724975586e+00,3.010980367660522461e+00,2.936665058135986328e+00,2.865929603576660156e+00,2.798521757125854492e+00,2.734211921691894531e+00,2.672791242599487305e+00,2.614069461822509766e+00,2.557872533798217773e+00,2.504040956497192383e+00,2.452428340911865234e+00,2.402900695800781250e+00,2.355333805084228516e+00,2.309613466262817383e+00,2.265634298324584961e+00,2.223298788070678711e+00,2.182516574859619141e+00,2.143203258514404297e+00,2.105281591415405273e+00,2.068677902221679688e+00,2.033325910568237305e+00,1.999161958694458008e+00,1.966126799583435059e+00,1.934165596961975098e+00,1.903226852416992188e+00,1.873262524604797363e+00,1.844226956367492676e+00
4.871502399444580078e+00,4.870281219482421875e+00,4.869060993194580078e+00,4.867841243743896484e+00,4.866622447967529297e+00,4.865404129028320312e+00,4.864185810089111328e+00,4.862968921661376953e+00,4.861752510070800781e+00,4.860536575317382812e+00,4.859321117401123047e+00,4.858106136322021484e+00,4.856892108917236328e+00,4.855678558349609375e+00,4.854465484619140625e+00,4.853253364562988281e+00,4.852041721343994141e+00,4.850830554962158203e+00,4.849619865417480469e+00,4.848410129547119141e+00,4.847200870513916016e+00,4.845992088317871094e+00,4.844783782958984375e+00,4.843576431274414062e+00,4.842369556427001953e+00,4.841163635253906250e+00,4.200042724609375000e+00,3.999597549438476562e+00,4.837547779083251953e+00,4.836344242095947266e+00,4.835140705108642578e+00,4.833938121795654297e+00,4.832736015319824219e+00,4.831534385681152344e+00,4.830333232879638672e+00,4.829133033752441406e+00,4.827933311462402344e+00,4.826734542846679688e+00,4.825535774230957031e+00,4.824337959289550781e+00,4.663136959075927734e+00,4.487275123596191406e+00,4.324195384979248047e+00,4.172554016113281250e+00,4.031188011169433594e+00,3.899085044860839844e+00,3.775365114212036133e+00,3.659255743026733398e+00,3.550074815750122070e+00,3.447220087051391602e+00,3.350157737731933594e+00,3.258411407470703125e+00,3.171556472778320312e+00,3.089211225509643555e+00,3.011034250259399414e+00,2.936716318130493164e+00,2.865978240966796875e+00,2.798568248748779297e+00,2.734256029129028320e+00,2.672833681106567383e+00,2.614109992980957031e+00,2.557911157608032227e+00,2.504077911376953125e+00,2.452464103698730469e+00,2.402934789657592773e+00,2.355366468429565430e+00,2.309644937515258789e+00,2.265664577484130859e+00,2.223328113555908203e+00,2.182544708251953125e+00,2.143230676651000977e+00,2.105307817459106445e+00,2.068703413009643555e+00,2.033350467681884766e+00,1.999185442924499512e+00,1.966149568557739258e+00,1.934187650680541992e+00,1.903248429298400879e+00,1.873283267021179199e+00,1.844246983528137207e+00
3.776354551315307617e+00,3.775621175765991211e+00,3.774887561798095703e+00,3.774154186248779297e+00,3.773421764373779297e+00,3.772688865661621094e+00,3.771956443786621094e+00,3.771224737167358398e+00,3.770493030548095703e+00,3.769761800765991211e+00,3.769030570983886719e+00,3.768299579620361328e+00,3.767569303512573242e+00,3.766838788986206055e+00,3.766108751296997070e+00,3.765379190444946289e+00,3.764649629592895508e+00,3.763920783996582031e+00,3.763191699981689453e+00,3.762463092803955078e+00,3.761734962463378906e+00,3.761006832122802734e+00,3.760278940200805664e+00,3.759551763534545898e+00,3.758824348449707031e+00,3.758097887039184570e+00,3.757370948791503906e+00,3.756644487380981445e+00,3.755918741226196289e+00,3.755192756652832031e+00,3.754467248916625977e+00,3.753742218017578125e+00,3.753017187118530273e+00,3.752292871475219727e+00,3.751568317413330078e+00,3.750844001770019531e+00,3.750120401382446289e+00,3.749396800994873047e+00,3.748673439025878906e+00,3.747950553894042969e+00,3.747227907180786133e+00,3.746505737304687500e+00,3.745783329010009766e+00,3.745061397552490234e+00,3.744339942932128906e+00,3.743618488311767578e+00,3.742897510528564453e+00,3.659335136413574219e+00,3.550149202346801758e+00,3.447290420532226562e+00,3.350224018096923828e+00,3.258474349975585938e+00,3.171615839004516602e+00,3.089267969131469727e+00,3.011087894439697266e+00,2.936767101287841797e+00,2.866026878356933594e+00,2.798614501953125000e+00,2.734300374984741211e+00,2.672875642776489258e+00,2.614150524139404297e+00,2.557950019836425781e+00,2.504115104675292969e+00,2.452499628067016602e+00,2.402968883514404297e+00,2.355399370193481445e+00,2.309676408767700195e+00,2.265695095062255859e+00,2.223357439041137695e+00,2.182573080062866211e+00,2.143257856369018555e+00,2.105334043502807617e+00,2.068728685379028320e+00,2.033374786376953125e+00,1.999209046363830566e+00,1.966172456741333008e+00,1.934209942817687988e+00,1.903269886970520020e+00,1.873304009437561035e+00,1.844267249107360840e+00
3.083224534988403320e+00,3.082735300064086914e+00,3.082246303558349609e+00,3.081757545471191406e+00,3.081268787384033203e+00,3.080780506134033203e+00,3.080292224884033203e+00,3.079803943634033203e+00,3.079316139221191406e+00,3.078828096389770508e+00,3.078340291976928711e+00,3.077852964401245117e+00,3.077365398406982422e+00,3.076878309249877930e+00,3.076391220092773438e+00,3.075904130935668945e+00,3.075417518615722656e+00,3.074930906295776367e+00,3.074444293975830078e+00,3.073958158493041992e+00,3.073471784591674805e+00,3.072985887527465820e+00,3.072499990463256836e+00,3.072014331817626953e+00,3.071528911590576172e+00,3.071043252944946289e+00,3.070558071136474609e+00,3.070073127746582031e+00,3.069588184356689453e+00,3.069103479385375977e+00,3.068618774414062500e+00,3.068134307861328125e+00,3.067650079727172852e+00,3.067165851593017578e+00,3.066681623458862305e+00,3.066198110580444336e+00,3.065714359283447266e+00,3.065230846405029297e+00,3.064747333526611328e+00,3.064264059066772461e+00,3.063781023025512695e+00,3.063297986984252930e+00,3.062815189361572266e+00,3.062332630157470703e+00,3.061850070953369141e+00,3.061367988586425781e+00,3.060885667800903320e+00,3.060403585433959961e+00,3.059921741485595703e+00,3.059439897537231445e+00,3.058958292007446289e+00,3.058477163314819336e+00,3.057995796203613281e+00,3.057514667510986328e+00,3.011141538619995117e+00,2.936818361282348633e+00,2.866075515747070312e+00,2.798660755157470703e+00,2.734344482421875000e+00,2.672918081283569336e+00,2.614191055297851562e+00,2.557988643646240234e+00,2.504152297973632812e+00,2.452535152435302734e+00,2.403003215789794922e+00,2.355432271957397461e+00,2.309708118438720703e+00,2.265725374221801758e+00,2.223386764526367188e+00,2.182601213455200195e+00,2.143285036087036133e+00,2.105360269546508789e+00,2.068753957748413086e+00,2.033399343490600586e+00,1.999232649803161621e+00,1.966195464134216309e+00,1.934231996536254883e+00,1.903291225433349609e+00,1.873324871063232422e+00,1.844287395477294922e+00
2.605076074600219727e+00,2.604727029800415039e+00,2.604377985000610352e+00,2.604028940200805664e+00,2.603680133819580078e+00,2.603331089019775391e+00,2.602982521057128906e+00,2.602633953094482422e+00,2.602285385131835938e+00,2.601937055587768555e+00,2.601588726043701172e+00,2.601240396499633789e+00,2.600892305374145508e+00,2.600544214248657227e+00,2.600196123123168945e+00,2.599848508834838867e+00,2.599500656127929688e+00,2.599153041839599609e+00,2.598805427551269531e+00,2.598457813262939453e+00,2.598110675811767578e+00,2.597763299942016602e+00,2.597415924072265625e+00,2.597069025039672852e+00,2.596721887588500977e+00,2.596374988555908203e+00,2.596028089523315430e+00,2.595681190490722656e+00,2.595334768295288086e+00,2.594988107681274414e+00,2.594641685485839844e+00,2.594295263290405273e+00,2.593949079513549805e+00,2.593602895736694336e+00,2.593256711959838867e+00,2.592910766601562500e+00,2.592564821243286133e+00,2.592218875885009766e+00,2.591873168945312500e+00,2.591527700424194336e+00,2.591181993484497070e+00,2.590836763381958008e+00,2.590491294860839844e+00,2.590145826339721680e+00,2.589800834655761719e+00,2.589455842971801758e+00,2.589110612869262695e+00,2.588765859603881836e+00,2.588421106338500977e+00,2.588076353073120117e+00,2.587731838226318359e+00,2.587387084960937500e+00,2.587042808532714844e+00,2.586698293685913086e+00,2.586354017257690430e+00,2.586009979248046875e+00,2.585665941238403320e+00,2.585322141647338867e+00,2.584978103637695312e+00,2.584634304046630859e+00,2.584290742874145508e+00,2.558027505874633789e+00,2.504189252853393555e+00,2.452570915222167969e+00,2.403037309646606445e+00,2.355465173721313477e+00,2.309739828109741211e+00,2.265755891799926758e+00,2.223416090011596680e+00,2.182629346847534180e+00,2.143312215805053711e+00,2.105386495590209961e+00,2.068779468536376953e+00,2.033423900604248047e+00,1.999256491661071777e+00,1.966218233108520508e+00,1.934254050254821777e+00,1.903312802314758301e+00,1.873345613479614258e+00,1.844307422637939453e+00
2.255286216735839844e+00,2.255026102066040039e+00,2.254765748977661133e+00,2.254505634307861328e+00,2.254245519638061523e+00,2.253985643386840820e+00,2.253725767135620117e+00,2.253465890884399414e+00,2.253205776214599609e+00,2.252946138381958008e+00,2.252686262130737305e+00,2.252426624298095703e+00,2.252167224884033203e+00,2.251907587051391602e+00,2.251648187637329102e+00,2.251388549804687500e+00,2.251129388809204102e+00,2.250869989395141602e+00,2.250610828399658203e+00,2.250351667404174805e+00,2.250092506408691406e+00,2.249833583831787109e+00,2.249574422836303711e+00,2.249315500259399414e+00,2.249055624008178711e+00,2.248795270919799805e+00,2.248535156250000000e+00,2.248275041580200195e+00,2.248014926910400391e+00,2.247755050659179688e+00,2.247494935989379883e+00,2.247235059738159180e+00,2.246975421905517578e+00,2.246715545654296875e+00,2.246455669403076172e+00,2.246196269989013672e+00,2.245936632156372070e+00,2.245676994323730469e+00,2.245417594909667969e+00,2.245157957077026367e+00,2.244898796081542969e+00,2.244639396667480469e+00,2.244380235671997070e+00,2.244121074676513672e+00,2.243861913681030273e+00,2.243602991104125977e+00,2.243343830108642578e+00,2.243084907531738281e+00,2.242826223373413086e+00,2.242567300796508789e+00,2.242308378219604492e+00,2.242049932479858398e+00,2.241791248321533203e+00,2.241532564163208008e+00,2.241274118423461914e+00,2.241015672683715820e+00,2.240757226943969727e+00,2.240498781204223633e+00,2.240240573883056641e+00,2.239982366561889648e+00,2.239724159240722656e+00,2.239466190338134766e+00,2.239207983016967773e+00,2.238950014114379883e+00,2.238692283630371094e+00,2.238434314727783203e+00,2.238176345825195312e+00,2.237918853759765625e+00,2.223445177078247070e+00,2.182657480239868164e+00,2.143339395523071289e+00,2.105412721633911133e+00,2.068804740905761719e+00,2.033448219299316406e+00,1.999280095100402832e+00,1.966241121292114258e+00,1.934276342391967773e+00,1.903334140777587891e+00,1.873366236686706543e+00,1.844327449798583984e+00
1.988248348236083984e+00,1.988046050071716309e+00,1.987843632698059082e+00,1.987641572952270508e+00,1.987439393997192383e+00,1.987237334251403809e+00,1.987035155296325684e+00,1.986833333969116211e+00,1.986631274223327637e+00,1.986429214477539062e+00,1.986227393150329590e+00,1.986025452613830566e+00,1.985823750495910645e+00,1.985621809959411621e+00,1.985420227050781250e+00,1.985218405723571777e+00,1.985016703605651855e+00,1.984815239906311035e+00,1.984613537788391113e+00,1.984412074089050293e+00,1.984210491180419922e+00,1.984009146690368652e+00,1.983807682991027832e+00,1.983606219291687012e+00,1.983404994010925293e+00,1.983203649520874023e+00,1.983002424240112305e+00,1.982801198959350586e+00,1.982600092887878418e+00,1.982398867607116699e+00,1.982197761535644531e+00,1.981996774673461914e+00,1.981795668601989746e+00,1.981594800949096680e+00,1.981393814086914062e+00,1.981193065643310547e+00,1.980992078781127930e+00,1.980791211128234863e+00,1.980590581893920898e+00,1.980389714241027832e+00,1.980189204216003418e+00,1.979988455772399902e+00,1.979787945747375488e+00,1.979587316513061523e+00,1.979386687278747559e+00,1.979186296463012695e+00,1.978985786437988281e+00,1.978785514831542969e+00,1.978585124015808105e+00,1.978384852409362793e+00,1.978184461593627930e+00,1.977984189987182617e+00,1.977784037590026855e+00,1.977583765983581543e+00,1.977383852005004883e+00,1.977183699607849121e+00,1.976983547210693359e+00,1.976783633232116699e+00,1.976583600044250488e+00,1.976383805274963379e+00,1.976183891296386719e+00,1.975984096527099609e+00,1.975784182548522949e+00,1.975584387779235840e+00,1.975384831428527832e+00,1.975185036659240723e+00,1.974985480308532715e+00,1.974785804748535156e+00,1.974586367607116699e+00,1.974386811256408691e+00,1.974187254905700684e+00,1.973987936973571777e+00,1.973788499832153320e+00,1.973589181900024414e+00,1.973389863967895508e+00,1.966264128684997559e+00,1.934298515319824219e+00,1.903355598449707031e+00,1.873387217521667480e+00,1.844347715377807617e+00
1.777752876281738281e+00,1.777591109275817871e+00,1.777429342269897461e+00,1.777267813682556152e+00,1.777106046676635742e+00,1.776944637298583984e+00,1.776782989501953125e+00,1.776621460914611816e+00,1.776459932327270508e+00,1.776298403739929199e+00,1.776136994361877441e+00,1.775975465774536133e+00,1.775814175605773926e+00,1.775652766227722168e+00,1.775491595268249512e+00,1.775330185890197754e+00,1.775168776512145996e+00,1.775007605552673340e+00,1.774846315383911133e+00,1.774685263633728027e+00,1.774524092674255371e+00,1.774363040924072266e+00,1.774201869964599609e+00,1.774040699005126953e+00,1.773879766464233398e+00,1.773718595504760742e+00,1.773557782173156738e+00,1.773396730422973633e+00,1.773235917091369629e+00,1.773074865341186523e+00,1.772913932800292969e+00,1.772753238677978516e+00,1.772592306137084961e+00,1.772431612014770508e+00,1.772270798683166504e+00,1.772110223770141602e+00,1.771949410438537598e+00,1.771788716316223145e+00,1.771628141403198242e+00,1.771467447280883789e+00,1.771306991577148438e+00,1.771146416664123535e+00,1.770985960960388184e+00,1.770825386047363281e+00,1.770664811134338379e+00,1.770504474639892578e+00,1.770344018936157227e+00,1.770183801651000977e+00,1.770023345947265625e+00,1.769863128662109375e+00,1.769702792167663574e+00,1.769542455673217773e+00,1.769382238388061523e+00,1.769222021102905273e+00,1.769061923027038574e+00,1.768901705741882324e+00,1.768741488456726074e+00,1.768581509590148926e+00,1.768421411514282227e+00,1.768261551856994629e+00,1.768101453781127930e+00,1.767941594123840332e+00,1.767781496047973633e+00,1.767621517181396484e+00,1.767461776733398438e+00,1.767301797866821289e+00,1.767142176628112793e+00,1.766982197761535645e+00,1.766822576522827148e+00,1.766662716865539551e+00,1.766502976417541504e+00,1.766343474388122559e+00,1.766183733940124512e+00,1.766024231910705566e+00,1.765864491462707520e+00,1.765705108642578125e+00,1.765545487403869629e+00,1.765385866165161133e+00,1.765226483345031738e+00,1.765066981315612793e+00
1.607560753822326660e+00,1.607428431510925293e+00,1.607296228408813477e+00,1.607164025306701660e+00,1.607031822204589844e+00,1.606899738311767578e+00,1.606767535209655762e+00,1.606635570526123047e+00,1.606503367424011230e+00,1.606371283531188965e+00,1.606239318847656250e+00,1.606107234954833984e+00,1.605975270271301270e+00,1.605843305587768555e+00,1.605711460113525391e+00,1.605579376220703125e+00,1.605447411537170410e+00,1.605315685272216797e+00,1.605183720588684082e+00,1.605051994323730469e+00,1.604920029640197754e+00,1.604788303375244141e+00,1.604656457901000977e+00,1.604524612426757812e+00,1.604393005371093750e+00,1.604261279106140137e+00,1.604129672050476074e+00,1.603997826576232910e+00,1.603866338729858398e+00,1.603734612464904785e+00,1.603602886199951172e+00,1.603471398353576660e+00,1.603339791297912598e+00,1.603208303451538086e+00,1.603076815605163574e+00,1.602945327758789062e+00,1.602813839912414551e+00,1.602682232856750488e+00,1.602550983428955078e+00,1.602419495582580566e+00,1.602288126945495605e+00,1.602156758308410645e+00,1.602025389671325684e+00,1.601894021034240723e+00,1.601762652397155762e+00,1.601631522178649902e+00,1.601500153541564941e+00,1.601369023323059082e+00,1.601237773895263672e+00,1.601106643676757812e+00,1.600975394248962402e+00,1.600844144821166992e+00,1.600713133811950684e+00,1.600581884384155273e+00,1.600450873374938965e+00,1.600319743156433105e+00,1.600188612937927246e+00,1.600057721138000488e+00,1.599926590919494629e+00,1.599795699119567871e+00,1.599664688110351562e+00,1.599533796310424805e+00,1.599402904510498047e+00,1.599271893501281738e+00,1.599141120910644531e+00,1.599010229110717773e+00,1.598879456520080566e+00,1.598748564720153809e+00,1.598617911338806152e+00,1.598487019538879395e+00,1.598356246948242188e+00,1.598225593566894531e+00,1.598094820976257324e+00,1.597964167594909668e+00,1.597833514213562012e+00,1.597702860832214355e+00,1.597572207450866699e+00,1.597441554069519043e+00,1.597311019897460938e+00,1.597180485725402832e+00
1.467108011245727539e+00,1.466997861862182617e+00,1.466887593269348145e+00,1.466777563095092773e+00,1.466667413711547852e+00,1.466557502746582031e+00,1.466447353363037109e+00,1.466337323188781738e+00,1.466227293014526367e+00,1.466117262840270996e+00,1.466007351875305176e+00,1.465897321701049805e+00,1.465787410736083984e+00,1.465677380561828613e+00,1.465567469596862793e+00,1.465457558631896973e+00,1.465347647666931152e+00,1.465237855911254883e+00,1.465127944946289062e+00,1.465018153190612793e+00,1.464908242225646973e+00,1.464798450469970703e+00,1.464688658714294434e+00,1.464578866958618164e+00,1.464469075202941895e+00,1.464359283447265625e+00,1.464249610900878906e+00,1.464139938354492188e+00,1.464030265808105469e+00,1.463920474052429199e+00,1.463810801506042480e+00,1.463701248168945312e+00,1.463591575622558594e+00,1.463482022285461426e+00,1.463372349739074707e+00,1.463262915611267090e+00,1.463153243064880371e+00,1.463043689727783203e+00,1.462934136390686035e+00,1.462824583053588867e+00,1.462715148925781250e+00,1.462605595588684082e+00,1.462496280670166016e+00,1.462386727333068848e+00,1.462277293205261230e+00,1.462167978286743164e+00,1.462058424949645996e+00,1.461949110031127930e+00,1.461839795112609863e+00,1.461730480194091797e+00,1.461621046066284180e+00,1.461511731147766113e+00,1.461402535438537598e+00,1.461293101310729980e+00,1.461183905601501465e+00,1.461074590682983398e+00,1.460965394973754883e+00,1.460856199264526367e+00,1.460747003555297852e+00,1.460637807846069336e+00,1.460528612136840820e+00,1.460419535636901855e+00,1.460310339927673340e+00,1.460201144218444824e+00,1.460092067718505859e+00,1.459982991218566895e+00,1.459874033927917480e+00,1.459764838218688965e+00,1.459655880928039551e+00,1.459546804428100586e+00,1.459437727928161621e+00,1.459328889846801758e+00,1.459219813346862793e+00,1.459110975265502930e+00,1.459001898765563965e+00,1.458893060684204102e+00,1.458784103393554688e+00,1.458675146102905273e+00,1.458566308021545410e+00,1.458457469940185547e+00
1.349225997924804688e+00,1.349132776260375977e+00,1.349039554595947266e+00,1.348946452140808105e+00,1.348853349685668945e+00,1.348760247230529785e+00,1.348667144775390625e+00,1.348574161529541016e+00,1.348481059074401855e+00,1.348387956619262695e+00,1.348294973373413086e+00,1.348201870918273926e+00,1.348109006881713867e+00,1.348015904426574707e+00,1.347923040390014648e+00,1.347829937934875488e+00,1.347736954689025879e+00,1.347644090652465820e+00,1.347551107406616211e+00,1.347458243370056152e+00,1.347365260124206543e+00,1.347272515296936035e+00,1.347179532051086426e+00,1.347086668014526367e+00,1.346993803977966309e+00,1.346900939941406250e+00,1.346808195114135742e+00,1.346715331077575684e+00,1.346622586250305176e+00,1.346529722213745117e+00,1.346436858177185059e+00,1.346344232559204102e+00,1.346251368522644043e+00,1.346158742904663086e+00,1.346065998077392578e+00,1.345973253250122070e+00,1.345880508422851562e+00,1.345787763595581055e+00,1.345695137977600098e+00,1.345602512359619141e+00,1.345509886741638184e+00,1.345417141914367676e+00,1.345324635505676270e+00,1.345232009887695312e+00,1.345139265060424805e+00,1.345046758651733398e+00,1.344954133033752441e+00,1.344861626625061035e+00,1.344769120216369629e+00,1.344676613807678223e+00,1.344583988189697266e+00,1.344491481781005859e+00,1.344398975372314453e+00,1.344306468963623047e+00,1.344214081764221191e+00,1.344121575355529785e+00,1.344029068946838379e+00,1.343936681747436523e+00,1.343844175338745117e+00,1.343751907348632812e+00,1.343659400939941406e+00,1.343567132949829102e+00,1.343474626541137695e+00,1.343382239341735840e+00,1.343289971351623535e+00,1.343197584152221680e+00,1.343105316162109375e+00,1.343012928962707520e+00,1.342920780181884766e+00,1.342828392982482910e+00,1.342736124992370605e+00,1.342643857002258301e+00,1.342551589012145996e+00,1.342459440231323242e+00,1.342367172241210938e+00,1.342275023460388184e+00,1.342182755470275879e+00,1.342090487480163574e+00,1.341998457908630371e+00,1.341906189918518066e+00
1.248878598213195801e+00,1.248798727989196777e+00,1.248718976974487305e+00,1.248639225959777832e+00,1.248559355735778809e+00,1.248479723930358887e+00,1.248399853706359863e+00,1.248320221900939941e+00,1.248240351676940918e+00,1.248160600662231445e+00,1.248080968856811523e+00,1.248001217842102051e+00,1.247921586036682129e+00,1.247841835021972656e+00,1.247762203216552734e+00,1.247682452201843262e+00,1.247602820396423340e+00,1.247523188591003418e+00,1.247443556785583496e+00,1.247363924980163574e+00,1.247284293174743652e+00,1.247204780578613281e+00,1.247125148773193359e+00,1.247045516967773438e+00,1.246966004371643066e+00,1.246886372566223145e+00,1.246806859970092773e+00,1.246727228164672852e+00,1.246647715568542480e+00,1.246568202972412109e+00,1.246488690376281738e+00,1.246409177780151367e+00,1.246329665184020996e+00,1.246250152587890625e+00,1.246170639991760254e+00,1.246091246604919434e+00,1.246011734008789062e+00,1.245932340621948242e+00,1.245852947235107422e+00,1.245773434638977051e+00,1.245694041252136230e+00,1.245614647865295410e+00,1.245535254478454590e+00,1.245455861091613770e+00,1.245376467704772949e+00,1.245297193527221680e+00,1.245217800140380859e+00,1.245138406753540039e+00,1.245059132575988770e+00,1.244979858398437500e+00,1.244900465011596680e+00,1.244821071624755859e+00,1.244741916656494141e+00,1.244662523269653320e+00,1.244583368301391602e+00,1.244503974914550781e+00,1.244424700736999512e+00,1.244345545768737793e+00,1.244266271591186523e+00,1.244187116622924805e+00,1.244107842445373535e+00,1.244028687477111816e+00,1.243949413299560547e+00,1.243870258331298828e+00,1.243791103363037109e+00,1.243711948394775391e+00,1.243632793426513672e+00,1.243553638458251953e+00,1.243474602699279785e+00,1.243395447731018066e+00,1.243316292762756348e+00,1.243237137794494629e+00,1.243158102035522461e+00,1.243079066276550293e+00,1.242999911308288574e+00,1.242920875549316406e+00,1.242841839790344238e+00,1.242762684822082520e+00,1.242683768272399902e+00,1.242604732513427734e+00
1.162424564361572266e+00,1.162355303764343262e+00,1.162286162376403809e+00,1.162217140197753906e+00,1.162147998809814453e+00,1.162078857421875000e+00,1.162009716033935547e+00,1.161940693855285645e+00,1.161871552467346191e+00,1.161802411079406738e+00,1.161733388900756836e+00,1.161664366722106934e+00,1.161595344543457031e+00,1.161526203155517578e+00,1.161457300186157227e+00,1.161388158798217773e+00,1.161319136619567871e+00,1.161250114440917969e+00,1.161181092262268066e+00,1.161112189292907715e+00,1.161043167114257812e+00,1.160974264144897461e+00,1.160905241966247559e+00,1.160836219787597656e+00,1.160767316818237305e+00,1.160698294639587402e+00,1.160629391670227051e+00,1.160560488700866699e+00,1.160491585731506348e+00,1.160422563552856445e+00,1.160353660583496094e+00,1.160284876823425293e+00,1.160215854644775391e+00,1.160147070884704590e+00,1.160078167915344238e+00,1.160009384155273438e+00,1.159940481185913086e+00,1.159871578216552734e+00,1.159802794456481934e+00,1.159733891487121582e+00,1.159665107727050781e+00,1.159596204757690430e+00,1.159527540206909180e+00,1.159458637237548828e+00,1.159389853477478027e+00,1.159321069717407227e+00,1.159252285957336426e+00,1.159183502197265625e+00,1.159114718437194824e+00,1.159046053886413574e+00,1.158977270126342773e+00,1.158908486366271973e+00,1.158839821815490723e+00,1.158771038055419922e+00,1.158702373504638672e+00,1.158633589744567871e+00,1.158564925193786621e+00,1.158496260643005371e+00,1.158427596092224121e+00,1.158358931541442871e+00,1.158290266990661621e+00,1.158221602439880371e+00,1.158152937889099121e+00,1.158084273338317871e+00,1.158015727996826172e+00,1.157947063446044922e+00,1.157878518104553223e+00,1.157809853553771973e+00,1.157741308212280273e+00,1.157672643661499023e+00,1.157604098320007324e+00,1.157535552978515625e+00,1.157467007637023926e+00,1.157398462295532227e+00,1.157329916954040527e+00,1.157261371612548828e+00,1.157192826271057129e+00,1.157124280929565430e+00,1.157055735588073730e+00,1.156987190246582031e+00
1.087165117263793945e+00,1.087104558944702148e+00,1.087044000625610352e+00,1.086983561515808105e+00,1.086923122406005859e+00,1.086862683296203613e+00,1.086802244186401367e+00,1.086741805076599121e+00,1.086681365966796875e+00,1.086620926856994629e+00,1.086560487747192383e+00,1.086500048637390137e+00,1.086439728736877441e+00,1.086379289627075195e+00,1.086318969726562500e+00,1.086258530616760254e+00,1.086198091506958008e+00,1.086137771606445312e+00,1.086077332496643066e+00,1.086017012596130371e+00,1.085956692695617676e+00,1.085896372795104980e+00,1.085836052894592285e+00,1.085775613784790039e+00,1.085715293884277344e+00,1.085654973983764648e+00,1.085594773292541504e+00,1.085534334182739258e+00,1.085474133491516113e+00,1.085413813591003418e+00,1.085353493690490723e+00,1.085293292999267578e+00,1.085232973098754883e+00,1.085172772407531738e+00,1.085112452507019043e+00,1.085052251815795898e+00,1.084991931915283203e+00,1.084931731224060059e+00,1.084871530532836914e+00,1.084811210632324219e+00,1.084751009941101074e+00,1.084690809249877930e+00,1.084630608558654785e+00,1.084570407867431641e+00,1.084510207176208496e+00,1.084450006484985352e+00,1.084389805793762207e+00,1.084329724311828613e+00,1.084269523620605469e+00,1.084209322929382324e+00,1.084149241447448730e+00,1.084089040756225586e+00,1.084028959274291992e+00,1.083968758583068848e+00,1.083908677101135254e+00,1.083848476409912109e+00,1.083788394927978516e+00,1.083728313446044922e+00,1.083668231964111328e+00,1.083608150482177734e+00,1.083548069000244141e+00,1.083487987518310547e+00,1.083427906036376953e+00,1.083367824554443359e+00,1.083307743072509766e+00,1.083247661590576172e+00,1.083187699317932129e+00,1.083127617835998535e+00,1.083067655563354492e+00,1.083007574081420898e+00,1.082947492599487305e+00,1.082887530326843262e+00,1.082827448844909668e+00,1.082767486572265625e+00,1.082707524299621582e+00,1.082647562026977539e+00,1.082587480545043945e+00,1.082527518272399902e+00,1.082467555999755859e+00,1.082407593727111816e+00
1.021058201789855957e+00,1.021004796028137207e+00,1.020951390266418457e+00,1.020898103713989258e+00,1.020844697952270508e+00,1.020791411399841309e+00,1.020738124847412109e+00,1.020684838294982910e+00,1.020631551742553711e+00,1.020578145980834961e+00,1.020524859428405762e+00,1.020471572875976562e+00,1.020418286323547363e+00,1.020364999771118164e+00,1.020311713218688965e+00,1.020258426666259766e+00,1.020205140113830566e+00,1.020151972770690918e+00,1.020098686218261719e+00,1.020045518875122070e+00,1.019992232322692871e+00,1.019938945770263672e+00,1.019885778427124023e+00,1.019832491874694824e+00,1.019779324531555176e+00,1.019726037979125977e+00,1.019672870635986328e+00,1.019619584083557129e+00,1.019566535949707031e+00,1.019513249397277832e+00,1.019460082054138184e+00,1.019406914710998535e+00,1.019353747367858887e+00,1.019300580024719238e+00,1.019247412681579590e+00,1.019194245338439941e+00,1.019141077995300293e+00,1.019087910652160645e+00,1.019034743309020996e+00,1.018981575965881348e+00,1.018928527832031250e+00,1.018875360488891602e+00,1.018822312355041504e+00,1.018769145011901855e+00,1.018715977668762207e+00,1.018662929534912109e+00,1.018609762191772461e+00,1.018556714057922363e+00,1.018503665924072266e+00,1.018450617790222168e+00,1.018397450447082520e+00,1.018344402313232422e+00,1.018291354179382324e+00,1.018238306045532227e+00,1.018185257911682129e+00,1.018132209777832031e+00,1.018079042434692383e+00,1.018026113510131836e+00,1.017973065376281738e+00,1.017920017242431641e+00,1.017866969108581543e+00,1.017814040184020996e+00,1.017760992050170898e+00,1.017707943916320801e+00,1.017655014991760254e+00,1.017601966857910156e+00,1.017549037933349609e+00,1.017495989799499512e+00,1.017443060874938965e+00,1.017390012741088867e+00,1.017337083816528320e+00,1.017284154891967773e+00,1.017231106758117676e+00,1.017178177833557129e+00,1.017125248908996582e+00,1.017072319984436035e+00,1.017019391059875488e+00,1.016966462135314941e+00,1.016913533210754395e+00,1.016860604286193848e+00
9.625299572944641113e-01,9.624825716018676758e-01,9.624350666999816895e-01,9.623876810073852539e-01,9.623402953147888184e-01,9.622929692268371582e-01,9.622455239295959473e-01,9.621981382369995117e-01,9.621508121490478516e-01,9.621033668518066406e-01,9.620560407638549805e-01,9.620087146759033203e-01,9.619613885879516602e-01,9.619139432907104492e-01,9.618666172027587891e-01,9.618192911148071289e-01,9.617719054222106934e-01,9.617245793342590332e-01,9.616773128509521484e-01,9.616299867630004883e-01,9.615826010704040527e-01,9.615353345870971680e-01,9.614880681037902832e-01,9.614406824111938477e-01,9.613933563232421875e-01,9.613460898399353027e-01,9.612988829612731934e-01,9.612514972686767578e-01,9.612042307853698730e-01,9.611569643020629883e-01,9.611096382141113281e-01,9.610623717308044434e-01,9.610151648521423340e-01,9.609679579734802246e-01,9.609206318855285645e-01,9.608733654022216797e-01,9.608261585235595703e-01,9.607788324356079102e-01,9.607316255569458008e-01,9.606844186782836914e-01,9.606372714042663574e-01,9.605899453163146973e-01,9.605427384376525879e-01,9.604955911636352539e-01,9.604482650756835938e-01,9.604011178016662598e-01,9.603539705276489258e-01,9.603067636489868164e-01,9.602594971656799316e-01,9.602123498916625977e-01,9.601652026176452637e-01,9.601179361343383789e-01,9.600707888603210449e-01,9.600237011909484863e-01,9.599765539169311523e-01,9.599292874336242676e-01,9.598821997642517090e-01,9.598350524902343750e-01,9.597878456115722656e-01,9.597407579421997070e-01,9.596936106681823730e-01,9.596465229988098145e-01,9.595993161201477051e-01,9.595522284507751465e-01,9.595051407814025879e-01,9.594579935073852539e-01,9.594109058380126953e-01,9.593638181686401367e-01,9.593167304992675781e-01,9.592695832252502441e-01,9.592224955558776855e-01,9.591754674911499023e-01,9.591283202171325684e-01,9.590812921524047852e-01,9.590342044830322266e-01,9.589871764183044434e-01,9.589400291442871094e-01,9.588930010795593262e-01,9.588459730148315430e-01,9.587988853454589844e-01
9.103477597236633301e-01,9.103053212165832520e-01,9.102629423141479492e-01,9.102205634117126465e-01,9.101780652999877930e-01,9.101356863975524902e-01,9.100933670997619629e-01,9.100509881973266602e-01,9.100085496902465820e-01,9.099661707878112793e-01,9.099238514900207520e-01,9.098814129829406738e-01,9.098390936851501465e-01,9.097967147827148438e-01,9.097543954849243164e-01,9.097120165824890137e-01,9.096696376800537109e-01,9.096273779869079590e-01,9.095849394798278809e-01,9.095426201820373535e-01,9.095003008842468262e-01,9.094580411911010742e-01,9.094156026840209961e-01,9.093733429908752441e-01,9.093310236930847168e-01,9.092886447906494141e-01,9.092463850975036621e-01,9.092041254043579102e-01,9.091618061065673828e-01,9.091194868087768555e-01,9.090771675109863281e-01,9.090349078178405762e-01,9.089925885200500488e-01,9.089503288269042969e-01,9.089080691337585449e-01,9.088658094406127930e-01,9.088234901428222656e-01,9.087812304496765137e-01,9.087390303611755371e-01,9.086967110633850098e-01,9.086544513702392578e-01,9.086122512817382812e-01,9.085699915885925293e-01,9.085277318954467773e-01,9.084854722023010254e-01,9.084432721138000488e-01,9.084010124206542969e-01,9.083588123321533203e-01,9.083166122436523438e-01,9.082744121551513672e-01,9.082320928573608398e-01,9.081899523735046387e-01,9.081477522850036621e-01,9.081054925918579102e-01,9.080632925033569336e-01,9.080211520195007324e-01,9.079788923263549805e-01,9.079367518424987793e-01,9.078945517539978027e-01,9.078524112701416016e-01,9.078101515769958496e-01,9.077680110931396484e-01,9.077258706092834473e-01,9.076836705207824707e-01,9.076415300369262695e-01,9.075993895530700684e-01,9.075572490692138672e-01,9.075150489807128906e-01,9.074729084968566895e-01,9.074308276176452637e-01,9.073886275291442871e-01,9.073464870452880859e-01,9.073044061660766602e-01,9.072623252868652344e-01,9.072201251983642578e-01,9.071780443191528320e-01,9.071359634399414062e-01,9.070937633514404297e-01,9.070516824722290039e-01,9.070096015930175781e-01
8.635325431823730469e-01,8.634943962097167969e-01,8.634561896324157715e-01,8.634180426597595215e-01,8.633799552917480469e-01,8.633418083190917969e-01,8.633036017417907715e-01,8.632655143737792969e-01,8.632273674011230469e-01,8.631891608238220215e-01,8.631510734558105469e-01,8.631129860877990723e-01,8.630748987197875977e-01,8.630366921424865723e-01,8.629986047744750977e-01,8.629605174064636230e-01,8.629223704338073730e-01,8.628842830657958984e-01,8.628461956977844238e-01,8.628081083297729492e-01,8.627699613571166992e-01,8.627318739891052246e-01,8.626938462257385254e-01,8.626556992530822754e-01,8.626176118850708008e-01,8.625795841217041016e-01,8.625415563583374023e-01,8.625034093856811523e-01,8.624653816223144531e-01,8.624272942543029785e-01,8.623892068862915039e-01,8.623511791229248047e-01,8.623131513595581055e-01,8.622751235961914062e-01,8.622369766235351562e-01,8.621989488601684570e-01,8.621609807014465332e-01,8.621228337287902832e-01,8.620848655700683594e-01,8.620468378067016602e-01,8.620088100433349609e-01,8.619707226753234863e-01,8.619327545166015625e-01,8.618947863578796387e-01,8.618566989898681641e-01,8.618186712265014648e-01,8.617807030677795410e-01,8.617427349090576172e-01,8.617046475410461426e-01,8.616666793823242188e-01,8.616287112236022949e-01,8.615906834602355957e-01,8.615527153015136719e-01,8.615147471427917480e-01,8.614767789840698242e-01,8.614387512207031250e-01,8.614007830619812012e-01,8.613628745079040527e-01,8.613248467445373535e-01,8.612868785858154297e-01,8.612489700317382812e-01,8.612110018730163574e-01,8.611730337142944336e-01,8.611350655555725098e-01,8.610971570014953613e-01,8.610591292381286621e-01,8.610212206840515137e-01,8.609833121299743652e-01,8.609454035758972168e-01,8.609074354171752930e-01,8.608695268630981445e-01,8.608316183090209961e-01,8.607936501502990723e-01,8.607557415962219238e-01,8.607178926467895508e-01,8.606799840927124023e-01,8.606420159339904785e-01,8.606041073799133301e-01,8.605662584304809570e-01,8.605282902717590332e-01
8.212968707084655762e-01,8.212623000144958496e-01,8.212277889251708984e-01,8.211933374404907227e-01,8.211587667465209961e-01,8.211242556571960449e-01,8.210898041725158691e-01,8.210552930831909180e-01,8.210207819938659668e-01,8.209862709045410156e-01,8.209518194198608398e-01,8.209172487258911133e-01,8.208827972412109375e-01,8.208483457565307617e-01,8.208138942718505859e-01,8.207793831825256348e-01,8.207449316978454590e-01,8.207104802131652832e-01,8.206759691238403320e-01,8.206415176391601562e-01,8.206070661544799805e-01,8.205726146697998047e-01,8.205381035804748535e-01,8.205037117004394531e-01,8.204692602157592773e-01,8.204347491264343262e-01,8.204003572463989258e-01,8.203659057617187500e-01,8.203315138816833496e-01,8.202970027923583984e-01,8.202626109123229980e-01,8.202281594276428223e-01,8.201937079429626465e-01,8.201593160629272461e-01,8.201249241828918457e-01,8.200905323028564453e-01,8.200560212135314941e-01,8.200216293334960938e-01,8.199872374534606934e-01,8.199527859687805176e-01,8.199183940887451172e-01,8.198840022087097168e-01,8.198496699333190918e-01,8.198152184486389160e-01,8.197808265686035156e-01,8.197464346885681152e-01,8.197120428085327148e-01,8.196776509284973145e-01,8.196433186531066895e-01,8.196089267730712891e-01,8.195745348930358887e-01,8.195401430130004883e-01,8.195058107376098633e-01,8.194713592529296875e-01,8.194370269775390625e-01,8.194026947021484375e-01,8.193683028221130371e-01,8.193339705467224121e-01,8.192996382713317871e-01,8.192653059959411621e-01,8.192309141159057617e-01,8.191965818405151367e-01,8.191622495651245117e-01,8.191278576850891113e-01,8.190935254096984863e-01,8.190592527389526367e-01,8.190249204635620117e-01,8.189905285835266113e-01,8.189562559127807617e-01,8.189219236373901367e-01,8.188875913619995117e-01,8.188532590866088867e-01,8.188189864158630371e-01,8.187847137451171875e-01,8.187503218650817871e-01,8.187160491943359375e-01,8.186817765235900879e-01,8.186474442481994629e-01,8.186131715774536133e-01,8.185788989067077637e-01
7.830000519752502441e-01,7.829686999320983887e-01,7.829372286796569824e-01,7.829058766365051270e-01,7.828745841979980469e-01,7.828432321548461914e-01,7.828118205070495605e-01,7.827804684638977051e-01,7.827491164207458496e-01,7.827177047729492188e-01,7.826864123344421387e-01,7.826550602912902832e-01,7.826237082481384277e-01,7.825923562049865723e-01,7.825610041618347168e-01,7.825297117233276367e-01,7.824983000755310059e-01,7.824670076370239258e-01,7.824357151985168457e-01,7.824043631553649902e-01,7.823730111122131348e-01,7.823417186737060547e-01,7.823104262351989746e-01,7.822790145874023438e-01,7.822477221488952637e-01,7.822164297103881836e-01,7.821851372718811035e-01,7.821537852287292480e-01,7.821224927902221680e-01,7.820912003517150879e-01,7.820598483085632324e-01,7.820286154747009277e-01,7.819973230361938477e-01,7.819660305976867676e-01,7.819346785545349121e-01,7.819034457206726074e-01,7.818721532821655273e-01,7.818408608436584473e-01,7.818095684051513672e-01,7.817783355712890625e-01,7.817470431327819824e-01,7.817157506942749023e-01,7.816844582557678223e-01,7.816532254219055176e-01,7.816219329833984375e-01,7.815907001495361328e-01,7.815594077110290527e-01,7.815281748771667480e-01,7.814968824386596680e-01,7.814656496047973633e-01,7.814344167709350586e-01,7.814031243324279785e-01,7.813718914985656738e-01,7.813406586647033691e-01,7.813094854354858398e-01,7.812781929969787598e-01,7.812469601631164551e-01,7.812157273292541504e-01,7.811844348907470703e-01,7.811532616615295410e-01,7.811220288276672363e-01,7.810908555984497070e-01,7.810595631599426270e-01,7.810283899307250977e-01,7.809971570968627930e-01,7.809659242630004883e-01,7.809346914291381836e-01,7.809035181999206543e-01,7.808723449707031250e-01,7.808411121368408203e-01,7.808099389076232910e-01,7.807787060737609863e-01,7.807474732398986816e-01,7.807163000106811523e-01,7.806851267814636230e-01,7.806539535522460938e-01,7.806227207183837891e-01,7.805915474891662598e-01,7.805604338645935059e-01,7.805292010307312012e-01
7.481156587600708008e-01,7.480869889259338379e-01,7.480583786964416504e-01,7.480297088623046875e-01,7.480010390281677246e-01,7.479724287986755371e-01,7.479438185691833496e-01,7.479152083396911621e-01,7.478865385055541992e-01,7.478579282760620117e-01,7.478293180465698242e-01,7.478006482124328613e-01,7.477720975875854492e-01,7.477434873580932617e-01,7.477148771286010742e-01,7.476862072944641113e-01,7.476576566696166992e-01,7.476290464401245117e-01,7.476004362106323242e-01,7.475718259811401367e-01,7.475432753562927246e-01,7.475146651268005371e-01,7.474859952926635742e-01,7.474574446678161621e-01,7.474288940429687500e-01,7.474002242088317871e-01,7.473716735839843750e-01,7.473431229591369629e-01,7.473145723342895508e-01,7.472859025001525879e-01,7.472573518753051758e-01,7.472288012504577637e-01,7.472001910209655762e-01,7.471716403961181641e-01,7.471430897712707520e-01,7.471145391464233398e-01,7.470859289169311523e-01,7.470573782920837402e-01,7.470288276672363281e-01,7.470002174377441406e-01,7.469717264175415039e-01,7.469431757926940918e-01,7.469146251678466797e-01,7.468860745429992676e-01,7.468575239181518555e-01,7.468289732933044434e-01,7.468004226684570312e-01,7.467718720436096191e-01,7.467433810234069824e-01,7.467148303985595703e-01,7.466862797737121582e-01,7.466577291488647461e-01,7.466292381286621094e-01,7.466006875038146973e-01,7.465721368789672852e-01,7.465436458587646484e-01,7.465150952339172363e-01,7.464866042137145996e-01,7.464581131935119629e-01,7.464296221733093262e-01,7.464010715484619141e-01,7.463725805282592773e-01,7.463440895080566406e-01,7.463155388832092285e-01,7.462870478630065918e-01,7.462585568428039551e-01,7.462300658226013184e-01,7.462015151977539062e-01,7.461730241775512695e-01,7.461445927619934082e-01,7.461160421371459961e-01,7.460875511169433594e-01,7.460591197013854980e-01,7.460306286811828613e-01,7.460021376609802246e-01,7.459736466407775879e-01,7.459452152252197266e-01,7.459166646003723145e-01,7.458882331848144531e-01,7.458597421646118164e-01
7.162069678306579590e-01,7.161807417869567871e-01,7.161544561386108398e-01,7.161282300949096680e-01,7.161020040512084961e-01,7.160757780075073242e-01,7.160494923591613770e-01,7.160232663154602051e-01,7.159970402717590332e-01,7.159708142280578613e-01,7.159445881843566895e-01,7.159183621406555176e-01,7.158921360969543457e-01,7.158659100532531738e-01,7.158396840095520020e-01,7.158134579658508301e-01,7.157872319221496582e-01,7.157610058784484863e-01,7.157347798347473145e-01,7.157086133956909180e-01,7.156823277473449707e-01,7.156561613082885742e-01,7.156299948692321777e-01,7.156037092208862305e-01,7.155775427818298340e-01,7.155513167381286621e-01,7.155251502990722656e-01,7.154989242553710938e-01,7.154727578163146973e-01,7.154465913772583008e-01,7.154203057289123535e-01,7.153941392898559570e-01,7.153679728507995605e-01,7.153418064117431641e-01,7.153155803680419922e-01,7.152894139289855957e-01,7.152632474899291992e-01,7.152370214462280273e-01,7.152108550071716309e-01,7.151846885681152344e-01,7.151585221290588379e-01,7.151323556900024414e-01,7.151061892509460449e-01,7.150800228118896484e-01,7.150537967681884766e-01,7.150276899337768555e-01,7.150015234947204590e-01,7.149753570556640625e-01,7.149491906166076660e-01,7.149230241775512695e-01,7.148969173431396484e-01,7.148706912994384766e-01,7.148445844650268555e-01,7.148184180259704590e-01,7.147923111915588379e-01,7.147661447525024414e-01,7.147399783134460449e-01,7.147138714790344238e-01,7.146877050399780273e-01,7.146615982055664062e-01,7.146354317665100098e-01,7.146093249320983887e-01,7.145831584930419922e-01,7.145570516586303711e-01,7.145309448242187500e-01,7.145047783851623535e-01,7.144786715507507324e-01,7.144525647163391113e-01,7.144264578819274902e-01,7.144002914428710938e-01,7.143741846084594727e-01,7.143480777740478516e-01,7.143219113349914551e-01,7.142958641052246094e-01,7.142697572708129883e-01,7.142436504364013672e-01,7.142174839973449707e-01,7.141914367675781250e-01,7.141653299331665039e-01,7.141391634941101074e-01
6.869089603424072266e-01,6.868848204612731934e-01,6.868606805801391602e-01,6.868365406990051270e-01,6.868123412132263184e-01,6.867882609367370605e-01,6.867641210556030273e-01,6.867399811744689941e-01,6.867158412933349609e-01,6.866917014122009277e-01,6.866676211357116699e-01,6.866434216499328613e-01,6.866193413734436035e-01,6.865952014923095703e-01,6.865711212158203125e-01,6.865469217300415039e-01,6.865228414535522461e-01,6.864987611770629883e-01,6.864745616912841797e-01,6.864504814147949219e-01,6.864264011383056641e-01,6.864022612571716309e-01,6.863781213760375977e-01,6.863540410995483398e-01,6.863299608230590820e-01,6.863058209419250488e-01,6.862817406654357910e-01,6.862576603889465332e-01,6.862335205078125000e-01,6.862094402313232422e-01,6.861853003501892090e-01,6.861612796783447266e-01,6.861371397972106934e-01,6.861130595207214355e-01,6.860889792442321777e-01,6.860648989677429199e-01,6.860407590866088867e-01,6.860166788101196289e-01,6.859926581382751465e-01,6.859685182571411133e-01,6.859444379806518555e-01,6.859203577041625977e-01,6.858963370323181152e-01,6.858721971511840820e-01,6.858481764793395996e-01,6.858240962028503418e-01,6.858000159263610840e-01,6.857759356498718262e-01,6.857519149780273438e-01,6.857278347015380859e-01,6.857037544250488281e-01,6.856796741485595703e-01,6.856556534767150879e-01,6.856315732002258301e-01,6.856074929237365723e-01,6.855834722518920898e-01,6.855593919754028320e-01,6.855353713035583496e-01,6.855112910270690918e-01,6.854872703552246094e-01,6.854631900787353516e-01,6.854391694068908691e-01,6.854151487350463867e-01,6.853910684585571289e-01,6.853670477867126465e-01,6.853430271148681641e-01,6.853190064430236816e-01,6.852949261665344238e-01,6.852709054946899414e-01,6.852468848228454590e-01,6.852228045463562012e-01,6.851987838745117188e-01,6.851748228073120117e-01,6.851508021354675293e-01,6.851267218589782715e-01,6.851027011871337891e-01,6.850787401199340820e-01,6.850546598434448242e-01,6.850306391716003418e-01,6.850066781044006348e-01
6.599137187004089355e-01,6.598914265632629395e-01,6.598691344261169434e-01,6.598468422889709473e-01,6.598246097564697266e-01,6.598023176193237305e-01,6.597800254821777344e-01,6.597577333450317383e-01,6.597355008125305176e-01,6.597132086753845215e-01,6.596909165382385254e-01,6.596686840057373047e-01,6.596464514732360840e-01,6.596240997314453125e-01,6.596018671989440918e-01,6.595796346664428711e-01,6.595573425292968750e-01,6.595350503921508789e-01,6.595128178596496582e-01,6.594905853271484375e-01,6.594682931900024414e-01,6.594460606575012207e-01,6.594238281250000000e-01,6.594015359878540039e-01,6.593793034553527832e-01,6.593570709228515625e-01,6.593348383903503418e-01,6.593125462532043457e-01,6.592903137207031250e-01,6.592680811882019043e-01,6.592457890510559082e-01,6.592235565185546875e-01,6.592013835906982422e-01,6.591791510581970215e-01,6.591568589210510254e-01,6.591346263885498047e-01,6.591124534606933594e-01,6.590901613235473633e-01,6.590679287910461426e-01,6.590457558631896973e-01,6.590235233306884766e-01,6.590012311935424805e-01,6.589790582656860352e-01,6.589568257331848145e-01,6.589345932006835938e-01,6.589123606681823730e-01,6.588901877403259277e-01,6.588679552078247070e-01,6.588457226753234863e-01,6.588235497474670410e-01,6.588013172149658203e-01,6.587790846824645996e-01,6.587569117546081543e-01,6.587346792221069336e-01,6.587125062942504883e-01,6.586902737617492676e-01,6.586681008338928223e-01,6.586458683013916016e-01,6.586236357688903809e-01,6.586014628410339355e-01,6.585792899131774902e-01,6.585571169853210449e-01,6.585348844528198242e-01,6.585127115249633789e-01,6.584905385971069336e-01,6.584683060646057129e-01,6.584461331367492676e-01,6.584239602088928223e-01,6.584017872810363770e-01,6.583795547485351562e-01,6.583573818206787109e-01,6.583352088928222656e-01,6.583130359649658203e-01,6.582908630371093750e-01,6.582686901092529297e-01,6.582465171813964844e-01,6.582243442535400391e-01,6.582021713256835938e-01,6.581799983978271484e-01,6.581578254699707031e-01
6.349600553512573242e-01,6.349394321441650391e-01,6.349188089370727539e-01,6.348981857299804688e-01,6.348775029182434082e-01,6.348568797111511230e-01,6.348362565040588379e-01,6.348156929016113281e-01,6.347950100898742676e-01,6.347743868827819824e-01,6.347538232803344727e-01,6.347331404685974121e-01,6.347125768661499023e-01,6.346919536590576172e-01,6.346713304519653320e-01,6.346507072448730469e-01,6.346300840377807617e-01,6.346095204353332520e-01,6.345888376235961914e-01,6.345682740211486816e-01,6.345476508140563965e-01,6.345270872116088867e-01,6.345064640045166016e-01,6.344858407974243164e-01,6.344652771949768066e-01,6.344446539878845215e-01,6.344240307807922363e-01,6.344034671783447266e-01,6.343829035758972168e-01,6.343622803688049316e-01,6.343416571617126465e-01,6.343210935592651367e-01,6.343004703521728516e-01,6.342799067497253418e-01,6.342593431472778320e-01,6.342387795448303223e-01,6.342181563377380371e-01,6.341975927352905273e-01,6.341770291328430176e-01,6.341564059257507324e-01,6.341358423233032227e-01,6.341152787208557129e-01,6.340947151184082031e-01,6.340740919113159180e-01,6.340535283088684082e-01,6.340329647064208984e-01,6.340123414993286133e-01,6.339917778968811035e-01,6.339712738990783691e-01,6.339507102966308594e-01,6.339300870895385742e-01,6.339095234870910645e-01,6.338890194892883301e-01,6.338683962821960449e-01,6.338478326797485352e-01,6.338273286819458008e-01,6.338067054748535156e-01,6.337861418724060059e-01,6.337656378746032715e-01,6.337450742721557617e-01,6.337245106697082520e-01,6.337039470672607422e-01,6.336834430694580078e-01,6.336628198623657227e-01,6.336423158645629883e-01,6.336217522621154785e-01,6.336012482643127441e-01,6.335806846618652344e-01,6.335601210594177246e-01,6.335396170616149902e-01,6.335190534591674805e-01,6.334984898567199707e-01,6.334779858589172363e-01,6.334574818611145020e-01,6.334369182586669922e-01,6.334163546562194824e-01,6.333958506584167480e-01,6.333752870559692383e-01,6.333547830581665039e-01,6.333342790603637695e-01
6.118248105049133301e-01,6.118056774139404297e-01,6.117864847183227539e-01,6.117673516273498535e-01,6.117482185363769531e-01,6.117290854454040527e-01,6.117098927497863770e-01,6.116907596588134766e-01,6.116716265678405762e-01,6.116524338722229004e-01,6.116333007812500000e-01,6.116141676902770996e-01,6.115950345993041992e-01,6.115758419036865234e-01,6.115567684173583984e-01,6.115376353263854980e-01,6.115184426307678223e-01,6.114993095397949219e-01,6.114801764488220215e-01,6.114611029624938965e-01,6.114419102668762207e-01,6.114227771759033203e-01,6.114037036895751953e-01,6.113845109939575195e-01,6.113653779029846191e-01,6.113463044166564941e-01,6.113271713256835938e-01,6.113080382347106934e-01,6.112889051437377930e-01,6.112697720527648926e-01,6.112506389617919922e-01,6.112315058708190918e-01,6.112124323844909668e-01,6.111932992935180664e-01,6.111741662025451660e-01,6.111550927162170410e-01,6.111359596252441406e-01,6.111168265342712402e-01,6.110977530479431152e-01,6.110786199569702148e-01,6.110595464706420898e-01,6.110404133796691895e-01,6.110212802886962891e-01,6.110022068023681641e-01,6.109830737113952637e-01,6.109640002250671387e-01,6.109448671340942383e-01,6.109257936477661133e-01,6.109066605567932129e-01,6.108875870704650879e-01,6.108685135841369629e-01,6.108493804931640625e-01,6.108303070068359375e-01,6.108112335205078125e-01,6.107921600341796875e-01,6.107730269432067871e-01,6.107539534568786621e-01,6.107348799705505371e-01,6.107157468795776367e-01,6.106966733932495117e-01,6.106775999069213867e-01,6.106585264205932617e-01,6.106393933296203613e-01,6.106203198432922363e-01,6.106012463569641113e-01,6.105821728706359863e-01,6.105630993843078613e-01,6.105440258979797363e-01,6.105249524116516113e-01,6.105058789253234863e-01,6.104868054389953613e-01,6.104677319526672363e-01,6.104486584663391113e-01,6.104295849800109863e-01,6.104105114936828613e-01,6.103914380073547363e-01,6.103723645210266113e-01,6.103532910346984863e-01,6.103342771530151367e-01,6.103151440620422363e-01
5.903161764144897461e-01,5.902983546257019043e-01,5.902805328369140625e-01,5.902627110481262207e-01,5.902448296546936035e-01,5.902270078659057617e-01,5.902091860771179199e-01,5.901913642883300781e-01,5.901735424995422363e-01,5.901557207107543945e-01,5.901378989219665527e-01,5.901200771331787109e-01,5.901022553443908691e-01,5.900844335556030273e-01,5.900666117668151855e-01,5.900487899780273438e-01,5.900309681892395020e-01,5.900132060050964355e-01,5.899953246116638184e-01,5.899775624275207520e-01,5.899597406387329102e-01,5.899419188499450684e-01,5.899240970611572266e-01,5.899062752723693848e-01,5.898885130882263184e-01,5.898706912994384766e-01,5.898528695106506348e-01,5.898351073265075684e-01,5.898172855377197266e-01,5.897994637489318848e-01,5.897817015647888184e-01,5.897638797760009766e-01,5.897460579872131348e-01,5.897282958030700684e-01,5.897104740142822266e-01,5.896927118301391602e-01,5.896748900413513184e-01,5.896571278572082520e-01,5.896393060684204102e-01,5.896214842796325684e-01,5.896037220954895020e-01,5.895859599113464355e-01,5.895681977272033691e-01,5.895503759384155273e-01,5.895326137542724609e-01,5.895147919654846191e-01,5.894969701766967773e-01,5.894792079925537109e-01,5.894614458084106445e-01,5.894436836242675781e-01,5.894258618354797363e-01,5.894080996513366699e-01,5.893903374671936035e-01,5.893725156784057617e-01,5.893547534942626953e-01,5.893369913101196289e-01,5.893192291259765625e-01,5.893014669418334961e-01,5.892837047576904297e-01,5.892659425735473633e-01,5.892481207847595215e-01,5.892303586006164551e-01,5.892125964164733887e-01,5.891948342323303223e-01,5.891770720481872559e-01,5.891593098640441895e-01,5.891415476799011230e-01,5.891237854957580566e-01,5.891060233116149902e-01,5.890882611274719238e-01,5.890704989433288574e-01,5.890527367591857910e-01,5.890349745750427246e-01,5.890172719955444336e-01,5.889994502067565918e-01,5.889817476272583008e-01,5.889639854431152344e-01,5.889462232589721680e-01,5.889284610748291016e-01,5.889107584953308105e-01
5.702684521675109863e-01,5.702518224716186523e-01,5.702351927757263184e-01,5.702185630798339844e-01,5.702019333839416504e-01,5.701853036880493164e-01,5.701686143875122070e-01,5.701519846916198730e-01,5.701353549957275391e-01,5.701187252998352051e-01,5.701020956039428711e-01,5.700854659080505371e-01,5.700688362121582031e-01,5.700522065162658691e-01,5.700355768203735352e-01,5.700189471244812012e-01,5.700023174285888672e-01,5.699856877326965332e-01,5.699690580368041992e-01,5.699524283409118652e-01,5.699357986450195312e-01,5.699191689491271973e-01,5.699025988578796387e-01,5.698859095573425293e-01,5.698693394660949707e-01,5.698527097702026367e-01,5.698360800743103027e-01,5.698194503784179688e-01,5.698028802871704102e-01,5.697862505912780762e-01,5.697696208953857422e-01,5.697529911994934082e-01,5.697364211082458496e-01,5.697197914123535156e-01,5.697031617164611816e-01,5.696865916252136230e-01,5.696699619293212891e-01,5.696533322334289551e-01,5.696367621421813965e-01,5.696201324462890625e-01,5.696035623550415039e-01,5.695869326591491699e-01,5.695703625679016113e-01,5.695537328720092773e-01,5.695371031761169434e-01,5.695205330848693848e-01,5.695039629936218262e-01,5.694873332977294922e-01,5.694707036018371582e-01,5.694541335105895996e-01,5.694375634193420410e-01,5.694209337234497070e-01,5.694043636322021484e-01,5.693877935409545898e-01,5.693712234497070312e-01,5.693545937538146973e-01,5.693380236625671387e-01,5.693214535713195801e-01,5.693048238754272461e-01,5.692882537841796875e-01,5.692716836929321289e-01,5.692551136016845703e-01,5.692384839057922363e-01,5.692219138145446777e-01,5.692053437232971191e-01,5.691887140274047852e-01,5.691721439361572266e-01,5.691555738449096680e-01,5.691390037536621094e-01,5.691224336624145508e-01,5.691058635711669922e-01,5.690892934799194336e-01,5.690727233886718750e-01,5.690561532974243164e-01,5.690395832061767578e-01,5.690230131149291992e-01,5.690064430236816406e-01,5.689898729324340820e-01,5.689733028411865234e-01,5.689567327499389648e-01
