5.000000000000000000e+00,5.000000000000000000e+00,5.000000000000000000e+00,5.000000000000000000e+00,5.000000000000000000e+00,5.000000000000000000e+00,5.000000000000000000e+00,5.000000000000000000e+00,5.000000000000000000e+00,5.000000000000000000e+00,5.000000000000000000e+00,5.000000000000000000e+00,5.000000000000000000e+00,5.000000000000000000e+00,5.000000000000000000e+00,5.000000000000000000e+00,5.000000000000000000e+00,5.000000000000000000e+00,5.000000000000000000e+00,5.000000000000000000e+00,5.000000000000000000e+00,5.000000000000000000e+00,5.000000000000000000e+00,5.000000000000000000e+00,5.000000000000000000e+00,5.000000000000000000e+00,5.000000000000000000e+00,5.000000000000000000e+00,5.000000000000000000e+00,5.000000000000000000e+00,5.000000000000000000e+00,5.000000000000000000e+00,5.000000000000000000e+00,5.000000000000000000e+00,5.000000000000000000e+00,5.000000000000000000e+00,5.000000000000000000e+00,5.000000000000000000e+00,1.517428636550903320e+00,1.505506396293640137e+00,1.477676987648010254e+00,1.428101539611816406e+00,1.398975610733032227e+00,1.393308877944946289e+00,1.389534354209899902e+00,1.410095453262329102e+00,1.434409856796264648e+00,1.426509022712707520e+00,1.441674113273620605e+00,1.448960542678833008e+00,1.448586106300354004e+00,1.472369670867919922e+00,3.175484895706176758e+00,1.556617975234985352e+00,1.527076601982116699e+00,1.503220796585083008e+00,1.505054116249084473e+00,2.801450014114379883e+00,2.736973285675048828e+00,2.675398111343383789e+00,2.616532087326049805e+00,2.560200691223144531e+00,2.506243944168090820e+00,2.454514503479003906e+00,2.404877185821533203e+00,2.357207775115966797e+00,2.311391353607177734e+00,2.267322063446044922e+00,2.224901914596557617e+00,2.184039831161499023e+00,2.144651412963867188e+00,2.106658935546875000e+00,2.069988727569580078e+00,2.034573554992675781e+00,2.000349760055541992e+00,1.967258453369140625e+00,1.935243606567382812e+00,1.904254436492919922e+00,1.874242186546325684e+00,1.845161199569702148e+00
5.000000000000000000e+00,5.000000000000000000e+00,5.000000000000000000e+00,5.000000000000000000e+00,5.000000000000000000e+00,5.000000000000000000e+00,5.000000000000000000e+00,5.000000000000000000e+00,5.000000000000000000e+00,5.000000000000000000e+00,5.000000000000000000e+00,5.000000000000000000e+00,5.000000000000000000e+00,5.000000000000000000e+00,5.000000000000000000e+00,5.000000000000000000e+00,5.000000000000000000e+00,5.000000000000000000e+00,5.000000000000000000e+00,5.000000000000000000e+00,5.000000000000000000e+00,5.000000000000000000e+00,5.000000000000000000e+00,5.000000000000000000e+00,5.000000000000000000e+00,5.000000000000000000e+00,5.000000000000000000e+00,5.000000000000000000e+00,5.000000000000000000e+00,5.000000000000000000e+00,5.000000000000000000e+00,5.000000000000000000e+00,5.000000000000000000e+00,5.000000000000000000e+00,5.000000000000000000e+00,5.000000000000000000e+00,5.000000000000000000e+00,5.000000000000000000e+00,1.513885021209716797e+00,1.499986052513122559e+00,1.477039098739624023e+00,1.417911767959594727e+00,1.384548187255859375e+00,1.378483533859252930e+00,1.372471809387207031e+00,1.371404767036437988e+00,1.424152016639709473e+00,1.449211716651916504e+00,1.455065727233886719e+00,1.448411703109741211e+00,1.443603515625000000e+00,1.463886141777038574e+00,3.175544261932373047e+00,1.578330516815185547e+00,1.521619677543640137e+00,1.499000787734985352e+00,1.489387273788452148e+00,2.801496028900146484e+00,2.737017393112182617e+00,2.675439834594726562e+00,2.616572141647338867e+00,2.560239076614379883e+00,2.506280660629272461e+00,2.454549789428710938e+00,2.404911041259765625e+00,2.357240438461303711e+00,2.311422824859619141e+00,2.267352104187011719e+00,2.224931001663208008e+00,2.184067726135253906e+00,2.144678592681884766e+00,2.106684923171997070e+00,2.070013761520385742e+00,2.034597873687744141e+00,2.000373125076293945e+00,1.967280983924865723e+00,1.935265660285949707e+00,1.904275655746459961e+00,1.874262690544128418e+00,1.845181107521057129e+00
5.000000000000000000e+00,5.000000000000000000e+00,5.000000000000000000e+00,5.000000000000000000e+00,5.000000000000000000e+00,5.000000000000000000e+00,5.000000000000000000e+00,5.000000000000000000e+00,5.000000000000000000e+00,5.000000000000000000e+00,5.000000000000000000e+00,5.000000000000000000e+00,5.000000000000000000e+00,5.000000000000000000e+00,5.000000000000000000e+00,5.000000000000000000e+00,5.000000000000000000e+00,5.000000000000000000e+00,5.000000000000000000e+00,5.000000000000000000e+00,5.000000000000000000e+00,5.000000000000000000e+00,5.000000000000000000e+00,5.000000000000000000e+00,5.000000000000000000e+00,5.000000000000000000e+00,5.000000000000000000e+00,5.000000000000000000e+00,5.000000000000000000e+00,5.000000000000000000e+00,5.000000000000000000e+00,5.000000000000000000e+00,5.000000000000000000e+00,5.000000000000000000e+00,5.000000000000000000e+00,5.000000000000000000e+00,5.000000000000000000e+00,5.000000000000000000e+00,1.510477662086486816e+00,1.493793606758117676e+00,1.477182984352111816e+00,1.411102414131164551e+00,1.380053520202636719e+00,1.373778223991394043e+00,1.367635965347290039e+00,1.361718416213989258e+00,1.386315822601318359e+00,1.472040176391601562e+00,1.448237061500549316e+00,1.441844224929809570e+00,1.435016870498657227e+00,1.445270299911499023e+00,1.476465702056884766e+00,3.093007802963256836e+00,1.539728283882141113e+00,1.498927831649780273e+00,1.493300914764404297e+00,1.507006287574768066e+00,2.737061023712158203e+00,2.675481796264648438e+00,2.616612195968627930e+00,2.560277462005615234e+00,2.506317615509033203e+00,2.454585075378417969e+00,2.404944896697998047e+00,2.357272863388061523e+00,2.311454057693481445e+00,2.267382383346557617e+00,2.224959850311279297e+00,2.184095621109008789e+00,2.144705533981323242e+00,2.106710910797119141e+00,2.070039033889770508e+00,2.034621953964233398e+00,2.000396728515625000e+00,1.967303633689880371e+00,1.935287594795227051e+00,1.904297113418579102e+00,1.874283313751220703e+00,1.845200896263122559e+00
5.000000000000000000e+00,5.000000000000000000e+00,5.000000000000000000e+00,5.000000000000000000e+00,5.000000000000000000e+00,5.000000000000000000e+00,5.000000000000000000e+00,5.000000000000000000e+00,5.000000000000000000e+00,5.000000000000000000e+00,5.000000000000000000e+00,5.000000000000000000e+00,5.000000000000000000e+00,5.000000000000000000e+00,5.000000000000000000e+00,5.000000000000000000e+00,5.000000000000000000e+00,5.000000000000000000e+00,5.000000000000000000e+00,5.000000000000000000e+00,5.000000000000000000e+00,5.000000000000000000e+00,5.000000000000000000e+00,5.000000000000000000e+00,5.000000000000000000e+00,5.000000000000000000e+00,5.000000000000000000e+00,5.000000000000000000e+00,5.000000000000000000e+00,5.000000000000000000e+00,5.000000000000000000e+00,5.000000000000000000e+00,5.000000000000000000e+00,5.000000000000000000e+00,5.000000000000000000e+00,5.000000000000000000e+00,5.000000000000000000e+00,5.000000000000000000e+00,1.499419689178466797e+00,1.483052253723144531e+00,1.483391523361206055e+00,1.407808780670166016e+00,1.375624418258666992e+00,1.369389653205871582e+00,1.363322615623474121e+00,1.357309341430664062e+00,1.375550270080566406e+00,1.405509710311889648e+00,1.439852356910705566e+00,1.432466030120849609e+00,1.425155043601989746e+00,1.427546262741088867e+00,1.458748221397399902e+00,3.093063592910766602e+00,3.014652967453002930e+00,2.940119504928588867e+00,1.470793604850769043e+00,1.487237811088562012e+00,2.737105131149291992e+00,2.675523757934570312e+00,2.616652488708496094e+00,2.560315847396850586e+00,2.506354331970214844e+00,2.454620361328125000e+00,2.404978752136230469e+00,2.357305526733398438e+00,2.311485290527343750e+00,2.267412424087524414e+00,2.224988937377929688e+00,2.184123516082763672e+00,2.144732475280761719e+00,2.106736898422241211e+00,2.070064067840576172e+00,2.034646272659301758e+00,2.000420093536376953e+00,1.967326283454895020e+00,1.935309410095214844e+00,1.904318213462829590e+00,1.874303936958312988e+00,1.845221042633056641e+00
5.000000000000000000e+00,5.000000000000000000e+00,5.000000000000000000e+00,5.000000000000000000e+00,5.000000000000000000e+00,5.000000000000000000e+00,5.000000000000000000e+00,5.000000000000000000e+00,5.000000000000000000e+00,5.000000000000000000e+00,5.000000000000000000e+00,5.000000000000000000e+00,5.000000000000000000e+00,5.000000000000000000e+00,5.000000000000000000e+00,5.000000000000000000e+00,5.000000000000000000e+00,5.000000000000000000e+00,5.000000000000000000e+00,5.000000000000000000e+00,5.000000000000000000e+00,5.000000000000000000e+00,5.000000000000000000e+00,5.000000000000000000e+00,5.000000000000000000e+00,5.000000000000000000e+00,5.000000000000000000e+00,5.000000000000000000e+00,5.000000000000000000e+00,5.000000000000000000e+00,5.000000000000000000e+00,5.000000000000000000e+00,5.000000000000000000e+00,5.000000000000000000e+00,5.000000000000000000e+00,5.000000000000000000e+00,5.000000000000000000e+00,5.000000000000000000e+00,1.492347717285156250e+00,1.474516630172729492e+00,1.496521234512329102e+00,1.402580022811889648e+00,1.373288393020629883e+00,1.366965532302856445e+00,1.360920071601867676e+00,1.354927778244018555e+00,1.369472503662109375e+00,1.397335767745971680e+00,1.432262659072875977e+00,1.426678180694580078e+00,1.421291708946228027e+00,1.422102928161621094e+00,1.453587293624877930e+00,3.093119621276855469e+00,3.014706373214721680e+00,1.462274670600891113e+00,1.444330930709838867e+00,1.446274042129516602e+00,2.737148761749267578e+00,2.675565719604492188e+00,2.616692304611206055e+00,2.560354471206665039e+00,2.506391286849975586e+00,2.454655647277832031e+00,2.405012607574462891e+00,2.357337951660156250e+00,2.311516523361206055e+00,2.267442703247070312e+00,2.225017786026000977e+00,2.184151649475097656e+00,2.144759416580200195e+00,2.106762886047363281e+00,2.070089101791381836e+00,2.034670591354370117e+00,2.000443458557128906e+00,1.967349052429199219e+00,1.935331344604492188e+00,1.904339432716369629e+00,1.874324440956115723e+00,1.845240950584411621e+00
5.000000000000000000e+00,5.000000000000000000e+00,5.000000000000000000e+00,5.000000000000000000e+00,5.000000000000000000e+00,5.000000000000000000e+00,5.000000000000000000e+00,5.000000000000000000e+00,5.000000000000000000e+00,5.000000000000000000e+00,5.000000000000000000e+00,5.000000000000000000e+00,5.000000000000000000e+00,5.000000000000000000e+00,5.000000000000000000e+00,5.000000000000000000e+00,5.000000000000000000e+00,5.000000000000000000e+00,5.000000000000000000e+00,5.000000000000000000e+00,5.000000000000000000e+00,5.000000000000000000e+00,5.000000000000000000e+00,5.000000000000000000e+00,5.000000000000000000e+00,5.000000000000000000e+00,5.000000000000000000e+00,5.000000000000000000e+00,5.000000000000000000e+00,5.000000000000000000e+00,5.000000000000000000e+00,5.000000000000000000e+00,5.000000000000000000e+00,5.000000000000000000e+00,5.000000000000000000e+00,5.000000000000000000e+00,5.000000000000000000e+00,5.000000000000000000e+00,1.499052882194519043e+00,1.488756060600280762e+00,1.511220335960388184e+00,1.411273360252380371e+00,1.371876358985900879e+00,1.364652395248413086e+00,1.358525872230529785e+00,1.352554798126220703e+00,1.364692568778991699e+00,1.391420960426330566e+00,1.431111454963684082e+00,1.425219893455505371e+00,1.419376730918884277e+00,1.417472243309020996e+00,1.449087262153625488e+00,3.093175888061523438e+00,3.014759302139282227e+00,2.940220832824707031e+00,1.426773667335510254e+00,1.438020944595336914e+00,1.457913875579833984e+00,2.675607442855834961e+00,2.616732597351074219e+00,2.560392856597900391e+00,2.506428003311157227e+00,2.454690933227539062e+00,2.405046463012695312e+00,2.357370615005493164e+00,2.311547994613647461e+00,2.267472743988037109e+00,2.225046873092651367e+00,2.184179544448852539e+00,2.144786357879638672e+00,2.106788873672485352e+00,2.070114135742187500e+00,2.034694910049438477e+00,2.000467061996459961e+00,1.967371702194213867e+00,1.935353398323059082e+00,1.904360771179199219e+00,1.874344944953918457e+00,1.845260858535766602e+00
5.000000000000000000e+00,4.106065750122070312e+00,5.000000000000000000e+00,5.000000000000000000e+00,5.000000000000000000e+00,5.000000000000000000e+00,5.000000000000000000e+00,5.000000000000000000e+00,5.000000000000000000e+00,5.000000000000000000e+00,5.000000000000000000e+00,5.000000000000000000e+00,5.000000000000000000e+00,5.000000000000000000e+00,5.000000000000000000e+00,5.000000000000000000e+00,5.000000000000000000e+00,5.000000000000000000e+00,5.000000000000000000e+00,5.000000000000000000e+00,5.000000000000000000e+00,5.000000000000000000e+00,5.000000000000000000e+00,5.000000000000000000e+00,5.000000000000000000e+00,5.000000000000000000e+00,5.000000000000000000e+00,5.000000000000000000e+00,5.000000000000000000e+00,5.000000000000000000e+00,5.000000000000000000e+00,5.000000000000000000e+00,5.000000000000000000e+00,5.000000000000000000e+00,5.000000000000000000e+00,5.000000000000000000e+00,5.000000000000000000e+00,5.000000000000000000e+00,1.492082715034484863e+00,1.478081703186035156e+00,4.673590183258056641e+00,1.420075058937072754e+00,1.375937700271606445e+00,1.363258123397827148e+00,1.356140255928039551e+00,1.350189805030822754e+00,1.359946012496948242e+00,1.384867191314697266e+00,1.434076666831970215e+00,1.425225734710693359e+00,1.419993996620178223e+00,1.416054010391235352e+00,1.447605133056640625e+00,3.093231916427612305e+00,3.014812707901000977e+00,2.940271377563476562e+00,1.420761823654174805e+00,1.473410129547119141e+00,1.411543965339660645e+00,2.675649642944335938e+00,2.616772651672363281e+00,2.560431241989135742e+00,2.506464719772338867e+00,2.454726219177246094e+00,2.405080556869506836e+00,2.357403278350830078e+00,2.311579227447509766e+00,2.267502784729003906e+00,2.225075721740722656e+00,2.184207439422607422e+00,2.144813299179077148e+00,2.106814861297607422e+00,2.070139408111572266e+00,2.034718990325927734e+00,2.000490427017211914e+00,1.967394232749938965e+00,1.935375332832336426e+00,1.904381990432739258e+00,1.874365687370300293e+00,1.845280647277832031e+00
5.000000000000000000e+00,4.090556144714355469e+00,4.136288642883300781e+00,5.000000000000000000e+00,5.000000000000000000e+00,5.000000000000000000e+00,5.000000000000000000e+00,5.000000000000000000e+00,5.000000000000000000e+00,5.000000000000000000e+00,5.000000000000000000e+00,5.000000000000000000e+00,5.000000000000000000e+00,5.000000000000000000e+00,5.000000000000000000e+00,5.000000000000000000e+00,5.000000000000000000e+00,5.000000000000000000e+00,5.000000000000000000e+00,5.000000000000000000e+00,5.000000000000000000e+00,5.000000000000000000e+00,5.000000000000000000e+00,5.000000000000000000e+00,5.000000000000000000e+00,5.000000000000000000e+00,5.000000000000000000e+00,5.000000000000000000e+00,5.000000000000000000e+00,5.000000000000000000e+00,5.000000000000000000e+00,5.000000000000000000e+00,5.000000000000000000e+00,5.000000000000000000e+00,5.000000000000000000e+00,5.000000000000000000e+00,5.000000000000000000e+00,5.000000000000000000e+00,1.477267503738403320e+00,1.461342692375183105e+00,1.458542943000793457e+00,1.437266111373901367e+00,1.384687304496765137e+00,1.361866712570190430e+00,1.354747653007507324e+00,1.347833275794982910e+00,1.355232119560241699e+00,1.378375053405761719e+00,1.436137914657592773e+00,1.426080107688903809e+00,1.420876383781433105e+00,1.415676236152648926e+00,1.446126103401184082e+00,3.093287944793701172e+00,3.014865875244140625e+00,2.940322160720825195e+00,2.869375228881835938e+00,2.801771879196166992e+00,1.398245453834533691e+00,2.675691366195678711e+00,2.616812705993652344e+00,2.560469627380371094e+00,2.506501436233520508e+00,2.454761505126953125e+00,2.405114173889160156e+00,2.357435703277587891e+00,2.311610460281372070e+00,2.267532825469970703e+00,2.225104808807373047e+00,2.184235572814941406e+00,2.144840240478515625e+00,2.106840848922729492e+00,2.070164442062377930e+00,2.034743309020996094e+00,2.000513792037963867e+00,1.967416882514953613e+00,1.935397148132324219e+00,1.904403209686279297e+00,1.874386191368103027e+00,1.845300793647766113e+00
5.000000000000000000e+00,4.101481914520263672e+00,4.148334026336669922e+00,5.000000000000000000e+00,5.000000000000000000e+00,5.000000000000000000e+00,5.000000000000000000e+00,5.000000000000000000e+00,5.000000000000000000e+00,5.000000000000000000e+00,5.000000000000000000e+00,5.000000000000000000e+00,5.000000000000000000e+00,5.000000000000000000e+00,5.000000000000000000e+00,5.000000000000000000e+00,5.000000000000000000e+00,5.000000000000000000e+00,5.000000000000000000e+00,5.000000000000000000e+00,5.000000000000000000e+00,5.000000000000000000e+00,5.000000000000000000e+00,5.000000000000000000e+00,5.000000000000000000e+00,5.000000000000000000e+00,5.000000000000000000e+00,5.000000000000000000e+00,5.000000000000000000e+00,5.000000000000000000e+00,5.000000000000000000e+00,5.000000000000000000e+00,5.000000000000000000e+00,5.000000000000000000e+00,5.000000000000000000e+00,5.000000000000000000e+00,5.000000000000000000e+00,5.000000000000000000e+00,1.460904598236083984e+00,1.460919380187988281e+00,1.447065949440002441e+00,1.459162712097167969e+00,1.393548727035522461e+00,1.360478043556213379e+00,1.353373408317565918e+00,1.346114635467529297e+00,1.349086046218872070e+00,1.371943473815917969e+00,1.438157558441162109e+00,1.425427317619323730e+00,1.421759724617004395e+00,1.416553258895874023e+00,1.445286631584167480e+00,3.093343973159790039e+00,3.014919281005859375e+00,2.940372705459594727e+00,2.869423627853393555e+00,2.801817893981933594e+00,1.487099528312683105e+00,1.421565413475036621e+00,2.616852760314941406e+00,2.560508012771606445e+00,2.506538391113281250e+00,2.454796791076660156e+00,2.405148267745971680e+00,2.357468366622924805e+00,2.311641693115234375e+00,2.267563104629516602e+00,2.225133657455444336e+00,2.184263229370117188e+00,2.144867181777954102e+00,2.106866836547851562e+00,2.070189476013183594e+00,2.034767627716064453e+00,2.000537157058715820e+00,1.967439770698547363e+00,1.935419082641601562e+00,1.904424428939819336e+00,1.874406695365905762e+00,1.845320701599121094e+00
5.000000000000000000e+00,4.168702602386474609e+00,4.210209846496582031e+00,5.000000000000000000e+00,5.000000000000000000e+00,5.000000000000000000e+00,5.000000000000000000e+00,5.000000000000000000e+00,5.000000000000000000e+00,5.000000000000000000e+00,5.000000000000000000e+00,5.000000000000000000e+00,5.000000000000000000e+00,5.000000000000000000e+00,5.000000000000000000e+00,5.000000000000000000e+00,5.000000000000000000e+00,5.000000000000000000e+00,5.000000000000000000e+00,5.000000000000000000e+00,5.000000000000000000e+00,5.000000000000000000e+00,5.000000000000000000e+00,5.000000000000000000e+00,5.000000000000000000e+00,5.000000000000000000e+00,5.000000000000000000e+00,5.000000000000000000e+00,5.000000000000000000e+00,5.000000000000000000e+00,5.000000000000000000e+00,5.000000000000000000e+00,5.000000000000000000e+00,5.000000000000000000e+00,5.000000000000000000e+00,5.000000000000000000e+00,5.000000000000000000e+00,5.000000000000000000e+00,1.469961762428283691e+00,4.865195274353027344e+00,1.442730784416198730e+00,4.497216224670410156e+00,1.402524352073669434e+00,1.358403801918029785e+00,1.349206328392028809e+00,1.341916918754577637e+00,1.343179464340209961e+00,1.365731120109558105e+00,1.440183162689208984e+00,1.424775362014770508e+00,1.421504378318786621e+00,1.417431473731994629e+00,1.445766806602478027e+00,3.093400001525878906e+00,3.014972209930419922e+00,2.940423250198364258e+00,2.869472026824951172e+00,2.801863908767700195e+00,2.737368345260620117e+00,2.675775289535522461e+00,2.616893053054809570e+00,2.560546398162841797e+00,2.506575107574462891e+00,2.454832077026367188e+00,2.405182123184204102e+00,2.357500791549682617e+00,2.311673164367675781e+00,2.267593145370483398e+00,2.225162744522094727e+00,2.184291362762451172e+00,2.144893884658813477e+00,2.106892824172973633e+00,2.070214748382568359e+00,2.034791707992553711e+00,2.000560760498046875e+00,1.967462301254272461e+00,1.935441136360168457e+00,1.904445767402648926e+00,1.874427199363708496e+00,1.845340609550476074e+00
4.084784507751464844e+00,4.124882221221923828e+00,4.138420581817626953e+00,4.217993736267089844e+00,4.256900310516357422e+00,5.000000000000000000e+00,5.000000000000000000e+00,5.000000000000000000e+00,5.000000000000000000e+00,5.000000000000000000e+00,5.000000000000000000e+00,5.000000000000000000e+00,5.000000000000000000e+00,5.000000000000000000e+00,5.000000000000000000e+00,5.000000000000000000e+00,5.000000000000000000e+00,5.000000000000000000e+00,5.000000000000000000e+00,5.000000000000000000e+00,5.000000000000000000e+00,5.000000000000000000e+00,5.000000000000000000e+00,5.000000000000000000e+00,5.000000000000000000e+00,5.000000000000000000e+00,5.000000000000000000e+00,5.000000000000000000e+00,5.000000000000000000e+00,5.000000000000000000e+00,5.000000000000000000e+00,5.000000000000000000e+00,5.000000000000000000e+00,5.000000000000000000e+00,5.000000000000000000e+00,5.000000000000000000e+00,5.000000000000000000e+00,5.000000000000000000e+00,1.464156031608581543e+00,4.865334033966064453e+00,4.674102306365966797e+00,4.497334957122802734e+00,1.414385318756103516e+00,1.366703510284423828e+00,1.344989299774169922e+00,1.337745428085327148e+00,1.337324261665344238e+00,1.359678149223327637e+00,1.442214250564575195e+00,1.424123883247375488e+00,1.420855998992919922e+00,1.417829155921936035e+00,1.445943117141723633e+00,3.093456029891967773e+00,3.015025615692138672e+00,2.940473794937133789e+00,2.869520187377929688e+00,2.801909923553466797e+00,2.737412214279174805e+00,2.675817251205444336e+00,2.616933107376098633e+00,2.560584783554077148e+00,2.506612062454223633e+00,2.454867362976074219e+00,2.405215978622436523e+00,2.357533454895019531e+00,2.311704397201538086e+00,2.267623186111450195e+00,2.225191831588745117e+00,2.184319257736206055e+00,2.144921064376831055e+00,2.106918811798095703e+00,2.070239782333374023e+00,2.034816026687622070e+00,2.000584125518798828e+00,1.967484951019287109e+00,1.935463070869445801e+00,1.904466986656188965e+00,1.874447941780090332e+00,1.845360398292541504e+00
4.050127506256103516e+00,4.078432559967041016e+00,4.111927509307861328e+00,4.168726444244384766e+00,4.252137184143066406e+00,4.296607971191406250e+00,5.000000000000000000e+00,5.000000000000000000e+00,5.000000000000000000e+00,5.000000000000000000e+00,5.000000000000000000e+00,5.000000000000000000e+00,5.000000000000000000e+00,5.000000000000000000e+00,5.000000000000000000e+00,5.000000000000000000e+00,5.000000000000000000e+00,5.000000000000000000e+00,5.000000000000000000e+00,5.000000000000000000e+00,5.000000000000000000e+00,5.000000000000000000e+00,5.000000000000000000e+00,5.000000000000000000e+00,5.000000000000000000e+00,5.000000000000000000e+00,5.000000000000000000e+00,5.000000000000000000e+00,5.000000000000000000e+00,5.000000000000000000e+00,5.000000000000000000e+00,5.000000000000000000e+00,5.000000000000000000e+00,5.000000000000000000e+00,5.000000000000000000e+00,5.000000000000000000e+00,5.000000000000000000e+00,5.000000000000000000e+00,1.458360314369201660e+00,4.865472316741943359e+00,4.674230575561523438e+00,4.497453212738037109e+00,1.435004472732543945e+00,1.376662969589233398e+00,1.344886779785156250e+00,1.333599567413330078e+00,1.331519961357116699e+00,1.352114200592041016e+00,1.442932009696960449e+00,1.424605846405029297e+00,1.421585679054260254e+00,1.418578267097473145e+00,1.442379355430603027e+00,3.093512058258056641e+00,3.015078783035278320e+00,2.940524578094482422e+00,2.869568347930908203e+00,2.801955699920654297e+00,2.737456083297729492e+00,2.675858974456787109e+00,2.616973161697387695e+00,2.560623168945312500e+00,2.506648540496826172e+00,2.454902648925781250e+00,2.405249834060668945e+00,2.357565879821777344e+00,2.311735630035400391e+00,2.267653226852416992e+00,2.225220918655395508e+00,2.184347152709960938e+00,2.144948005676269531e+00,2.106944799423217773e+00,2.070264816284179688e+00,2.034840345382690430e+00,2.000607490539550781e+00,1.967507600784301758e+00,1.935484886169433594e+00,1.904488205909729004e+00,1.874468445777893066e+00,1.845380544662475586e+00
4.060036182403564453e+00,4.079675674438476562e+00,4.111259937286376953e+00,4.169517517089843750e+00,4.281227588653564453e+00,4.318588256835937500e+00,5.000000000000000000e+00,5.000000000000000000e+00,5.000000000000000000e+00,5.000000000000000000e+00,5.000000000000000000e+00,5.000000000000000000e+00,5.000000000000000000e+00,5.000000000000000000e+00,5.000000000000000000e+00,5.000000000000000000e+00,5.000000000000000000e+00,5.000000000000000000e+00,5.000000000000000000e+00,5.000000000000000000e+00,5.000000000000000000e+00,5.000000000000000000e+00,5.000000000000000000e+00,5.000000000000000000e+00,5.000000000000000000e+00,5.000000000000000000e+00,5.000000000000000000e+00,5.000000000000000000e+00,5.000000000000000000e+00,5.000000000000000000e+00,5.000000000000000000e+00,5.000000000000000000e+00,5.000000000000000000e+00,5.000000000000000000e+00,5.000000000000000000e+00,5.000000000000000000e+00,5.000000000000000000e+00,5.000000000000000000e+00,1.453374743461608887e+00,4.865611076354980469e+00,4.674358367919921875e+00,4.497571945190429688e+00,1.450628280639648438e+00,1.386467337608337402e+00,1.345160126686096191e+00,1.331368207931518555e+00,1.325765967369079590e+00,1.344154119491577148e+00,1.442360758781433105e+00,1.423209309577941895e+00,1.422338724136352539e+00,1.419328093528747559e+00,1.438833117485046387e+00,3.093568086624145508e+00,3.015132188796997070e+00,2.940575122833251953e+00,2.869616508483886719e+00,2.802001953125000000e+00,2.737499952316284180e+00,2.675901174545288086e+00,2.617013454437255859e+00,2.560661554336547852e+00,2.506685495376586914e+00,2.454937934875488281e+00,2.405283689498901367e+00,2.357598543167114258e+00,2.311766862869262695e+00,2.267683506011962891e+00,2.225250005722045898e+00,2.184375047683715820e+00,2.144974946975708008e+00,2.106970787048339844e+00,2.070289850234985352e+00,2.034864664077758789e+00,2.000630855560302734e+00,1.967530369758605957e+00,1.935507059097290039e+00,1.904509305953979492e+00,1.874489068984985352e+00,1.845400452613830566e+00
4.057500362396240234e+00,4.077014446258544922e+00,4.113055229187011719e+00,4.173021316528320312e+00,4.280754566192626953e+00,4.327934265136718750e+00,5.000000000000000000e+00,5.000000000000000000e+00,5.000000000000000000e+00,5.000000000000000000e+00,5.000000000000000000e+00,5.000000000000000000e+00,5.000000000000000000e+00,5.000000000000000000e+00,5.000000000000000000e+00,5.000000000000000000e+00,5.000000000000000000e+00,5.000000000000000000e+00,5.000000000000000000e+00,5.000000000000000000e+00,5.000000000000000000e+00,5.000000000000000000e+00,5.000000000000000000e+00,5.000000000000000000e+00,5.000000000000000000e+00,5.000000000000000000e+00,5.000000000000000000e+00,5.000000000000000000e+00,5.000000000000000000e+00,5.000000000000000000e+00,5.000000000000000000e+00,5.000000000000000000e+00,5.000000000000000000e+00,5.000000000000000000e+00,5.000000000000000000e+00,5.000000000000000000e+00,5.000000000000000000e+00,5.000000000000000000e+00,5.000000000000000000e+00,4.865750312805175781e+00,4.674486160278320312e+00,4.497690200805664062e+00,4.333780288696289062e+00,1.399208903312683105e+00,1.346982121467590332e+00,1.331636190414428711e+00,1.319841265678405762e+00,1.336287140846252441e+00,1.443177580833435059e+00,1.421766161918640137e+00,1.422269940376281738e+00,1.420078873634338379e+00,1.435304284095764160e+00,3.093624114990234375e+00,3.015185356140136719e+00,2.940625905990600586e+00,2.869664907455444336e+00,2.802047729492187500e+00,2.737543821334838867e+00,2.675943136215209961e+00,2.617053508758544922e+00,2.560699939727783203e+00,2.506722211837768555e+00,2.454973220825195312e+00,2.405317783355712891e+00,2.357630968093872070e+00,2.311798334121704102e+00,2.267713785171508789e+00,2.225278854370117188e+00,2.184403181076049805e+00,2.145001888275146484e+00,2.106996774673461914e+00,2.070315122604370117e+00,2.034888744354248047e+00,2.000654458999633789e+00,1.967553019523620605e+00,1.935528874397277832e+00,1.904530763626098633e+00,1.874509572982788086e+00,1.845420360565185547e+00
4.051319599151611328e+00,4.081518650054931641e+00,4.112673759460449219e+00,4.170247077941894531e+00,4.301055908203125000e+00,4.340770244598388672e+00,5.000000000000000000e+00,5.000000000000000000e+00,5.000000000000000000e+00,5.000000000000000000e+00,5.000000000000000000e+00,5.000000000000000000e+00,5.000000000000000000e+00,5.000000000000000000e+00,5.000000000000000000e+00,5.000000000000000000e+00,5.000000000000000000e+00,5.000000000000000000e+00,5.000000000000000000e+00,5.000000000000000000e+00,5.000000000000000000e+00,5.000000000000000000e+00,5.000000000000000000e+00,5.000000000000000000e+00,5.000000000000000000e+00,5.000000000000000000e+00,5.000000000000000000e+00,5.000000000000000000e+00,5.000000000000000000e+00,5.000000000000000000e+00,5.000000000000000000e+00,5.000000000000000000e+00,5.000000000000000000e+00,5.000000000000000000e+00,5.000000000000000000e+00,5.000000000000000000e+00,5.000000000000000000e+00,5.000000000000000000e+00,5.000000000000000000e+00,4.865888595581054688e+00,4.674614429473876953e+00,4.497808456420898438e+00,4.333889961242675781e+00,1.412895441055297852e+00,1.357806086540222168e+00,1.331247568130493164e+00,1.317622065544128418e+00,1.333025097846984863e+00,1.359105706214904785e+00,1.422257542610168457e+00,1.420828700065612793e+00,1.420830249786376953e+00,1.431792855262756348e+00,3.093680143356323242e+00,3.015238523483276367e+00,2.940676689147949219e+00,2.869713068008422852e+00,2.802093744277954102e+00,2.737587690353393555e+00,2.675985097885131836e+00,2.617093563079833984e+00,2.560738325119018555e+00,2.506759166717529297e+00,2.455008745193481445e+00,2.405351400375366211e+00,2.357663631439208984e+00,2.311829566955566406e+00,2.267743825912475586e+00,2.225307941436767578e+00,2.184431076049804688e+00,2.145028829574584961e+00,2.107023000717163086e+00,2.070340156555175781e+00,2.034913063049316406e+00,2.000677824020385742e+00,1.967575669288635254e+00,1.935550808906555176e+00,1.904551982879638672e+00,1.874530315399169922e+00,1.845440387725830078e+00
4.058011531829833984e+00,4.078066349029541016e+00,4.106373786926269531e+00,4.162937641143798828e+00,4.315281867980957031e+00,4.346404552459716797e+00,5.000000000000000000e+00,5.000000000000000000e+00,5.000000000000000000e+00,5.000000000000000000e+00,5.000000000000000000e+00,5.000000000000000000e+00,5.000000000000000000e+00,5.000000000000000000e+00,5.000000000000000000e+00,5.000000000000000000e+00,5.000000000000000000e+00,5.000000000000000000e+00,5.000000000000000000e+00,5.000000000000000000e+00,5.000000000000000000e+00,5.000000000000000000e+00,5.000000000000000000e+00,5.000000000000000000e+00,5.000000000000000000e+00,5.000000000000000000e+00,5.000000000000000000e+00,5.000000000000000000e+00,5.000000000000000000e+00,5.000000000000000000e+00,5.000000000000000000e+00,5.000000000000000000e+00,5.000000000000000000e+00,5.000000000000000000e+00,5.000000000000000000e+00,5.000000000000000000e+00,5.000000000000000000e+00,5.000000000000000000e+00,5.000000000000000000e+00,4.866027355194091797e+00,4.674742221832275391e+00,4.497927188873291016e+00,4.334000110626220703e+00,1.424878716468811035e+00,1.369542717933654785e+00,1.335848927497863770e+00,1.320490002632141113e+00,1.334625840187072754e+00,1.349850058555603027e+00,1.424219012260437012e+00,1.419390201568603516e+00,1.419892430305480957e+00,1.432543277740478516e+00,3.093736410140991211e+00,3.015291690826416016e+00,2.940727233886718750e+00,2.869761466979980469e+00,2.802139759063720703e+00,2.737631559371948242e+00,2.676027059555053711e+00,2.617133617401123047e+00,2.560776710510253906e+00,2.506795883178710938e+00,2.455043792724609375e+00,2.405385494232177734e+00,2.357696056365966797e+00,2.311860799789428711e+00,2.267773866653442383e+00,2.225336790084838867e+00,2.184458971023559570e+00,2.145055770874023438e+00,2.107048749923706055e+00,2.070365190505981445e+00,2.034937381744384766e+00,2.000701427459716797e+00,1.967598438262939453e+00,1.935572743415832520e+00,1.904573082923889160e+00,1.874550819396972656e+00,1.845460295677185059e+00
4.065558910369873047e+00,4.082264423370361328e+00,4.134510040283203125e+00,4.185575485229492188e+00,4.306569099426269531e+00,4.329102993011474609e+00,5.000000000000000000e+00,5.000000000000000000e+00,5.000000000000000000e+00,5.000000000000000000e+00,5.000000000000000000e+00,5.000000000000000000e+00,5.000000000000000000e+00,5.000000000000000000e+00,5.000000000000000000e+00,5.000000000000000000e+00,5.000000000000000000e+00,5.000000000000000000e+00,5.000000000000000000e+00,5.000000000000000000e+00,5.000000000000000000e+00,5.000000000000000000e+00,5.000000000000000000e+00,5.000000000000000000e+00,5.000000000000000000e+00,5.000000000000000000e+00,5.000000000000000000e+00,5.000000000000000000e+00,5.000000000000000000e+00,5.000000000000000000e+00,5.000000000000000000e+00,5.000000000000000000e+00,5.000000000000000000e+00,5.000000000000000000e+00,5.000000000000000000e+00,5.000000000000000000e+00,5.000000000000000000e+00,5.000000000000000000e+00,5.000000000000000000e+00,4.866166114807128906e+00,4.674870014190673828e+00,4.498045444488525391e+00,4.334110260009765625e+00,1.436314344406127930e+00,1.370945215225219727e+00,1.343375921249389648e+00,1.328618764877319336e+00,1.344057679176330566e+00,1.449198126792907715e+00,1.427090644836425781e+00,1.421414017677307129e+00,1.422067642211914062e+00,1.440131425857543945e+00,3.093792200088500977e+00,3.015345096588134766e+00,2.940778017044067383e+00,2.869809389114379883e+00,2.802185773849487305e+00,2.737675428390502930e+00,2.676068782806396484e+00,2.617173910140991211e+00,2.560815095901489258e+00,2.506832838058471680e+00,2.455079317092895508e+00,2.405419349670410156e+00,2.357728719711303711e+00,2.311892032623291016e+00,2.267803907394409180e+00,2.225365877151489258e+00,2.184486865997314453e+00,2.145082712173461914e+00,2.107074975967407227e+00,2.070390224456787109e+00,2.034961700439453125e+00,2.000724792480468750e+00,1.967621088027954102e+00,1.935594797134399414e+00,1.904594302177429199e+00,1.874571323394775391e+00,1.845480203628540039e+00
4.079074859619140625e+00,4.149405956268310547e+00,4.074401855468750000e+00,4.120847702026367188e+00,5.000000000000000000e+00,4.314296722412109375e+00,5.000000000000000000e+00,5.000000000000000000e+00,5.000000000000000000e+00,5.000000000000000000e+00,5.000000000000000000e+00,5.000000000000000000e+00,5.000000000000000000e+00,5.000000000000000000e+00,5.000000000000000000e+00,5.000000000000000000e+00,5.000000000000000000e+00,5.000000000000000000e+00,5.000000000000000000e+00,5.000000000000000000e+00,5.000000000000000000e+00,5.000000000000000000e+00,5.000000000000000000e+00,5.000000000000000000e+00,5.000000000000000000e+00,5.000000000000000000e+00,5.000000000000000000e+00,5.000000000000000000e+00,5.000000000000000000e+00,5.000000000000000000e+00,5.000000000000000000e+00,5.000000000000000000e+00,5.000000000000000000e+00,5.000000000000000000e+00,5.000000000000000000e+00,5.000000000000000000e+00,5.000000000000000000e+00,5.000000000000000000e+00,5.000000000000000000e+00,4.866304874420166016e+00,4.674998283386230469e+00,4.498164176940917969e+00,4.334220409393310547e+00,1.432936906814575195e+00,1.373742818832397461e+00,1.355266094207763672e+00,1.339861631393432617e+00,1.355564594268798828e+00,1.456288695335388184e+00,1.432432055473327637e+00,1.427055597305297852e+00,1.428588390350341797e+00,3.176489353179931641e+00,3.093848466873168945e+00,3.015398502349853516e+00,2.940828561782836914e+00,2.869857788085937500e+00,2.802231788635253906e+00,2.737719535827636719e+00,2.676110982894897461e+00,2.617213964462280273e+00,2.560853481292724609e+00,2.506869554519653320e+00,2.455114364624023438e+00,2.405453205108642578e+00,2.357761144638061523e+00,2.311923503875732422e+00,2.267834186553955078e+00,2.225394725799560547e+00,2.184514999389648438e+00,2.145109653472900391e+00,2.107100725173950195e+00,2.070415496826171875e+00,2.034985780715942383e+00,2.000748157501220703e+00,1.967643737792968750e+00,1.935616731643676758e+00,1.904615759849548340e+00,1.874592065811157227e+00,1.845500111579895020e+00
4.078739166259765625e+00,4.136903762817382812e+00,4.046943664550781250e+00,4.087276458740234375e+00,5.000000000000000000e+00,4.312348365783691406e+00,5.000000000000000000e+00,5.000000000000000000e+00,5.000000000000000000e+00,5.000000000000000000e+00,5.000000000000000000e+00,5.000000000000000000e+00,5.000000000000000000e+00,5.000000000000000000e+00,5.000000000000000000e+00,5.000000000000000000e+00,5.000000000000000000e+00,5.000000000000000000e+00,5.000000000000000000e+00,5.000000000000000000e+00,5.000000000000000000e+00,5.000000000000000000e+00,5.000000000000000000e+00,5.000000000000000000e+00,5.000000000000000000e+00,5.000000000000000000e+00,5.000000000000000000e+00,5.000000000000000000e+00,5.000000000000000000e+00,5.000000000000000000e+00,5.000000000000000000e+00,5.000000000000000000e+00,5.000000000000000000e+00,5.000000000000000000e+00,5.000000000000000000e+00,5.000000000000000000e+00,5.000000000000000000e+00,5.000000000000000000e+00,5.000000000000000000e+00,4.866443634033203125e+00,4.675126075744628906e+00,4.498282432556152344e+00,4.334330558776855469e+00,1.425644516944885254e+00,1.378974556922912598e+00,1.365493059158325195e+00,1.351296544075012207e+00,1.368011951446533203e+00,1.470016956329345703e+00,1.442374706268310547e+00,1.439724206924438477e+00,1.440576910972595215e+00,3.176548480987548828e+00,3.093904256820678711e+00,3.015451669692993164e+00,2.940879344940185547e+00,2.869905948638916016e+00,2.802277803421020508e+00,2.737763404846191406e+00,2.676152706146240234e+00,2.617254018783569336e+00,2.560891866683959961e+00,2.506906270980834961e+00,2.455149888992309570e+00,2.405487060546875000e+00,2.357793807983398438e+00,2.311954975128173828e+00,2.267864227294921875e+00,2.225423812866210938e+00,2.184542655944824219e+00,2.145136594772338867e+00,2.107126951217651367e+00,2.070440530776977539e+00,2.035010099411010742e+00,2.000771760940551758e+00,1.967666268348693848e+00,1.935638546943664551e+00,1.904636859893798828e+00,1.874612569808959961e+00,1.845520257949829102e+00
4.094411373138427734e+00,4.151981353759765625e+00,4.019342422485351562e+00,4.056403636932373047e+00,5.000000000000000000e+00,4.299106121063232422e+00,5.000000000000000000e+00,5.000000000000000000e+00,5.000000000000000000e+00,5.000000000000000000e+00,5.000000000000000000e+00,5.000000000000000000e+00,5.000000000000000000e+00,5.000000000000000000e+00,5.000000000000000000e+00,5.000000000000000000e+00,5.000000000000000000e+00,5.000000000000000000e+00,5.000000000000000000e+00,5.000000000000000000e+00,5.000000000000000000e+00,5.000000000000000000e+00,5.000000000000000000e+00,5.000000000000000000e+00,5.000000000000000000e+00,5.000000000000000000e+00,5.000000000000000000e+00,5.000000000000000000e+00,5.000000000000000000e+00,5.000000000000000000e+00,5.000000000000000000e+00,5.000000000000000000e+00,5.000000000000000000e+00,5.000000000000000000e+00,5.000000000000000000e+00,5.000000000000000000e+00,5.000000000000000000e+00,5.000000000000000000e+00,5.000000000000000000e+00,4.866582393646240234e+00,4.675254344940185547e+00,4.498401165008544922e+00,4.334440231323242188e+00,1.418425917625427246e+00,1.385902166366577148e+00,1.373794436454772949e+00,1.362928271293640137e+00,1.388542890548706055e+00,1.496318578720092773e+00,1.468051910400390625e+00,1.464156031608581543e+00,1.460280776023864746e+00,3.176607608795166016e+00,3.093960523605346680e+00,3.015505075454711914e+00,2.940929889678955078e+00,2.869954347610473633e+00,2.802323579788208008e+00,2.737807273864746094e+00,2.676194906234741211e+00,2.617294073104858398e+00,2.560930490493774414e+00,2.506943225860595703e+00,2.455184936523437500e+00,2.405520915985107422e+00,2.357826232910156250e+00,2.311986207962036133e+00,2.267894506454467773e+00,2.225452899932861328e+00,2.184570789337158203e+00,2.145163536071777344e+00,2.107152700424194336e+00,2.070465803146362305e+00,2.035034179687500000e+00,2.000795125961303711e+00,1.967689156532287598e+00,1.935660481452941895e+00,1.904658079147338867e+00,1.874633073806762695e+00,1.845540165901184082e+00
4.115388393402099609e+00,4.167877197265625000e+00,3.989027738571166992e+00,4.023974418640136719e+00,5.000000000000000000e+00,5.000000000000000000e+00,5.000000000000000000e+00,5.000000000000000000e+00,5.000000000000000000e+00,5.000000000000000000e+00,5.000000000000000000e+00,5.000000000000000000e+00,5.000000000000000000e+00,5.000000000000000000e+00,5.000000000000000000e+00,5.000000000000000000e+00,5.000000000000000000e+00,5.000000000000000000e+00,5.000000000000000000e+00,5.000000000000000000e+00,5.000000000000000000e+00,5.000000000000000000e+00,5.000000000000000000e+00,5.000000000000000000e+00,5.000000000000000000e+00,5.000000000000000000e+00,5.000000000000000000e+00,5.000000000000000000e+00,5.000000000000000000e+00,5.000000000000000000e+00,5.000000000000000000e+00,5.000000000000000000e+00,5.000000000000000000e+00,5.000000000000000000e+00,5.000000000000000000e+00,5.000000000000000000e+00,5.000000000000000000e+00,5.000000000000000000e+00,5.000000000000000000e+00,4.866720676422119141e+00,4.675382137298583984e+00,4.498519420623779297e+00,4.334550380706787109e+00,1.419465303421020508e+00,1.392899751663208008e+00,1.382197499275207520e+00,1.374762058258056641e+00,1.408883333206176758e+00,1.531890749931335449e+00,1.510520935058593750e+00,1.506396651268005371e+00,3.263853549957275391e+00,3.176666736602783203e+00,3.094016551971435547e+00,3.015558004379272461e+00,2.940980672836303711e+00,2.870002508163452148e+00,2.802369832992553711e+00,2.737851142883300781e+00,2.676236629486083984e+00,2.617334365844726562e+00,2.560968637466430664e+00,2.506979942321777344e+00,2.455220460891723633e+00,2.405554771423339844e+00,2.357858896255493164e+00,2.312017440795898438e+00,2.267924547195434570e+00,2.225481986999511719e+00,2.184598684310913086e+00,2.145190477371215820e+00,2.107178926467895508e+00,2.070490837097167969e+00,2.035058498382568359e+00,2.000818729400634766e+00,1.967711806297302246e+00,1.935682535171508789e+00,1.904679298400878906e+00,1.874653697013854980e+00,1.845559954643249512e+00
4.132364749908447266e+00,4.181516647338867188e+00,3.967990875244140625e+00,4.006934165954589844e+00,5.000000000000000000e+00,5.000000000000000000e+00,5.000000000000000000e+00,5.000000000000000000e+00,5.000000000000000000e+00,5.000000000000000000e+00,5.000000000000000000e+00,5.000000000000000000e+00,5.000000000000000000e+00,5.000000000000000000e+00,5.000000000000000000e+00,5.000000000000000000e+00,5.000000000000000000e+00,5.000000000000000000e+00,5.000000000000000000e+00,5.000000000000000000e+00,5.000000000000000000e+00,5.000000000000000000e+00,5.000000000000000000e+00,5.000000000000000000e+00,5.000000000000000000e+00,5.000000000000000000e+00,5.000000000000000000e+00,5.000000000000000000e+00,5.000000000000000000e+00,5.000000000000000000e+00,5.000000000000000000e+00,5.000000000000000000e+00,5.000000000000000000e+00,5.000000000000000000e+00,5.000000000000000000e+00,5.000000000000000000e+00,5.000000000000000000e+00,5.000000000000000000e+00,5.000000000000000000e+00,4.866859436035156250e+00,4.675510406494140625e+00,4.498638629913330078e+00,4.334660530090332031e+00,1.426477551460266113e+00,1.399517297744750977e+00,1.386990189552307129e+00,1.380240321159362793e+00,1.410296082496643066e+00,1.571172237396240234e+00,1.555520534515380859e+00,3.356027364730834961e+00,3.263916015625000000e+00,3.176725625991821289e+00,3.094072580337524414e+00,3.015611410140991211e+00,2.941030979156494141e+00,2.870050668716430664e+00,2.802415847778320312e+00,2.737895011901855469e+00,2.676278591156005859e+00,2.617374420166015625e+00,2.561007261276245117e+00,2.507016897201538086e+00,2.455255746841430664e+00,2.405588865280151367e+00,2.357891559600830078e+00,2.312048673629760742e+00,2.267954587936401367e+00,2.225510835647583008e+00,2.184626579284667969e+00,2.145217418670654297e+00,2.107204914093017578e+00,2.070515871047973633e+00,2.035082817077636719e+00,2.000842094421386719e+00,1.967734336853027344e+00,1.935704469680786133e+00,1.904700756072998047e+00,1.874674439430236816e+00,1.845579862594604492e+00
4.151447772979736328e+00,4.194972515106201172e+00,3.981714963912963867e+00,4.014258384704589844e+00,5.000000000000000000e+00,5.000000000000000000e+00,5.000000000000000000e+00,5.000000000000000000e+00,5.000000000000000000e+00,5.000000000000000000e+00,5.000000000000000000e+00,5.000000000000000000e+00,5.000000000000000000e+00,5.000000000000000000e+00,5.000000000000000000e+00,5.000000000000000000e+00,5.000000000000000000e+00,5.000000000000000000e+00,5.000000000000000000e+00,5.000000000000000000e+00,5.000000000000000000e+00,5.000000000000000000e+00,5.000000000000000000e+00,5.000000000000000000e+00,5.000000000000000000e+00,5.000000000000000000e+00,5.000000000000000000e+00,5.000000000000000000e+00,5.000000000000000000e+00,5.000000000000000000e+00,5.000000000000000000e+00,5.000000000000000000e+00,5.000000000000000000e+00,5.000000000000000000e+00,5.000000000000000000e+00,5.000000000000000000e+00,5.000000000000000000e+00,5.000000000000000000e+00,5.000000000000000000e+00,4.866996765136718750e+00,4.675638198852539062e+00,4.498756885528564453e+00,4.334770679473876953e+00,1.433027863502502441e+00,1.405909419059753418e+00,1.389583230018615723e+00,1.381596326828002930e+00,1.411379814147949219e+00,1.596854925155639648e+00,1.624311447143554688e+00,3.356093645095825195e+00,3.263978481292724609e+00,3.176784992218017578e+00,3.094128847122192383e+00,3.015664577484130859e+00,2.941081762313842773e+00,2.870098829269409180e+00,2.802461862564086914e+00,2.737939119338989258e+00,2.676320552825927734e+00,2.617414474487304688e+00,2.561045646667480469e+00,2.507053613662719727e+00,2.455291032791137695e+00,2.405622482299804688e+00,2.357923984527587891e+00,2.312080144882202148e+00,2.267984628677368164e+00,2.225539922714233398e+00,2.184654712677001953e+00,2.145244359970092773e+00,2.107230901718139648e+00,2.070540904998779297e+00,2.035107135772705078e+00,2.000865459442138672e+00,1.967756986618041992e+00,1.935726284980773926e+00,1.904721856117248535e+00,1.874694943428039551e+00,1.845600008964538574e+00
4.215951919555664062e+00,4.251666069030761719e+00,3.997596502304077148e+00,4.014180183410644531e+00,5.000000000000000000e+00,5.000000000000000000e+00,5.000000000000000000e+00,5.000000000000000000e+00,5.000000000000000000e+00,5.000000000000000000e+00,5.000000000000000000e+00,5.000000000000000000e+00,5.000000000000000000e+00,5.000000000000000000e+00,5.000000000000000000e+00,5.000000000000000000e+00,5.000000000000000000e+00,5.000000000000000000e+00,5.000000000000000000e+00,5.000000000000000000e+00,5.000000000000000000e+00,5.000000000000000000e+00,5.000000000000000000e+00,5.000000000000000000e+00,5.000000000000000000e+00,5.000000000000000000e+00,5.000000000000000000e+00,5.000000000000000000e+00,5.000000000000000000e+00,5.000000000000000000e+00,5.000000000000000000e+00,5.000000000000000000e+00,5.000000000000000000e+00,5.000000000000000000e+00,5.000000000000000000e+00,5.000000000000000000e+00,5.000000000000000000e+00,5.000000000000000000e+00,5.000000000000000000e+00,4.867135524749755859e+00,4.675765037536621094e+00,4.498875617980957031e+00,4.334880352020263672e+00,1.439638614654541016e+00,1.412397503852844238e+00,1.392529726028442383e+00,1.383853673934936523e+00,1.412107825279235840e+00,1.623391389846801758e+00,3.453628778457641602e+00,3.356159448623657227e+00,3.264040946960449219e+00,3.176843881607055664e+00,3.094184875488281250e+00,3.015717983245849609e+00,2.941132307052612305e+00,2.870147228240966797e+00,2.802507877349853516e+00,2.737982988357543945e+00,2.676362514495849609e+00,2.617454528808593750e+00,2.561084032058715820e+00,2.507090568542480469e+00,2.455326318740844727e+00,2.405656576156616211e+00,2.357956647872924805e+00,2.312111377716064453e+00,2.268014907836914062e+00,2.225568771362304688e+00,2.184682607650756836e+00,2.145271301269531250e+00,2.107256889343261719e+00,2.070566177368164062e+00,2.035131454467773438e+00,2.000888824462890625e+00,1.967779874801635742e+00,1.935748219490051270e+00,1.904743075370788574e+00,1.874715447425842285e+00,1.845619916915893555e+00
4.258622646331787109e+00,4.290846347808837891e+00,3.988099575042724609e+00,4.000898838043212891e+00,5.000000000000000000e+00,5.000000000000000000e+00,5.000000000000000000e+00,5.000000000000000000e+00,5.000000000000000000e+00,5.000000000000000000e+00,5.000000000000000000e+00,5.000000000000000000e+00,5.000000000000000000e+00,5.000000000000000000e+00,5.000000000000000000e+00,5.000000000000000000e+00,5.000000000000000000e+00,5.000000000000000000e+00,5.000000000000000000e+00,5.000000000000000000e+00,5.000000000000000000e+00,5.000000000000000000e+00,5.000000000000000000e+00,5.000000000000000000e+00,5.000000000000000000e+00,5.000000000000000000e+00,5.000000000000000000e+00,5.000000000000000000e+00,5.000000000000000000e+00,5.000000000000000000e+00,5.000000000000000000e+00,5.000000000000000000e+00,5.000000000000000000e+00,5.000000000000000000e+00,5.000000000000000000e+00,5.000000000000000000e+00,5.000000000000000000e+00,5.000000000000000000e+00,5.000000000000000000e+00,4.867274284362792969e+00,4.675892829895019531e+00,4.498993873596191406e+00,4.334990501403808594e+00,4.182523250579833984e+00,1.418945670127868652e+00,1.396889686584472656e+00,1.386434912681579590e+00,1.412836670875549316e+00,3.557002544403076172e+00,3.453698396682739258e+00,3.356225490570068359e+00,3.264103174209594727e+00,3.176903247833251953e+00,3.094240903854370117e+00,3.015771150588989258e+00,2.941183090209960938e+00,2.870195388793945312e+00,2.802553653717041016e+00,2.738026857376098633e+00,2.676404476165771484e+00,2.617494821548461914e+00,2.561122655868530273e+00,2.507127285003662109e+00,2.455361604690551758e+00,2.405690431594848633e+00,2.357989072799682617e+00,2.312142610549926758e+00,2.268044948577880859e+00,2.225597858428955078e+00,2.184710502624511719e+00,2.145298242568969727e+00,2.107282876968383789e+00,2.070591211318969727e+00,2.035155534744262695e+00,2.000912427902221680e+00,1.967802524566650391e+00,1.935770392417907715e+00,1.904764533042907715e+00,1.874735951423645020e+00,1.845639824867248535e+00
4.313569068908691406e+00,4.311156749725341797e+00,3.980000972747802734e+00,3.996615648269653320e+00,5.000000000000000000e+00,5.000000000000000000e+00,5.000000000000000000e+00,5.000000000000000000e+00,5.000000000000000000e+00,5.000000000000000000e+00,5.000000000000000000e+00,5.000000000000000000e+00,5.000000000000000000e+00,5.000000000000000000e+00,5.000000000000000000e+00,5.000000000000000000e+00,5.000000000000000000e+00,5.000000000000000000e+00,5.000000000000000000e+00,5.000000000000000000e+00,5.000000000000000000e+00,5.000000000000000000e+00,5.000000000000000000e+00,5.000000000000000000e+00,5.000000000000000000e+00,5.000000000000000000e+00,5.000000000000000000e+00,5.000000000000000000e+00,5.000000000000000000e+00,5.000000000000000000e+00,5.000000000000000000e+00,5.000000000000000000e+00,5.000000000000000000e+00,5.000000000000000000e+00,5.000000000000000000e+00,5.000000000000000000e+00,5.000000000000000000e+00,5.000000000000000000e+00,5.000000000000000000e+00,4.867413043975830078e+00,4.676021099090576172e+00,4.499111175537109375e+00,4.335100650787353516e+00,4.182625770568847656e+00,1.425554752349853516e+00,1.401277065277099609e+00,1.389026045799255371e+00,1.413566231727600098e+00,3.557076692581176758e+00,3.453768491744995117e+00,3.356291294097900391e+00,3.264165639877319336e+00,3.176962375640869141e+00,3.094296932220458984e+00,3.015824556350708008e+00,2.941233634948730469e+00,2.870243787765502930e+00,2.802599906921386719e+00,2.738070726394653320e+00,2.676446437835693359e+00,2.617535114288330078e+00,2.561160802841186523e+00,2.507164001464843750e+00,2.455396890640258789e+00,2.405724287033081055e+00,2.358021736145019531e+00,2.312173843383789062e+00,2.268075227737426758e+00,2.225626945495605469e+00,2.184738397598266602e+00,2.145325183868408203e+00,2.107308864593505859e+00,2.070616245269775391e+00,2.035179853439331055e+00,2.000935792922973633e+00,1.967825055122375488e+00,1.935792207717895508e+00,1.904785633087158203e+00,1.874756693840026855e+00,1.845659732818603516e+00
5.000000000000000000e+00,4.334042549133300781e+00,3.999020814895629883e+00,3.990525245666503906e+00,5.000000000000000000e+00,5.000000000000000000e+00,5.000000000000000000e+00,5.000000000000000000e+00,5.000000000000000000e+00,5.000000000000000000e+00,5.000000000000000000e+00,5.000000000000000000e+00,5.000000000000000000e+00,5.000000000000000000e+00,5.000000000000000000e+00,5.000000000000000000e+00,5.000000000000000000e+00,5.000000000000000000e+00,5.000000000000000000e+00,5.000000000000000000e+00,5.000000000000000000e+00,5.000000000000000000e+00,5.000000000000000000e+00,5.000000000000000000e+00,5.000000000000000000e+00,5.000000000000000000e+00,5.000000000000000000e+00,5.000000000000000000e+00,5.000000000000000000e+00,5.000000000000000000e+00,5.000000000000000000e+00,5.000000000000000000e+00,5.000000000000000000e+00,5.000000000000000000e+00,5.000000000000000000e+00,5.000000000000000000e+00,5.000000000000000000e+00,5.000000000000000000e+00,5.000000000000000000e+00,4.867552280426025391e+00,4.676148891448974609e+00,4.499229907989501953e+00,4.335209369659423828e+00,4.182728290557861328e+00,1.432225942611694336e+00,1.406216025352478027e+00,1.393414974212646484e+00,1.415139198303222656e+00,3.557151079177856445e+00,3.453838109970092773e+00,3.356357574462890625e+00,3.264227867126464844e+00,3.177021503448486328e+00,3.094353199005126953e+00,3.015877723693847656e+00,2.941284418106079102e+00,2.870292186737060547e+00,2.802645683288574219e+00,2.738114833831787109e+00,2.676488399505615234e+00,2.617574930191040039e+00,2.561199426651000977e+00,2.507200717926025391e+00,2.455432176589965820e+00,2.405758380889892578e+00,2.358054161071777344e+00,2.312205314636230469e+00,2.268105268478393555e+00,2.225656032562255859e+00,2.184766530990600586e+00,2.145352125167846680e+00,2.107334852218627930e+00,2.070641517639160156e+00,2.035204172134399414e+00,2.000959396362304688e+00,1.967847704887390137e+00,1.935814142227172852e+00,1.904806852340698242e+00,1.874777197837829590e+00,1.845679759979248047e+00
5.000000000000000000e+00,4.380166530609130859e+00,5.000000000000000000e+00,3.998743295669555664e+00,5.000000000000000000e+00,5.000000000000000000e+00,5.000000000000000000e+00,5.000000000000000000e+00,5.000000000000000000e+00,5.000000000000000000e+00,5.000000000000000000e+00,5.000000000000000000e+00,5.000000000000000000e+00,5.000000000000000000e+00,5.000000000000000000e+00,5.000000000000000000e+00,5.000000000000000000e+00,5.000000000000000000e+00,5.000000000000000000e+00,5.000000000000000000e+00,5.000000000000000000e+00,5.000000000000000000e+00,5.000000000000000000e+00,5.000000000000000000e+00,5.000000000000000000e+00,5.000000000000000000e+00,5.000000000000000000e+00,5.000000000000000000e+00,5.000000000000000000e+00,5.000000000000000000e+00,5.000000000000000000e+00,5.000000000000000000e+00,5.000000000000000000e+00,5.000000000000000000e+00,5.000000000000000000e+00,5.000000000000000000e+00,5.000000000000000000e+00,5.000000000000000000e+00,5.000000000000000000e+00,4.867691040039062500e+00,4.676277160644531250e+00,4.499348163604736328e+00,4.335319519042968750e+00,4.182829380035400391e+00,1.440021157264709473e+00,1.413870096206665039e+00,1.402070760726928711e+00,1.417251944541931152e+00,3.557224988937377930e+00,3.453908205032348633e+00,3.356423377990722656e+00,3.264290571212768555e+00,3.177080631256103516e+00,3.094408988952636719e+00,3.015931129455566406e+00,2.941334962844848633e+00,2.870340108871459961e+00,2.802691936492919922e+00,2.738158464431762695e+00,2.676530361175537109e+00,2.617615222930908203e+00,2.561237812042236328e+00,2.507237672805786133e+00,2.455467462539672852e+00,2.405792236328125000e+00,2.358086824417114258e+00,2.312236547470092773e+00,2.268135309219360352e+00,2.225685119628906250e+00,2.184794425964355469e+00,2.145379304885864258e+00,2.107360839843750000e+00,2.070666551589965820e+00,2.035228490829467773e+00,2.000982761383056641e+00,1.967870593070983887e+00,1.935836195945739746e+00,1.904828071594238281e+00,1.874797821044921875e+00,1.845699667930603027e+00
4.874095916748046875e+00,4.325788497924804688e+00,4.871700763702392578e+00,3.893613576889038086e+00,4.869307518005371094e+00,4.868112087249755859e+00,4.866917133331298828e+00,4.865723133087158203e+00,4.864529132843017578e+00,4.863336086273193359e+00,4.862143516540527344e+00,4.860951423645019531e+00,4.859759807586669922e+00,4.858569622039794922e+00,4.857378959655761719e+00,4.856189250946044922e+00,4.855000495910644531e+00,4.853811740875244141e+00,4.852623939514160156e+00,4.851436614990234375e+00,4.850250244140625000e+00,4.849063873291015625e+00,4.847877979278564453e+00,4.846693515777587891e+00,4.845508575439453125e+00,4.844325065612792969e+00,4.843141555786132812e+00,4.841958999633789062e+00,4.840776920318603516e+00,4.839595317840576172e+00,4.838414192199707031e+00,4.837234020233154297e+00,4.836054325103759766e+00,4.834874629974365234e+00,4.833696365356445312e+00,4.832518100738525391e+00,4.831340789794921875e+00,4.830163478851318359e+00,4.828987598419189453e+00,4.827811717987060547e+00,4.676405429840087891e+00,4.499466896057128906e+00,4.335429668426513672e+00,4.182932376861572266e+00,1.447911024093627930e+00,1.421607971191406250e+00,1.410834550857543945e+00,1.419371247291564941e+00,3.557299375534057617e+00,3.453977823257446289e+00,3.356489419937133789e+00,3.264352798461914062e+00,3.177139520645141602e+00,3.094465255737304688e+00,3.015984296798706055e+00,2.941385746002197266e+00,2.870388507843017578e+00,2.802737712860107422e+00,2.738202571868896484e+00,2.676572322845458984e+00,2.617655277252197266e+00,2.561276197433471680e+00,2.507274389266967773e+00,2.455502986907958984e+00,2.405826091766357422e+00,2.358119487762451172e+00,2.312268018722534180e+00,2.268165349960327148e+00,2.225713968276977539e+00,2.184822320938110352e+00,2.145406007766723633e+00,2.107386827468872070e+00,2.070691823959350586e+00,2.035252571105957031e+00,2.001006126403808594e+00,1.967893242835998535e+00,1.935858130455017090e+00,1.904849529266357422e+00,1.874818325042724609e+00,1.845719575881958008e+00
3.777089118957519531e+00,3.776369333267211914e+00,3.775650501251220703e+00,3.774931669235229492e+00,3.774212837219238281e+00,3.773494720458984375e+00,3.772776842117309570e+00,3.772059202194213867e+00,3.771341323852539062e+00,3.770624399185180664e+00,3.769907474517822266e+00,3.769191026687622070e+00,3.768474340438842773e+00,3.767758369445800781e+00,3.767042636871337891e+00,3.766326904296875000e+00,3.765611648559570312e+00,3.764896869659423828e+00,3.764182090759277344e+00,3.763467311859130859e+00,3.762753248214721680e+00,3.762039422988891602e+00,3.761325597763061523e+00,3.760612249374389648e+00,3.759899377822875977e+00,3.759186506271362305e+00,3.758473634719848633e+00,3.757761478424072266e+00,3.757049560546875000e+00,3.756337881088256836e+00,3.755626201629638672e+00,3.754914999008178711e+00,3.754204273223876953e+00,3.753493309020996094e+00,3.752783060073852539e+00,3.752072811126708984e+00,3.751363039016723633e+00,3.750653266906738281e+00,3.749943971633911133e+00,3.749235153198242188e+00,3.748525857925415039e+00,3.747817516326904297e+00,3.747109413146972656e+00,3.746401548385620117e+00,1.455887913703918457e+00,1.429431080818176270e+00,1.417370915412902832e+00,1.421496868133544922e+00,3.557373285293579102e+00,3.454047918319702148e+00,3.356555223464965820e+00,3.264415264129638672e+00,3.177198886871337891e+00,3.094521284103393555e+00,3.016037702560424805e+00,2.941436529159545898e+00,2.870436668395996094e+00,2.802783966064453125e+00,2.738246440887451172e+00,2.676614284515380859e+00,2.617695569992065430e+00,2.561314582824707031e+00,2.507311344146728516e+00,2.455538272857666016e+00,2.405859947204589844e+00,2.358152151107788086e+00,2.312299251556396484e+00,2.268195629119873047e+00,2.225743055343627930e+00,2.184850215911865234e+00,2.145433187484741211e+00,2.107413053512573242e+00,2.070716857910156250e+00,2.035276889801025391e+00,2.001029491424560547e+00,1.967915773391723633e+00,1.935879945755004883e+00,1.904870629310607910e+00,1.874839067459106445e+00,1.845739722251892090e+00
3.083164930343627930e+00,3.082685470581054688e+00,3.082206249237060547e+00,3.081727266311645508e+00,3.081248283386230469e+00,3.080769538879394531e+00,3.080291032791137695e+00,3.079812526702880859e+00,3.079334259033203125e+00,3.078855991363525391e+00,3.078378200531005859e+00,3.077900409698486328e+00,3.077422380447387695e+00,3.076945066452026367e+00,3.076467514038085938e+00,3.075990200042724609e+00,3.075513124465942383e+00,3.075036287307739258e+00,3.074559450149536133e+00,3.074082612991333008e+00,3.073606014251708984e+00,3.073129892349243164e+00,3.072653293609619141e+00,3.072177410125732422e+00,3.071701526641845703e+00,3.071225881576538086e+00,3.070749998092651367e+00,3.070274591445922852e+00,3.069799184799194336e+00,3.069324254989624023e+00,3.068848848342895508e+00,3.068374156951904297e+00,3.067899465560913086e+00,3.067424535751342773e+00,3.066950321197509766e+00,3.066475868225097656e+00,3.066001892089843750e+00,3.065527677536010742e+00,3.065053939819335938e+00,3.064580202102661133e+00,3.064106464385986328e+00,3.063633203506469727e+00,3.063159942626953125e+00,3.062686920166015625e+00,1.463953018188476562e+00,1.437340617179870605e+00,1.421068668365478516e+00,1.423628807067871094e+00,3.060323238372802734e+00,3.059850931167602539e+00,3.059378862380981445e+00,3.058906793594360352e+00,3.058434963226318359e+00,3.057963371276855469e+00,3.016090631484985352e+00,2.941487073898315430e+00,2.870485067367553711e+00,2.802829742431640625e+00,2.738290309906005859e+00,2.676656246185302734e+00,2.617735624313354492e+00,2.561352968215942383e+00,2.507348060607910156e+00,2.455573558807373047e+00,2.405893802642822266e+00,2.358184576034545898e+00,2.312330484390258789e+00,2.268225908279418945e+00,2.225771903991699219e+00,2.184878349304199219e+00,2.145459890365600586e+00,2.107439041137695312e+00,2.070741891860961914e+00,2.035301208496093750e+00,2.001053094863891602e+00,1.967938661575317383e+00,1.935901880264282227e+00,1.904891848564147949e+00,1.874859571456909180e+00,1.845759630203247070e+00
2.604641914367675781e+00,2.604299545288085938e+00,2.603957653045654297e+00,2.603615760803222656e+00,2.603273868560791016e+00,2.602932214736938477e+00,2.602590560913085938e+00,2.602249145507812500e+00,2.601907491683959961e+00,2.601566076278686523e+00,2.601224899291992188e+00,2.600883722305297852e+00,2.600542306900024414e+00,2.600201368331909180e+00,2.599860668182373047e+00,2.599519491195678711e+00,2.599178791046142578e+00,2.598838090896606445e+00,2.598497629165649414e+00,2.598156929016113281e+00,2.597816705703735352e+00,2.597476482391357422e+00,2.597136020660400391e+00,2.596796035766601562e+00,2.596456050872802734e+00,2.596116065979003906e+00,2.595776081085205078e+00,2.595436334609985352e+00,2.595096588134765625e+00,2.594757080078125000e+00,2.594417572021484375e+00,2.594078063964843750e+00,2.593738794326782227e+00,2.593399524688720703e+00,2.593060255050659180e+00,2.592721223831176758e+00,2.592382431030273438e+00,2.592043399810791016e+00,2.591704607009887695e+00,2.591366052627563477e+00,2.591027259826660156e+00,2.590688705444335938e+00,2.590350389480590820e+00,2.590012073516845703e+00,1.789816737174987793e+00,1.445338249206542969e+00,1.424785733222961426e+00,1.425767183303833008e+00,2.588321447372436523e+00,2.587983608245849609e+00,2.587646007537841797e+00,2.587308168411254883e+00,2.586970567703247070e+00,2.586633205413818359e+00,2.586295843124389648e+00,2.585958480834960938e+00,2.585621356964111328e+00,2.585284233093261719e+00,2.584947109222412109e+00,2.584610223770141602e+00,2.584273338317871094e+00,2.561391353607177734e+00,2.507385015487670898e+00,2.455608844757080078e+00,2.405927658081054688e+00,2.358217239379882812e+00,2.312361717224121094e+00,2.268255949020385742e+00,2.225800991058349609e+00,2.184906244277954102e+00,2.145487070083618164e+00,2.107465028762817383e+00,2.070766925811767578e+00,2.035325527191162109e+00,2.001076459884643555e+00,1.967961311340332031e+00,1.935924053192138672e+00,1.904913067817687988e+00,1.874880075454711914e+00,1.845779538154602051e+00
2.254752159118652344e+00,2.254493474960327148e+00,2.254234790802001953e+00,2.253976345062255859e+00,2.253717899322509766e+00,2.253459453582763672e+00,2.253201246261596680e+00,2.252942800521850586e+00,2.252684593200683594e+00,2.252426385879516602e+00,2.252168178558349609e+00,2.251910209655761719e+00,2.251652002334594727e+00,2.251394271850585938e+00,2.251136302947998047e+00,2.250878572463989258e+00,2.250620841979980469e+00,2.250362873077392578e+00,2.250105381011962891e+00,2.249847888946533203e+00,2.249590158462524414e+00,2.249332666397094727e+00,2.249075174331665039e+00,2.248819112777709961e+00,2.248564243316650391e+00,2.248309373855590820e+00,2.248054265975952148e+00,2.247799396514892578e+00,2.247544765472412109e+00,2.247289896011352539e+00,2.247035264968872070e+00,2.246780633926391602e+00,2.246526241302490234e+00,2.246271610260009766e+00,2.246017217636108398e+00,2.245762825012207031e+00,2.245508432388305664e+00,2.245254039764404297e+00,2.244999885559082031e+00,2.244745731353759766e+00,2.244491577148437500e+00,2.244237422943115234e+00,2.243983507156372070e+00,2.243729829788208008e+00,1.770142078399658203e+00,1.462215185165405273e+00,1.443104982376098633e+00,1.444257259368896484e+00,2.242460727691650391e+00,2.242207288742065430e+00,2.241953849792480469e+00,2.241700172424316406e+00,2.241446971893310547e+00,2.241193532943725586e+00,2.240940332412719727e+00,2.240686893463134766e+00,2.240433692932128906e+00,2.240180730819702148e+00,2.239927530288696289e+00,2.239674568176269531e+00,2.239421606063842773e+00,2.239168882369995117e+00,2.238915920257568359e+00,2.238663196563720703e+00,2.238410472869873047e+00,2.238157749176025391e+00,2.237905025482177734e+00,2.237652540206909180e+00,2.225830078125000000e+00,2.184934139251708984e+00,2.145514011383056641e+00,2.107491016387939453e+00,2.070792198181152344e+00,2.035349607467651367e+00,2.001100063323974609e+00,1.967983961105346680e+00,1.935945868492126465e+00,1.904934525489807129e+00,1.874900698661804199e+00,1.845799446105957031e+00
1.987834692001342773e+00,1.987633585929870605e+00,1.987432718276977539e+00,1.987231731414794922e+00,1.987030744552612305e+00,1.986829996109008789e+00,1.986629128456115723e+00,1.986428260803222656e+00,1.986227393150329590e+00,1.986026883125305176e+00,1.985826134681701660e+00,1.985625386238098145e+00,1.985424995422363281e+00,1.985224366188049316e+00,1.985023736953735352e+00,1.984823465347290039e+00,1.984622955322265625e+00,1.984422445297241211e+00,1.984222054481506348e+00,1.984021782875061035e+00,1.983821511268615723e+00,1.983621239662170410e+00,1.983421206474304199e+00,1.983220934867858887e+00,1.983020782470703125e+00,1.982820868492126465e+00,1.982620716094970703e+00,1.982420682907104492e+00,1.982220649719238281e+00,1.982020854949951172e+00,1.981820940971374512e+00,1.981621026992797852e+00,1.981421470642089844e+00,1.981221556663513184e+00,1.981021761894226074e+00,1.980822324752807617e+00,1.980622649192810059e+00,1.980422973632812500e+00,1.980223298072814941e+00,1.980023980140686035e+00,1.979824423789978027e+00,1.979624867439270020e+00,1.979425668716430664e+00,1.979226231575012207e+00,1.979026913642883301e+00,1.466136097908020020e+00,1.437327504158020020e+00,1.425689697265625000e+00,1.978229999542236328e+00,1.978031039237976074e+00,1.977831840515136719e+00,1.977632761001586914e+00,1.977433919906616211e+00,1.977234959602355957e+00,1.977035880088806152e+00,1.976837277412414551e+00,1.976638317108154297e+00,1.976439476013183594e+00,1.976240634918212891e+00,1.976042032241821289e+00,1.975843310356140137e+00,1.975644588470458984e+00,1.975446224212646484e+00,1.975247621536254883e+00,1.975049018859863281e+00,1.974850654602050781e+00,1.974652171134948730e+00,1.974453687667846680e+00,1.974255561828613281e+00,1.974057197570800781e+00,1.973858833312988281e+00,1.973660469055175781e+00,1.973462462425231934e+00,1.973264217376708984e+00,1.973066091537475586e+00,1.968006491661071777e+00,1.935967803001403809e+00,1.904955625534057617e+00,1.874921441078186035e+00,1.845819473266601562e+00
1.777423501014709473e+00,1.777262687683105469e+00,1.777101993560791016e+00,1.776941418647766113e+00,1.776780724525451660e+00,1.776620030403137207e+00,1.776459336280822754e+00,1.776298880577087402e+00,1.776138305664062500e+00,1.775977730751037598e+00,1.775817394256591797e+00,1.775656938552856445e+00,1.775496482849121094e+00,1.775336146354675293e+00,1.775175809860229492e+00,1.775015354156494141e+00,1.774855136871337891e+00,1.774694800376892090e+00,1.774534583091735840e+00,1.774374246597290039e+00,1.774214267730712891e+00,1.774054050445556641e+00,1.773893833160400391e+00,1.773733854293823242e+00,1.773573756217956543e+00,1.773413538932800293e+00,1.773253679275512695e+00,1.773093700408935547e+00,1.772933602333068848e+00,1.772773623466491699e+00,1.772613883018493652e+00,1.772453904151916504e+00,1.772294044494628906e+00,1.772134423255920410e+00,1.771974563598632812e+00,1.771814703941345215e+00,1.771655082702636719e+00,1.771495342254638672e+00,1.771335601806640625e+00,1.771175861358642578e+00,1.771016478538513184e+00,1.770856738090515137e+00,1.770697116851806641e+00,1.770537734031677246e+00,1.770378232002258301e+00,1.465153098106384277e+00,1.421228528022766113e+00,1.403845071792602539e+00,1.401192665100097656e+00,1.769581079483032227e+00,1.769421815872192383e+00,1.769262552261352539e+00,1.769103169441223145e+00,1.768944025039672852e+00,1.768784761428833008e+00,1.768625497817993164e+00,1.768466591835021973e+00,1.768307328224182129e+00,1.768148183822631836e+00,1.767989039421081543e+00,1.767830133438110352e+00,1.767671108245849609e+00,1.767512083053588867e+00,1.767353177070617676e+00,1.767194271087646484e+00,1.767035245895385742e+00,1.766876578330993652e+00,1.766717672348022461e+00,1.766558766365051270e+00,1.766400098800659180e+00,1.766241312026977539e+00,1.766082525253295898e+00,1.765923857688903809e+00,1.765765309333801270e+00,1.765606522560119629e+00,1.765447974205017090e+00,1.765289545059204102e+00,1.765130877494812012e+00,1.764972329139709473e+00,1.764813899993896484e+00
1.607292294502258301e+00,1.607161045074462891e+00,1.607029557228088379e+00,1.606898069381713867e+00,1.606766819953918457e+00,1.606635451316833496e+00,1.606503963470458984e+00,1.606372714042663574e+00,1.606241464614868164e+00,1.606110095977783203e+00,1.605978846549987793e+00,1.605847716331481934e+00,1.605716466903686523e+00,1.605585217475891113e+00,1.605454206466674805e+00,1.605322957038879395e+00,1.605191826820373535e+00,1.605060815811157227e+00,1.604929685592651367e+00,1.604798555374145508e+00,1.604667544364929199e+00,1.604536652565002441e+00,1.604405641555786133e+00,1.604274511337280273e+00,1.604143738746643066e+00,1.604012727737426758e+00,1.603881835937500000e+00,1.603751063346862793e+00,1.603620052337646484e+00,1.603489160537719727e+00,1.603358387947082520e+00,1.603227615356445312e+00,1.603096842765808105e+00,1.602966070175170898e+00,1.602835416793823242e+00,1.602704644203186035e+00,1.602573871612548828e+00,1.602443337440490723e+00,1.602312684059143066e+00,1.602181911468505859e+00,1.602051258087158203e+00,1.601920843124389648e+00,1.601790189743041992e+00,1.601659655570983887e+00,1.601529240608215332e+00,1.601398706436157227e+00,1.401118993759155273e+00,1.384507179260253906e+00,1.374772906303405762e+00,1.371395826339721680e+00,1.600746393203735352e+00,1.600616097450256348e+00,1.600485682487487793e+00,1.600355386734008789e+00,1.600225090980529785e+00,1.600094795227050781e+00,1.599964499473571777e+00,1.599834322929382324e+00,1.599704027175903320e+00,1.599573731422424316e+00,1.599443554878234863e+00,1.599313497543334961e+00,1.599183320999145508e+00,1.599053144454956055e+00,1.598923206329345703e+00,1.598793029785156250e+00,1.598662972450256348e+00,1.598533034324645996e+00,1.598402976989746094e+00,1.598272919654846191e+00,1.598142862319946289e+00,1.598013043403625488e+00,1.597883105278015137e+00,1.597753167152404785e+00,1.597623348236083984e+00,1.597493410110473633e+00,1.597363591194152832e+00,1.597233772277832031e+00,1.597103953361511230e+00,1.596974134445190430e+00
1.466885328292846680e+00,1.466775774955749512e+00,1.466666460037231445e+00,1.466556906700134277e+00,1.466447472572326660e+00,1.466338157653808594e+00,1.466228723526000977e+00,1.466119289398193359e+00,1.466009855270385742e+00,1.465900540351867676e+00,1.465791225433349609e+00,1.465681910514831543e+00,1.465572595596313477e+00,1.465463280677795410e+00,1.465353965759277344e+00,1.465244889259338379e+00,1.465135574340820312e+00,1.465026259422302246e+00,1.464917063713073730e+00,1.464807987213134766e+00,1.464698791503906250e+00,1.464589595794677734e+00,1.464480519294738770e+00,1.464371323585510254e+00,1.464262127876281738e+00,1.464153170585632324e+00,1.464044094085693359e+00,1.463935017585754395e+00,1.463825941085815430e+00,1.463716983795166016e+00,1.463607907295227051e+00,1.463498830795288086e+00,1.463389992713928223e+00,1.463281035423278809e+00,1.463171958923339844e+00,1.463063120841979980e+00,1.462954163551330566e+00,1.462845325469970703e+00,1.462736487388610840e+00,1.462627530097961426e+00,1.462518692016601562e+00,1.462409853935241699e+00,1.462301135063171387e+00,1.462192296981811523e+00,1.462083458900451660e+00,1.461974740028381348e+00,1.373456239700317383e+00,1.361113786697387695e+00,1.341625690460205078e+00,1.333431363105773926e+00,1.335275173187255859e+00,1.461322426795959473e+00,1.461213827133178711e+00,1.461105227470397949e+00,1.460996508598327637e+00,1.460888028144836426e+00,1.460779428482055664e+00,1.460670828819274902e+00,1.460562348365783691e+00,1.460453748703002930e+00,1.460345149040222168e+00,1.460236668586730957e+00,1.460128188133239746e+00,1.460019707679748535e+00,1.459911227226257324e+00,1.459802865982055664e+00,1.459694385528564453e+00,1.459585905075073242e+00,1.459477663040161133e+00,1.459369182586669922e+00,1.459260821342468262e+00,1.459152460098266602e+00,1.459044218063354492e+00,1.458935856819152832e+00,1.458827495574951172e+00,1.458719253540039062e+00,1.458611011505126953e+00,1.458502650260925293e+00,1.458394527435302734e+00,1.458286285400390625e+00
1.349038362503051758e+00,1.348945736885070801e+00,1.348853111267089844e+00,1.348760604858398438e+00,1.348667979240417480e+00,1.348575472831726074e+00,1.348482966423034668e+00,1.348390460014343262e+00,1.348297953605651855e+00,1.348205327987670898e+00,1.348112940788269043e+00,1.348020434379577637e+00,1.347927927970886230e+00,1.347835540771484375e+00,1.347743153572082520e+00,1.347650647163391113e+00,1.347558379173278809e+00,1.347465872764587402e+00,1.347373485565185547e+00,1.347281098365783691e+00,1.347188830375671387e+00,1.347096443176269531e+00,1.347004175186157227e+00,1.346911907196044922e+00,1.346819519996643066e+00,1.346727252006530762e+00,1.346634984016418457e+00,1.346542716026306152e+00,1.346450448036193848e+00,1.346358180046081543e+00,1.346266031265258789e+00,1.346173763275146484e+00,1.346081495285034180e+00,1.345989346504211426e+00,1.345897197723388672e+00,1.345804929733276367e+00,1.345712900161743164e+00,1.345620751380920410e+00,1.345528602600097656e+00,1.345436453819274902e+00,1.345344424247741699e+00,1.345252275466918945e+00,1.345160126686096191e+00,1.345068097114562988e+00,1.344976067543029785e+00,1.344884037971496582e+00,1.344792008399963379e+00,1.338988661766052246e+00,1.331042289733886719e+00,1.321400761604309082e+00,1.317272663116455078e+00,1.344331979751586914e+00,1.344240069389343262e+00,1.344148159027099609e+00,1.344056248664855957e+00,1.343964219093322754e+00,1.343872427940368652e+00,1.343780517578125000e+00,1.343688607215881348e+00,1.343596816062927246e+00,1.343504905700683594e+00,1.343412995338439941e+00,1.343321204185485840e+00,1.343229413032531738e+00,1.343137621879577637e+00,1.343045711517333984e+00,1.342954039573669434e+00,1.342862248420715332e+00,1.342770457267761230e+00,1.342678785324096680e+00,1.342586994171142578e+00,1.342495322227478027e+00,1.342403531074523926e+00,1.342311978340148926e+00,1.342220187187194824e+00,1.342128515243530273e+00,1.342036962509155273e+00,1.341945290565490723e+00,1.341853618621826172e+00,1.341762065887451172e+00
1.248718500137329102e+00,1.248639225959777832e+00,1.248559832572937012e+00,1.248480558395385742e+00,1.248401284217834473e+00,1.248322010040283203e+00,1.248242616653442383e+00,1.248163461685180664e+00,1.248084068298339844e+00,1.248004794120788574e+00,1.247925519943237305e+00,1.247846364974975586e+00,1.247767090797424316e+00,1.247687935829162598e+00,1.247608780860900879e+00,1.247529506683349609e+00,1.247450351715087891e+00,1.247371196746826172e+00,1.247292041778564453e+00,1.247212767601013184e+00,1.247133612632751465e+00,1.247054576873779297e+00,1.246975421905517578e+00,1.246896266937255859e+00,1.246817231178283691e+00,1.246738076210021973e+00,1.246658921241760254e+00,1.246580004692077637e+00,1.246500849723815918e+00,1.246421813964843750e+00,1.246342658996582031e+00,1.246263742446899414e+00,1.246184706687927246e+00,1.246105670928955078e+00,1.246026635169982910e+00,1.245947599411010742e+00,1.245868682861328125e+00,1.245789766311645508e+00,1.245710730552673340e+00,1.245631694793701172e+00,1.245552778244018555e+00,1.245473861694335938e+00,1.245394945144653320e+00,1.245316028594970703e+00,1.245237112045288086e+00,1.245158195495605469e+00,1.245079278945922852e+00,1.245000481605529785e+00,1.244921565055847168e+00,1.244842767715454102e+00,1.244763970375061035e+00,1.244685053825378418e+00,1.244606256484985352e+00,1.244527339935302734e+00,1.244448661804199219e+00,1.244369864463806152e+00,1.244290947914123535e+00,1.244212269783020020e+00,1.244133472442626953e+00,1.244054675102233887e+00,1.243975996971130371e+00,1.243897199630737305e+00,1.243818521499633789e+00,1.243739724159240723e+00,1.243661165237426758e+00,1.243582367897033691e+00,1.243503689765930176e+00,1.243425011634826660e+00,1.243346333503723145e+00,1.243267655372619629e+00,1.243189096450805664e+00,1.243110418319702148e+00,1.243031740188598633e+00,1.242953181266784668e+00,1.242874622344970703e+00,1.242795944213867188e+00,1.242717385292053223e+00,1.242638826370239258e+00,1.242560267448425293e+00,1.242481708526611328e+00
1.162286400794982910e+00,1.162217617034912109e+00,1.162148952484130859e+00,1.162080168724060059e+00,1.162011384963989258e+00,1.161942839622497559e+00,1.161874055862426758e+00,1.161805391311645508e+00,1.161736726760864258e+00,1.161668062210083008e+00,1.161599397659301758e+00,1.161530613899230957e+00,1.161462068557739258e+00,1.161393404006958008e+00,1.161324739456176758e+00,1.161256194114685059e+00,1.161187529563903809e+00,1.161118865013122559e+00,1.161050438880920410e+00,1.160981774330139160e+00,1.160913109779357910e+00,1.160844564437866211e+00,1.160776019096374512e+00,1.160707473754882812e+00,1.160638928413391113e+00,1.160570383071899414e+00,1.160501837730407715e+00,1.160433292388916016e+00,1.160364866256713867e+00,1.160296320915222168e+00,1.160227775573730469e+00,1.160159230232238770e+00,1.160090804100036621e+00,1.160022377967834473e+00,1.159953832626342773e+00,1.159885406494140625e+00,1.159816980361938477e+00,1.159748435020446777e+00,1.159680128097534180e+00,1.159611582756042480e+00,1.159543156623840332e+00,1.159474730491638184e+00,1.159406423568725586e+00,1.159337997436523438e+00,1.159269571304321289e+00,1.159201264381408691e+00,1.159132838249206543e+00,1.159064412117004395e+00,1.158996105194091797e+00,1.158927798271179199e+00,1.158859372138977051e+00,1.158791184425354004e+00,1.158722758293151855e+00,1.158654451370239258e+00,1.158586144447326660e+00,1.158517837524414062e+00,1.158449530601501465e+00,1.158381223678588867e+00,1.158313035964965820e+00,1.158244729042053223e+00,1.158176541328430176e+00,1.158108234405517578e+00,1.158040046691894531e+00,1.157971739768981934e+00,1.157903552055358887e+00,1.157835364341735840e+00,1.157767176628112793e+00,1.157698869705200195e+00,1.157630801200866699e+00,1.157562494277954102e+00,1.157494306564331055e+00,1.157426238059997559e+00,1.157358050346374512e+00,1.157289862632751465e+00,1.157221674919128418e+00,1.157153606414794922e+00,1.157085418701171875e+00,1.157017350196838379e+00,1.156949281692504883e+00,1.156881093978881836e+00
1.087044715881347656e+00,1.086984515190124512e+00,1.086924433708190918e+00,1.086864352226257324e+00,1.086804151535034180e+00,1.086744070053100586e+00,1.086683988571166992e+00,1.086623907089233398e+00,1.086563825607299805e+00,1.086503863334655762e+00,1.086443781852722168e+00,1.086383700370788574e+00,1.086323618888854980e+00,1.086263537406921387e+00,1.086203575134277344e+00,1.086143493652343750e+00,1.086083531379699707e+00,1.086023449897766113e+00,1.085963368415832520e+00,1.085903525352478027e+00,1.085843443870544434e+00,1.085783481597900391e+00,1.085723400115966797e+00,1.085663557052612305e+00,1.085603475570678711e+00,1.085543513298034668e+00,1.085483670234680176e+00,1.085423588752746582e+00,1.085363626480102539e+00,1.085303783416748047e+00,1.085243821144104004e+00,1.085183858871459961e+00,1.085123896598815918e+00,1.085064053535461426e+00,1.085004210472106934e+00,1.084944248199462891e+00,1.084884405136108398e+00,1.084824442863464355e+00,1.084764599800109863e+00,1.084704756736755371e+00,1.084644913673400879e+00,1.084584951400756836e+00,1.084525108337402344e+00,1.084465265274047852e+00,1.084405422210693359e+00,1.084345579147338867e+00,1.084285855293273926e+00,1.084226012229919434e+00,1.084166169166564941e+00,1.084106445312500000e+00,1.084046602249145508e+00,1.083986759185791016e+00,1.083926916122436523e+00,1.083867192268371582e+00,1.083807468414306641e+00,1.083747625350952148e+00,1.083687901496887207e+00,1.083628177642822266e+00,1.083568334579467773e+00,1.083508729934692383e+00,1.083448886871337891e+00,1.083389163017272949e+00,1.083329558372497559e+00,1.083269715309143066e+00,1.083209991455078125e+00,1.083150267601013184e+00,1.083090662956237793e+00,1.083030939102172852e+00,1.082971215248107910e+00,1.082911610603332520e+00,1.082851886749267578e+00,1.082792282104492188e+00,1.082732677459716797e+00,1.082672953605651855e+00,1.082613348960876465e+00,1.082553625106811523e+00,1.082494020462036133e+00,1.082434415817260742e+00,1.082374811172485352e+00,1.082315206527709961e+00
1.020952343940734863e+00,1.020899295806884766e+00,1.020846247673034668e+00,1.020793318748474121e+00,1.020740270614624023e+00,1.020687222480773926e+00,1.020634174346923828e+00,1.020581245422363281e+00,1.020528197288513184e+00,1.020475268363952637e+00,1.020422339439392090e+00,1.020369291305541992e+00,1.020316243171691895e+00,1.020263314247131348e+00,1.020210385322570801e+00,1.020157456398010254e+00,1.020104408264160156e+00,1.020051479339599609e+00,1.019998550415039062e+00,1.019945621490478516e+00,1.019892692565917969e+00,1.019839763641357422e+00,1.019786834716796875e+00,1.019733905792236328e+00,1.019681096076965332e+00,1.019628167152404785e+00,1.019575238227844238e+00,1.019522309303283691e+00,1.019469499588012695e+00,1.019416570663452148e+00,1.019363760948181152e+00,1.019310832023620605e+00,1.019257903099060059e+00,1.019205093383789062e+00,1.019152283668518066e+00,1.019099354743957520e+00,1.019046545028686523e+00,1.018993735313415527e+00,1.018940925598144531e+00,1.018887996673583984e+00,1.018835306167602539e+00,1.018782377243041992e+00,1.018729567527770996e+00,1.018676757812500000e+00,1.018624067306518555e+00,1.018571257591247559e+00,1.018518447875976562e+00,1.018465638160705566e+00,1.018412828445434570e+00,1.018360018730163574e+00,1.018307328224182129e+00,1.018254518508911133e+00,1.018201828002929688e+00,1.018149018287658691e+00,1.018096327781677246e+00,1.018043518066406250e+00,1.017990827560424805e+00,1.017938137054443359e+00,1.017885327339172363e+00,1.017832636833190918e+00,1.017779946327209473e+00,1.017727255821228027e+00,1.017674565315246582e+00,1.017621874809265137e+00,1.017569184303283691e+00,1.017516493797302246e+00,1.017463803291320801e+00,1.017411112785339355e+00,1.017358422279357910e+00,1.017305731773376465e+00,1.017253160476684570e+00,1.017200469970703125e+00,1.017147779464721680e+00,1.017095208168029785e+00,1.017042517662048340e+00,1.016989946365356445e+00,1.016937255859375000e+00,1.016884684562683105e+00,1.016832113265991211e+00,1.016779422760009766e+00
9.624363183975219727e-01,9.623891115188598633e-01,9.623420834541320801e-01,9.622949361801147461e-01,9.622477889060974121e-01,9.622007012367248535e-01,9.621535539627075195e-01,9.621064662933349609e-01,9.620594382286071777e-01,9.620123505592346191e-01,9.619652032852172852e-01,9.619181156158447266e-01,9.618710279464721680e-01,9.618239402770996094e-01,9.617768526077270508e-01,9.617298841476440430e-01,9.616827964782714844e-01,9.616357088088989258e-01,9.615886807441711426e-01,9.615415930747985840e-01,9.614945650100708008e-01,9.614475965499877930e-01,9.614005684852600098e-01,9.613534808158874512e-01,9.613064527511596680e-01,9.612594246864318848e-01,9.612123966217041016e-01,9.611653685569763184e-01,9.611184597015380859e-01,9.610714316368103027e-01,9.610244035720825195e-01,9.609774351119995117e-01,9.609304070472717285e-01,9.608833789825439453e-01,9.608364105224609375e-01,9.607895016670227051e-01,9.607425332069396973e-01,9.606955647468566895e-01,9.606485962867736816e-01,9.606016278266906738e-01,9.605546593666076660e-01,9.605078101158142090e-01,9.604608416557312012e-01,9.604138731956481934e-01,9.603669047355651855e-01,9.603199958801269531e-01,9.602730274200439453e-01,9.602261185646057129e-01,9.601792693138122559e-01,9.601323604583740234e-01,9.600854516029357910e-01,9.600384831428527832e-01,9.599915742874145508e-01,9.599446654319763184e-01,9.598978161811828613e-01,9.598510265350341797e-01,9.598041176795959473e-01,9.597572088241577148e-01,9.597102999687194824e-01,9.596634507179260254e-01,9.596165418624877930e-01,9.595698118209838867e-01,9.595229625701904297e-01,9.594760537147521973e-01,9.594292044639587402e-01,9.593823552131652832e-01,9.593355059623718262e-01,9.592886567115783691e-01,9.592419266700744629e-01,9.591950774192810059e-01,9.591482877731323242e-01,9.591014385223388672e-01,9.590545892715454102e-01,9.590077996253967285e-01,9.589610099792480469e-01,9.589142799377441406e-01,9.588674902915954590e-01,9.588207006454467773e-01,9.587739109992980957e-01,9.587271213531494141e-01
9.102643132209777832e-01,9.102221131324768066e-01,9.101799726486206055e-01,9.101378917694091797e-01,9.100957512855529785e-01,9.100535511970520020e-01,9.100114107131958008e-01,9.099692702293395996e-01,9.099271297454833984e-01,9.098850488662719727e-01,9.098429083824157715e-01,9.098007678985595703e-01,9.097586274147033691e-01,9.097165465354919434e-01,9.096744060516357422e-01,9.096322655677795410e-01,9.095902442932128906e-01,9.095481634140014648e-01,9.095060229301452637e-01,9.094639420509338379e-01,9.094218611717224121e-01,9.093797206878662109e-01,9.093377590179443359e-01,9.092956781387329102e-01,9.092535972595214844e-01,9.092115163803100586e-01,9.091694355010986328e-01,9.091273546218872070e-01,9.090852737426757812e-01,9.090433120727539062e-01,9.090012311935424805e-01,9.089592099189758301e-01,9.089171290397644043e-01,9.088751077651977539e-01,9.088330268859863281e-01,9.087910056114196777e-01,9.087490439414978027e-01,9.087070226669311523e-01,9.086650013923645020e-01,9.086229801177978516e-01,9.085809588432312012e-01,9.085389375686645508e-01,9.084970355033874512e-01,9.084550142288208008e-01,9.084129929542541504e-01,9.083709716796875000e-01,9.083290100097656250e-01,9.082869887351989746e-01,9.082450270652770996e-01,9.082031250000000000e-01,9.081611037254333496e-01,9.081191420555114746e-01,9.080771803855895996e-01,9.080352187156677246e-01,9.079932570457458496e-01,9.079512953758239746e-01,9.079093933105468750e-01,9.078674316406250000e-01,9.078255295753479004e-01,9.077835679054260254e-01,9.077416062355041504e-01,9.076996445655822754e-01,9.076578021049499512e-01,9.076159000396728516e-01,9.075739383697509766e-01,9.075320363044738770e-01,9.074901342391967773e-01,9.074481725692749023e-01,9.074062705039978027e-01,9.073644876480102539e-01,9.073225855827331543e-01,9.072806835174560547e-01,9.072387814521789551e-01,9.071968793869018555e-01,9.071549773216247559e-01,9.071130752563476562e-01,9.070712924003601074e-01,9.070294499397277832e-01,9.069875478744506836e-01,9.069457054138183594e-01
8.634577989578247070e-01,8.634198307991027832e-01,8.633818626403808594e-01,8.633439540863037109e-01,8.633061051368713379e-01,8.632681369781494141e-01,8.632302284240722656e-01,8.631923198699951172e-01,8.631543517112731934e-01,8.631164431571960449e-01,8.630785942077636719e-01,8.630406856536865234e-01,8.630027770996093750e-01,8.629648685455322266e-01,8.629269599914550781e-01,8.628890514373779297e-01,8.628511428833007812e-01,8.628133535385131836e-01,8.627754449844360352e-01,8.627375960350036621e-01,8.626996874809265137e-01,8.626618385314941406e-01,8.626239299774169922e-01,8.625861406326293945e-01,8.625482916831970215e-01,8.625103831291198730e-01,8.624725341796875000e-01,8.624346852302551270e-01,8.623968362808227539e-01,8.623589873313903809e-01,8.623211979866027832e-01,8.622833490371704102e-01,8.622455000877380371e-01,8.622076511383056641e-01,8.621698021888732910e-01,8.621319532394409180e-01,8.620941638946533203e-01,8.620563745498657227e-01,8.620185852050781250e-01,8.619807362556457520e-01,8.619429469108581543e-01,8.619050979614257812e-01,8.618673086166381836e-01,8.618295788764953613e-01,8.617917895317077637e-01,8.617540001869201660e-01,8.617161512374877930e-01,8.616783618927001953e-01,8.616405725479125977e-01,8.616027832031250000e-01,8.615651130676269531e-01,8.615273237228393555e-01,8.614895343780517578e-01,8.614517450332641602e-01,8.614140152931213379e-01,8.613762259483337402e-01,8.613384366035461426e-01,8.613007664680480957e-01,8.612630367279052734e-01,8.612252473831176758e-01,8.611875176429748535e-01,8.611497879028320312e-01,8.611119985580444336e-01,8.610743880271911621e-01,8.610365986824035645e-01,8.609988689422607422e-01,8.609611392021179199e-01,8.609234094619750977e-01,8.608856797218322754e-01,8.608479499816894531e-01,8.608103394508361816e-01,8.607726097106933594e-01,8.607348799705505371e-01,8.606972098350524902e-01,8.606594800949096680e-01,8.606218099594116211e-01,8.605840802192687988e-01,8.605464696884155273e-01,8.605087995529174805e-01,8.604710698127746582e-01
8.212295174598693848e-01,8.211951851844787598e-01,8.211608529090881348e-01,8.211265206336975098e-01,8.210921883583068848e-01,8.210579752922058105e-01,8.210236430168151855e-01,8.209893107414245605e-01,8.209550380706787109e-01,8.209207057952880859e-01,8.208864331245422363e-01,8.208522200584411621e-01,8.208178877830505371e-01,8.207836151123046875e-01,8.207493424415588379e-01,8.207150697708129883e-01,8.206807374954223633e-01,8.206464648246765137e-01,8.206122517585754395e-01,8.205779790878295898e-01,8.205437064170837402e-01,8.205094933509826660e-01,8.204752206802368164e-01,8.204409480094909668e-01,8.204066753387451172e-01,8.203724622726440430e-01,8.203382492065429688e-01,8.203039765357971191e-01,8.202697038650512695e-01,8.202354907989501953e-01,8.202012181282043457e-01,8.201670646667480469e-01,8.201328516006469727e-01,8.200985789299011230e-01,8.200643658638000488e-01,8.200301527976989746e-01,8.199958801269531250e-01,8.199616670608520508e-01,8.199275732040405273e-01,8.198933005332946777e-01,8.198590874671936035e-01,8.198248744010925293e-01,8.197906613349914551e-01,8.197564482688903809e-01,8.197223544120788574e-01,8.196881413459777832e-01,8.196539282798767090e-01,8.196197748184204102e-01,8.195855617523193359e-01,8.195513486862182617e-01,8.195171952247619629e-01,8.194831013679504395e-01,8.194488883018493652e-01,8.194147348403930664e-01,8.193805217742919922e-01,8.193463683128356934e-01,8.193122148513793945e-01,8.192780017852783203e-01,8.192439079284667969e-01,8.192097544670104980e-01,8.191756010055541992e-01,8.191414475440979004e-01,8.191072940826416016e-01,8.190731406211853027e-01,8.190391063690185547e-01,8.190049529075622559e-01,8.189707994461059570e-01,8.189366459846496582e-01,8.189024925231933594e-01,8.188683986663818359e-01,8.188342452049255371e-01,8.188002109527587891e-01,8.187660574913024902e-01,8.187319636344909668e-01,8.186978101730346680e-01,8.186637163162231445e-01,8.186296224594116211e-01,8.185954689979553223e-01,8.185614943504333496e-01,8.185273408889770508e-01
7.829390764236450195e-01,7.829079031944274902e-01,7.828766703605651855e-01,7.828454971313476562e-01,7.828142642974853516e-01,7.827830910682678223e-01,7.827519774436950684e-01,7.827208042144775391e-01,7.826896309852600098e-01,7.826583981513977051e-01,7.826272249221801758e-01,7.825960516929626465e-01,7.825649380683898926e-01,7.825337648391723633e-01,7.825026512145996094e-01,7.824714779853820801e-01,7.824403047561645508e-01,7.824091315269470215e-01,7.823779582977294922e-01,7.823469042778015137e-01,7.823157310485839844e-01,7.822845578193664551e-01,7.822534441947937012e-01,7.822222709655761719e-01,7.821911573410034180e-01,7.821599841117858887e-01,7.821289300918579102e-01,7.820978164672851562e-01,7.820666432380676270e-01,7.820355296134948730e-01,7.820044159889221191e-01,7.819732427597045898e-01,7.819421887397766113e-01,7.819110751152038574e-01,7.818799614906311035e-01,7.818488478660583496e-01,7.818177342414855957e-01,7.817866206169128418e-01,7.817555069923400879e-01,7.817244529724121094e-01,7.816933989524841309e-01,7.816622853279113770e-01,7.816311717033386230e-01,7.816000580787658691e-01,7.815690040588378906e-01,7.815379500389099121e-01,7.815068364143371582e-01,7.814757823944091797e-01,7.814446687698364258e-01,7.814136147499084473e-01,7.813825011253356934e-01,7.813514471054077148e-01,7.813204526901245117e-01,7.812893986701965332e-01,7.812582850456237793e-01,7.812272310256958008e-01,7.811961770057678223e-01,7.811651229858398438e-01,7.811340689659118652e-01,7.811030745506286621e-01,7.810720205307006836e-01,7.810409665107727051e-01,7.810099124908447266e-01,7.809788584709167480e-01,7.809478044509887695e-01,7.809168100357055664e-01,7.808858156204223633e-01,7.808547616004943848e-01,7.808237075805664062e-01,7.807927131652832031e-01,7.807616591453552246e-01,7.807306051254272461e-01,7.806996703147888184e-01,7.806686758995056152e-01,7.806376218795776367e-01,7.806066274642944336e-01,7.805755734443664551e-01,7.805445790290832520e-01,7.805135846138000488e-01,7.804826498031616211e-01
