5.000000000000000000e+00,5.000000000000000000e+00,5.000000000000000000e+00,5.000000000000000000e+00,5.000000000000000000e+00,5.000000000000000000e+00,5.000000000000000000e+00,5.000000000000000000e+00,5.000000000000000000e+00,5.000000000000000000e+00,5.000000000000000000e+00,5.000000000000000000e+00,5.000000000000000000e+00,5.000000000000000000e+00,5.000000000000000000e+00,5.000000000000000000e+00,5.000000000000000000e+00,5.000000000000000000e+00,5.000000000000000000e+00,5.000000000000000000e+00,5.000000000000000000e+00,5.000000000000000000e+00,5.000000000000000000e+00,5.000000000000000000e+00,5.000000000000000000e+00,5.000000000000000000e+00,5.000000000000000000e+00,5.000000000000000000e+00,5.000000000000000000e+00,5.000000000000000000e+00,5.000000000000000000e+00,5.000000000000000000e+00,5.000000000000000000e+00,5.000000000000000000e+00,1.820928335189819336e+00,1.783787608146667480e+00,1.774550318717956543e+00,1.787371158599853516e+00,1.787318229675292969e+00,1.773573637008666992e+00,1.773232102394104004e+00,1.774867773056030273e+00,1.775255918502807617e+00,1.798587560653686523e+00,1.819200515747070312e+00,1.845943689346313477e+00,1.977722883224487305e+00,1.996873259544372559e+00,3.553739070892333984e+00,3.450629234313964844e+00,3.353333950042724609e+00,3.261375188827514648e+00,3.174325227737426758e+00,3.091800928115844727e+00,3.013459205627441406e+00,2.938989639282226562e+00,2.868111848831176758e+00,2.800572156906127930e+00,2.736140012741088867e+00,2.674606323242187500e+00,2.615779161453247070e+00,2.559484004974365234e+00,2.505560874938964844e+00,2.453863143920898438e+00,2.404255628585815430e+00,2.356614351272583008e+00,2.310824155807495117e+00,2.266779422760009766e+00,2.224382400512695312e+00,2.183542251586914062e+00,2.144174814224243164e+00,2.106201648712158203e+00,2.069550037384033203e+00,2.034152269363403320e+00,1.999945163726806641e+00,1.966869354248046875e+00,1.934869766235351562e+00,1.903894662857055664e+00,1.873895645141601562e+00,1.844827651977539062e+00
5.000000000000000000e+00,5.000000000000000000e+00,5.000000000000000000e+00,5.000000000000000000e+00,5.000000000000000000e+00,5.000000000000000000e+00,5.000000000000000000e+00,5.000000000000000000e+00,5.000000000000000000e+00,5.000000000000000000e+00,5.000000000000000000e+00,5.000000000000000000e+00,5.000000000000000000e+00,5.000000000000000000e+00,5.000000000000000000e+00,5.000000000000000000e+00,5.000000000000000000e+00,5.000000000000000000e+00,5.000000000000000000e+00,5.000000000000000000e+00,5.000000000000000000e+00,5.000000000000000000e+00,5.000000000000000000e+00,5.000000000000000000e+00,5.000000000000000000e+00,5.000000000000000000e+00,5.000000000000000000e+00,5.000000000000000000e+00,5.000000000000000000e+00,5.000000000000000000e+00,5.000000000000000000e+00,5.000000000000000000e+00,5.000000000000000000e+00,5.000000000000000000e+00,5.000000000000000000e+00,1.784643054008483887e+00,1.774880528450012207e+00,1.784155607223510742e+00,1.799146533012390137e+00,1.777585864067077637e+00,1.779912233352661133e+00,1.776038646697998047e+00,1.778563857078552246e+00,1.790470004081726074e+00,1.811344623565673828e+00,1.855005860328674316e+00,2.002949953079223633e+00,2.020111083984375000e+00,3.553813219070434570e+00,3.450699090957641602e+00,3.353399991989135742e+00,3.261437416076660156e+00,3.174384355545043945e+00,3.091857433319091797e+00,3.013512611389160156e+00,2.939040422439575195e+00,2.868160009384155273e+00,2.800618171691894531e+00,2.736183881759643555e+00,2.674648284912109375e+00,2.615819215774536133e+00,2.559522628784179688e+00,2.505597829818725586e+00,2.453898668289184570e+00,2.404289722442626953e+00,2.356646776199340820e+00,2.310855388641357422e+00,2.266809701919555664e+00,2.224411487579345703e+00,2.183570384979248047e+00,2.144201755523681641e+00,2.106227636337280273e+00,2.069575071334838867e+00,2.034176588058471680e+00,1.999968528747558594e+00,1.966892123222351074e+00,1.934891700744628906e+00,1.903916001319885254e+00,1.873916387557983398e+00,1.844847440719604492e+00
5.000000000000000000e+00,5.000000000000000000e+00,5.000000000000000000e+00,5.000000000000000000e+00,5.000000000000000000e+00,5.000000000000000000e+00,5.000000000000000000e+00,5.000000000000000000e+00,5.000000000000000000e+00,5.000000000000000000e+00,5.000000000000000000e+00,5.000000000000000000e+00,5.000000000000000000e+00,5.000000000000000000e+00,5.000000000000000000e+00,5.000000000000000000e+00,5.000000000000000000e+00,5.000000000000000000e+00,5.000000000000000000e+00,5.000000000000000000e+00,5.000000000000000000e+00,5.000000000000000000e+00,5.000000000000000000e+00,5.000000000000000000e+00,5.000000000000000000e+00,5.000000000000000000e+00,5.000000000000000000e+00,5.000000000000000000e+00,5.000000000000000000e+00,5.000000000000000000e+00,5.000000000000000000e+00,5.000000000000000000e+00,5.000000000000000000e+00,5.000000000000000000e+00,5.000000000000000000e+00,1.785299301147460938e+00,1.775886535644531250e+00,1.779690980911254883e+00,1.807806134223937988e+00,1.782147288322448730e+00,1.777310132980346680e+00,1.774255394935607910e+00,1.778781056404113770e+00,1.787644028663635254e+00,1.807039499282836914e+00,1.852460265159606934e+00,2.001248598098754883e+00,3.663358449935913086e+00,3.553887367248535156e+00,3.450768947601318359e+00,3.353466033935546875e+00,3.261499881744384766e+00,3.174443483352661133e+00,3.091913461685180664e+00,3.013566255569458008e+00,2.939090967178344727e+00,2.868208408355712891e+00,2.800664186477661133e+00,2.736227989196777344e+00,2.674690246582031250e+00,2.615859508514404297e+00,2.559561014175415039e+00,2.505634784698486328e+00,2.453933954238891602e+00,2.404323577880859375e+00,2.356679439544677734e+00,2.310886859893798828e+00,2.266839742660522461e+00,2.224440574645996094e+00,2.183598518371582031e+00,2.144228935241699219e+00,2.106253623962402344e+00,2.069600343704223633e+00,2.034200906753540039e+00,1.999992132186889648e+00,1.966914772987365723e+00,1.934913873672485352e+00,1.903937339782714844e+00,1.873937129974365234e+00,1.844867587089538574e+00
5.000000000000000000e+00,5.000000000000000000e+00,5.000000000000000000e+00,5.000000000000000000e+00,5.000000000000000000e+00,5.000000000000000000e+00,5.000000000000000000e+00,5.000000000000000000e+00,5.000000000000000000e+00,5.000000000000000000e+00,5.000000000000000000e+00,5.000000000000000000e+00,5.000000000000000000e+00,5.000000000000000000e+00,5.000000000000000000e+00,5.000000000000000000e+00,5.000000000000000000e+00,5.000000000000000000e+00,5.000000000000000000e+00,5.000000000000000000e+00,5.000000000000000000e+00,5.000000000000000000e+00,5.000000000000000000e+00,5.000000000000000000e+00,5.000000000000000000e+00,5.000000000000000000e+00,5.000000000000000000e+00,5.000000000000000000e+00,5.000000000000000000e+00,5.000000000000000000e+00,5.000000000000000000e+00,5.000000000000000000e+00,5.000000000000000000e+00,5.000000000000000000e+00,5.000000000000000000e+00,1.785974621772766113e+00,1.777257442474365234e+00,1.777563452720642090e+00,1.807358145713806152e+00,1.791819334030151367e+00,1.776944518089294434e+00,1.774734497070312500e+00,1.778706073760986328e+00,1.789641141891479492e+00,1.807904839515686035e+00,1.839825868606567383e+00,2.011162996292114258e+00,3.663437604904174805e+00,3.553961753845214844e+00,3.450838804244995117e+00,3.353532075881958008e+00,3.261562347412109375e+00,3.174502611160278320e+00,3.091969728469848633e+00,3.013619422912597656e+00,2.939141988754272461e+00,2.868256807327270508e+00,2.800710201263427734e+00,2.736271858215332031e+00,2.674732208251953125e+00,2.615899562835693359e+00,2.559599399566650391e+00,2.505671739578247070e+00,2.453969478607177734e+00,2.404357671737670898e+00,2.356712102890014648e+00,2.310918092727661133e+00,2.266870021820068359e+00,2.224469661712646484e+00,2.183626413345336914e+00,2.144255876541137695e+00,2.106279850006103516e+00,2.069625616073608398e+00,2.034225225448608398e+00,2.000015497207641602e+00,1.966937541961669922e+00,1.934935688972473145e+00,1.903958797454833984e+00,1.873957633972167969e+00,1.844887614250183105e+00
5.000000000000000000e+00,5.000000000000000000e+00,5.000000000000000000e+00,5.000000000000000000e+00,5.000000000000000000e+00,5.000000000000000000e+00,5.000000000000000000e+00,5.000000000000000000e+00,5.000000000000000000e+00,5.000000000000000000e+00,5.000000000000000000e+00,5.000000000000000000e+00,5.000000000000000000e+00,5.000000000000000000e+00,5.000000000000000000e+00,5.000000000000000000e+00,5.000000000000000000e+00,5.000000000000000000e+00,5.000000000000000000e+00,5.000000000000000000e+00,5.000000000000000000e+00,5.000000000000000000e+00,5.000000000000000000e+00,5.000000000000000000e+00,5.000000000000000000e+00,5.000000000000000000e+00,5.000000000000000000e+00,5.000000000000000000e+00,5.000000000000000000e+00,5.000000000000000000e+00,5.000000000000000000e+00,5.000000000000000000e+00,5.000000000000000000e+00,5.000000000000000000e+00,5.000000000000000000e+00,1.788881301879882812e+00,1.779588460922241211e+00,1.780675649642944336e+00,1.816520094871520996e+00,1.797439813613891602e+00,1.778135180473327637e+00,1.775017380714416504e+00,1.781633973121643066e+00,1.791776895523071289e+00,1.810248613357543945e+00,1.841382503509521484e+00,2.014955997467041016e+00,3.663516283035278320e+00,3.554035902023315430e+00,3.450909137725830078e+00,3.353598117828369141e+00,3.261624813079833984e+00,3.174561738967895508e+00,3.092025756835937500e+00,3.013672828674316406e+00,2.939192771911621094e+00,2.868305206298828125e+00,2.800756454467773438e+00,2.736315965652465820e+00,2.674774169921875000e+00,2.615939855575561523e+00,2.559638023376464844e+00,2.505708694458007812e+00,2.454004764556884766e+00,2.404391527175903320e+00,2.356744766235351562e+00,2.310949563980102539e+00,2.266900062561035156e+00,2.224498748779296875e+00,2.183654308319091797e+00,2.144282817840576172e+00,2.106305837631225586e+00,2.069650650024414062e+00,2.034249544143676758e+00,2.000039100646972656e+00,1.966960191726684570e+00,1.934957742691040039e+00,1.903979897499084473e+00,1.873978495597839355e+00,1.844907641410827637e+00
5.000000000000000000e+00,5.000000000000000000e+00,5.000000000000000000e+00,5.000000000000000000e+00,5.000000000000000000e+00,5.000000000000000000e+00,5.000000000000000000e+00,5.000000000000000000e+00,5.000000000000000000e+00,5.000000000000000000e+00,5.000000000000000000e+00,5.000000000000000000e+00,5.000000000000000000e+00,5.000000000000000000e+00,5.000000000000000000e+00,5.000000000000000000e+00,5.000000000000000000e+00,5.000000000000000000e+00,5.000000000000000000e+00,5.000000000000000000e+00,5.000000000000000000e+00,5.000000000000000000e+00,5.000000000000000000e+00,5.000000000000000000e+00,5.000000000000000000e+00,5.000000000000000000e+00,5.000000000000000000e+00,5.000000000000000000e+00,5.000000000000000000e+00,5.000000000000000000e+00,5.000000000000000000e+00,5.000000000000000000e+00,5.000000000000000000e+00,5.000000000000000000e+00,5.000000000000000000e+00,1.792214870452880859e+00,1.781895875930786133e+00,1.787722110748291016e+00,1.818652987480163574e+00,1.788013100624084473e+00,1.770324349403381348e+00,1.766058325767517090e+00,1.772312045097351074e+00,1.794622421264648438e+00,1.808918237686157227e+00,1.834730625152587891e+00,2.018763303756713867e+00,3.663595199584960938e+00,3.554110050201416016e+00,3.450978994369506836e+00,3.353664398193359375e+00,3.261687278747558594e+00,3.174620866775512695e+00,3.092082023620605469e+00,3.013725996017456055e+00,2.939243555068969727e+00,2.868353366851806641e+00,2.800802469253540039e+00,2.736360073089599609e+00,2.674816131591796875e+00,2.615979909896850586e+00,2.559676408767700195e+00,2.505745410919189453e+00,2.454040050506591797e+00,2.404425621032714844e+00,2.356777429580688477e+00,2.310981035232543945e+00,2.266930341720581055e+00,2.224527835845947266e+00,2.183682441711425781e+00,2.144309759140014648e+00,2.106332063674926758e+00,2.069675922393798828e+00,2.034273862838745117e+00,2.000062704086303711e+00,1.966983079910278320e+00,1.934979677200317383e+00,1.904001355171203613e+00,1.873998999595642090e+00,1.844927787780761719e+00
5.000000000000000000e+00,5.000000000000000000e+00,5.000000000000000000e+00,5.000000000000000000e+00,5.000000000000000000e+00,5.000000000000000000e+00,5.000000000000000000e+00,5.000000000000000000e+00,5.000000000000000000e+00,5.000000000000000000e+00,5.000000000000000000e+00,5.000000000000000000e+00,5.000000000000000000e+00,5.000000000000000000e+00,5.000000000000000000e+00,5.000000000000000000e+00,5.000000000000000000e+00,5.000000000000000000e+00,5.000000000000000000e+00,5.000000000000000000e+00,5.000000000000000000e+00,5.000000000000000000e+00,5.000000000000000000e+00,5.000000000000000000e+00,5.000000000000000000e+00,5.000000000000000000e+00,5.000000000000000000e+00,5.000000000000000000e+00,5.000000000000000000e+00,5.000000000000000000e+00,5.000000000000000000e+00,5.000000000000000000e+00,5.000000000000000000e+00,5.000000000000000000e+00,5.000000000000000000e+00,1.795561075210571289e+00,1.783571362495422363e+00,1.794478535652160645e+00,1.807203054428100586e+00,1.783698201179504395e+00,1.766362071037292480e+00,1.759889721870422363e+00,1.768894314765930176e+00,1.783775210380554199e+00,1.799368262290954590e+00,1.823455691337585449e+00,2.033639430999755859e+00,3.663673877716064453e+00,3.554184198379516602e+00,3.451049089431762695e+00,3.353730440139770508e+00,3.261750221252441406e+00,3.174680471420288086e+00,3.092138051986694336e+00,3.013779401779174805e+00,2.939294099807739258e+00,2.868401765823364258e+00,2.800848484039306641e+00,2.736403942108154297e+00,2.674858331680297852e+00,2.616020441055297852e+00,2.559714794158935547e+00,2.505782365798950195e+00,2.454075574874877930e+00,2.404459476470947266e+00,2.356810092926025391e+00,2.311012268066406250e+00,2.266960620880126953e+00,2.224556922912597656e+00,2.183710336685180664e+00,2.144336700439453125e+00,2.106358051300048828e+00,2.069700956344604492e+00,2.034298181533813477e+00,2.000086069107055664e+00,1.967005848884582520e+00,1.935001730918884277e+00,1.904022455215454102e+00,1.874019742012023926e+00,1.844947576522827148e+00
5.000000000000000000e+00,5.000000000000000000e+00,5.000000000000000000e+00,5.000000000000000000e+00,5.000000000000000000e+00,5.000000000000000000e+00,5.000000000000000000e+00,5.000000000000000000e+00,5.000000000000000000e+00,5.000000000000000000e+00,5.000000000000000000e+00,5.000000000000000000e+00,5.000000000000000000e+00,5.000000000000000000e+00,5.000000000000000000e+00,5.000000000000000000e+00,5.000000000000000000e+00,5.000000000000000000e+00,5.000000000000000000e+00,5.000000000000000000e+00,5.000000000000000000e+00,5.000000000000000000e+00,5.000000000000000000e+00,5.000000000000000000e+00,5.000000000000000000e+00,5.000000000000000000e+00,5.000000000000000000e+00,5.000000000000000000e+00,5.000000000000000000e+00,5.000000000000000000e+00,5.000000000000000000e+00,5.000000000000000000e+00,5.000000000000000000e+00,5.000000000000000000e+00,5.000000000000000000e+00,1.801414728164672852e+00,1.758350729942321777e+00,1.765253782272338867e+00,1.805697441101074219e+00,1.786252140998840332e+00,1.780194878578186035e+00,1.775966882705688477e+00,1.780550718307495117e+00,1.782468080520629883e+00,1.794935226440429688e+00,1.817062854766845703e+00,2.052842140197753906e+00,3.663752794265747070e+00,3.554258584976196289e+00,3.451118946075439453e+00,3.353796482086181641e+00,3.261812686920166016e+00,3.174739599227905273e+00,3.092194557189941406e+00,3.013832807540893555e+00,2.939344882965087891e+00,2.868450164794921875e+00,2.800894737243652344e+00,2.736448049545288086e+00,2.674900531768798828e+00,2.616060495376586914e+00,2.559753656387329102e+00,2.505819082260131836e+00,2.454110860824584961e+00,2.404493331909179688e+00,2.356842756271362305e+00,2.311043739318847656e+00,2.266990900039672852e+00,2.224586009979248047e+00,2.183738470077514648e+00,2.144363880157470703e+00,2.106384038925170898e+00,2.069725990295410156e+00,2.034322500228881836e+00,2.000109672546386719e+00,1.967028498649597168e+00,1.935023903846740723e+00,1.904043912887573242e+00,1.874040246009826660e+00,1.844967722892761230e+00
5.000000000000000000e+00,5.000000000000000000e+00,5.000000000000000000e+00,5.000000000000000000e+00,5.000000000000000000e+00,5.000000000000000000e+00,5.000000000000000000e+00,5.000000000000000000e+00,5.000000000000000000e+00,5.000000000000000000e+00,5.000000000000000000e+00,5.000000000000000000e+00,5.000000000000000000e+00,5.000000000000000000e+00,5.000000000000000000e+00,5.000000000000000000e+00,5.000000000000000000e+00,5.000000000000000000e+00,5.000000000000000000e+00,5.000000000000000000e+00,5.000000000000000000e+00,5.000000000000000000e+00,5.000000000000000000e+00,5.000000000000000000e+00,5.000000000000000000e+00,5.000000000000000000e+00,5.000000000000000000e+00,5.000000000000000000e+00,5.000000000000000000e+00,5.000000000000000000e+00,5.000000000000000000e+00,5.000000000000000000e+00,5.000000000000000000e+00,5.000000000000000000e+00,5.000000000000000000e+00,5.000000000000000000e+00,1.741653323173522949e+00,1.737167954444885254e+00,1.775388002395629883e+00,1.781885623931884766e+00,1.776040434837341309e+00,1.773018956184387207e+00,1.780209898948669434e+00,1.786727905273437500e+00,1.807748556137084961e+00,1.835894227027893066e+00,3.780292034149169922e+00,3.663831949234008789e+00,3.554332733154296875e+00,3.451188802719116211e+00,3.353862524032592773e+00,3.261875152587890625e+00,3.174798727035522461e+00,3.092250585556030273e+00,3.013886451721191406e+00,2.939395904541015625e+00,2.868498325347900391e+00,2.800940752029418945e+00,2.736491918563842773e+00,2.674942493438720703e+00,2.616100788116455078e+00,2.559792041778564453e+00,2.505856275558471680e+00,2.454146385192871094e+00,2.404527425765991211e+00,2.356875419616699219e+00,2.311074972152709961e+00,2.267020940780639648e+00,2.224615097045898438e+00,2.183766603469848633e+00,2.144391059875488281e+00,2.106410264968872070e+00,2.069751262664794922e+00,2.034346818923950195e+00,2.000133037567138672e+00,1.967051267623901367e+00,1.935045719146728516e+00,1.904065251350402832e+00,1.874060988426208496e+00,1.844987750053405762e+00
5.000000000000000000e+00,5.000000000000000000e+00,5.000000000000000000e+00,5.000000000000000000e+00,5.000000000000000000e+00,5.000000000000000000e+00,5.000000000000000000e+00,5.000000000000000000e+00,5.000000000000000000e+00,5.000000000000000000e+00,5.000000000000000000e+00,5.000000000000000000e+00,5.000000000000000000e+00,5.000000000000000000e+00,5.000000000000000000e+00,5.000000000000000000e+00,5.000000000000000000e+00,5.000000000000000000e+00,5.000000000000000000e+00,5.000000000000000000e+00,5.000000000000000000e+00,5.000000000000000000e+00,5.000000000000000000e+00,5.000000000000000000e+00,5.000000000000000000e+00,5.000000000000000000e+00,5.000000000000000000e+00,5.000000000000000000e+00,5.000000000000000000e+00,5.000000000000000000e+00,5.000000000000000000e+00,5.000000000000000000e+00,5.000000000000000000e+00,5.000000000000000000e+00,5.000000000000000000e+00,5.000000000000000000e+00,1.728185296058654785e+00,1.713407993316650391e+00,1.739114165306091309e+00,1.780072927474975586e+00,1.776802182197570801e+00,1.776392579078674316e+00,1.781657576560974121e+00,1.792801141738891602e+00,1.812053799629211426e+00,1.840458154678344727e+00,3.780375957489013672e+00,3.663910865783691406e+00,3.554407119750976562e+00,3.451258659362792969e+00,3.353928565979003906e+00,3.261937618255615234e+00,3.174857854843139648e+00,3.092306852340698242e+00,3.013939619064331055e+00,2.939446687698364258e+00,2.868546962738037109e+00,2.800986766815185547e+00,2.736535787582397461e+00,2.674984455108642578e+00,2.616140842437744141e+00,2.559830427169799805e+00,2.505892992019653320e+00,2.454181671142578125e+00,2.404561519622802734e+00,2.356907844543457031e+00,2.311106443405151367e+00,2.267051219940185547e+00,2.224644184112548828e+00,2.183794498443603516e+00,2.144418001174926758e+00,2.106436252593994141e+00,2.069776535034179688e+00,2.034371137619018555e+00,2.000156641006469727e+00,1.967073917388916016e+00,1.935067772865295410e+00,1.904086470603942871e+00,1.874081611633300781e+00,1.845007658004760742e+00
5.000000000000000000e+00,5.000000000000000000e+00,5.000000000000000000e+00,5.000000000000000000e+00,5.000000000000000000e+00,5.000000000000000000e+00,5.000000000000000000e+00,5.000000000000000000e+00,5.000000000000000000e+00,5.000000000000000000e+00,5.000000000000000000e+00,5.000000000000000000e+00,5.000000000000000000e+00,5.000000000000000000e+00,5.000000000000000000e+00,5.000000000000000000e+00,5.000000000000000000e+00,5.000000000000000000e+00,5.000000000000000000e+00,5.000000000000000000e+00,5.000000000000000000e+00,5.000000000000000000e+00,5.000000000000000000e+00,5.000000000000000000e+00,5.000000000000000000e+00,5.000000000000000000e+00,5.000000000000000000e+00,5.000000000000000000e+00,5.000000000000000000e+00,5.000000000000000000e+00,5.000000000000000000e+00,5.000000000000000000e+00,5.000000000000000000e+00,5.000000000000000000e+00,5.000000000000000000e+00,5.000000000000000000e+00,1.709843039512634277e+00,1.690217494964599609e+00,1.694255232810974121e+00,1.777652144432067871e+00,1.776111483573913574e+00,1.787434697151184082e+00,1.799495697021484375e+00,1.795108437538146973e+00,1.832398176193237305e+00,1.845610022544860840e+00,1.904500246047973633e+00,3.663989543914794922e+00,3.554481267929077148e+00,3.451328992843627930e+00,3.353994607925415039e+00,3.262000083923339844e+00,3.174917221069335938e+00,3.092362880706787109e+00,3.013993024826049805e+00,2.939497232437133789e+00,2.868595361709594727e+00,2.801033020019531250e+00,2.736579895019531250e+00,2.675026416778564453e+00,2.616181135177612305e+00,2.559869050979614258e+00,2.505929946899414062e+00,2.454217195510864258e+00,2.404595375061035156e+00,2.356940746307373047e+00,2.311137914657592773e+00,2.267081260681152344e+00,2.224673271179199219e+00,2.183822631835937500e+00,2.144444942474365234e+00,2.106462478637695312e+00,2.069801568984985352e+00,2.034395456314086914e+00,2.000180006027221680e+00,1.967096686363220215e+00,1.935089707374572754e+00,1.904107809066772461e+00,1.874102234840393066e+00,1.845027804374694824e+00
5.000000000000000000e+00,5.000000000000000000e+00,5.000000000000000000e+00,5.000000000000000000e+00,5.000000000000000000e+00,5.000000000000000000e+00,5.000000000000000000e+00,5.000000000000000000e+00,5.000000000000000000e+00,5.000000000000000000e+00,5.000000000000000000e+00,5.000000000000000000e+00,5.000000000000000000e+00,5.000000000000000000e+00,5.000000000000000000e+00,5.000000000000000000e+00,5.000000000000000000e+00,5.000000000000000000e+00,5.000000000000000000e+00,5.000000000000000000e+00,5.000000000000000000e+00,5.000000000000000000e+00,5.000000000000000000e+00,5.000000000000000000e+00,5.000000000000000000e+00,5.000000000000000000e+00,5.000000000000000000e+00,5.000000000000000000e+00,5.000000000000000000e+00,5.000000000000000000e+00,5.000000000000000000e+00,5.000000000000000000e+00,5.000000000000000000e+00,5.000000000000000000e+00,5.000000000000000000e+00,5.000000000000000000e+00,1.707165002822875977e+00,1.684286117553710938e+00,1.789489865303039551e+00,1.775796771049499512e+00,1.776286482810974121e+00,1.790545582771301270e+00,1.818557262420654297e+00,1.828975796699523926e+00,1.827613711357116699e+00,1.820744395256042480e+00,1.824824333190917969e+00,3.664068460464477539e+00,3.554555654525756836e+00,3.451399087905883789e+00,3.354060888290405273e+00,3.262062788009643555e+00,3.174976348876953125e+00,3.092419147491455078e+00,3.014046430587768555e+00,2.939548015594482422e+00,2.868643522262573242e+00,2.801079034805297852e+00,2.736624002456665039e+00,2.675068616867065430e+00,2.616221189498901367e+00,2.559907436370849609e+00,2.505966901779174805e+00,2.454252481460571289e+00,2.404629468917846680e+00,2.356973409652709961e+00,2.311169385910034180e+00,2.267111778259277344e+00,2.224702358245849609e+00,2.183850526809692383e+00,2.144471883773803711e+00,2.106488466262817383e+00,2.069826841354370117e+00,2.034419775009155273e+00,2.000203609466552734e+00,1.967119574546813965e+00,1.935111761093139648e+00,1.904129028320312500e+00,1.874122858047485352e+00,1.845047593116760254e+00
5.000000000000000000e+00,5.000000000000000000e+00,5.000000000000000000e+00,5.000000000000000000e+00,5.000000000000000000e+00,5.000000000000000000e+00,5.000000000000000000e+00,5.000000000000000000e+00,5.000000000000000000e+00,5.000000000000000000e+00,5.000000000000000000e+00,5.000000000000000000e+00,5.000000000000000000e+00,5.000000000000000000e+00,5.000000000000000000e+00,5.000000000000000000e+00,5.000000000000000000e+00,5.000000000000000000e+00,5.000000000000000000e+00,5.000000000000000000e+00,5.000000000000000000e+00,5.000000000000000000e+00,5.000000000000000000e+00,5.000000000000000000e+00,5.000000000000000000e+00,5.000000000000000000e+00,5.000000000000000000e+00,5.000000000000000000e+00,5.000000000000000000e+00,5.000000000000000000e+00,5.000000000000000000e+00,5.000000000000000000e+00,5.000000000000000000e+00,5.000000000000000000e+00,5.000000000000000000e+00,5.000000000000000000e+00,1.708606004714965820e+00,1.664915442466735840e+00,1.654381394386291504e+00,1.770882368087768555e+00,1.772976875305175781e+00,1.786062479019165039e+00,1.850598335266113281e+00,1.825716137886047363e+00,1.791320800781250000e+00,1.787605881690979004e+00,1.786202907562255859e+00,1.843198776245117188e+00,3.554629802703857422e+00,3.451468944549560547e+00,3.354126930236816406e+00,3.262125253677368164e+00,3.175035715103149414e+00,3.092475175857543945e+00,3.014099597930908203e+00,2.939598798751831055e+00,2.868691921234130859e+00,2.801125288009643555e+00,2.736668109893798828e+00,2.675110816955566406e+00,2.616261720657348633e+00,2.559945821762084961e+00,2.506003618240356445e+00,2.454287767410278320e+00,2.404663324356079102e+00,2.357005834579467773e+00,2.311200618743896484e+00,2.267141819000244141e+00,2.224731445312500000e+00,2.183878421783447266e+00,2.144498825073242188e+00,2.106514453887939453e+00,2.069852113723754883e+00,2.034444093704223633e+00,2.000227212905883789e+00,1.967142105102539062e+00,1.935133934020996094e+00,1.904150485992431641e+00,1.874143481254577637e+00,1.845067739486694336e+00
5.000000000000000000e+00,5.000000000000000000e+00,5.000000000000000000e+00,5.000000000000000000e+00,5.000000000000000000e+00,5.000000000000000000e+00,5.000000000000000000e+00,5.000000000000000000e+00,5.000000000000000000e+00,5.000000000000000000e+00,5.000000000000000000e+00,5.000000000000000000e+00,5.000000000000000000e+00,5.000000000000000000e+00,5.000000000000000000e+00,5.000000000000000000e+00,5.000000000000000000e+00,5.000000000000000000e+00,5.000000000000000000e+00,5.000000000000000000e+00,5.000000000000000000e+00,5.000000000000000000e+00,5.000000000000000000e+00,5.000000000000000000e+00,5.000000000000000000e+00,5.000000000000000000e+00,5.000000000000000000e+00,5.000000000000000000e+00,5.000000000000000000e+00,5.000000000000000000e+00,5.000000000000000000e+00,5.000000000000000000e+00,5.000000000000000000e+00,5.000000000000000000e+00,5.000000000000000000e+00,5.000000000000000000e+00,5.000000000000000000e+00,1.646100163459777832e+00,1.618932843208312988e+00,1.637349963188171387e+00,1.768724560737609863e+00,1.778015017509460449e+00,1.826990604400634766e+00,1.816514492034912109e+00,1.785215497016906738e+00,1.774871468544006348e+00,1.773798823356628418e+00,1.805137038230895996e+00,3.554703950881958008e+00,3.451538801193237305e+00,3.354192972183227539e+00,3.262187719345092773e+00,3.175095081329345703e+00,3.092531681060791016e+00,3.014153003692626953e+00,2.939649581909179688e+00,2.868740320205688477e+00,2.801171302795410156e+00,2.736711978912353516e+00,2.675152778625488281e+00,2.616301774978637695e+00,2.559984683990478516e+00,2.506040573120117188e+00,2.454323291778564453e+00,2.404697179794311523e+00,2.357038497924804688e+00,2.311232089996337891e+00,2.267172098159790039e+00,2.224760532379150391e+00,2.183906555175781250e+00,2.144526004791259766e+00,2.106540441513061523e+00,2.069877147674560547e+00,2.034468412399291992e+00,2.000250577926635742e+00,1.967164993286132812e+00,1.935155749320983887e+00,1.904171824455261230e+00,1.874164104461669922e+00,1.845087647438049316e+00
5.000000000000000000e+00,5.000000000000000000e+00,5.000000000000000000e+00,5.000000000000000000e+00,5.000000000000000000e+00,5.000000000000000000e+00,5.000000000000000000e+00,5.000000000000000000e+00,5.000000000000000000e+00,5.000000000000000000e+00,5.000000000000000000e+00,5.000000000000000000e+00,5.000000000000000000e+00,5.000000000000000000e+00,5.000000000000000000e+00,5.000000000000000000e+00,5.000000000000000000e+00,5.000000000000000000e+00,5.000000000000000000e+00,5.000000000000000000e+00,5.000000000000000000e+00,5.000000000000000000e+00,5.000000000000000000e+00,5.000000000000000000e+00,5.000000000000000000e+00,5.000000000000000000e+00,5.000000000000000000e+00,5.000000000000000000e+00,5.000000000000000000e+00,5.000000000000000000e+00,5.000000000000000000e+00,5.000000000000000000e+00,5.000000000000000000e+00,5.000000000000000000e+00,5.000000000000000000e+00,5.000000000000000000e+00,5.000000000000000000e+00,1.635914564132690430e+00,1.627480864524841309e+00,1.771915078163146973e+00,1.623579025268554688e+00,1.777438044548034668e+00,1.822481155395507812e+00,1.813920378684997559e+00,1.782995939254760742e+00,1.765124797821044922e+00,1.764693021774291992e+00,1.776266574859619141e+00,3.554778099060058594e+00,3.451608896255493164e+00,3.354259014129638672e+00,3.262250185012817383e+00,3.175154209136962891e+00,3.092587709426879883e+00,3.014206647872924805e+00,2.939700603485107422e+00,2.868788480758666992e+00,2.801217317581176758e+00,2.736755847930908203e+00,2.675194740295410156e+00,2.616342067718505859e+00,2.560023069381713867e+00,2.506077527999877930e+00,2.454358816146850586e+00,2.404731273651123047e+00,2.357071161270141602e+00,2.311263322830200195e+00,2.267202138900756836e+00,2.224789619445800781e+00,2.183934688568115234e+00,2.144553184509277344e+00,2.106566667556762695e+00,2.069902420043945312e+00,2.034492731094360352e+00,2.000274181365966797e+00,1.967187643051147461e+00,1.935177922248840332e+00,1.904193043708801270e+00,1.874184846878051758e+00,1.845107674598693848e+00
5.000000000000000000e+00,5.000000000000000000e+00,5.000000000000000000e+00,5.000000000000000000e+00,5.000000000000000000e+00,5.000000000000000000e+00,5.000000000000000000e+00,5.000000000000000000e+00,5.000000000000000000e+00,5.000000000000000000e+00,5.000000000000000000e+00,5.000000000000000000e+00,5.000000000000000000e+00,5.000000000000000000e+00,5.000000000000000000e+00,5.000000000000000000e+00,5.000000000000000000e+00,5.000000000000000000e+00,5.000000000000000000e+00,5.000000000000000000e+00,5.000000000000000000e+00,5.000000000000000000e+00,5.000000000000000000e+00,5.000000000000000000e+00,5.000000000000000000e+00,5.000000000000000000e+00,5.000000000000000000e+00,5.000000000000000000e+00,5.000000000000000000e+00,5.000000000000000000e+00,5.000000000000000000e+00,5.000000000000000000e+00,5.000000000000000000e+00,5.000000000000000000e+00,5.000000000000000000e+00,5.000000000000000000e+00,5.000000000000000000e+00,1.629748940467834473e+00,1.603646516799926758e+00,1.572533488273620605e+00,1.774566292762756348e+00,1.781011462211608887e+00,1.826960325241088867e+00,1.814059972763061523e+00,1.780083179473876953e+00,1.753149509429931641e+00,1.755003452301025391e+00,1.754834413528442383e+00,3.554852724075317383e+00,3.451678752899169922e+00,3.354325294494628906e+00,3.262312650680541992e+00,3.175213336944580078e+00,3.092643976211547852e+00,3.014260053634643555e+00,2.939751148223876953e+00,2.868837118148803711e+00,2.801263332366943359e+00,2.736799955368041992e+00,2.675236701965332031e+00,2.616382360458374023e+00,2.560061454772949219e+00,2.506114482879638672e+00,2.454394102096557617e+00,2.404765367507934570e+00,2.357103824615478516e+00,2.311294794082641602e+00,2.267232418060302734e+00,2.224818706512451172e+00,2.183962583541870117e+00,2.144580125808715820e+00,2.106592655181884766e+00,2.069927692413330078e+00,2.034517049789428711e+00,2.000297546386718750e+00,1.967210412025451660e+00,1.935199737548828125e+00,1.904214382171630859e+00,1.874205350875854492e+00,1.845127820968627930e+00
5.000000000000000000e+00,5.000000000000000000e+00,5.000000000000000000e+00,5.000000000000000000e+00,5.000000000000000000e+00,5.000000000000000000e+00,5.000000000000000000e+00,5.000000000000000000e+00,5.000000000000000000e+00,5.000000000000000000e+00,5.000000000000000000e+00,5.000000000000000000e+00,5.000000000000000000e+00,5.000000000000000000e+00,5.000000000000000000e+00,5.000000000000000000e+00,5.000000000000000000e+00,5.000000000000000000e+00,5.000000000000000000e+00,5.000000000000000000e+00,5.000000000000000000e+00,5.000000000000000000e+00,5.000000000000000000e+00,5.000000000000000000e+00,5.000000000000000000e+00,5.000000000000000000e+00,5.000000000000000000e+00,5.000000000000000000e+00,5.000000000000000000e+00,5.000000000000000000e+00,5.000000000000000000e+00,5.000000000000000000e+00,5.000000000000000000e+00,5.000000000000000000e+00,5.000000000000000000e+00,5.000000000000000000e+00,5.000000000000000000e+00,1.617095708847045898e+00,1.580011606216430664e+00,1.780731081962585449e+00,1.779444456100463867e+00,1.791057944297790527e+00,4.331836223602294922e+00,1.818103551864624023e+00,1.777125835418701172e+00,1.746124625205993652e+00,1.743164539337158203e+00,1.744997262954711914e+00,1.808562994003295898e+00,3.451749086380004883e+00,3.354391336441040039e+00,3.262375116348266602e+00,3.175272464752197266e+00,3.092700004577636719e+00,3.014313220977783203e+00,2.939801931381225586e+00,2.868885517120361328e+00,2.801309823989868164e+00,2.736843824386596680e+00,2.675278663635253906e+00,2.616422414779663086e+00,2.560100078582763672e+00,2.506151437759399414e+00,2.454429388046264648e+00,2.404799222946166992e+00,2.357136487960815430e+00,2.311326026916503906e+00,2.267262458801269531e+00,2.224847793579101562e+00,2.183990716934204102e+00,2.144607067108154297e+00,2.106618881225585938e+00,2.069952726364135742e+00,2.034541368484497070e+00,2.000321149826049805e+00,1.967233061790466309e+00,1.935221791267395020e+00,1.904235601425170898e+00,1.874226093292236328e+00,1.845147728919982910e+00
5.000000000000000000e+00,5.000000000000000000e+00,5.000000000000000000e+00,5.000000000000000000e+00,5.000000000000000000e+00,5.000000000000000000e+00,5.000000000000000000e+00,5.000000000000000000e+00,5.000000000000000000e+00,5.000000000000000000e+00,5.000000000000000000e+00,5.000000000000000000e+00,5.000000000000000000e+00,5.000000000000000000e+00,5.000000000000000000e+00,5.000000000000000000e+00,5.000000000000000000e+00,5.000000000000000000e+00,5.000000000000000000e+00,5.000000000000000000e+00,5.000000000000000000e+00,5.000000000000000000e+00,5.000000000000000000e+00,5.000000000000000000e+00,5.000000000000000000e+00,5.000000000000000000e+00,5.000000000000000000e+00,5.000000000000000000e+00,5.000000000000000000e+00,5.000000000000000000e+00,5.000000000000000000e+00,5.000000000000000000e+00,5.000000000000000000e+00,5.000000000000000000e+00,5.000000000000000000e+00,5.000000000000000000e+00,5.000000000000000000e+00,1.846747756004333496e+00,1.791876912117004395e+00,1.786248564720153809e+00,1.784349441528320312e+00,1.801280617713928223e+00,4.331946372985839844e+00,1.823011279106140137e+00,1.774129390716552734e+00,1.742166042327880859e+00,1.732409000396728516e+00,1.734481215476989746e+00,1.772586941719055176e+00,3.451818943023681641e+00,3.354457616806030273e+00,3.262438058853149414e+00,3.175331830978393555e+00,3.092756271362304688e+00,3.014366626739501953e+00,2.939852714538574219e+00,2.868933677673339844e+00,2.801355838775634766e+00,2.736888170242309570e+00,2.675321102142333984e+00,2.616462707519531250e+00,2.560138463973999023e+00,2.506188154220581055e+00,2.454464912414550781e+00,2.404833316802978516e+00,2.357169151306152344e+00,2.311357736587524414e+00,2.267292976379394531e+00,2.224876642227172852e+00,2.184018611907958984e+00,2.144634008407592773e+00,2.106644868850708008e+00,2.069977998733520508e+00,2.034565687179565430e+00,2.000344753265380859e+00,1.967255830764770508e+00,1.935243725776672363e+00,1.904256939888000488e+00,1.874246597290039062e+00,1.845167756080627441e+00
5.000000000000000000e+00,5.000000000000000000e+00,5.000000000000000000e+00,5.000000000000000000e+00,5.000000000000000000e+00,5.000000000000000000e+00,5.000000000000000000e+00,5.000000000000000000e+00,5.000000000000000000e+00,5.000000000000000000e+00,5.000000000000000000e+00,5.000000000000000000e+00,5.000000000000000000e+00,5.000000000000000000e+00,5.000000000000000000e+00,5.000000000000000000e+00,5.000000000000000000e+00,5.000000000000000000e+00,5.000000000000000000e+00,5.000000000000000000e+00,5.000000000000000000e+00,5.000000000000000000e+00,5.000000000000000000e+00,5.000000000000000000e+00,5.000000000000000000e+00,5.000000000000000000e+00,5.000000000000000000e+00,5.000000000000000000e+00,5.000000000000000000e+00,5.000000000000000000e+00,5.000000000000000000e+00,5.000000000000000000e+00,5.000000000000000000e+00,5.000000000000000000e+00,5.000000000000000000e+00,5.000000000000000000e+00,5.000000000000000000e+00,1.860946416854858398e+00,1.800933837890625000e+00,1.792095661163330078e+00,1.789281606674194336e+00,1.810612678527832031e+00,4.332056522369384766e+00,1.834577560424804688e+00,1.769208073616027832e+00,1.736699223518371582e+00,1.718081593513488770e+00,1.724145174026489258e+00,1.728567957878112793e+00,3.451889038085937500e+00,3.354523658752441406e+00,3.262500524520874023e+00,3.175391197204589844e+00,3.092812299728393555e+00,3.014420032501220703e+00,2.939903497695922852e+00,2.868982076644897461e+00,2.801401853561401367e+00,2.736932039260864258e+00,2.675363063812255859e+00,2.616503000259399414e+00,2.560177087783813477e+00,2.506225109100341797e+00,2.454500198364257812e+00,2.404867172241210938e+00,2.357201814651489258e+00,2.311388969421386719e+00,2.267323017120361328e+00,2.224905967712402344e+00,2.184046745300292969e+00,2.144661188125610352e+00,2.106670856475830078e+00,2.070003032684326172e+00,2.034590005874633789e+00,2.000368118286132812e+00,1.967278718948364258e+00,1.935265779495239258e+00,1.904278159141540527e+00,1.874267339706420898e+00,1.845187664031982422e+00
5.000000000000000000e+00,5.000000000000000000e+00,5.000000000000000000e+00,5.000000000000000000e+00,5.000000000000000000e+00,5.000000000000000000e+00,5.000000000000000000e+00,5.000000000000000000e+00,5.000000000000000000e+00,5.000000000000000000e+00,5.000000000000000000e+00,5.000000000000000000e+00,5.000000000000000000e+00,5.000000000000000000e+00,5.000000000000000000e+00,5.000000000000000000e+00,5.000000000000000000e+00,5.000000000000000000e+00,5.000000000000000000e+00,5.000000000000000000e+00,5.000000000000000000e+00,5.000000000000000000e+00,5.000000000000000000e+00,5.000000000000000000e+00,5.000000000000000000e+00,5.000000000000000000e+00,5.000000000000000000e+00,5.000000000000000000e+00,5.000000000000000000e+00,5.000000000000000000e+00,5.000000000000000000e+00,5.000000000000000000e+00,5.000000000000000000e+00,5.000000000000000000e+00,5.000000000000000000e+00,5.000000000000000000e+00,5.000000000000000000e+00,1.875007867813110352e+00,1.810674071311950684e+00,1.796993017196655273e+00,1.794495582580566406e+00,1.818056106567382812e+00,4.332167148590087891e+00,4.179905891418457031e+00,1.767999172210693359e+00,1.732747793197631836e+00,1.710587978363037109e+00,1.709987044334411621e+00,1.715959787368774414e+00,3.451958894729614258e+00,3.354589700698852539e+00,3.262562990188598633e+00,3.175450325012207031e+00,3.092868804931640625e+00,3.014473438262939453e+00,2.939954280853271484e+00,2.869030475616455078e+00,2.801447868347167969e+00,2.736976146697998047e+00,2.675405025482177734e+00,2.616543292999267578e+00,2.560215711593627930e+00,2.506262063980102539e+00,2.454535722732543945e+00,2.404901266098022461e+00,2.357234477996826172e+00,2.311420440673828125e+00,2.267353296279907227e+00,2.224935054779052734e+00,2.184074878692626953e+00,2.144688129425048828e+00,2.106697082519531250e+00,2.070028305053710938e+00,2.034614324569702148e+00,2.000391721725463867e+00,1.967301368713378906e+00,1.935287952423095703e+00,1.904299616813659668e+00,1.874287843704223633e+00,1.845207691192626953e+00
5.000000000000000000e+00,5.000000000000000000e+00,5.000000000000000000e+00,5.000000000000000000e+00,5.000000000000000000e+00,5.000000000000000000e+00,5.000000000000000000e+00,5.000000000000000000e+00,5.000000000000000000e+00,5.000000000000000000e+00,5.000000000000000000e+00,5.000000000000000000e+00,5.000000000000000000e+00,5.000000000000000000e+00,5.000000000000000000e+00,5.000000000000000000e+00,5.000000000000000000e+00,5.000000000000000000e+00,5.000000000000000000e+00,5.000000000000000000e+00,5.000000000000000000e+00,5.000000000000000000e+00,5.000000000000000000e+00,5.000000000000000000e+00,5.000000000000000000e+00,5.000000000000000000e+00,5.000000000000000000e+00,5.000000000000000000e+00,5.000000000000000000e+00,5.000000000000000000e+00,5.000000000000000000e+00,5.000000000000000000e+00,5.000000000000000000e+00,5.000000000000000000e+00,5.000000000000000000e+00,5.000000000000000000e+00,5.000000000000000000e+00,1.890425086021423340e+00,1.821149706840515137e+00,1.800018787384033203e+00,1.797513127326965332e+00,1.826164364814758301e+00,4.332277297973632812e+00,4.180008888244628906e+00,1.782309412956237793e+00,1.728845715522766113e+00,1.706785082817077637e+00,1.696798086166381836e+00,1.703888177871704102e+00,3.452028989791870117e+00,3.354655742645263672e+00,3.262625455856323242e+00,3.175509691238403320e+00,3.092925071716308594e+00,3.014527082443237305e+00,2.940005302429199219e+00,2.869078636169433594e+00,2.801494121551513672e+00,2.737020015716552734e+00,2.675446987152099609e+00,2.616583347320556641e+00,2.560254096984863281e+00,2.506299018859863281e+00,2.454571247100830078e+00,2.404935121536254883e+00,2.357267141342163086e+00,2.311451673507690430e+00,2.267383575439453125e+00,2.224964141845703125e+00,2.184102773666381836e+00,2.144715309143066406e+00,2.106723070144653320e+00,2.070053339004516602e+00,2.034638643264770508e+00,2.000415325164794922e+00,1.967324137687683105e+00,1.935309767723083496e+00,1.904320955276489258e+00,1.874308586120605469e+00,1.845227837562561035e+00
5.000000000000000000e+00,5.000000000000000000e+00,5.000000000000000000e+00,5.000000000000000000e+00,5.000000000000000000e+00,5.000000000000000000e+00,5.000000000000000000e+00,5.000000000000000000e+00,5.000000000000000000e+00,5.000000000000000000e+00,5.000000000000000000e+00,5.000000000000000000e+00,5.000000000000000000e+00,5.000000000000000000e+00,5.000000000000000000e+00,5.000000000000000000e+00,5.000000000000000000e+00,5.000000000000000000e+00,5.000000000000000000e+00,5.000000000000000000e+00,5.000000000000000000e+00,5.000000000000000000e+00,5.000000000000000000e+00,5.000000000000000000e+00,5.000000000000000000e+00,5.000000000000000000e+00,5.000000000000000000e+00,5.000000000000000000e+00,5.000000000000000000e+00,5.000000000000000000e+00,5.000000000000000000e+00,5.000000000000000000e+00,5.000000000000000000e+00,5.000000000000000000e+00,5.000000000000000000e+00,5.000000000000000000e+00,5.000000000000000000e+00,1.900886654853820801e+00,1.831747293472290039e+00,1.803197979927062988e+00,1.800540924072265625e+00,1.833161234855651855e+00,4.332387447357177734e+00,4.180111408233642578e+00,4.038176536560058594e+00,1.723721742630004883e+00,1.703145146369934082e+00,1.688131332397460938e+00,1.696354627609252930e+00,3.452098846435546875e+00,3.354722023010253906e+00,3.262687921524047852e+00,3.175568819046020508e+00,3.092981100082397461e+00,3.014580249786376953e+00,2.940056085586547852e+00,2.869127273559570312e+00,2.801540136337280273e+00,2.737064123153686523e+00,2.675489187240600586e+00,2.616623640060424805e+00,2.560292720794677734e+00,2.506335973739624023e+00,2.454606533050537109e+00,2.404969215393066406e+00,2.357299804687500000e+00,2.311483144760131836e+00,2.267413616180419922e+00,2.224993228912353516e+00,2.184130907058715820e+00,2.144742250442504883e+00,2.106749296188354492e+00,2.070078611373901367e+00,2.034662961959838867e+00,2.000438690185546875e+00,1.967346787452697754e+00,1.935331940650939941e+00,1.904342174530029297e+00,1.874329328536987305e+00,1.845247745513916016e+00
5.000000000000000000e+00,5.000000000000000000e+00,5.000000000000000000e+00,5.000000000000000000e+00,5.000000000000000000e+00,5.000000000000000000e+00,5.000000000000000000e+00,5.000000000000000000e+00,5.000000000000000000e+00,5.000000000000000000e+00,5.000000000000000000e+00,5.000000000000000000e+00,5.000000000000000000e+00,5.000000000000000000e+00,5.000000000000000000e+00,5.000000000000000000e+00,5.000000000000000000e+00,5.000000000000000000e+00,5.000000000000000000e+00,5.000000000000000000e+00,5.000000000000000000e+00,5.000000000000000000e+00,5.000000000000000000e+00,5.000000000000000000e+00,5.000000000000000000e+00,5.000000000000000000e+00,5.000000000000000000e+00,5.000000000000000000e+00,5.000000000000000000e+00,5.000000000000000000e+00,5.000000000000000000e+00,5.000000000000000000e+00,5.000000000000000000e+00,5.000000000000000000e+00,5.000000000000000000e+00,5.000000000000000000e+00,5.000000000000000000e+00,5.000000000000000000e+00,1.842145085334777832e+00,1.809226036071777344e+00,1.804361462593078613e+00,1.837456464767456055e+00,4.332498073577880859e+00,4.180213928222656250e+00,4.038272380828857422e+00,1.726535439491271973e+00,1.705563306808471680e+00,1.693807601928710938e+00,1.700301527976989746e+00,3.452169179916381836e+00,3.354788303375244141e+00,3.262750387191772461e+00,3.175627946853637695e+00,3.093037366867065430e+00,3.014633655548095703e+00,2.940106630325317383e+00,2.869175672531127930e+00,2.801586389541625977e+00,2.737108230590820312e+00,2.675531148910522461e+00,2.616663932800292969e+00,2.560331106185913086e+00,2.506372928619384766e+00,2.454641819000244141e+00,2.405003309249877930e+00,2.357332468032836914e+00,2.311514616012573242e+00,2.267443895339965820e+00,2.225022315979003906e+00,2.184158802032470703e+00,2.144769191741943359e+00,2.106775283813476562e+00,2.070103883743286133e+00,2.034687280654907227e+00,2.000462293624877930e+00,1.967369556427001953e+00,1.935353755950927734e+00,1.904363512992858887e+00,1.874349832534790039e+00,1.845267772674560547e+00
5.000000000000000000e+00,5.000000000000000000e+00,5.000000000000000000e+00,5.000000000000000000e+00,5.000000000000000000e+00,5.000000000000000000e+00,5.000000000000000000e+00,5.000000000000000000e+00,5.000000000000000000e+00,5.000000000000000000e+00,5.000000000000000000e+00,5.000000000000000000e+00,5.000000000000000000e+00,5.000000000000000000e+00,5.000000000000000000e+00,5.000000000000000000e+00,5.000000000000000000e+00,5.000000000000000000e+00,5.000000000000000000e+00,5.000000000000000000e+00,5.000000000000000000e+00,5.000000000000000000e+00,5.000000000000000000e+00,5.000000000000000000e+00,5.000000000000000000e+00,5.000000000000000000e+00,5.000000000000000000e+00,5.000000000000000000e+00,5.000000000000000000e+00,5.000000000000000000e+00,5.000000000000000000e+00,5.000000000000000000e+00,5.000000000000000000e+00,5.000000000000000000e+00,5.000000000000000000e+00,5.000000000000000000e+00,5.000000000000000000e+00,5.000000000000000000e+00,1.852389454841613770e+00,1.815294265747070312e+00,1.812079310417175293e+00,1.841771960258483887e+00,4.332608222961425781e+00,4.180316925048828125e+00,4.038367748260498047e+00,1.734375000000000000e+00,1.713594675064086914e+00,1.703832626342773438e+00,1.710283517837524414e+00,3.452239036560058594e+00,3.354854345321655273e+00,3.262813329696655273e+00,3.175687313079833984e+00,3.093093395233154297e+00,3.014687061309814453e+00,2.940157413482666016e+00,2.869224071502685547e+00,2.801632404327392578e+00,2.737152099609375000e+00,2.675573348999023438e+00,2.616703987121582031e+00,2.560369491577148438e+00,2.506409645080566406e+00,2.454677343368530273e+00,2.405037164688110352e+00,2.357365131378173828e+00,2.311546087265014648e+00,2.267474174499511719e+00,2.225051164627075195e+00,2.184186935424804688e+00,2.144796133041381836e+00,2.106801271438598633e+00,2.070128917694091797e+00,2.034711599349975586e+00,2.000485897064208984e+00,1.967392444610595703e+00,1.935375928878784180e+00,1.904384732246398926e+00,1.874370574951171875e+00,1.845287680625915527e+00
5.000000000000000000e+00,5.000000000000000000e+00,5.000000000000000000e+00,5.000000000000000000e+00,5.000000000000000000e+00,5.000000000000000000e+00,5.000000000000000000e+00,5.000000000000000000e+00,5.000000000000000000e+00,5.000000000000000000e+00,5.000000000000000000e+00,5.000000000000000000e+00,5.000000000000000000e+00,5.000000000000000000e+00,5.000000000000000000e+00,5.000000000000000000e+00,5.000000000000000000e+00,5.000000000000000000e+00,5.000000000000000000e+00,5.000000000000000000e+00,5.000000000000000000e+00,5.000000000000000000e+00,5.000000000000000000e+00,5.000000000000000000e+00,5.000000000000000000e+00,5.000000000000000000e+00,5.000000000000000000e+00,5.000000000000000000e+00,5.000000000000000000e+00,5.000000000000000000e+00,5.000000000000000000e+00,5.000000000000000000e+00,5.000000000000000000e+00,5.000000000000000000e+00,5.000000000000000000e+00,5.000000000000000000e+00,5.000000000000000000e+00,1.918242216110229492e+00,1.863635897636413574e+00,1.823525190353393555e+00,1.824295401573181152e+00,1.852392792701721191e+00,4.332718372344970703e+00,4.180419445037841797e+00,4.038464069366455078e+00,1.742981433868408203e+00,1.718745827674865723e+00,1.714701175689697266e+00,1.744299173355102539e+00,3.452309131622314453e+00,3.354920387268066406e+00,3.262875795364379883e+00,3.175746679306030273e+00,3.093149662017822266e+00,3.014740467071533203e+00,2.940208196640014648e+00,2.869272232055664062e+00,2.801678657531738281e+00,2.737196207046508789e+00,2.675615310668945312e+00,2.616744518280029297e+00,2.560408115386962891e+00,2.506446599960327148e+00,2.454712629318237305e+00,2.405071258544921875e+00,2.357397794723510742e+00,2.311577320098876953e+00,2.267504453659057617e+00,2.225080490112304688e+00,2.184214830398559570e+00,2.144823312759399414e+00,2.106827497482299805e+00,2.070154190063476562e+00,2.034735918045043945e+00,2.000509262084960938e+00,1.967415094375610352e+00,1.935397982597351074e+00,1.904406070709228516e+00,1.874391078948974609e+00,1.845307826995849609e+00
5.000000000000000000e+00,5.000000000000000000e+00,5.000000000000000000e+00,5.000000000000000000e+00,5.000000000000000000e+00,5.000000000000000000e+00,5.000000000000000000e+00,5.000000000000000000e+00,5.000000000000000000e+00,5.000000000000000000e+00,5.000000000000000000e+00,5.000000000000000000e+00,5.000000000000000000e+00,5.000000000000000000e+00,5.000000000000000000e+00,5.000000000000000000e+00,5.000000000000000000e+00,5.000000000000000000e+00,5.000000000000000000e+00,5.000000000000000000e+00,5.000000000000000000e+00,5.000000000000000000e+00,5.000000000000000000e+00,5.000000000000000000e+00,5.000000000000000000e+00,5.000000000000000000e+00,5.000000000000000000e+00,5.000000000000000000e+00,5.000000000000000000e+00,5.000000000000000000e+00,5.000000000000000000e+00,5.000000000000000000e+00,5.000000000000000000e+00,5.000000000000000000e+00,5.000000000000000000e+00,5.000000000000000000e+00,1.982910633087158203e+00,1.910540461540222168e+00,1.867056965827941895e+00,1.838020324707031250e+00,1.847401499748229980e+00,4.496653079986572266e+00,4.332828998565673828e+00,4.180521965026855469e+00,4.038559436798095703e+00,1.748584747314453125e+00,1.730997562408447266e+00,1.726895332336425781e+00,1.766199946403503418e+00,3.452378988265991211e+00,3.354986667633056641e+00,3.262938261032104492e+00,3.175806045532226562e+00,3.093206167221069336e+00,3.014794111251831055e+00,2.940258979797363281e+00,2.869320631027221680e+00,2.801724672317504883e+00,2.737240076065063477e+00,2.675657510757446289e+00,2.616784572601318359e+00,2.560446739196777344e+00,2.506483793258666992e+00,2.454748153686523438e+00,2.405105113983154297e+00,2.357430458068847656e+00,2.311608791351318359e+00,2.267534494400024414e+00,2.225109577178955078e+00,2.184242963790893555e+00,2.144850492477416992e+00,2.106853485107421875e+00,2.070179224014282227e+00,2.034760236740112305e+00,2.000532865524291992e+00,1.967437863349914551e+00,1.935419917106628418e+00,1.904427528381347656e+00,1.874411821365356445e+00,1.845327734947204590e+00
5.000000000000000000e+00,5.000000000000000000e+00,5.000000000000000000e+00,5.000000000000000000e+00,5.000000000000000000e+00,5.000000000000000000e+00,5.000000000000000000e+00,5.000000000000000000e+00,5.000000000000000000e+00,5.000000000000000000e+00,5.000000000000000000e+00,5.000000000000000000e+00,5.000000000000000000e+00,5.000000000000000000e+00,5.000000000000000000e+00,5.000000000000000000e+00,5.000000000000000000e+00,5.000000000000000000e+00,5.000000000000000000e+00,5.000000000000000000e+00,5.000000000000000000e+00,5.000000000000000000e+00,5.000000000000000000e+00,5.000000000000000000e+00,5.000000000000000000e+00,5.000000000000000000e+00,5.000000000000000000e+00,5.000000000000000000e+00,5.000000000000000000e+00,5.000000000000000000e+00,5.000000000000000000e+00,5.000000000000000000e+00,5.000000000000000000e+00,5.000000000000000000e+00,5.000000000000000000e+00,5.000000000000000000e+00,1.967277169227600098e+00,1.926112890243530273e+00,1.900233030319213867e+00,1.874191522598266602e+00,4.673480033874511719e+00,4.496771812438964844e+00,4.332939147949218750e+00,4.180624961853027344e+00,1.799957513809204102e+00,1.749547004699707031e+00,1.737362146377563477e+00,1.735193014144897461e+00,3.555669307708740234e+00,3.452449083328247070e+00,3.355052709579467773e+00,3.263000726699829102e+00,3.175865173339843750e+00,3.093262195587158203e+00,3.014847517013549805e+00,2.940310001373291016e+00,2.869369029998779297e+00,2.801770687103271484e+00,2.737284183502197266e+00,2.675699472427368164e+00,2.616824865341186523e+00,2.560485363006591797e+00,2.506520509719848633e+00,2.454783678054809570e+00,2.405138969421386719e+00,2.357462882995605469e+00,2.311640024185180664e+00,2.267564773559570312e+00,2.225138664245605469e+00,2.184271097183227539e+00,2.144877433776855469e+00,2.106879711151123047e+00,2.070204496383666992e+00,2.034784555435180664e+00,2.000556230545043945e+00,1.967460513114929199e+00,1.935441970825195312e+00,1.904448747634887695e+00,1.874432563781738281e+00,1.845347762107849121e+00
5.000000000000000000e+00,5.000000000000000000e+00,5.000000000000000000e+00,5.000000000000000000e+00,5.000000000000000000e+00,5.000000000000000000e+00,5.000000000000000000e+00,5.000000000000000000e+00,5.000000000000000000e+00,5.000000000000000000e+00,5.000000000000000000e+00,5.000000000000000000e+00,5.000000000000000000e+00,5.000000000000000000e+00,5.000000000000000000e+00,5.000000000000000000e+00,5.000000000000000000e+00,5.000000000000000000e+00,5.000000000000000000e+00,5.000000000000000000e+00,5.000000000000000000e+00,5.000000000000000000e+00,5.000000000000000000e+00,5.000000000000000000e+00,5.000000000000000000e+00,5.000000000000000000e+00,5.000000000000000000e+00,5.000000000000000000e+00,5.000000000000000000e+00,5.000000000000000000e+00,5.000000000000000000e+00,5.000000000000000000e+00,5.000000000000000000e+00,5.000000000000000000e+00,5.000000000000000000e+00,5.000000000000000000e+00,1.988956212997436523e+00,1.954260945320129395e+00,1.939761996269226074e+00,4.864783287048339844e+00,4.673608779907226562e+00,4.496890544891357422e+00,4.333049297332763672e+00,4.180727481842041016e+00,1.802039980888366699e+00,1.748177051544189453e+00,1.737511992454528809e+00,1.735462784767150879e+00,3.555743932723999023e+00,3.452518939971923828e+00,3.355118751525878906e+00,3.263063192367553711e+00,3.175924539566040039e+00,3.093318462371826172e+00,3.014900684356689453e+00,2.940360784530639648e+00,2.869417428970336914e+00,2.801816940307617188e+00,2.737328052520751953e+00,2.675741434097290039e+00,2.616864919662475586e+00,2.560523748397827148e+00,2.506557464599609375e+00,2.454818964004516602e+00,2.405173301696777344e+00,2.357495546340942383e+00,2.311671495437622070e+00,2.267594814300537109e+00,2.225167751312255859e+00,2.184298992156982422e+00,2.144904375076293945e+00,2.106905698776245117e+00,2.070229768753051758e+00,2.034808874130249023e+00,2.000579833984375000e+00,1.967483282089233398e+00,1.935463905334472656e+00,1.904470086097717285e+00,1.874453067779541016e+00,1.845367908477783203e+00
5.000000000000000000e+00,5.000000000000000000e+00,5.000000000000000000e+00,5.000000000000000000e+00,5.000000000000000000e+00,5.000000000000000000e+00,5.000000000000000000e+00,5.000000000000000000e+00,5.000000000000000000e+00,5.000000000000000000e+00,5.000000000000000000e+00,5.000000000000000000e+00,5.000000000000000000e+00,5.000000000000000000e+00,5.000000000000000000e+00,5.000000000000000000e+00,5.000000000000000000e+00,5.000000000000000000e+00,5.000000000000000000e+00,5.000000000000000000e+00,5.000000000000000000e+00,5.000000000000000000e+00,5.000000000000000000e+00,5.000000000000000000e+00,5.000000000000000000e+00,5.000000000000000000e+00,5.000000000000000000e+00,5.000000000000000000e+00,5.000000000000000000e+00,5.000000000000000000e+00,5.000000000000000000e+00,5.000000000000000000e+00,5.000000000000000000e+00,5.000000000000000000e+00,5.000000000000000000e+00,2.078325510025024414e+00,2.011523485183715820e+00,1.982005596160888672e+00,2.001460552215576172e+00,4.864922046661376953e+00,4.673736572265625000e+00,4.497009277343750000e+00,4.333159923553466797e+00,4.180830478668212891e+00,1.804248452186584473e+00,1.747539639472961426e+00,1.736999154090881348e+00,1.735732674598693848e+00,3.555818080902099609e+00,3.452589511871337891e+00,3.355185270309448242e+00,3.263125896453857422e+00,3.175983667373657227e+00,3.093374729156494141e+00,3.014954090118408203e+00,2.940411567687988281e+00,2.869465827941894531e+00,2.801863193511962891e+00,2.737372398376464844e+00,2.675783634185791016e+00,2.616905212402343750e+00,2.560562133789062500e+00,2.506594419479370117e+00,2.454854249954223633e+00,2.405207157135009766e+00,2.357528448104858398e+00,2.311702966690063477e+00,2.267625093460083008e+00,2.225196838378906250e+00,2.184327125549316406e+00,2.144931316375732422e+00,2.106931686401367188e+00,2.070254802703857422e+00,2.034833431243896484e+00,2.000603437423706055e+00,1.967505931854248047e+00,1.935485959053039551e+00,1.904491305351257324e+00,1.874473810195922852e+00,1.845387816429138184e+00
5.000000000000000000e+00,5.000000000000000000e+00,5.000000000000000000e+00,5.000000000000000000e+00,5.000000000000000000e+00,5.000000000000000000e+00,5.000000000000000000e+00,5.000000000000000000e+00,5.000000000000000000e+00,5.000000000000000000e+00,5.000000000000000000e+00,5.000000000000000000e+00,5.000000000000000000e+00,5.000000000000000000e+00,5.000000000000000000e+00,5.000000000000000000e+00,5.000000000000000000e+00,5.000000000000000000e+00,5.000000000000000000e+00,5.000000000000000000e+00,5.000000000000000000e+00,5.000000000000000000e+00,5.000000000000000000e+00,5.000000000000000000e+00,5.000000000000000000e+00,5.000000000000000000e+00,5.000000000000000000e+00,5.000000000000000000e+00,5.000000000000000000e+00,5.000000000000000000e+00,5.000000000000000000e+00,5.000000000000000000e+00,5.000000000000000000e+00,5.000000000000000000e+00,5.000000000000000000e+00,2.080679893493652344e+00,2.035002946853637695e+00,2.010548830032348633e+00,5.000000000000000000e+00,4.865060329437255859e+00,4.673863887786865234e+00,4.497128009796142578e+00,4.333270072937011719e+00,4.180932998657226562e+00,1.806496381759643555e+00,1.746902823448181152e+00,1.736486792564392090e+00,1.736002445220947266e+00,3.555892467498779297e+00,3.452659368515014648e+00,3.355251312255859375e+00,3.263188600540161133e+00,3.176042795181274414e+00,3.093430757522583008e+00,3.015007495880126953e+00,2.940462350845336914e+00,2.869514226913452148e+00,2.801909208297729492e+00,2.737416267395019531e+00,2.675825834274291992e+00,2.616945505142211914e+00,2.560600757598876953e+00,2.506631135940551758e+00,2.454889774322509766e+00,2.405241250991821289e+00,2.357561111450195312e+00,2.311734437942504883e+00,2.267655372619628906e+00,2.225225925445556641e+00,2.184355020523071289e+00,2.144958496093750000e+00,2.106957912445068359e+00,2.070280075073242188e+00,2.034857749938964844e+00,2.000626802444458008e+00,1.967528820037841797e+00,1.935507774353027344e+00,1.904512763023376465e+00,1.874494314193725586e+00,1.845407843589782715e+00
5.000000000000000000e+00,5.000000000000000000e+00,5.000000000000000000e+00,5.000000000000000000e+00,5.000000000000000000e+00,5.000000000000000000e+00,5.000000000000000000e+00,5.000000000000000000e+00,5.000000000000000000e+00,5.000000000000000000e+00,5.000000000000000000e+00,5.000000000000000000e+00,5.000000000000000000e+00,5.000000000000000000e+00,5.000000000000000000e+00,5.000000000000000000e+00,5.000000000000000000e+00,5.000000000000000000e+00,5.000000000000000000e+00,5.000000000000000000e+00,5.000000000000000000e+00,5.000000000000000000e+00,5.000000000000000000e+00,5.000000000000000000e+00,5.000000000000000000e+00,5.000000000000000000e+00,5.000000000000000000e+00,5.000000000000000000e+00,5.000000000000000000e+00,5.000000000000000000e+00,5.000000000000000000e+00,5.000000000000000000e+00,5.000000000000000000e+00,5.000000000000000000e+00,5.000000000000000000e+00,2.108312845230102539e+00,2.065996408462524414e+00,2.068518877029418945e+00,5.000000000000000000e+00,4.865198612213134766e+00,4.673992156982421875e+00,4.497246265411376953e+00,4.333380222320556641e+00,4.181035995483398438e+00,1.808910727500915527e+00,1.746962308883666992e+00,1.736075639724731445e+00,1.735689640045166016e+00,3.555966615676879883e+00,3.452729463577270508e+00,3.355317354202270508e+00,3.263251066207885742e+00,3.176102399826049805e+00,3.093487024307250977e+00,3.015060901641845703e+00,2.940513134002685547e+00,2.869562625885009766e+00,2.801955223083496094e+00,2.737460374832153320e+00,2.675867795944213867e+00,2.616985797882080078e+00,2.560639142990112305e+00,2.506668090820312500e+00,2.454925060272216797e+00,2.405275106430053711e+00,2.357593774795532227e+00,2.311765909194946289e+00,2.267685651779174805e+00,2.225255012512207031e+00,2.184383153915405273e+00,2.144985437393188477e+00,2.106983900070190430e+00,2.070305347442626953e+00,2.034882068634033203e+00,2.000650405883789062e+00,1.967551589012145996e+00,1.935529947280883789e+00,1.904533863067626953e+00,1.874515056610107422e+00,1.845427751541137695e+00
5.000000000000000000e+00,5.000000000000000000e+00,5.000000000000000000e+00,5.000000000000000000e+00,5.000000000000000000e+00,5.000000000000000000e+00,5.000000000000000000e+00,5.000000000000000000e+00,5.000000000000000000e+00,5.000000000000000000e+00,5.000000000000000000e+00,5.000000000000000000e+00,5.000000000000000000e+00,5.000000000000000000e+00,5.000000000000000000e+00,5.000000000000000000e+00,5.000000000000000000e+00,5.000000000000000000e+00,5.000000000000000000e+00,5.000000000000000000e+00,5.000000000000000000e+00,5.000000000000000000e+00,5.000000000000000000e+00,5.000000000000000000e+00,5.000000000000000000e+00,5.000000000000000000e+00,5.000000000000000000e+00,5.000000000000000000e+00,5.000000000000000000e+00,5.000000000000000000e+00,5.000000000000000000e+00,5.000000000000000000e+00,5.000000000000000000e+00,5.000000000000000000e+00,5.000000000000000000e+00,2.137535333633422852e+00,2.109424591064453125e+00,5.000000000000000000e+00,5.000000000000000000e+00,4.865337371826171875e+00,4.674119949340820312e+00,4.497364521026611328e+00,4.333490371704101562e+00,4.181138515472412109e+00,1.817515611648559570e+00,1.748942613601684570e+00,1.736459612846374512e+00,1.736003756523132324e+00,3.556041002273559570e+00,3.452799320220947266e+00,3.355383396148681641e+00,3.263313770294189453e+00,3.176161527633666992e+00,3.093543529510498047e+00,3.015114545822143555e+00,2.940563917160034180e+00,2.869611024856567383e+00,2.802001476287841797e+00,2.737504482269287109e+00,2.675909757614135742e+00,2.617026090621948242e+00,2.560678005218505859e+00,2.506705284118652344e+00,2.454960584640502930e+00,2.405308961868286133e+00,2.357626199722290039e+00,2.311797142028808594e+00,2.267715930938720703e+00,2.225284099578857422e+00,2.184411287307739258e+00,2.145012617111206055e+00,2.107009887695312500e+00,2.070330381393432617e+00,2.034906387329101562e+00,2.000674009323120117e+00,1.967574238777160645e+00,1.935552000999450684e+00,1.904555320739746094e+00,1.874535799026489258e+00,1.845447897911071777e+00
5.000000000000000000e+00,5.000000000000000000e+00,5.000000000000000000e+00,5.000000000000000000e+00,5.000000000000000000e+00,5.000000000000000000e+00,5.000000000000000000e+00,5.000000000000000000e+00,5.000000000000000000e+00,5.000000000000000000e+00,5.000000000000000000e+00,5.000000000000000000e+00,5.000000000000000000e+00,5.000000000000000000e+00,5.000000000000000000e+00,5.000000000000000000e+00,5.000000000000000000e+00,5.000000000000000000e+00,5.000000000000000000e+00,5.000000000000000000e+00,5.000000000000000000e+00,5.000000000000000000e+00,5.000000000000000000e+00,5.000000000000000000e+00,5.000000000000000000e+00,5.000000000000000000e+00,5.000000000000000000e+00,5.000000000000000000e+00,5.000000000000000000e+00,5.000000000000000000e+00,5.000000000000000000e+00,5.000000000000000000e+00,5.000000000000000000e+00,5.000000000000000000e+00,2.233764648437500000e+00,2.178804874420166016e+00,2.180763721466064453e+00,5.000000000000000000e+00,5.000000000000000000e+00,4.865476131439208984e+00,4.674247741699218750e+00,4.497483253479003906e+00,4.333600521087646484e+00,4.181241035461425781e+00,4.039230346679687500e+00,1.750849723815917969e+00,1.736843943595886230e+00,1.753477454185485840e+00,3.556115150451660156e+00,3.452869415283203125e+00,3.355449676513671875e+00,3.263376235961914062e+00,3.176220893859863281e+00,3.093599796295166016e+00,3.015167951583862305e+00,2.940614938735961914e+00,2.869659185409545898e+00,2.802047491073608398e+00,2.737548351287841797e+00,2.675951957702636719e+00,2.617066383361816406e+00,2.560716390609741211e+00,2.506742000579833984e+00,2.454996109008789062e+00,2.405343055725097656e+00,2.357658863067626953e+00,2.311828613281250000e+00,2.267745971679687500e+00,2.225313186645507812e+00,2.184439182281494141e+00,2.145039558410644531e+00,2.107036113739013672e+00,2.070355653762817383e+00,2.034930706024169922e+00,2.000697374343872070e+00,1.967597126960754395e+00,1.935573935508728027e+00,1.904576659202575684e+00,1.874556422233581543e+00,1.845467925071716309e+00
4.875479698181152344e+00,4.874268531799316406e+00,4.873057842254638672e+00,4.871848106384277344e+00,4.870638370513916016e+00,4.869429588317871094e+00,4.868221759796142578e+00,4.867013931274414062e+00,4.865807056427001953e+00,4.864600658416748047e+00,4.863394737243652344e+00,4.862189769744873047e+00,4.860985279083251953e+00,4.859781265258789062e+00,4.858577728271484375e+00,4.857374668121337891e+00,4.856172561645507812e+00,4.854971408843994141e+00,4.853770256042480469e+00,4.852569580078125000e+00,4.851369857788085938e+00,4.850171089172363281e+00,4.848971843719482422e+00,4.847774028778076172e+00,4.846576690673828125e+00,4.845379829406738281e+00,4.844183444976806641e+00,4.842988014221191406e+00,4.841793060302734375e+00,4.840598583221435547e+00,4.839404106140136719e+00,4.838211059570312500e+00,4.837018489837646484e+00,4.835826396942138672e+00,4.834634304046630859e+00,2.184033632278442383e+00,2.193969011306762695e+00,4.831063270568847656e+00,4.829874038696289062e+00,4.828685760498046875e+00,4.674376010894775391e+00,4.497601509094238281e+00,4.333710193634033203e+00,4.181343078613281250e+00,4.039326667785644531e+00,1.752657771110534668e+00,1.737228512763977051e+00,1.756515383720397949e+00,3.556189775466918945e+00,3.452939748764038086e+00,3.355515718460083008e+00,3.263438701629638672e+00,3.176280021667480469e+00,3.093655824661254883e+00,3.015221357345581055e+00,2.940665483474731445e+00,2.869707822799682617e+00,2.802093744277954102e+00,2.737592458724975586e+00,2.675993919372558594e+00,2.617106437683105469e+00,2.560755014419555664e+00,2.506778955459594727e+00,2.455031394958496094e+00,2.405377149581909180e+00,2.357691764831542969e+00,2.311859846115112305e+00,2.267776250839233398e+00,2.225342273712158203e+00,2.184467315673828125e+00,2.145066738128662109e+00,2.107062101364135742e+00,2.070380926132202148e+00,2.034955024719238281e+00,2.000720977783203125e+00,1.967619657516479492e+00,1.935595989227294922e+00,1.904597878456115723e+00,1.874577164649963379e+00,1.845487833023071289e+00
3.778278350830078125e+00,3.777550935745239258e+00,3.776823759078979492e+00,3.776097059249877930e+00,3.775370359420776367e+00,3.774644136428833008e+00,3.773917913436889648e+00,3.773192167282104492e+00,3.772466659545898438e+00,3.771741628646850586e+00,3.771016836166381836e+00,3.770292043685913086e+00,3.769567966461181641e+00,3.768843412399291992e+00,3.768119812011718750e+00,3.767396211624145508e+00,3.766673088073730469e+00,3.765950202941894531e+00,3.765227556228637695e+00,3.764505147933959961e+00,3.763783216476440430e+00,3.763060808181762695e+00,3.762339353561401367e+00,3.761618137359619141e+00,3.760897159576416016e+00,3.760176658630371094e+00,3.759456157684326172e+00,3.758735895156860352e+00,3.758015632629394531e+00,3.757296085357666016e+00,3.756576776504516602e+00,3.755857944488525391e+00,3.755139112472534180e+00,3.754420518875122070e+00,3.753702402114868164e+00,2.186413526535034180e+00,2.191103458404541016e+00,3.751549005508422852e+00,3.750831842422485352e+00,3.750114917755126953e+00,3.749398469924926758e+00,3.748682260513305664e+00,3.747966051101684570e+00,3.747250080108642578e+00,3.746534585952758789e+00,1.754469394683837891e+00,1.738262534141540527e+00,3.665883779525756836e+00,3.556263923645019531e+00,3.453009605407714844e+00,3.355581998825073242e+00,3.263501167297363281e+00,3.176339387893676758e+00,3.093712091445922852e+00,3.015274763107299805e+00,2.940716266632080078e+00,2.869756221771240234e+00,2.802139997482299805e+00,2.737636566162109375e+00,2.676035881042480469e+00,2.617146730422973633e+00,2.560793399810791016e+00,2.506815910339355469e+00,2.455066919326782227e+00,2.405411243438720703e+00,2.357724428176879883e+00,2.311891555786132812e+00,2.267806529998779297e+00,2.225371360778808594e+00,2.184495210647583008e+00,2.145093679428100586e+00,2.107088327407836914e+00,2.070405960083007812e+00,2.034979343414306641e+00,2.000744581222534180e+00,1.967642545700073242e+00,1.935617923736572266e+00,1.904619336128234863e+00,1.874597668647766113e+00,1.845507979393005371e+00
3.084195852279663086e+00,3.083711147308349609e+00,3.083226680755615234e+00,3.082742214202880859e+00,3.082257986068725586e+00,3.081773996353149414e+00,3.081290006637573242e+00,3.080806016921997070e+00,3.080322504043579102e+00,3.079838991165161133e+00,3.079355716705322266e+00,3.078872442245483398e+00,3.078389406204223633e+00,3.077906608581542969e+00,3.077423810958862305e+00,3.076941013336181641e+00,3.076458692550659180e+00,3.075976371765136719e+00,3.075494289398193359e+00,3.075012207031250000e+00,3.074530363082885742e+00,3.074048757553100586e+00,3.073566913604736328e+00,3.073085546493530273e+00,3.072604417800903320e+00,3.072123289108276367e+00,3.071642398834228516e+00,3.071161746978759766e+00,3.070681095123291016e+00,3.070200681686401367e+00,3.069720029830932617e+00,3.069239854812622070e+00,3.068759918212890625e+00,3.068279981613159180e+00,3.067800283432006836e+00,2.181677341461181641e+00,2.191561222076416016e+00,3.066361904144287109e+00,3.065882921218872070e+00,3.065403938293457031e+00,3.064925193786621094e+00,3.064446449279785156e+00,3.063967943191528320e+00,3.063489675521850586e+00,3.063011407852172852e+00,1.765666723251342773e+00,1.749747157096862793e+00,3.061577558517456055e+00,3.061099767684936523e+00,3.060622453689575195e+00,3.060145139694213867e+00,3.059667825698852539e+00,3.059190750122070312e+00,3.058713674545288086e+00,3.015327930450439453e+00,2.940767049789428711e+00,2.869804620742797852e+00,2.802186012268066406e+00,2.737680673599243164e+00,2.676078319549560547e+00,2.617187023162841797e+00,2.560832023620605469e+00,2.506852865219116211e+00,2.455102205276489258e+00,2.405445098876953125e+00,2.357757091522216797e+00,2.311922788619995117e+00,2.267836809158325195e+00,2.225400447845458984e+00,2.184523344039916992e+00,2.145120620727539062e+00,2.107114315032958984e+00,2.070431232452392578e+00,2.035003662109375000e+00,2.000767946243286133e+00,1.967665433883666992e+00,1.935639977455139160e+00,1.904640436172485352e+00,1.874618411064147949e+00,1.845527887344360352e+00
2.605548143386840820e+00,2.605202198028564453e+00,2.604856252670288086e+00,2.604510545730590820e+00,2.604164838790893555e+00,2.603819370269775391e+00,2.603473901748657227e+00,2.603128433227539062e+00,2.602783203125000000e+00,2.602437734603881836e+00,2.602092742919921875e+00,2.601747512817382812e+00,2.601402759552001953e+00,2.601057767868041992e+00,2.600713014602661133e+00,2.600368499755859375e+00,2.600023984909057617e+00,2.599679231643676758e+00,2.599334955215454102e+00,2.598990678787231445e+00,2.598646402359008789e+00,2.598302364349365234e+00,2.597958326339721680e+00,2.597614288330078125e+00,2.597270250320434570e+00,2.596926689147949219e+00,2.596582889556884766e+00,2.596239328384399414e+00,2.595896005630493164e+00,2.595552682876586914e+00,2.595209360122680664e+00,2.594866037368774414e+00,2.594522714614868164e+00,2.594179868698120117e+00,2.593836784362792969e+00,2.179512262344360352e+00,2.180461883544921875e+00,2.592808723449707031e+00,2.592466115951538086e+00,2.592123508453369141e+00,2.591781139373779297e+00,2.591438770294189453e+00,2.591096639633178711e+00,2.590754508972167969e+00,2.590412378311157227e+00,1.756242036819458008e+00,1.737513661384582520e+00,2.589386701583862305e+00,2.589045047760009766e+00,2.588703632354736328e+00,2.588362216949462891e+00,2.588020801544189453e+00,2.587679386138916016e+00,2.587338209152221680e+00,2.586997032165527344e+00,2.586655855178833008e+00,2.586314916610717773e+00,2.585974216461181641e+00,2.585633516311645508e+00,2.585292816162109375e+00,2.584952116012573242e+00,2.560870647430419922e+00,2.506889581680297852e+00,2.455137729644775391e+00,2.405479192733764648e+00,2.357789754867553711e+00,2.311954259872436523e+00,2.267866849899291992e+00,2.225429534912109375e+00,2.184551477432250977e+00,2.145147562026977539e+00,2.107140302658081055e+00,2.070456266403198242e+00,2.035027980804443359e+00,2.000791549682617188e+00,1.967687964439392090e+00,1.935662150382995605e+00,1.904661893844604492e+00,1.874638915061950684e+00,1.845547914505004883e+00
2.255522012710571289e+00,2.255262136459350586e+00,2.255002260208129883e+00,2.254742383956909180e+00,2.254482746124267578e+00,2.254223108291625977e+00,2.253963470458984375e+00,2.253703832626342773e+00,2.253444433212280273e+00,2.253185033798217773e+00,2.252925634384155273e+00,2.252666473388671875e+00,2.252407073974609375e+00,2.252147912979125977e+00,2.251888751983642578e+00,2.251629829406738281e+00,2.251370906829833984e+00,2.251111745834350586e+00,2.250853061676025391e+00,2.250594139099121094e+00,2.250335216522216797e+00,2.250076770782470703e+00,2.249817848205566406e+00,2.249559879302978516e+00,2.249301910400390625e+00,2.249044179916381836e+00,2.248786211013793945e+00,2.248528718948364258e+00,2.248270988464355469e+00,2.248013496398925781e+00,2.247756004333496094e+00,2.247498512268066406e+00,2.247241020202636719e+00,2.246983766555786133e+00,2.246726274490356445e+00,2.246469020843505859e+00,2.246212005615234375e+00,2.245954751968383789e+00,2.245697736740112305e+00,2.245440721511840820e+00,2.245183944702148438e+00,2.244926929473876953e+00,2.244670152664184570e+00,2.244413375854492188e+00,1.824403285980224609e+00,1.740845322608947754e+00,1.701383233070373535e+00,1.719368815422058105e+00,2.243130445480346680e+00,2.242873907089233398e+00,2.242617607116699219e+00,2.242361307144165039e+00,2.242105007171630859e+00,2.241848945617675781e+00,2.241592884063720703e+00,2.241336822509765625e+00,2.241080760955810547e+00,2.240824699401855469e+00,2.240568876266479492e+00,2.240313053131103516e+00,2.240057229995727539e+00,2.239801645278930664e+00,2.239546060562133789e+00,2.239290475845336914e+00,2.239034652709960938e+00,2.238779306411743164e+00,2.238523960113525391e+00,2.238268613815307617e+00,2.225458621978759766e+00,2.184579372406005859e+00,2.145174741744995117e+00,2.107166528701782227e+00,2.070481538772583008e+00,2.035052299499511719e+00,2.000815153121948242e+00,1.967710852622985840e+00,1.935684084892272949e+00,1.904683351516723633e+00,1.874659657478332520e+00,1.845567822456359863e+00
1.988431215286254883e+00,1.988229274749755859e+00,1.988027453422546387e+00,1.987825274467468262e+00,1.987623453140258789e+00,1.987421631813049316e+00,1.987219929695129395e+00,1.987018227577209473e+00,1.986816406250000000e+00,1.986614704132080078e+00,1.986413240432739258e+00,1.986211657524108887e+00,1.986010193824768066e+00,1.985808491706848145e+00,1.985607028007507324e+00,1.985405683517456055e+00,1.985204339027404785e+00,1.985002875328063965e+00,1.984801650047302246e+00,1.984600424766540527e+00,1.984399199485778809e+00,1.984198093414306641e+00,1.983996748924255371e+00,1.983795642852783203e+00,1.983594655990600586e+00,1.983393788337707520e+00,1.983192801475524902e+00,1.982991695404052734e+00,1.982790827751159668e+00,1.982590079307556152e+00,1.982389330863952637e+00,1.982188582420349121e+00,1.981987595558166504e+00,1.981786966323852539e+00,1.981586456298828125e+00,1.981385827064514160e+00,1.981185078620910645e+00,1.980984568595886230e+00,1.980784177780151367e+00,1.980583786964416504e+00,1.980383396148681641e+00,1.980182886123657227e+00,1.979982614517211914e+00,1.979782342910766602e+00,1.979582190513610840e+00,1.770948529243469238e+00,1.667338371276855469e+00,1.660114407539367676e+00,1.699527025222778320e+00,1.978581547737121582e+00,1.978381395339965820e+00,1.978181481361389160e+00,1.977981567382812500e+00,1.977781772613525391e+00,1.977581977844238281e+00,1.977381944656372070e+00,1.977182269096374512e+00,1.976982593536376953e+00,1.976782917976379395e+00,1.976583361625671387e+00,1.976383566856384277e+00,1.976184129714965820e+00,1.975984573364257812e+00,1.975785136222839355e+00,1.975585579872131348e+00,1.975386261940002441e+00,1.975186944007873535e+00,1.974987626075744629e+00,1.974788427352905273e+00,1.974588990211486816e+00,1.974389791488647461e+00,1.974190711975097656e+00,1.973991632461547852e+00,1.973792672157287598e+00,1.973593354225158691e+00,1.967733502388000488e+00,1.935706138610839844e+00,1.904704451560974121e+00,1.874680399894714355e+00,1.845587968826293945e+00
1.777898907661437988e+00,1.777737498283386230e+00,1.777576088905334473e+00,1.777414679527282715e+00,1.777253150939941406e+00,1.777091741561889648e+00,1.776930451393127441e+00,1.776769161224365234e+00,1.776607990264892578e+00,1.776446580886840820e+00,1.776285409927368164e+00,1.776124238967895508e+00,1.775963068008422852e+00,1.775801777839660645e+00,1.775640726089477539e+00,1.775479674339294434e+00,1.775318741798400879e+00,1.775157690048217773e+00,1.774996638298034668e+00,1.774835705757141113e+00,1.774674773216247559e+00,1.774513959884643555e+00,1.774353027343750000e+00,1.774192094802856445e+00,1.774031281471252441e+00,1.773870587348937988e+00,1.773709774017333984e+00,1.773548960685729980e+00,1.773388266563415527e+00,1.773227691650390625e+00,1.773066997528076172e+00,1.772906422615051270e+00,1.772745728492736816e+00,1.772585272789001465e+00,1.772424697875976562e+00,1.772264242172241211e+00,1.772103905677795410e+00,1.771943211555480957e+00,1.771782875061035156e+00,1.771622538566589355e+00,1.771462202072143555e+00,1.771301984786987305e+00,1.771141529083251953e+00,1.770981311798095703e+00,1.770821094512939453e+00,1.770660877227783203e+00,1.660401344299316406e+00,1.608952522277832031e+00,1.619749784469604492e+00,1.770020365715026855e+00,1.769860386848449707e+00,1.769700169563293457e+00,1.769540190696716309e+00,1.769380211830139160e+00,1.769220352172851562e+00,1.769060492515563965e+00,1.768900394439697266e+00,1.768740653991699219e+00,1.768580794334411621e+00,1.768421053886413574e+00,1.768261075019836426e+00,1.768101453781127930e+00,1.767941713333129883e+00,1.767782092094421387e+00,1.767622470855712891e+00,1.767462730407714844e+00,1.767303109169006348e+00,1.767143607139587402e+00,1.766984105110168457e+00,1.766824603080749512e+00,1.766664981842041016e+00,1.766505599021911621e+00,1.766346216201782227e+00,1.766186833381652832e+00,1.766027331352233887e+00,1.765868067741394043e+00,1.765708804130554199e+00,1.765549540519714355e+00,1.765390396118164062e+00,1.765231013298034668e+00
1.607679963111877441e+00,1.607547998428344727e+00,1.607416033744812012e+00,1.607284069061279297e+00,1.607151865959167480e+00,1.607020020484924316e+00,1.606888055801391602e+00,1.606756210327148438e+00,1.606624364852905273e+00,1.606492280960083008e+00,1.606360554695129395e+00,1.606228709220886230e+00,1.606096982955932617e+00,1.605965137481689453e+00,1.605833292007446289e+00,1.605701565742492676e+00,1.605569839477539062e+00,1.605438232421875000e+00,1.605306625366210938e+00,1.605174779891967773e+00,1.605043172836303711e+00,1.604911565780639648e+00,1.604780077934265137e+00,1.604648351669311523e+00,1.604516863822937012e+00,1.604385375976562500e+00,1.604253888130187988e+00,1.604122400283813477e+00,1.603990793228149414e+00,1.603859424591064453e+00,1.603728055953979492e+00,1.603596687316894531e+00,1.603465318679809570e+00,1.603333830833435059e+00,1.603202581405639648e+00,1.603071212768554688e+00,1.602939963340759277e+00,1.602808594703674316e+00,1.602677345275878906e+00,1.602546215057373047e+00,1.602414965629577637e+00,1.602283835411071777e+00,1.602152585983276367e+00,1.602021455764770508e+00,1.601890325546264648e+00,1.601759314537048340e+00,1.601628303527832031e+00,1.601497054100036621e+00,1.601366043090820312e+00,1.601235151290893555e+00,1.601104140281677246e+00,1.600973248481750488e+00,1.600842118263244629e+00,1.600711226463317871e+00,1.600580334663391113e+00,1.600449562072753906e+00,1.600318551063537598e+00,1.600187778472900391e+00,1.600057005882263184e+00,1.599926114082336426e+00,1.599795460700988770e+00,1.599664568901062012e+00,1.599533796310424805e+00,1.599403142929077148e+00,1.599272489547729492e+00,1.599141836166381836e+00,1.599011063575744629e+00,1.598880529403686523e+00,1.598749876022338867e+00,1.598619341850280762e+00,1.598488688468933105e+00,1.598358154296875000e+00,1.598227739334106445e+00,1.598097205162048340e+00,1.597966790199279785e+00,1.597836256027221680e+00,1.597705841064453125e+00,1.597575426101684570e+00,1.597445011138916016e+00,1.597314715385437012e+00
1.467207193374633789e+00,1.467097282409667969e+00,1.466987252235412598e+00,1.466877341270446777e+00,1.466767430305480957e+00,1.466657400131225586e+00,1.466547608375549316e+00,1.466437697410583496e+00,1.466327905654907227e+00,1.466217994689941406e+00,1.466108083724975586e+00,1.465998291969299316e+00,1.465888500213623047e+00,1.465778827667236328e+00,1.465668916702270508e+00,1.465559244155883789e+00,1.465449452400207520e+00,1.465339779853820801e+00,1.465230107307434082e+00,1.465120315551757812e+00,1.465010643005371094e+00,1.464901089668273926e+00,1.464791417121887207e+00,1.464681863784790039e+00,1.464572191238403320e+00,1.464462637901306152e+00,1.464353084564208984e+00,1.464243531227111816e+00,1.464133977890014648e+00,1.464024424552917480e+00,1.463914871215820312e+00,1.463805437088012695e+00,1.463696002960205078e+00,1.463586449623107910e+00,1.463477015495300293e+00,1.463367700576782227e+00,1.463258266448974609e+00,1.463148951530456543e+00,1.463039398193359375e+00,1.462930083274841309e+00,1.462820768356323242e+00,1.462711453437805176e+00,1.462602257728576660e+00,1.462492823600769043e+00,1.462383627891540527e+00,1.462274312973022461e+00,1.462165117263793945e+00,1.462055802345275879e+00,1.461946606636047363e+00,1.461837410926818848e+00,1.461728334426879883e+00,1.461619138717651367e+00,1.461509943008422852e+00,1.461400866508483887e+00,1.461291790008544922e+00,1.461182713508605957e+00,1.461073637008666992e+00,1.460964441299438477e+00,1.460855484008789062e+00,1.460746407508850098e+00,1.460637450218200684e+00,1.460528492927551270e+00,1.460419416427612305e+00,1.460310459136962891e+00,1.460201501846313477e+00,1.460092663764953613e+00,1.459983587265014648e+00,1.459874749183654785e+00,1.459765911102294922e+00,1.459657073020935059e+00,1.459548234939575195e+00,1.459439277648925781e+00,1.459330439567565918e+00,1.459221720695495605e+00,1.459113001823425293e+00,1.459004163742065430e+00,1.458895325660705566e+00,1.458786606788635254e+00,1.458677887916564941e+00,1.458569288253784180e+00
1.349309802055358887e+00,1.349216699600219727e+00,1.349123716354370117e+00,1.349030733108520508e+00,1.348937869071960449e+00,1.348844885826110840e+00,1.348751783370971680e+00,1.348658919334411621e+00,1.348566055297851562e+00,1.348473072052001953e+00,1.348380088806152344e+00,1.348287224769592285e+00,1.348194479942321777e+00,1.348101615905761719e+00,1.348008751869201660e+00,1.347915887832641602e+00,1.347823023796081543e+00,1.347730278968811035e+00,1.347637414932250977e+00,1.347544670104980469e+00,1.347451806068420410e+00,1.347359180450439453e+00,1.347266435623168945e+00,1.347173690795898438e+00,1.347080945968627930e+00,1.346988201141357422e+00,1.346895575523376465e+00,1.346802830696105957e+00,1.346710205078125000e+00,1.346617460250854492e+00,1.346524834632873535e+00,1.346432209014892578e+00,1.346339702606201172e+00,1.346247076988220215e+00,1.346154451370239258e+00,1.346061825752258301e+00,1.345969319343566895e+00,1.345876812934875488e+00,1.345784187316894531e+00,1.345691680908203125e+00,1.345599174499511719e+00,1.345506668090820312e+00,1.345414161682128906e+00,1.345321655273437500e+00,1.345229148864746094e+00,1.345136761665344238e+00,1.345044255256652832e+00,1.344951868057250977e+00,1.344859361648559570e+00,1.344766974449157715e+00,1.344674706459045410e+00,1.344582319259643555e+00,1.344489932060241699e+00,1.344397544860839844e+00,1.344305157661437988e+00,1.344212889671325684e+00,1.344120621681213379e+00,1.344028234481811523e+00,1.343935966491699219e+00,1.343843698501586914e+00,1.343751430511474609e+00,1.343659162521362305e+00,1.343566894531250000e+00,1.343474626541137695e+00,1.343382477760314941e+00,1.343290328979492188e+00,1.343198180198669434e+00,1.343105912208557129e+00,1.343013763427734375e+00,1.342921614646911621e+00,1.342829465866088867e+00,1.342737317085266113e+00,1.342645168304443359e+00,1.342553138732910156e+00,1.342460989952087402e+00,1.342368960380554199e+00,1.342276811599731445e+00,1.342184782028198242e+00,1.342092752456665039e+00,1.342000842094421387e+00
1.248950362205505371e+00,1.248870611190795898e+00,1.248790979385375977e+00,1.248711347579956055e+00,1.248631715774536133e+00,1.248552083969116211e+00,1.248472332954406738e+00,1.248392701148986816e+00,1.248313069343566895e+00,1.248233556747436523e+00,1.248153924942016602e+00,1.248074293136596680e+00,1.247994780540466309e+00,1.247915148735046387e+00,1.247835636138916016e+00,1.247756123542785645e+00,1.247676491737365723e+00,1.247596979141235352e+00,1.247517466545104980e+00,1.247437953948974609e+00,1.247358441352844238e+00,1.247278928756713867e+00,1.247199416160583496e+00,1.247120022773742676e+00,1.247040510177612305e+00,1.246960997581481934e+00,1.246881604194641113e+00,1.246802210807800293e+00,1.246722817420959473e+00,1.246643424034118652e+00,1.246563911437988281e+00,1.246484518051147461e+00,1.246405243873596191e+00,1.246325850486755371e+00,1.246246457099914551e+00,1.246167063713073730e+00,1.246087789535522461e+00,1.246008396148681641e+00,1.245929121971130371e+00,1.245849728584289551e+00,1.245770454406738281e+00,1.245691180229187012e+00,1.245611906051635742e+00,1.245532751083374023e+00,1.245453357696533203e+00,1.245374083518981934e+00,1.245294928550720215e+00,1.245215654373168945e+00,1.245136499404907227e+00,1.245057225227355957e+00,1.244978070259094238e+00,1.244898915290832520e+00,1.244819760322570801e+00,1.244740486145019531e+00,1.244661331176757812e+00,1.244582176208496094e+00,1.244503140449523926e+00,1.244423985481262207e+00,1.244344830513000488e+00,1.244265675544738770e+00,1.244186639785766602e+00,1.244107604026794434e+00,1.244028449058532715e+00,1.243949413299560547e+00,1.243870377540588379e+00,1.243791341781616211e+00,1.243712306022644043e+00,1.243633151054382324e+00,1.243554234504699707e+00,1.243475198745727539e+00,1.243396162986755371e+00,1.243317246437072754e+00,1.243238210678100586e+00,1.243159294128417969e+00,1.243080377578735352e+00,1.243001341819763184e+00,1.242922425270080566e+00,1.242843508720397949e+00,1.242764592170715332e+00,1.242685675621032715e+00
1.162486672401428223e+00,1.162417650222778320e+00,1.162348508834838867e+00,1.162279486656188965e+00,1.162210464477539062e+00,1.162141561508178711e+00,1.162072539329528809e+00,1.162003517150878906e+00,1.161934494972229004e+00,1.161865592002868652e+00,1.161796569824218750e+00,1.161727666854858398e+00,1.161658644676208496e+00,1.161589741706848145e+00,1.161520838737487793e+00,1.161451816558837891e+00,1.161382913589477539e+00,1.161314010620117188e+00,1.161245107650756836e+00,1.161176204681396484e+00,1.161107301712036133e+00,1.161038398742675781e+00,1.160969495773315430e+00,1.160900712013244629e+00,1.160831928253173828e+00,1.160763025283813477e+00,1.160694122314453125e+00,1.160625338554382324e+00,1.160556554794311523e+00,1.160487771034240723e+00,1.160418868064880371e+00,1.160350084304809570e+00,1.160281300544738770e+00,1.160212516784667969e+00,1.160143733024597168e+00,1.160074949264526367e+00,1.160006165504455566e+00,1.159937500953674316e+00,1.159868717193603516e+00,1.159800052642822266e+00,1.159731268882751465e+00,1.159662485122680664e+00,1.159593820571899414e+00,1.159525156021118164e+00,1.159456372261047363e+00,1.159387707710266113e+00,1.159319043159484863e+00,1.159250378608703613e+00,1.159181833267211914e+00,1.159113049507141113e+00,1.159044384956359863e+00,1.158975839614868164e+00,1.158907175064086914e+00,1.158838629722595215e+00,1.158769965171813965e+00,1.158701300621032715e+00,1.158632755279541016e+00,1.158564209938049316e+00,1.158495664596557617e+00,1.158427000045776367e+00,1.158358454704284668e+00,1.158289909362792969e+00,1.158221364021301270e+00,1.158152818679809570e+00,1.158084273338317871e+00,1.158015847206115723e+00,1.157947301864624023e+00,1.157878875732421875e+00,1.157810211181640625e+00,1.157741785049438477e+00,1.157673358917236328e+00,1.157604932785034180e+00,1.157536387443542480e+00,1.157467961311340332e+00,1.157399535179138184e+00,1.157331109046936035e+00,1.157262682914733887e+00,1.157194137573242188e+00,1.157125711441040039e+00,1.157057404518127441e+00
1.087219357490539551e+00,1.087158918380737305e+00,1.087098598480224609e+00,1.087038159370422363e+00,1.086977720260620117e+00,1.086917400360107422e+00,1.086857080459594727e+00,1.086796641349792480e+00,1.086736321449279785e+00,1.086676001548767090e+00,1.086615681648254395e+00,1.086555361747741699e+00,1.086495041847229004e+00,1.086434721946716309e+00,1.086374402046203613e+00,1.086314201354980469e+00,1.086253881454467773e+00,1.086193561553955078e+00,1.086133241653442383e+00,1.086073040962219238e+00,1.086012721061706543e+00,1.085952520370483398e+00,1.085892200469970703e+00,1.085831999778747559e+00,1.085771799087524414e+00,1.085711598396301270e+00,1.085651278495788574e+00,1.085591077804565430e+00,1.085530877113342285e+00,1.085470676422119141e+00,1.085410475730895996e+00,1.085350275039672852e+00,1.085290074348449707e+00,1.085229992866516113e+00,1.085169792175292969e+00,1.085109591484069824e+00,1.085049390792846680e+00,1.084989309310913086e+00,1.084929108619689941e+00,1.084869027137756348e+00,1.084808826446533203e+00,1.084748744964599609e+00,1.084688663482666016e+00,1.084628462791442871e+00,1.084568381309509277e+00,1.084508299827575684e+00,1.084448218345642090e+00,1.084388136863708496e+00,1.084328055381774902e+00,1.084267973899841309e+00,1.084207892417907715e+00,1.084147810935974121e+00,1.084087848663330078e+00,1.084027767181396484e+00,1.083967685699462891e+00,1.083907723426818848e+00,1.083847641944885254e+00,1.083787679672241211e+00,1.083727717399597168e+00,1.083667635917663574e+00,1.083607673645019531e+00,1.083547711372375488e+00,1.083487749099731445e+00,1.083427786827087402e+00,1.083367705345153809e+00,1.083307743072509766e+00,1.083247780799865723e+00,1.083187818527221680e+00,1.083127975463867188e+00,1.083067893981933594e+00,1.083008050918579102e+00,1.082948088645935059e+00,1.082888245582580566e+00,1.082828283309936523e+00,1.082768321037292480e+00,1.082708477973937988e+00,1.082648634910583496e+00,1.082588672637939453e+00,1.082528829574584961e+00,1.082468986511230469e+00
1.021106004714965820e+00,1.021052718162536621e+00,1.020999431610107422e+00,1.020946145057678223e+00,1.020892858505249023e+00,1.020839691162109375e+00,1.020786404609680176e+00,1.020733237266540527e+00,1.020679950714111328e+00,1.020626664161682129e+00,1.020573496818542480e+00,1.020520329475402832e+00,1.020467162132263184e+00,1.020413875579833984e+00,1.020360708236694336e+00,1.020307540893554688e+00,1.020254373550415039e+00,1.020201086997985840e+00,1.020147919654846191e+00,1.020094752311706543e+00,1.020041584968566895e+00,1.019988417625427246e+00,1.019935250282287598e+00,1.019882082939147949e+00,1.019829034805297852e+00,1.019775867462158203e+00,1.019722819328308105e+00,1.019669532775878906e+00,1.019616484642028809e+00,1.019563436508178711e+00,1.019510269165039062e+00,1.019457221031188965e+00,1.019404053688049316e+00,1.019351005554199219e+00,1.019297838211059570e+00,1.019244790077209473e+00,1.019191741943359375e+00,1.019138693809509277e+00,1.019085645675659180e+00,1.019032597541809082e+00,1.018979549407958984e+00,1.018926382064819336e+00,1.018873333930969238e+00,1.018820405006408691e+00,1.018767356872558594e+00,1.018714308738708496e+00,1.018661260604858398e+00,1.018608212471008301e+00,1.018555283546447754e+00,1.018502235412597656e+00,1.018449187278747559e+00,1.018396258354187012e+00,1.018343210220336914e+00,1.018290281295776367e+00,1.018237352371215820e+00,1.018184304237365723e+00,1.018131375312805176e+00,1.018078446388244629e+00,1.018025517463684082e+00,1.017972469329833984e+00,1.017919540405273438e+00,1.017866611480712891e+00,1.017813682556152344e+00,1.017760753631591797e+00,1.017707824707031250e+00,1.017654895782470703e+00,1.017601966857910156e+00,1.017549157142639160e+00,1.017496228218078613e+00,1.017443299293518066e+00,1.017390370368957520e+00,1.017337560653686523e+00,1.017284631729125977e+00,1.017231822013854980e+00,1.017178893089294434e+00,1.017126083374023438e+00,1.017073154449462891e+00,1.017020344734191895e+00,1.016967535018920898e+00,1.016914606094360352e+00
