5.000000000000000000e+00,5.000000000000000000e+00,5.000000000000000000e+00,5.000000000000000000e+00,5.000000000000000000e+00,5.000000000000000000e+00,5.000000000000000000e+00,5.000000000000000000e+00,5.000000000000000000e+00,5.000000000000000000e+00,5.000000000000000000e+00,5.000000000000000000e+00,5.000000000000000000e+00,5.000000000000000000e+00,5.000000000000000000e+00,5.000000000000000000e+00,5.000000000000000000e+00,5.000000000000000000e+00,5.000000000000000000e+00,5.000000000000000000e+00,5.000000000000000000e+00,5.000000000000000000e+00,5.000000000000000000e+00,5.000000000000000000e+00,5.000000000000000000e+00,5.000000000000000000e+00,5.000000000000000000e+00,5.000000000000000000e+00,5.000000000000000000e+00,5.000000000000000000e+00,5.000000000000000000e+00,5.000000000000000000e+00,5.000000000000000000e+00,5.000000000000000000e+00,5.000000000000000000e+00,5.000000000000000000e+00,5.000000000000000000e+00,5.000000000000000000e+00,5.000000000000000000e+00,5.000000000000000000e+00,5.000000000000000000e+00,4.483605861663818359e+00,4.320787429809570312e+00,4.169380664825439453e+00,4.028224945068359375e+00,3.896314382553100586e+00,3.772769212722778320e+00,3.656817674636840820e+00,3.547781229019165039e+00,3.445058345794677734e+00,3.348117113113403320e+00,3.256482124328613281e+00,3.169729471206665039e+00,3.087478637695312500e+00,3.009389162063598633e+00,2.935151815414428711e+00,2.864489316940307617e+00,2.797148704528808594e+00,2.732902050018310547e+00,2.671540260314941406e+00,2.612873554229736328e+00,2.556727886199951172e+00,2.502944469451904297e+00,2.451377153396606445e+00,2.401891946792602539e+00,2.354365110397338867e+00,2.308682680130004883e+00,2.264739036560058594e+00,2.222437143325805664e+00,2.181686639785766602e+00,2.142403602600097656e+00,2.104509830474853516e+00,2.067933559417724609e+00,2.032607078552246094e+00,1.998467206954956055e+00,1.965455055236816406e+00,1.933515906333923340e+00,1.902598261833190918e+00,1.872653841972351074e+00,1.843637108802795410e+00
5.000000000000000000e+00,5.000000000000000000e+00,5.000000000000000000e+00,5.000000000000000000e+00,5.000000000000000000e+00,5.000000000000000000e+00,5.000000000000000000e+00,5.000000000000000000e+00,5.000000000000000000e+00,5.000000000000000000e+00,5.000000000000000000e+00,5.000000000000000000e+00,5.000000000000000000e+00,5.000000000000000000e+00,5.000000000000000000e+00,5.000000000000000000e+00,5.000000000000000000e+00,5.000000000000000000e+00,5.000000000000000000e+00,5.000000000000000000e+00,5.000000000000000000e+00,5.000000000000000000e+00,5.000000000000000000e+00,5.000000000000000000e+00,5.000000000000000000e+00,5.000000000000000000e+00,5.000000000000000000e+00,5.000000000000000000e+00,5.000000000000000000e+00,5.000000000000000000e+00,5.000000000000000000e+00,5.000000000000000000e+00,5.000000000000000000e+00,5.000000000000000000e+00,5.000000000000000000e+00,5.000000000000000000e+00,5.000000000000000000e+00,5.000000000000000000e+00,5.000000000000000000e+00,5.000000000000000000e+00,4.659304141998291016e+00,4.483725070953369141e+00,4.320898532867431641e+00,4.169483661651611328e+00,4.028321266174316406e+00,3.896404504776000977e+00,3.772853612899780273e+00,3.656896829605102539e+00,3.547855854034423828e+00,3.445128917694091797e+00,3.348183631896972656e+00,3.256544828414916992e+00,3.169788837432861328e+00,3.087535142898559570e+00,3.009442806243896484e+00,2.935202836990356445e+00,2.864537954330444336e+00,2.797195196151733398e+00,2.732946395874023438e+00,2.671582460403442383e+00,2.612914085388183594e+00,2.556766748428344727e+00,2.502981662750244141e+00,2.451412916183471680e+00,2.401926279067993164e+00,2.354398012161254883e+00,2.308714151382446289e+00,2.264769554138183594e+00,2.222466468811035156e+00,2.181714773178100586e+00,2.142430782318115234e+00,2.104536294937133789e+00,2.067958831787109375e+00,2.032631397247314453e+00,1.998490691184997559e+00,1.965478062629699707e+00,1.933538198471069336e+00,1.902619600296020508e+00,1.872674465179443359e+00,1.843657374382019043e+00
5.000000000000000000e+00,5.000000000000000000e+00,5.000000000000000000e+00,5.000000000000000000e+00,5.000000000000000000e+00,5.000000000000000000e+00,5.000000000000000000e+00,5.000000000000000000e+00,5.000000000000000000e+00,5.000000000000000000e+00,5.000000000000000000e+00,5.000000000000000000e+00,5.000000000000000000e+00,5.000000000000000000e+00,5.000000000000000000e+00,5.000000000000000000e+00,5.000000000000000000e+00,5.000000000000000000e+00,5.000000000000000000e+00,5.000000000000000000e+00,5.000000000000000000e+00,5.000000000000000000e+00,5.000000000000000000e+00,5.000000000000000000e+00,5.000000000000000000e+00,5.000000000000000000e+00,5.000000000000000000e+00,5.000000000000000000e+00,5.000000000000000000e+00,5.000000000000000000e+00,5.000000000000000000e+00,5.000000000000000000e+00,5.000000000000000000e+00,5.000000000000000000e+00,5.000000000000000000e+00,5.000000000000000000e+00,5.000000000000000000e+00,5.000000000000000000e+00,5.000000000000000000e+00,4.849333763122558594e+00,4.659432411193847656e+00,4.483844280242919922e+00,4.321008682250976562e+00,4.169586658477783203e+00,4.028417110443115234e+00,3.896494388580322266e+00,3.772937536239624023e+00,3.656976222991943359e+00,3.547930240631103516e+00,3.445199251174926758e+00,3.348249673843383789e+00,3.256607770919799805e+00,3.169848203659057617e+00,3.087591886520385742e+00,3.009496212005615234e+00,2.935254096984863281e+00,2.864586353302001953e+00,2.797241449356079102e+00,2.732990503311157227e+00,2.671624898910522461e+00,2.612954378128051758e+00,2.556805372238159180e+00,2.503018617630004883e+00,2.451448440551757812e+00,2.401960372924804688e+00,2.354430913925170898e+00,2.308745622634887695e+00,2.264799833297729492e+00,2.222495555877685547e+00,2.181742906570434570e+00,2.142457723617553711e+00,2.104562520980834961e+00,2.067984104156494141e+00,2.032655954360961914e+00,1.998514294624328613e+00,1.965500831604003906e+00,1.933560252189636230e+00,1.902641177177429199e+00,1.872695207595825195e+00,1.843677401542663574e+00
5.000000000000000000e+00,5.000000000000000000e+00,5.000000000000000000e+00,5.000000000000000000e+00,5.000000000000000000e+00,5.000000000000000000e+00,5.000000000000000000e+00,5.000000000000000000e+00,5.000000000000000000e+00,5.000000000000000000e+00,5.000000000000000000e+00,5.000000000000000000e+00,5.000000000000000000e+00,5.000000000000000000e+00,5.000000000000000000e+00,5.000000000000000000e+00,5.000000000000000000e+00,5.000000000000000000e+00,5.000000000000000000e+00,5.000000000000000000e+00,5.000000000000000000e+00,5.000000000000000000e+00,5.000000000000000000e+00,5.000000000000000000e+00,5.000000000000000000e+00,5.000000000000000000e+00,5.000000000000000000e+00,5.000000000000000000e+00,5.000000000000000000e+00,5.000000000000000000e+00,5.000000000000000000e+00,5.000000000000000000e+00,5.000000000000000000e+00,5.000000000000000000e+00,5.000000000000000000e+00,5.000000000000000000e+00,5.000000000000000000e+00,5.000000000000000000e+00,5.000000000000000000e+00,4.849472999572753906e+00,4.659561157226562500e+00,4.483963489532470703e+00,4.321119308471679688e+00,4.169689655303955078e+00,4.028513431549072266e+00,3.896584510803222656e+00,3.773021936416625977e+00,3.657055616378784180e+00,3.548004865646362305e+00,3.445269584655761719e+00,3.348316192626953125e+00,3.256670713424682617e+00,3.169907808303833008e+00,3.087648391723632812e+00,3.009549856185913086e+00,2.935305118560791016e+00,2.864634990692138672e+00,2.797287940979003906e+00,2.733034610748291016e+00,2.671667098999023438e+00,2.612994670867919922e+00,2.556844234466552734e+00,2.503055810928344727e+00,2.451484203338623047e+00,2.401994466781616211e+00,2.354463815689086914e+00,2.308777332305908203e+00,2.264830350875854492e+00,2.222524881362915039e+00,2.181771278381347656e+00,2.142485141754150391e+00,2.104588747024536133e+00,2.068009614944458008e+00,2.032680511474609375e+00,1.998538136482238770e+00,1.965523838996887207e+00,1.933582305908203125e+00,1.902662515640258789e+00,1.872716069221496582e+00,1.843697667121887207e+00
5.000000000000000000e+00,5.000000000000000000e+00,5.000000000000000000e+00,5.000000000000000000e+00,5.000000000000000000e+00,5.000000000000000000e+00,5.000000000000000000e+00,5.000000000000000000e+00,5.000000000000000000e+00,5.000000000000000000e+00,5.000000000000000000e+00,5.000000000000000000e+00,5.000000000000000000e+00,5.000000000000000000e+00,5.000000000000000000e+00,5.000000000000000000e+00,5.000000000000000000e+00,5.000000000000000000e+00,5.000000000000000000e+00,5.000000000000000000e+00,5.000000000000000000e+00,5.000000000000000000e+00,5.000000000000000000e+00,5.000000000000000000e+00,5.000000000000000000e+00,5.000000000000000000e+00,5.000000000000000000e+00,5.000000000000000000e+00,5.000000000000000000e+00,5.000000000000000000e+00,5.000000000000000000e+00,5.000000000000000000e+00,5.000000000000000000e+00,5.000000000000000000e+00,5.000000000000000000e+00,5.000000000000000000e+00,5.000000000000000000e+00,5.000000000000000000e+00,5.000000000000000000e+00,4.849612712860107422e+00,4.659689903259277344e+00,4.484082698822021484e+00,4.321230411529541016e+00,4.169792652130126953e+00,4.028609752655029297e+00,3.896674633026123047e+00,3.773106336593627930e+00,3.657134771347045898e+00,3.548079490661621094e+00,3.445339918136596680e+00,3.348382711410522461e+00,3.256733655929565430e+00,3.169967412948608398e+00,3.087704896926879883e+00,3.009603738784790039e+00,2.935356140136718750e+00,2.864683628082275391e+00,2.797334432601928711e+00,2.733078956604003906e+00,2.671709537506103516e+00,2.613035202026367188e+00,2.556882858276367188e+00,2.503093004226684570e+00,2.451519727706909180e+00,2.402028799057006836e+00,2.354496717453002930e+00,2.308808803558349609e+00,2.264860868453979492e+00,2.222554206848144531e+00,2.181799411773681641e+00,2.142512321472167969e+00,2.104614973068237305e+00,2.068034887313842773e+00,2.032705068588256836e+00,1.998561620712280273e+00,1.965546727180480957e+00,1.933604598045349121e+00,1.902684092521667480e+00,1.872736811637878418e+00,1.843717694282531738e+00
5.000000000000000000e+00,5.000000000000000000e+00,5.000000000000000000e+00,5.000000000000000000e+00,5.000000000000000000e+00,5.000000000000000000e+00,5.000000000000000000e+00,5.000000000000000000e+00,5.000000000000000000e+00,5.000000000000000000e+00,5.000000000000000000e+00,5.000000000000000000e+00,5.000000000000000000e+00,5.000000000000000000e+00,5.000000000000000000e+00,5.000000000000000000e+00,5.000000000000000000e+00,5.000000000000000000e+00,5.000000000000000000e+00,5.000000000000000000e+00,5.000000000000000000e+00,5.000000000000000000e+00,5.000000000000000000e+00,5.000000000000000000e+00,5.000000000000000000e+00,5.000000000000000000e+00,3.357779502868652344e+00,3.315057754516601562e+00,3.343659639358520508e+00,5.000000000000000000e+00,5.000000000000000000e+00,5.000000000000000000e+00,5.000000000000000000e+00,5.000000000000000000e+00,5.000000000000000000e+00,5.000000000000000000e+00,5.000000000000000000e+00,5.000000000000000000e+00,5.000000000000000000e+00,4.849751949310302734e+00,4.659818649291992188e+00,4.484201908111572266e+00,4.321341037750244141e+00,4.169895648956298828e+00,4.028706073760986328e+00,3.896764516830444336e+00,3.773190736770629883e+00,3.657214164733886719e+00,3.548154115676879883e+00,3.445410490036010742e+00,3.348449230194091797e+00,3.256796598434448242e+00,3.170027017593383789e+00,3.087761402130126953e+00,3.009657382965087891e+00,2.935407400131225586e+00,2.864732265472412109e+00,2.797380685806274414e+00,2.733123302459716797e+00,2.671751737594604492e+00,2.613075733184814453e+00,2.556921720504760742e+00,2.503130197525024414e+00,2.451555490493774414e+00,2.402062892913818359e+00,2.354529619216918945e+00,2.308840513229370117e+00,2.264891147613525391e+00,2.222583532333374023e+00,2.181827783584594727e+00,2.142539501190185547e+00,2.104641199111938477e+00,2.068060159683227539e+00,2.032729625701904297e+00,1.998585462570190430e+00,1.965569734573364258e+00,1.933626651763916016e+00,1.902705430984497070e+00,1.872757673263549805e+00,1.843737959861755371e+00
5.000000000000000000e+00,5.000000000000000000e+00,5.000000000000000000e+00,5.000000000000000000e+00,5.000000000000000000e+00,5.000000000000000000e+00,5.000000000000000000e+00,5.000000000000000000e+00,5.000000000000000000e+00,5.000000000000000000e+00,5.000000000000000000e+00,5.000000000000000000e+00,5.000000000000000000e+00,5.000000000000000000e+00,5.000000000000000000e+00,5.000000000000000000e+00,5.000000000000000000e+00,5.000000000000000000e+00,5.000000000000000000e+00,5.000000000000000000e+00,5.000000000000000000e+00,5.000000000000000000e+00,5.000000000000000000e+00,5.000000000000000000e+00,5.000000000000000000e+00,5.000000000000000000e+00,3.376139640808105469e+00,3.328692436218261719e+00,3.354327201843261719e+00,5.000000000000000000e+00,5.000000000000000000e+00,5.000000000000000000e+00,5.000000000000000000e+00,5.000000000000000000e+00,5.000000000000000000e+00,5.000000000000000000e+00,5.000000000000000000e+00,5.000000000000000000e+00,5.000000000000000000e+00,4.849891662597656250e+00,4.659947395324707031e+00,4.484321117401123047e+00,4.321451663970947266e+00,4.169999122619628906e+00,4.028802394866943359e+00,3.896854639053344727e+00,3.773275375366210938e+00,3.657293558120727539e+00,3.548228740692138672e+00,3.445480823516845703e+00,3.348515748977661133e+00,3.256859540939331055e+00,3.170086622238159180e+00,3.087817907333374023e+00,3.009711027145385742e+00,2.935458421707153320e+00,2.864780902862548828e+00,2.797427177429199219e+00,2.733167648315429688e+00,2.671794176101684570e+00,2.613116264343261719e+00,2.556960582733154297e+00,2.503167390823364258e+00,2.451591014862060547e+00,2.402097225189208984e+00,2.354562282562255859e+00,2.308871984481811523e+00,2.264921665191650391e+00,2.222612857818603516e+00,2.181855916976928711e+00,2.142566680908203125e+00,2.104667663574218750e+00,2.068085670471191406e+00,2.032753944396972656e+00,1.998609066009521484e+00,1.965592503547668457e+00,1.933648943901062012e+00,1.902727127075195312e+00,1.872778415679931641e+00,1.843758106231689453e+00
5.000000000000000000e+00,5.000000000000000000e+00,5.000000000000000000e+00,5.000000000000000000e+00,5.000000000000000000e+00,5.000000000000000000e+00,5.000000000000000000e+00,5.000000000000000000e+00,5.000000000000000000e+00,5.000000000000000000e+00,5.000000000000000000e+00,5.000000000000000000e+00,5.000000000000000000e+00,5.000000000000000000e+00,5.000000000000000000e+00,5.000000000000000000e+00,5.000000000000000000e+00,5.000000000000000000e+00,5.000000000000000000e+00,5.000000000000000000e+00,5.000000000000000000e+00,5.000000000000000000e+00,5.000000000000000000e+00,5.000000000000000000e+00,5.000000000000000000e+00,5.000000000000000000e+00,5.000000000000000000e+00,3.339580535888671875e+00,3.361690759658813477e+00,5.000000000000000000e+00,5.000000000000000000e+00,5.000000000000000000e+00,5.000000000000000000e+00,5.000000000000000000e+00,5.000000000000000000e+00,5.000000000000000000e+00,5.000000000000000000e+00,5.000000000000000000e+00,5.000000000000000000e+00,4.850030899047851562e+00,4.660076141357421875e+00,4.484440326690673828e+00,4.321562290191650391e+00,4.170102119445800781e+00,4.028898239135742188e+00,3.896944761276245117e+00,3.773359775543212891e+00,3.657372951507568359e+00,3.548303365707397461e+00,3.445551156997680664e+00,3.348582267761230469e+00,3.256922245025634766e+00,3.170146226882934570e+00,3.087874412536621094e+00,3.009764909744262695e+00,2.935509443283081055e+00,2.864829778671264648e+00,2.797473669052124023e+00,2.733211994171142578e+00,2.671836614608764648e+00,2.613156795501708984e+00,2.556999206542968750e+00,2.503204345703125000e+00,2.451626777648925781e+00,2.402131319046020508e+00,2.354595184326171875e+00,2.308903694152832031e+00,2.264951944351196289e+00,2.222642183303833008e+00,2.181884288787841797e+00,2.142593860626220703e+00,2.104693889617919922e+00,2.068110942840576172e+00,2.032778501510620117e+00,1.998632907867431641e+00,1.965615510940551758e+00,1.933670997619628906e+00,1.902748465538024902e+00,1.872799277305603027e+00,1.843778371810913086e+00
5.000000000000000000e+00,5.000000000000000000e+00,5.000000000000000000e+00,5.000000000000000000e+00,5.000000000000000000e+00,5.000000000000000000e+00,5.000000000000000000e+00,5.000000000000000000e+00,5.000000000000000000e+00,5.000000000000000000e+00,5.000000000000000000e+00,5.000000000000000000e+00,5.000000000000000000e+00,5.000000000000000000e+00,5.000000000000000000e+00,5.000000000000000000e+00,5.000000000000000000e+00,5.000000000000000000e+00,5.000000000000000000e+00,5.000000000000000000e+00,5.000000000000000000e+00,5.000000000000000000e+00,5.000000000000000000e+00,5.000000000000000000e+00,5.000000000000000000e+00,5.000000000000000000e+00,5.000000000000000000e+00,3.404460191726684570e+00,5.000000000000000000e+00,5.000000000000000000e+00,5.000000000000000000e+00,5.000000000000000000e+00,5.000000000000000000e+00,5.000000000000000000e+00,5.000000000000000000e+00,5.000000000000000000e+00,5.000000000000000000e+00,5.000000000000000000e+00,5.000000000000000000e+00,4.850170612335205078e+00,4.660204887390136719e+00,4.484559535980224609e+00,4.321673393249511719e+00,4.170205116271972656e+00,4.028994560241699219e+00,3.897034883499145508e+00,3.773444175720214844e+00,3.657452344894409180e+00,3.548378229141235352e+00,3.445621728897094727e+00,3.348648786544799805e+00,3.256985187530517578e+00,3.170205831527709961e+00,3.087931156158447266e+00,3.009818553924560547e+00,2.935560703277587891e+00,2.864878416061401367e+00,2.797519922256469727e+00,2.733256101608276367e+00,2.671878814697265625e+00,2.613197326660156250e+00,2.557038068771362305e+00,2.503241539001464844e+00,2.451662302017211914e+00,2.402165651321411133e+00,2.354628086090087891e+00,2.308935403823852539e+00,2.264982461929321289e+00,2.222671508789062500e+00,2.181912422180175781e+00,2.142621278762817383e+00,2.104720115661621094e+00,2.068136453628540039e+00,2.032803058624267578e+00,1.998656392097473145e+00,1.965638279914855957e+00,1.933693289756774902e+00,1.902770042419433594e+00,1.872820019721984863e+00,1.843798398971557617e+00
5.000000000000000000e+00,5.000000000000000000e+00,5.000000000000000000e+00,5.000000000000000000e+00,5.000000000000000000e+00,5.000000000000000000e+00,5.000000000000000000e+00,5.000000000000000000e+00,5.000000000000000000e+00,5.000000000000000000e+00,5.000000000000000000e+00,5.000000000000000000e+00,5.000000000000000000e+00,5.000000000000000000e+00,5.000000000000000000e+00,5.000000000000000000e+00,5.000000000000000000e+00,5.000000000000000000e+00,5.000000000000000000e+00,5.000000000000000000e+00,5.000000000000000000e+00,5.000000000000000000e+00,5.000000000000000000e+00,3.294019937515258789e+00,3.288769245147705078e+00,3.319990634918212891e+00,3.323690891265869141e+00,3.359652757644653320e+00,3.391985416412353516e+00,3.456095695495605469e+00,3.487439393997192383e+00,5.000000000000000000e+00,5.000000000000000000e+00,5.000000000000000000e+00,5.000000000000000000e+00,5.000000000000000000e+00,5.000000000000000000e+00,5.000000000000000000e+00,5.000000000000000000e+00,4.850309848785400391e+00,4.660334110260009766e+00,4.484678745269775391e+00,4.321784019470214844e+00,4.170308113098144531e+00,4.029090881347656250e+00,3.897124767303466797e+00,3.773528575897216797e+00,3.657531499862670898e+00,3.548452854156494141e+00,3.445692062377929688e+00,3.348715305328369141e+00,3.257048130035400391e+00,3.170265436172485352e+00,3.087987661361694336e+00,3.009872198104858398e+00,2.935611724853515625e+00,2.864927053451538086e+00,2.797566413879394531e+00,2.733300447463989258e+00,2.671921253204345703e+00,2.613237857818603516e+00,2.557076930999755859e+00,2.503278732299804688e+00,2.451698064804077148e+00,2.402199745178222656e+00,2.354660987854003906e+00,2.308966875076293945e+00,2.265012979507446289e+00,2.222700834274291992e+00,2.181940555572509766e+00,2.142648458480834961e+00,2.104746341705322266e+00,2.068161725997924805e+00,2.032827615737915039e+00,1.998680233955383301e+00,1.965661287307739258e+00,1.933715343475341797e+00,1.902791380882263184e+00,1.872840881347656250e+00,1.843818664550781250e+00
5.000000000000000000e+00,5.000000000000000000e+00,5.000000000000000000e+00,5.000000000000000000e+00,5.000000000000000000e+00,5.000000000000000000e+00,5.000000000000000000e+00,5.000000000000000000e+00,5.000000000000000000e+00,5.000000000000000000e+00,5.000000000000000000e+00,5.000000000000000000e+00,5.000000000000000000e+00,5.000000000000000000e+00,5.000000000000000000e+00,5.000000000000000000e+00,5.000000000000000000e+00,5.000000000000000000e+00,5.000000000000000000e+00,5.000000000000000000e+00,5.000000000000000000e+00,5.000000000000000000e+00,5.000000000000000000e+00,3.289676189422607422e+00,3.297965526580810547e+00,3.290454864501953125e+00,3.285584211349487305e+00,3.308004617691040039e+00,3.343324899673461914e+00,3.385633468627929688e+00,3.459771871566772461e+00,3.509472846984863281e+00,5.000000000000000000e+00,5.000000000000000000e+00,5.000000000000000000e+00,5.000000000000000000e+00,5.000000000000000000e+00,5.000000000000000000e+00,5.000000000000000000e+00,4.850449562072753906e+00,4.660462856292724609e+00,4.484797954559326172e+00,4.321894645690917969e+00,4.170411586761474609e+00,4.029187202453613281e+00,3.897214889526367188e+00,3.773612976074218750e+00,3.657610893249511719e+00,3.548527479171752930e+00,3.445762395858764648e+00,3.348781824111938477e+00,3.257111072540283203e+00,3.170325040817260742e+00,3.088044166564941406e+00,3.009926080703735352e+00,2.935662746429443359e+00,2.864975690841674805e+00,2.797612905502319336e+00,2.733344793319702148e+00,2.671963453292846680e+00,2.613278150558471680e+00,2.557115554809570312e+00,2.503315925598144531e+00,2.451733589172363281e+00,2.402234077453613281e+00,2.354693889617919922e+00,2.308998584747314453e+00,2.265043258666992188e+00,2.222729921340942383e+00,2.181968927383422852e+00,2.142675638198852539e+00,2.104772567749023438e+00,2.068186998367309570e+00,2.032852172851562500e+00,1.998703837394714355e+00,1.965684175491333008e+00,1.933737635612487793e+00,1.902812957763671875e+00,1.872861623764038086e+00,1.843838691711425781e+00
5.000000000000000000e+00,5.000000000000000000e+00,5.000000000000000000e+00,5.000000000000000000e+00,5.000000000000000000e+00,5.000000000000000000e+00,5.000000000000000000e+00,5.000000000000000000e+00,5.000000000000000000e+00,5.000000000000000000e+00,5.000000000000000000e+00,5.000000000000000000e+00,5.000000000000000000e+00,5.000000000000000000e+00,5.000000000000000000e+00,5.000000000000000000e+00,5.000000000000000000e+00,5.000000000000000000e+00,5.000000000000000000e+00,5.000000000000000000e+00,5.000000000000000000e+00,5.000000000000000000e+00,5.000000000000000000e+00,3.315738677978515625e+00,3.307890653610229492e+00,3.295859813690185547e+00,3.283200263977050781e+00,3.294574499130249023e+00,3.330765724182128906e+00,3.364546298980712891e+00,3.462209939956665039e+00,3.523289203643798828e+00,5.000000000000000000e+00,5.000000000000000000e+00,5.000000000000000000e+00,5.000000000000000000e+00,5.000000000000000000e+00,5.000000000000000000e+00,5.000000000000000000e+00,4.850588798522949219e+00,4.660591125488281250e+00,4.484917163848876953e+00,4.322005271911621094e+00,4.170514106750488281e+00,4.029283523559570312e+00,3.897304534912109375e+00,3.773697614669799805e+00,3.657689809799194336e+00,3.548602104187011719e+00,3.445832490921020508e+00,3.348848342895507812e+00,3.257173776626586914e+00,3.170384645462036133e+00,3.088100433349609375e+00,3.009979724884033203e+00,2.935713768005371094e+00,2.865024328231811523e+00,2.797658920288085938e+00,2.733389139175415039e+00,2.672005653381347656e+00,2.613318681716918945e+00,2.557154178619384766e+00,2.503353118896484375e+00,2.451769113540649414e+00,2.402268171310424805e+00,2.354726552963256836e+00,2.309030055999755859e+00,2.265073537826538086e+00,2.222759246826171875e+00,2.181997060775756836e+00,2.142702817916870117e+00,2.104798793792724609e+00,2.068212509155273438e+00,2.032876491546630859e+00,1.998727679252624512e+00,1.965706944465637207e+00,1.933759689331054688e+00,1.902834296226501465e+00,1.872882485389709473e+00,1.843858838081359863e+00
5.000000000000000000e+00,5.000000000000000000e+00,5.000000000000000000e+00,5.000000000000000000e+00,5.000000000000000000e+00,5.000000000000000000e+00,5.000000000000000000e+00,5.000000000000000000e+00,5.000000000000000000e+00,5.000000000000000000e+00,5.000000000000000000e+00,5.000000000000000000e+00,5.000000000000000000e+00,5.000000000000000000e+00,5.000000000000000000e+00,5.000000000000000000e+00,5.000000000000000000e+00,5.000000000000000000e+00,5.000000000000000000e+00,5.000000000000000000e+00,5.000000000000000000e+00,5.000000000000000000e+00,5.000000000000000000e+00,3.358950853347778320e+00,3.316937446594238281e+00,3.313650131225585938e+00,3.293930768966674805e+00,3.295445203781127930e+00,3.319224119186401367e+00,3.375872135162353516e+00,3.498983860015869141e+00,3.539772510528564453e+00,5.000000000000000000e+00,5.000000000000000000e+00,5.000000000000000000e+00,5.000000000000000000e+00,5.000000000000000000e+00,5.000000000000000000e+00,5.000000000000000000e+00,4.850728511810302734e+00,4.660719871520996094e+00,4.485036373138427734e+00,4.322116374969482422e+00,4.170617580413818359e+00,4.029379844665527344e+00,3.897394657135009766e+00,3.773782014846801758e+00,3.657769203186035156e+00,3.548676967620849609e+00,3.445903062820434570e+00,3.348914861679077148e+00,3.257236719131469727e+00,3.170444250106811523e+00,3.088156938552856445e+00,3.010033369064331055e+00,2.935764789581298828e+00,2.865072965621948242e+00,2.797705411911010742e+00,2.733433485031127930e+00,2.672048091888427734e+00,2.613359212875366211e+00,2.557193040847778320e+00,2.503390312194824219e+00,2.451804876327514648e+00,2.402302503585815430e+00,2.354759454727172852e+00,2.309061765670776367e+00,2.265104055404663086e+00,2.222788572311401367e+00,2.182025194168090820e+00,2.142729997634887695e+00,2.104825019836425781e+00,2.068237781524658203e+00,2.032901048660278320e+00,1.998751163482666016e+00,1.965729951858520508e+00,1.933781981468200684e+00,1.902855634689331055e+00,1.872903227806091309e+00,1.843878984451293945e+00
5.000000000000000000e+00,5.000000000000000000e+00,5.000000000000000000e+00,5.000000000000000000e+00,5.000000000000000000e+00,5.000000000000000000e+00,5.000000000000000000e+00,5.000000000000000000e+00,5.000000000000000000e+00,5.000000000000000000e+00,5.000000000000000000e+00,5.000000000000000000e+00,5.000000000000000000e+00,5.000000000000000000e+00,5.000000000000000000e+00,5.000000000000000000e+00,5.000000000000000000e+00,5.000000000000000000e+00,5.000000000000000000e+00,5.000000000000000000e+00,5.000000000000000000e+00,5.000000000000000000e+00,5.000000000000000000e+00,5.000000000000000000e+00,3.316891670227050781e+00,3.328749895095825195e+00,3.290435075759887695e+00,3.294637203216552734e+00,3.319062948226928711e+00,3.364960670471191406e+00,3.497554540634155273e+00,3.542280435562133789e+00,5.000000000000000000e+00,5.000000000000000000e+00,5.000000000000000000e+00,5.000000000000000000e+00,5.000000000000000000e+00,5.000000000000000000e+00,5.000000000000000000e+00,4.850867748260498047e+00,4.660848617553710938e+00,4.485155582427978516e+00,4.322227001190185547e+00,4.170720577239990234e+00,4.029475688934326172e+00,3.897484779357910156e+00,3.773866415023803711e+00,3.657848596572875977e+00,3.548751592636108398e+00,3.445973396301269531e+00,3.348981380462646484e+00,3.257299423217773438e+00,3.170503854751586914e+00,3.088213682174682617e+00,3.010087251663208008e+00,2.935816049575805664e+00,2.865121841430664062e+00,2.797751903533935547e+00,2.733477830886840820e+00,2.672090291976928711e+00,2.613399744033813477e+00,2.557231664657592773e+00,2.503427505493164062e+00,2.451840400695800781e+00,2.402336835861206055e+00,2.354792356491088867e+00,2.309093475341796875e+00,2.265134334564208984e+00,2.222817897796630859e+00,2.182053327560424805e+00,2.142757415771484375e+00,2.104851245880126953e+00,2.068263292312622070e+00,2.032925367355346680e+00,1.998775005340576172e+00,1.965752840042114258e+00,1.933804035186767578e+00,1.902877330780029297e+00,1.872924089431762695e+00,1.843899130821228027e+00
5.000000000000000000e+00,5.000000000000000000e+00,5.000000000000000000e+00,5.000000000000000000e+00,5.000000000000000000e+00,5.000000000000000000e+00,5.000000000000000000e+00,5.000000000000000000e+00,5.000000000000000000e+00,5.000000000000000000e+00,5.000000000000000000e+00,5.000000000000000000e+00,5.000000000000000000e+00,5.000000000000000000e+00,5.000000000000000000e+00,5.000000000000000000e+00,5.000000000000000000e+00,5.000000000000000000e+00,5.000000000000000000e+00,5.000000000000000000e+00,5.000000000000000000e+00,5.000000000000000000e+00,5.000000000000000000e+00,5.000000000000000000e+00,3.324603557586669922e+00,3.307829618453979492e+00,3.278817415237426758e+00,3.286814689636230469e+00,3.324999094009399414e+00,3.366912841796875000e+00,3.515923261642456055e+00,3.551505088806152344e+00,5.000000000000000000e+00,5.000000000000000000e+00,5.000000000000000000e+00,5.000000000000000000e+00,5.000000000000000000e+00,5.000000000000000000e+00,5.000000000000000000e+00,4.851007461547851562e+00,4.660977840423583984e+00,4.485275268554687500e+00,4.322337627410888672e+00,4.170824050903320312e+00,4.029572010040283203e+00,3.897574901580810547e+00,3.773950815200805664e+00,3.657927989959716797e+00,3.548826217651367188e+00,3.446043729782104492e+00,3.349047899246215820e+00,3.257362365722656250e+00,3.170563459396362305e+00,3.088270187377929688e+00,3.010140895843505859e+00,2.935867071151733398e+00,2.865170478820800781e+00,2.797798395156860352e+00,2.733522176742553711e+00,2.672132730484008789e+00,2.613440275192260742e+00,2.557270526885986328e+00,2.503464698791503906e+00,2.451876163482666016e+00,2.402370929718017578e+00,2.354825258255004883e+00,2.309124946594238281e+00,2.265164852142333984e+00,2.222847223281860352e+00,2.182081699371337891e+00,2.142784595489501953e+00,2.104877710342407227e+00,2.068288564682006836e+00,2.032949924468994141e+00,1.998798608779907227e+00,1.965775847434997559e+00,1.933826327323913574e+00,1.902898669242858887e+00,1.872944831848144531e+00,1.843919396400451660e+00
5.000000000000000000e+00,5.000000000000000000e+00,5.000000000000000000e+00,5.000000000000000000e+00,5.000000000000000000e+00,5.000000000000000000e+00,5.000000000000000000e+00,5.000000000000000000e+00,5.000000000000000000e+00,5.000000000000000000e+00,5.000000000000000000e+00,5.000000000000000000e+00,5.000000000000000000e+00,5.000000000000000000e+00,5.000000000000000000e+00,5.000000000000000000e+00,5.000000000000000000e+00,5.000000000000000000e+00,5.000000000000000000e+00,5.000000000000000000e+00,5.000000000000000000e+00,5.000000000000000000e+00,5.000000000000000000e+00,5.000000000000000000e+00,3.337575197219848633e+00,3.309859991073608398e+00,3.287461280822753906e+00,3.295248746871948242e+00,3.309587001800537109e+00,3.351836204528808594e+00,3.535015821456909180e+00,3.559272050857543945e+00,5.000000000000000000e+00,5.000000000000000000e+00,5.000000000000000000e+00,5.000000000000000000e+00,5.000000000000000000e+00,5.000000000000000000e+00,5.000000000000000000e+00,4.851147174835205078e+00,4.661106586456298828e+00,4.485394477844238281e+00,4.322448730468750000e+00,4.170927047729492188e+00,4.029668331146240234e+00,3.897665023803710938e+00,3.774035453796386719e+00,3.658007383346557617e+00,3.548900842666625977e+00,3.446114301681518555e+00,3.349114418029785156e+00,3.257425308227539062e+00,3.170623064041137695e+00,3.088326692581176758e+00,3.010194778442382812e+00,2.935918092727661133e+00,2.865219116210937500e+00,2.797844886779785156e+00,2.733566284179687500e+00,2.672174930572509766e+00,2.613480806350708008e+00,2.557309389114379883e+00,2.503501892089843750e+00,2.451911687850952148e+00,2.402405261993408203e+00,2.354858160018920898e+00,2.309156656265258789e+00,2.265195369720458984e+00,2.222876548767089844e+00,2.182109832763671875e+00,2.142811775207519531e+00,2.104903936386108398e+00,2.068313837051391602e+00,2.032974481582641602e+00,1.998822450637817383e+00,1.965798616409301758e+00,1.933848381042480469e+00,1.902920246124267578e+00,1.872965693473815918e+00,1.843939423561096191e+00
5.000000000000000000e+00,5.000000000000000000e+00,5.000000000000000000e+00,5.000000000000000000e+00,5.000000000000000000e+00,5.000000000000000000e+00,5.000000000000000000e+00,5.000000000000000000e+00,5.000000000000000000e+00,5.000000000000000000e+00,5.000000000000000000e+00,5.000000000000000000e+00,5.000000000000000000e+00,5.000000000000000000e+00,5.000000000000000000e+00,5.000000000000000000e+00,5.000000000000000000e+00,5.000000000000000000e+00,5.000000000000000000e+00,5.000000000000000000e+00,5.000000000000000000e+00,5.000000000000000000e+00,5.000000000000000000e+00,5.000000000000000000e+00,3.315378904342651367e+00,3.288368940353393555e+00,3.282718420028686523e+00,3.294293165206909180e+00,3.318857908248901367e+00,3.373900413513183594e+00,3.517773866653442383e+00,3.519584655761718750e+00,5.000000000000000000e+00,5.000000000000000000e+00,5.000000000000000000e+00,5.000000000000000000e+00,5.000000000000000000e+00,5.000000000000000000e+00,5.000000000000000000e+00,4.851286411285400391e+00,4.661235332489013672e+00,4.485513687133789062e+00,4.322559356689453125e+00,4.171030044555664062e+00,4.029764652252197266e+00,3.897754907608032227e+00,3.774119853973388672e+00,3.658086538314819336e+00,3.548975706100463867e+00,3.446184635162353516e+00,3.349180936813354492e+00,3.257488250732421875e+00,3.170682668685913086e+00,3.088383197784423828e+00,3.010248422622680664e+00,2.935969352722167969e+00,2.865267753601074219e+00,2.797891139984130859e+00,2.733610630035400391e+00,2.672217369079589844e+00,2.613521337509155273e+00,2.557348012924194336e+00,2.503538846969604492e+00,2.451947450637817383e+00,2.402439355850219727e+00,2.354891061782836914e+00,2.309188365936279297e+00,2.265225648880004883e+00,2.222905874252319336e+00,2.182138204574584961e+00,2.142838954925537109e+00,2.104930162429809570e+00,2.068339347839355469e+00,2.032999038696289062e+00,1.998845934867858887e+00,1.965821623802185059e+00,1.933870673179626465e+00,1.902941584587097168e+00,1.872986435890197754e+00,1.843959689140319824e+00
5.000000000000000000e+00,5.000000000000000000e+00,5.000000000000000000e+00,5.000000000000000000e+00,5.000000000000000000e+00,5.000000000000000000e+00,5.000000000000000000e+00,5.000000000000000000e+00,5.000000000000000000e+00,5.000000000000000000e+00,5.000000000000000000e+00,5.000000000000000000e+00,5.000000000000000000e+00,5.000000000000000000e+00,5.000000000000000000e+00,5.000000000000000000e+00,5.000000000000000000e+00,5.000000000000000000e+00,5.000000000000000000e+00,5.000000000000000000e+00,5.000000000000000000e+00,5.000000000000000000e+00,5.000000000000000000e+00,5.000000000000000000e+00,3.299956798553466797e+00,3.275659084320068359e+00,3.273906707763671875e+00,3.325966119766235352e+00,3.350453376770019531e+00,3.365560531616210938e+00,5.000000000000000000e+00,3.492747783660888672e+00,5.000000000000000000e+00,5.000000000000000000e+00,5.000000000000000000e+00,5.000000000000000000e+00,5.000000000000000000e+00,5.000000000000000000e+00,5.000000000000000000e+00,4.851426124572753906e+00,4.661364078521728516e+00,4.485632896423339844e+00,4.322669982910156250e+00,4.171133518218994141e+00,4.029860973358154297e+00,3.897845029830932617e+00,3.774204254150390625e+00,3.658165931701660156e+00,3.549050331115722656e+00,3.446255207061767578e+00,3.349247455596923828e+00,3.257551193237304688e+00,3.170742273330688477e+00,3.088439941406250000e+00,3.010302066802978516e+00,2.936020374298095703e+00,2.865316390991210938e+00,2.797937631607055664e+00,2.733654975891113281e+00,2.672259807586669922e+00,2.613561868667602539e+00,2.557386875152587891e+00,2.503576040267944336e+00,2.451982975006103516e+00,2.402473688125610352e+00,2.354923963546752930e+00,2.309219837188720703e+00,2.265256166458129883e+00,2.222935199737548828e+00,2.182166337966918945e+00,2.142866134643554688e+00,2.104956388473510742e+00,2.068364620208740234e+00,2.033023595809936523e+00,1.998869776725769043e+00,1.965844511985778809e+00,1.933892846107482910e+00,1.902963161468505859e+00,1.873007297515869141e+00,1.843979716300964355e+00
5.000000000000000000e+00,5.000000000000000000e+00,5.000000000000000000e+00,5.000000000000000000e+00,5.000000000000000000e+00,5.000000000000000000e+00,5.000000000000000000e+00,5.000000000000000000e+00,5.000000000000000000e+00,5.000000000000000000e+00,5.000000000000000000e+00,5.000000000000000000e+00,5.000000000000000000e+00,5.000000000000000000e+00,5.000000000000000000e+00,5.000000000000000000e+00,5.000000000000000000e+00,5.000000000000000000e+00,5.000000000000000000e+00,5.000000000000000000e+00,5.000000000000000000e+00,5.000000000000000000e+00,5.000000000000000000e+00,5.000000000000000000e+00,3.278319835662841797e+00,3.267073631286621094e+00,3.256567001342773438e+00,3.288134574890136719e+00,3.331091642379760742e+00,3.329755067825317383e+00,3.389398097991943359e+00,3.481975793838500977e+00,5.000000000000000000e+00,5.000000000000000000e+00,5.000000000000000000e+00,5.000000000000000000e+00,5.000000000000000000e+00,5.000000000000000000e+00,5.000000000000000000e+00,4.851565837860107422e+00,4.661493301391601562e+00,4.485752582550048828e+00,4.322781085968017578e+00,4.171236515045166016e+00,4.029957294464111328e+00,3.897935152053833008e+00,3.774288892745971680e+00,3.658245325088500977e+00,3.549124956130981445e+00,3.446325540542602539e+00,3.349313974380493164e+00,3.257614135742187500e+00,3.170801877975463867e+00,3.088496446609497070e+00,3.010355949401855469e+00,2.936071634292602539e+00,2.865365266799926758e+00,2.797984123229980469e+00,2.733699321746826172e+00,2.672302007675170898e+00,2.613602399826049805e+00,2.557425737380981445e+00,2.503613233566284180e+00,2.452018737792968750e+00,2.402507781982421875e+00,2.354956865310668945e+00,2.309251546859741211e+00,2.265286684036254883e+00,2.222964525222778320e+00,2.182194709777832031e+00,2.142893552780151367e+00,2.104982614517211914e+00,2.068390130996704102e+00,2.033047914505004883e+00,1.998893380165100098e+00,1.965867519378662109e+00,1.933915019035339355e+00,1.902984499931335449e+00,1.873028039932250977e+00,1.843999981880187988e+00
5.000000000000000000e+00,5.000000000000000000e+00,5.000000000000000000e+00,5.000000000000000000e+00,5.000000000000000000e+00,5.000000000000000000e+00,5.000000000000000000e+00,5.000000000000000000e+00,5.000000000000000000e+00,5.000000000000000000e+00,5.000000000000000000e+00,5.000000000000000000e+00,5.000000000000000000e+00,5.000000000000000000e+00,5.000000000000000000e+00,5.000000000000000000e+00,5.000000000000000000e+00,5.000000000000000000e+00,5.000000000000000000e+00,5.000000000000000000e+00,5.000000000000000000e+00,5.000000000000000000e+00,5.000000000000000000e+00,5.000000000000000000e+00,3.275094270706176758e+00,3.265260934829711914e+00,3.253809690475463867e+00,3.274343729019165039e+00,3.330335855484008789e+00,3.315968036651611328e+00,3.360898256301879883e+00,3.439920902252197266e+00,5.000000000000000000e+00,5.000000000000000000e+00,5.000000000000000000e+00,5.000000000000000000e+00,5.000000000000000000e+00,5.000000000000000000e+00,5.000000000000000000e+00,4.851705074310302734e+00,4.661621570587158203e+00,4.485871315002441406e+00,4.322891712188720703e+00,4.171339511871337891e+00,4.030053615570068359e+00,3.898025274276733398e+00,3.774372816085815430e+00,3.658324718475341797e+00,3.549199342727661133e+00,3.446395874023437500e+00,3.349380016326904297e+00,3.257677078247070312e+00,3.170861244201660156e+00,3.088552951812744141e+00,3.010409355163574219e+00,2.936122655868530273e+00,2.865413665771484375e+00,2.798030614852905273e+00,2.733743429183959961e+00,2.672344446182250977e+00,2.613642692565917969e+00,2.557464361190795898e+00,2.503650188446044922e+00,2.452054500579833984e+00,2.402541875839233398e+00,2.354989767074584961e+00,2.309283018112182617e+00,2.265316963195800781e+00,2.222993612289428711e+00,2.182222843170166016e+00,2.142920494079589844e+00,2.105009078979492188e+00,2.068415403366088867e+00,2.033072471618652344e+00,1.998916983604431152e+00,1.965890288352966309e+00,1.933937191963195801e+00,1.903006076812744141e+00,1.873048663139343262e+00,1.844020128250122070e+00
5.000000000000000000e+00,5.000000000000000000e+00,5.000000000000000000e+00,5.000000000000000000e+00,5.000000000000000000e+00,5.000000000000000000e+00,5.000000000000000000e+00,5.000000000000000000e+00,5.000000000000000000e+00,5.000000000000000000e+00,5.000000000000000000e+00,5.000000000000000000e+00,5.000000000000000000e+00,5.000000000000000000e+00,5.000000000000000000e+00,5.000000000000000000e+00,5.000000000000000000e+00,5.000000000000000000e+00,5.000000000000000000e+00,5.000000000000000000e+00,5.000000000000000000e+00,5.000000000000000000e+00,5.000000000000000000e+00,5.000000000000000000e+00,3.243801593780517578e+00,3.288321971893310547e+00,3.254279136657714844e+00,3.271378517150878906e+00,3.332189559936523438e+00,3.306988954544067383e+00,3.337895870208740234e+00,3.423892021179199219e+00,3.463756084442138672e+00,5.000000000000000000e+00,5.000000000000000000e+00,5.000000000000000000e+00,5.000000000000000000e+00,5.000000000000000000e+00,5.000000000000000000e+00,4.851844787597656250e+00,4.661750316619873047e+00,4.485991001129150391e+00,4.323002338409423828e+00,4.171442508697509766e+00,4.030149936676025391e+00,3.898115396499633789e+00,3.774457454681396484e+00,3.658404111862182617e+00,3.549273967742919922e+00,3.446466445922851562e+00,3.349446535110473633e+00,3.257740020751953125e+00,3.170920848846435547e+00,3.088609457015991211e+00,3.010463237762451172e+00,2.936173915863037109e+00,2.865462303161621094e+00,2.798076868057250977e+00,2.733787775039672852e+00,2.672386884689331055e+00,2.613683223724365234e+00,2.557503223419189453e+00,2.503687381744384766e+00,2.452090024948120117e+00,2.402576208114624023e+00,2.355022668838500977e+00,2.309314727783203125e+00,2.265347480773925781e+00,2.223022937774658203e+00,2.182251214981079102e+00,2.142947673797607422e+00,2.105035305023193359e+00,2.068440675735473633e+00,2.033097028732299805e+00,1.998940706253051758e+00,1.965913295745849609e+00,1.933959245681762695e+00,1.903027534484863281e+00,1.873069643974304199e+00,1.844040393829345703e+00
5.000000000000000000e+00,5.000000000000000000e+00,5.000000000000000000e+00,5.000000000000000000e+00,5.000000000000000000e+00,5.000000000000000000e+00,5.000000000000000000e+00,5.000000000000000000e+00,5.000000000000000000e+00,5.000000000000000000e+00,5.000000000000000000e+00,5.000000000000000000e+00,5.000000000000000000e+00,5.000000000000000000e+00,5.000000000000000000e+00,5.000000000000000000e+00,5.000000000000000000e+00,5.000000000000000000e+00,5.000000000000000000e+00,5.000000000000000000e+00,5.000000000000000000e+00,5.000000000000000000e+00,5.000000000000000000e+00,5.000000000000000000e+00,3.219141006469726562e+00,3.327355623245239258e+00,3.255471229553222656e+00,3.266909360885620117e+00,3.333435297012329102e+00,3.295488595962524414e+00,3.315410614013671875e+00,5.000000000000000000e+00,5.000000000000000000e+00,5.000000000000000000e+00,5.000000000000000000e+00,5.000000000000000000e+00,5.000000000000000000e+00,5.000000000000000000e+00,5.000000000000000000e+00,4.851984024047851562e+00,4.661879539489746094e+00,4.486110210418701172e+00,4.323113441467285156e+00,4.171545982360839844e+00,4.030246257781982422e+00,3.898205518722534180e+00,3.774541854858398438e+00,3.658483505249023438e+00,3.549348831176757812e+00,3.446536779403686523e+00,3.349513292312622070e+00,3.257802963256835938e+00,3.170980691909790039e+00,3.088666200637817383e+00,3.010516881942749023e+00,2.936224937438964844e+00,2.865510940551757812e+00,2.798123359680175781e+00,2.733832120895385742e+00,2.672429084777832031e+00,2.613723754882812500e+00,2.557542085647583008e+00,2.503724575042724609e+00,2.452125787734985352e+00,2.402610301971435547e+00,2.355055570602416992e+00,2.309346199035644531e+00,2.265377998352050781e+00,2.223052263259887695e+00,2.182279348373413086e+00,2.142975091934204102e+00,2.105061531066894531e+00,2.068465948104858398e+00,2.033121585845947266e+00,1.998964309692382812e+00,1.965936183929443359e+00,1.933981537818908691e+00,1.903049111366271973e+00,1.873090267181396484e+00,1.844060420989990234e+00
5.000000000000000000e+00,5.000000000000000000e+00,5.000000000000000000e+00,5.000000000000000000e+00,5.000000000000000000e+00,5.000000000000000000e+00,5.000000000000000000e+00,5.000000000000000000e+00,5.000000000000000000e+00,5.000000000000000000e+00,5.000000000000000000e+00,5.000000000000000000e+00,5.000000000000000000e+00,5.000000000000000000e+00,5.000000000000000000e+00,5.000000000000000000e+00,5.000000000000000000e+00,5.000000000000000000e+00,5.000000000000000000e+00,5.000000000000000000e+00,5.000000000000000000e+00,5.000000000000000000e+00,5.000000000000000000e+00,5.000000000000000000e+00,5.000000000000000000e+00,5.000000000000000000e+00,3.255979776382446289e+00,3.261135816574096680e+00,3.348656415939331055e+00,3.282763004302978516e+00,3.298785209655761719e+00,5.000000000000000000e+00,5.000000000000000000e+00,5.000000000000000000e+00,5.000000000000000000e+00,5.000000000000000000e+00,5.000000000000000000e+00,5.000000000000000000e+00,5.000000000000000000e+00,4.852123737335205078e+00,4.662008285522460938e+00,4.486229419708251953e+00,4.323224067687988281e+00,4.171648979187011719e+00,4.030342578887939453e+00,3.898295640945434570e+00,3.774626255035400391e+00,3.658562898635864258e+00,3.549423456192016602e+00,3.446607351303100586e+00,3.349579811096191406e+00,3.257865905761718750e+00,3.171040296554565430e+00,3.088722705841064453e+00,3.010570526123046875e+00,2.936275959014892578e+00,2.865559816360473633e+00,2.798169851303100586e+00,2.733876466751098633e+00,2.672471523284912109e+00,2.613764286041259766e+00,2.557580947875976562e+00,2.503761768341064453e+00,2.452161312103271484e+00,2.402644634246826172e+00,2.355088472366333008e+00,2.309377908706665039e+00,2.265408277511596680e+00,2.223081588745117188e+00,2.182307720184326172e+00,2.143002271652221680e+00,2.105087757110595703e+00,2.068491458892822266e+00,2.033146142959594727e+00,1.998988151550292969e+00,1.965959191322326660e+00,1.934003591537475586e+00,1.903070449829101562e+00,1.873111248016357422e+00,1.844080686569213867e+00
5.000000000000000000e+00,5.000000000000000000e+00,5.000000000000000000e+00,5.000000000000000000e+00,5.000000000000000000e+00,5.000000000000000000e+00,5.000000000000000000e+00,5.000000000000000000e+00,5.000000000000000000e+00,5.000000000000000000e+00,5.000000000000000000e+00,5.000000000000000000e+00,5.000000000000000000e+00,5.000000000000000000e+00,5.000000000000000000e+00,5.000000000000000000e+00,5.000000000000000000e+00,5.000000000000000000e+00,5.000000000000000000e+00,5.000000000000000000e+00,5.000000000000000000e+00,5.000000000000000000e+00,5.000000000000000000e+00,5.000000000000000000e+00,5.000000000000000000e+00,5.000000000000000000e+00,3.273521900177001953e+00,3.254643678665161133e+00,5.000000000000000000e+00,3.281018257141113281e+00,3.288097143173217773e+00,5.000000000000000000e+00,5.000000000000000000e+00,5.000000000000000000e+00,5.000000000000000000e+00,5.000000000000000000e+00,5.000000000000000000e+00,5.000000000000000000e+00,5.000000000000000000e+00,4.852263450622558594e+00,4.662137031555175781e+00,4.486348628997802734e+00,4.323334693908691406e+00,4.171752452850341797e+00,4.030438899993896484e+00,3.898385763168334961e+00,3.774710893630981445e+00,3.658642292022705078e+00,3.549498319625854492e+00,3.446677684783935547e+00,3.349646329879760742e+00,3.257928848266601562e+00,3.171099901199340820e+00,3.088779211044311523e+00,3.010624408721923828e+00,2.936327219009399414e+00,2.865608453750610352e+00,2.798216342926025391e+00,2.733920812606811523e+00,2.672513961791992188e+00,2.613804578781127930e+00,2.557619571685791016e+00,2.503798961639404297e+00,2.452197074890136719e+00,2.402678966522216797e+00,2.355121374130249023e+00,2.309409618377685547e+00,2.265438795089721680e+00,2.223110914230346680e+00,2.182335853576660156e+00,2.143029451370239258e+00,2.105114221572875977e+00,2.068516731262207031e+00,2.033170700073242188e+00,1.999011754989624023e+00,1.965981960296630859e+00,1.934025883674621582e+00,1.903092026710510254e+00,1.873131990432739258e+00,1.844100713729858398e+00
5.000000000000000000e+00,5.000000000000000000e+00,5.000000000000000000e+00,5.000000000000000000e+00,5.000000000000000000e+00,5.000000000000000000e+00,5.000000000000000000e+00,5.000000000000000000e+00,5.000000000000000000e+00,5.000000000000000000e+00,5.000000000000000000e+00,5.000000000000000000e+00,5.000000000000000000e+00,5.000000000000000000e+00,5.000000000000000000e+00,5.000000000000000000e+00,5.000000000000000000e+00,5.000000000000000000e+00,5.000000000000000000e+00,5.000000000000000000e+00,5.000000000000000000e+00,5.000000000000000000e+00,5.000000000000000000e+00,5.000000000000000000e+00,5.000000000000000000e+00,5.000000000000000000e+00,3.295921802520751953e+00,3.262456893920898438e+00,5.000000000000000000e+00,3.290276527404785156e+00,3.293903112411499023e+00,5.000000000000000000e+00,5.000000000000000000e+00,5.000000000000000000e+00,5.000000000000000000e+00,5.000000000000000000e+00,5.000000000000000000e+00,5.000000000000000000e+00,5.000000000000000000e+00,4.852403163909912109e+00,4.662266254425048828e+00,4.486468315124511719e+00,4.323445796966552734e+00,4.171855449676513672e+00,4.030535221099853516e+00,3.898475885391235352e+00,3.774795293807983398e+00,3.658721685409545898e+00,3.549572944641113281e+00,3.446748256683349609e+00,3.349712848663330078e+00,3.257991790771484375e+00,3.171159505844116211e+00,3.088835954666137695e+00,3.010678052902221680e+00,2.936378240585327148e+00,2.865657091140747070e+00,2.798262596130371094e+00,2.733965158462524414e+00,2.672556161880493164e+00,2.613845109939575195e+00,2.557658433914184570e+00,2.503836154937744141e+00,2.452232599258422852e+00,2.402713060379028320e+00,2.355154275894165039e+00,2.309441089630126953e+00,2.265469312667846680e+00,2.223140239715576172e+00,2.182363986968994141e+00,2.143056631088256836e+00,2.105140447616577148e+00,2.068542242050170898e+00,2.033195018768310547e+00,1.999035596847534180e+00,1.966004967689514160e+00,1.934047937393188477e+00,1.903113365173339844e+00,1.873152852058410645e+00,1.844120979309082031e+00
5.000000000000000000e+00,5.000000000000000000e+00,5.000000000000000000e+00,5.000000000000000000e+00,5.000000000000000000e+00,5.000000000000000000e+00,5.000000000000000000e+00,5.000000000000000000e+00,5.000000000000000000e+00,5.000000000000000000e+00,5.000000000000000000e+00,5.000000000000000000e+00,5.000000000000000000e+00,5.000000000000000000e+00,5.000000000000000000e+00,5.000000000000000000e+00,5.000000000000000000e+00,5.000000000000000000e+00,5.000000000000000000e+00,5.000000000000000000e+00,5.000000000000000000e+00,5.000000000000000000e+00,5.000000000000000000e+00,5.000000000000000000e+00,5.000000000000000000e+00,5.000000000000000000e+00,3.304919481277465820e+00,3.295817852020263672e+00,3.401803731918334961e+00,3.340333938598632812e+00,5.000000000000000000e+00,5.000000000000000000e+00,5.000000000000000000e+00,5.000000000000000000e+00,5.000000000000000000e+00,5.000000000000000000e+00,5.000000000000000000e+00,5.000000000000000000e+00,5.000000000000000000e+00,4.852541446685791016e+00,4.662395000457763672e+00,4.486587524414062500e+00,4.323556423187255859e+00,4.171958923339843750e+00,4.030631542205810547e+00,3.898566007614135742e+00,3.774879932403564453e+00,3.658801078796386719e+00,3.549647569656372070e+00,3.446818590164184570e+00,3.349779367446899414e+00,3.258054733276367188e+00,3.171219110488891602e+00,3.088892459869384766e+00,3.010731935501098633e+00,2.936429500579833984e+00,2.865705728530883789e+00,2.798309087753295898e+00,2.734009504318237305e+00,2.672598600387573242e+00,2.613885641098022461e+00,2.557697296142578125e+00,2.503873348236083984e+00,2.452268362045288086e+00,2.402747392654418945e+00,2.355187177658081055e+00,2.309472799301147461e+00,2.265499591827392578e+00,2.223169565200805664e+00,2.182392358779907227e+00,2.143084049224853516e+00,2.105166673660278320e+00,2.068567514419555664e+00,2.033219575881958008e+00,1.999059081077575684e+00,1.966027855873107910e+00,1.934070229530334473e+00,1.903135061264038086e+00,1.873173594474792480e+00,1.844141125679016113e+00
5.000000000000000000e+00,5.000000000000000000e+00,5.000000000000000000e+00,5.000000000000000000e+00,5.000000000000000000e+00,5.000000000000000000e+00,5.000000000000000000e+00,5.000000000000000000e+00,5.000000000000000000e+00,5.000000000000000000e+00,5.000000000000000000e+00,5.000000000000000000e+00,5.000000000000000000e+00,5.000000000000000000e+00,5.000000000000000000e+00,5.000000000000000000e+00,5.000000000000000000e+00,5.000000000000000000e+00,5.000000000000000000e+00,5.000000000000000000e+00,5.000000000000000000e+00,5.000000000000000000e+00,5.000000000000000000e+00,5.000000000000000000e+00,5.000000000000000000e+00,5.000000000000000000e+00,3.324769258499145508e+00,3.332566022872924805e+00,3.426326274871826172e+00,3.412818431854248047e+00,5.000000000000000000e+00,5.000000000000000000e+00,5.000000000000000000e+00,5.000000000000000000e+00,5.000000000000000000e+00,5.000000000000000000e+00,5.000000000000000000e+00,5.000000000000000000e+00,5.000000000000000000e+00,4.852679729461669922e+00,4.662523746490478516e+00,4.486707210540771484e+00,4.323667526245117188e+00,4.172061920166015625e+00,4.030727863311767578e+00,3.898656129837036133e+00,3.774964332580566406e+00,3.658880472183227539e+00,3.549722433090209961e+00,3.446889162063598633e+00,3.349845886230468750e+00,3.258117675781250000e+00,3.171278715133666992e+00,3.088948965072631836e+00,3.010785579681396484e+00,2.936480522155761719e+00,2.865754604339599609e+00,2.798355579376220703e+00,2.734053850173950195e+00,2.672641038894653320e+00,2.613926172256469727e+00,2.557735919952392578e+00,2.503910541534423828e+00,2.452304124832153320e+00,2.402781486511230469e+00,2.355220079421997070e+00,2.309504508972167969e+00,2.265529870986938477e+00,2.223198890686035156e+00,2.182420492172241211e+00,2.143111228942871094e+00,2.105192899703979492e+00,2.068593025207519531e+00,2.033244132995605469e+00,1.999082922935485840e+00,1.966050863265991211e+00,1.934092283248901367e+00,1.903156399726867676e+00,1.873194456100463867e+00,1.844161391258239746e+00
5.000000000000000000e+00,5.000000000000000000e+00,5.000000000000000000e+00,5.000000000000000000e+00,5.000000000000000000e+00,5.000000000000000000e+00,5.000000000000000000e+00,5.000000000000000000e+00,5.000000000000000000e+00,5.000000000000000000e+00,5.000000000000000000e+00,5.000000000000000000e+00,5.000000000000000000e+00,5.000000000000000000e+00,5.000000000000000000e+00,5.000000000000000000e+00,5.000000000000000000e+00,5.000000000000000000e+00,5.000000000000000000e+00,5.000000000000000000e+00,5.000000000000000000e+00,5.000000000000000000e+00,5.000000000000000000e+00,5.000000000000000000e+00,5.000000000000000000e+00,5.000000000000000000e+00,3.343167066574096680e+00,3.341592311859130859e+00,3.463557243347167969e+00,3.479719400405883789e+00,5.000000000000000000e+00,5.000000000000000000e+00,5.000000000000000000e+00,5.000000000000000000e+00,5.000000000000000000e+00,5.000000000000000000e+00,5.000000000000000000e+00,5.000000000000000000e+00,5.000000000000000000e+00,4.852817535400390625e+00,4.662651062011718750e+00,4.486826419830322266e+00,4.323778629302978516e+00,4.172165393829345703e+00,4.030824184417724609e+00,3.898746490478515625e+00,3.775048971176147461e+00,3.658959865570068359e+00,3.549797058105468750e+00,3.446959495544433594e+00,3.349912405014038086e+00,3.258180618286132812e+00,3.171338319778442383e+00,3.089005708694458008e+00,3.010839462280273438e+00,2.936531782150268555e+00,2.865803241729736328e+00,2.798402070999145508e+00,2.734097957611083984e+00,2.672683238983154297e+00,2.613966703414916992e+00,2.557774782180786133e+00,2.503947734832763672e+00,2.452339649200439453e+00,2.402815818786621094e+00,2.355252981185913086e+00,2.309535980224609375e+00,2.265560388565063477e+00,2.223227977752685547e+00,2.182448863983154297e+00,2.143138408660888672e+00,2.105219364166259766e+00,2.068618297576904297e+00,2.033268690109252930e+00,1.999106526374816895e+00,1.966073632240295410e+00,1.934114575386047363e+00,1.903177976608276367e+00,1.873215198516845703e+00,1.844181418418884277e+00
5.000000000000000000e+00,5.000000000000000000e+00,5.000000000000000000e+00,5.000000000000000000e+00,5.000000000000000000e+00,5.000000000000000000e+00,5.000000000000000000e+00,5.000000000000000000e+00,5.000000000000000000e+00,5.000000000000000000e+00,5.000000000000000000e+00,5.000000000000000000e+00,5.000000000000000000e+00,5.000000000000000000e+00,5.000000000000000000e+00,5.000000000000000000e+00,5.000000000000000000e+00,5.000000000000000000e+00,5.000000000000000000e+00,5.000000000000000000e+00,5.000000000000000000e+00,5.000000000000000000e+00,5.000000000000000000e+00,5.000000000000000000e+00,5.000000000000000000e+00,5.000000000000000000e+00,3.361899852752685547e+00,3.349996566772460938e+00,3.515668392181396484e+00,5.000000000000000000e+00,5.000000000000000000e+00,5.000000000000000000e+00,5.000000000000000000e+00,5.000000000000000000e+00,5.000000000000000000e+00,5.000000000000000000e+00,5.000000000000000000e+00,5.000000000000000000e+00,5.000000000000000000e+00,4.852955818176269531e+00,4.662778377532958984e+00,4.486944198608398438e+00,4.323888778686523438e+00,4.172268390655517578e+00,4.030920505523681641e+00,3.898836135864257812e+00,3.775133371353149414e+00,3.659038782119750977e+00,3.549871921539306641e+00,3.447029829025268555e+00,3.349978923797607422e+00,3.258243322372436523e+00,3.171398162841796875e+00,3.089061975479125977e+00,3.010893106460571289e+00,2.936582565307617188e+00,2.865851879119873047e+00,2.798448324203491211e+00,2.734142303466796875e+00,2.672725439071655273e+00,2.614007234573364258e+00,2.557813405990600586e+00,2.503984928131103516e+00,2.452375173568725586e+00,2.402850151062011719e+00,2.355285644531250000e+00,2.309567689895629883e+00,2.265590667724609375e+00,2.223257303237915039e+00,2.182476997375488281e+00,2.143165588378906250e+00,2.105245351791381836e+00,2.068643808364868164e+00,2.033293008804321289e+00,1.999130368232727051e+00,1.966096520423889160e+00,1.934136629104614258e+00,1.903199315071105957e+00,1.873236060142517090e+00,1.844201564788818359e+00
5.000000000000000000e+00,5.000000000000000000e+00,5.000000000000000000e+00,5.000000000000000000e+00,5.000000000000000000e+00,5.000000000000000000e+00,5.000000000000000000e+00,5.000000000000000000e+00,5.000000000000000000e+00,5.000000000000000000e+00,5.000000000000000000e+00,5.000000000000000000e+00,5.000000000000000000e+00,5.000000000000000000e+00,5.000000000000000000e+00,5.000000000000000000e+00,5.000000000000000000e+00,5.000000000000000000e+00,5.000000000000000000e+00,5.000000000000000000e+00,5.000000000000000000e+00,5.000000000000000000e+00,5.000000000000000000e+00,5.000000000000000000e+00,5.000000000000000000e+00,5.000000000000000000e+00,3.382927179336547852e+00,3.361513137817382812e+00,5.000000000000000000e+00,5.000000000000000000e+00,5.000000000000000000e+00,5.000000000000000000e+00,5.000000000000000000e+00,5.000000000000000000e+00,5.000000000000000000e+00,5.000000000000000000e+00,5.000000000000000000e+00,5.000000000000000000e+00,5.000000000000000000e+00,4.853093624114990234e+00,4.662905693054199219e+00,4.487061977386474609e+00,4.323998928070068359e+00,4.172371387481689453e+00,4.031016826629638672e+00,3.898926258087158203e+00,3.775218009948730469e+00,3.659118175506591797e+00,3.549946546554565430e+00,3.447100162506103516e+00,3.350045680999755859e+00,3.258306264877319336e+00,3.171457767486572266e+00,3.089118480682373047e+00,3.010946989059448242e+00,2.936633825302124023e+00,2.865900754928588867e+00,2.798494577407836914e+00,2.734186649322509766e+00,2.672767877578735352e+00,2.614047765731811523e+00,2.557852268218994141e+00,2.504022121429443359e+00,2.452410936355590820e+00,2.402884244918823242e+00,2.355318546295166016e+00,2.309599399566650391e+00,2.265621185302734375e+00,2.223286628723144531e+00,2.182505130767822266e+00,2.143193006515502930e+00,2.105271577835083008e+00,2.068669080734252930e+00,2.033317565917968750e+00,1.999153971672058105e+00,1.966119527816772461e+00,1.934158921241760254e+00,1.903220772743225098e+00,1.873256802558898926e+00,1.844221830368041992e+00
5.000000000000000000e+00,5.000000000000000000e+00,5.000000000000000000e+00,5.000000000000000000e+00,5.000000000000000000e+00,5.000000000000000000e+00,5.000000000000000000e+00,5.000000000000000000e+00,5.000000000000000000e+00,5.000000000000000000e+00,5.000000000000000000e+00,5.000000000000000000e+00,5.000000000000000000e+00,5.000000000000000000e+00,5.000000000000000000e+00,5.000000000000000000e+00,5.000000000000000000e+00,5.000000000000000000e+00,5.000000000000000000e+00,5.000000000000000000e+00,5.000000000000000000e+00,5.000000000000000000e+00,5.000000000000000000e+00,5.000000000000000000e+00,5.000000000000000000e+00,5.000000000000000000e+00,3.404687166213989258e+00,3.384071350097656250e+00,3.599498987197875977e+00,5.000000000000000000e+00,5.000000000000000000e+00,5.000000000000000000e+00,5.000000000000000000e+00,5.000000000000000000e+00,5.000000000000000000e+00,5.000000000000000000e+00,5.000000000000000000e+00,5.000000000000000000e+00,5.000000000000000000e+00,4.853231430053710938e+00,4.663033008575439453e+00,4.487180233001708984e+00,4.324108600616455078e+00,4.172474861145019531e+00,4.031113147735595703e+00,3.899016380310058594e+00,3.775302410125732422e+00,3.659197568893432617e+00,3.550021409988403320e+00,3.447170734405517578e+00,3.350112199783325195e+00,3.258369207382202148e+00,3.171517372131347656e+00,3.089175224304199219e+00,3.011000633239746094e+00,2.936684846878051758e+00,2.865949392318725586e+00,2.798541069030761719e+00,2.734230995178222656e+00,2.672810316085815430e+00,2.614088296890258789e+00,2.557891130447387695e+00,2.504059314727783203e+00,2.452446460723876953e+00,2.402918577194213867e+00,2.355351448059082031e+00,2.309630870819091797e+00,2.265651464462280273e+00,2.223315954208374023e+00,2.182533502578735352e+00,2.143220186233520508e+00,2.105298042297363281e+00,2.068694353103637695e+00,2.033342123031616211e+00,1.999177694320678711e+00,1.966142296791076660e+00,1.934181094169616699e+00,1.903242349624633789e+00,1.873277664184570312e+00,1.844241857528686523e+00
4.874640941619873047e+00,4.873430252075195312e+00,4.872220039367675781e+00,4.871010780334472656e+00,4.869801521301269531e+00,4.868593215942382812e+00,4.867385387420654297e+00,4.866178512573242188e+00,4.864972114562988281e+00,4.863766193389892578e+00,4.862560749053955078e+00,4.861356258392333984e+00,4.860151767730712891e+00,4.858948230743408203e+00,4.857745647430419922e+00,4.856543064117431641e+00,4.855341434478759766e+00,4.854140281677246094e+00,4.852940082550048828e+00,4.851739883422851562e+00,4.850540637969970703e+00,4.849341869354248047e+00,4.848143577575683594e+00,4.846946239471435547e+00,4.845748901367187500e+00,4.844552516937255859e+00,4.843357086181640625e+00,3.398959398269653320e+00,3.564573049545288086e+00,4.839772701263427734e+00,4.838579177856445312e+00,4.837386608123779297e+00,4.836194515228271484e+00,4.835002422332763672e+00,4.833811759948730469e+00,4.832621097564697266e+00,4.831431388854980469e+00,4.830241680145263672e+00,4.829052925109863281e+00,4.827864646911621094e+00,4.663160800933837891e+00,4.487298488616943359e+00,4.324218273162841797e+00,4.172576427459716797e+00,4.031209468841552734e+00,3.899106502532958984e+00,3.775387048721313477e+00,3.659276962280273438e+00,3.550096035003662109e+00,3.447241067886352539e+00,3.350178718566894531e+00,3.258432149887084961e+00,3.171576976776123047e+00,3.089231729507446289e+00,3.011054515838623047e+00,2.936736106872558594e+00,2.865998029708862305e+00,2.798587560653686523e+00,2.734275341033935547e+00,2.672852516174316406e+00,2.614128828048706055e+00,2.557929754257202148e+00,2.504096508026123047e+00,2.452482223510742188e+00,2.402952909469604492e+00,2.355384349822998047e+00,2.309662580490112305e+00,2.265681982040405273e+00,2.223345279693603516e+00,2.182561635971069336e+00,2.143247365951538086e+00,2.105324268341064453e+00,2.068719863891601562e+00,2.033366680145263672e+00,1.999201297760009766e+00,1.966165423393249512e+00,1.934203386306762695e+00,1.903263688087463379e+00,1.873298406600952148e+00,1.844262123107910156e+00
3.777439832687377930e+00,3.776712894439697266e+00,3.775985717773437500e+00,3.775259256362915039e+00,3.774533033370971680e+00,3.773807048797607422e+00,3.773081302642822266e+00,3.772356033325195312e+00,3.771631002426147461e+00,3.770906209945678711e+00,3.770181655883789062e+00,3.769457340240478516e+00,3.768733263015747070e+00,3.768009662628173828e+00,3.767286300659179688e+00,3.766563177108764648e+00,3.765840291976928711e+00,3.765117645263671875e+00,3.764394998550415039e+00,3.763672828674316406e+00,3.762951135635375977e+00,3.762229681015014648e+00,3.761508464813232422e+00,3.760787725448608398e+00,3.760066986083984375e+00,3.759346723556518555e+00,3.758626461029052734e+00,3.349141120910644531e+00,3.346438646316528320e+00,3.756467819213867188e+00,3.755748987197875977e+00,3.755030155181884766e+00,3.754311800003051758e+00,3.753593683242797852e+00,3.752875804901123047e+00,3.752157688140869141e+00,3.751440286636352539e+00,3.750723361968994141e+00,3.750006437301635742e+00,3.749289989471435547e+00,3.748573780059814453e+00,3.747857809066772461e+00,3.747142076492309570e+00,3.746426582336425781e+00,3.745711326599121094e+00,3.744996547698974609e+00,3.744282007217407227e+00,3.659356355667114258e+00,3.550170898437500000e+00,3.447311639785766602e+00,3.350245237350463867e+00,3.258495092391967773e+00,3.171636581420898438e+00,3.089288234710693359e+00,3.011108160018920898e+00,2.936787128448486328e+00,2.866046905517578125e+00,2.798634052276611328e+00,2.734319686889648438e+00,2.672894954681396484e+00,2.614169359207153320e+00,2.557968616485595703e+00,2.504133701324462891e+00,2.452517747879028320e+00,2.402987003326416016e+00,2.355417251586914062e+00,2.309694290161132812e+00,2.265712499618530273e+00,2.223374605178833008e+00,2.182590007781982422e+00,2.143274545669555664e+00,2.105350494384765625e+00,2.068745136260986328e+00,2.033391237258911133e+00,1.999225139617919922e+00,1.966188192367553711e+00,1.934225440025329590e+00,1.903285264968872070e+00,1.873319387435913086e+00,1.844282150268554688e+00
3.083414077758789062e+00,3.082929611206054688e+00,3.082445144653320312e+00,3.081961154937744141e+00,3.081477165222167969e+00,3.080993413925170898e+00,3.080509662628173828e+00,3.080026149749755859e+00,3.079542636871337891e+00,3.079059600830078125e+00,3.078576326370239258e+00,3.078093528747558594e+00,3.077610731124877930e+00,3.077128171920776367e+00,3.076645612716674805e+00,3.076163291931152344e+00,3.075680732727050781e+00,3.075198888778686523e+00,3.074717044830322266e+00,3.074235200881958008e+00,3.073753595352172852e+00,3.073272228240966797e+00,3.072790861129760742e+00,3.072309970855712891e+00,3.071828842163085938e+00,3.071348190307617188e+00,3.070867538452148438e+00,3.070386886596679688e+00,3.069906473159790039e+00,3.069426298141479492e+00,3.068946361541748047e+00,3.068466424942016602e+00,3.067986249923706055e+00,3.067506790161132812e+00,3.067027330398559570e+00,3.066548109054565430e+00,3.066068887710571289e+00,3.065589904785156250e+00,3.065111160278320312e+00,3.064632415771484375e+00,3.064153671264648438e+00,3.063675403594970703e+00,3.063197135925292969e+00,3.062719106674194336e+00,3.062241077423095703e+00,3.061763286590576172e+00,3.061285495758056641e+00,3.060807943344116211e+00,3.060330629348754883e+00,3.059853076934814453e+00,3.059376001358032227e+00,3.058899164199829102e+00,3.058422327041625977e+00,3.057945728302001953e+00,3.011162042617797852e+00,2.936838388442993164e+00,2.866095542907714844e+00,2.798680543899536133e+00,2.734364032745361328e+00,2.672937393188476562e+00,2.614209890365600586e+00,2.558007478713989258e+00,2.504170894622802734e+00,2.452553510665893555e+00,2.403021335601806641e+00,2.355450153350830078e+00,2.309725761413574219e+00,2.265743017196655273e+00,2.223403930664062500e+00,2.182618141174316406e+00,2.143301963806152344e+00,2.105376720428466797e+00,2.068770647048950195e+00,2.033415555953979492e+00,1.999248743057250977e+00,1.966211199760437012e+00,1.934247732162475586e+00,1.903306603431701660e+00,1.873340010643005371e+00,1.844302415847778320e+00
2.604830741882324219e+00,2.604485034942626953e+00,2.604139328002929688e+00,2.603793859481811523e+00,2.603448390960693359e+00,2.603102922439575195e+00,2.602757692337036133e+00,2.602412462234497070e+00,2.602067470550537109e+00,2.601722478866577148e+00,2.601377487182617188e+00,2.601032733917236328e+00,2.600687980651855469e+00,2.600343227386474609e+00,2.599998474121093750e+00,2.599654197692871094e+00,2.599309682846069336e+00,2.598965406417846680e+00,2.598621129989624023e+00,2.598277091979980469e+00,2.597933053970336914e+00,2.597589254379272461e+00,2.597245454788208008e+00,2.596901655197143555e+00,2.596558094024658203e+00,2.596214532852172852e+00,2.595870971679687500e+00,2.595527648925781250e+00,2.595184326171875000e+00,2.594841241836547852e+00,2.594497919082641602e+00,2.594154834747314453e+00,2.593811988830566406e+00,2.593469142913818359e+00,2.593126535415649414e+00,2.592783927917480469e+00,2.592441320419311523e+00,2.592098712921142578e+00,2.591756343841552734e+00,2.591414213180541992e+00,2.591072082519531250e+00,2.590729951858520508e+00,2.590387821197509766e+00,2.590045928955078125e+00,2.589704036712646484e+00,2.589362382888793945e+00,2.589020729064941406e+00,2.588679075241088867e+00,2.588337659835815430e+00,2.587996244430541992e+00,2.587654829025268555e+00,2.587313652038574219e+00,2.586972713470458984e+00,2.586631536483764648e+00,2.586290597915649414e+00,2.585949897766113281e+00,2.585609197616577148e+00,2.585268497467041016e+00,2.584928035736083984e+00,2.584587335586547852e+00,2.584247112274169922e+00,2.558046340942382812e+00,2.504208087921142578e+00,2.452589273452758789e+00,2.403055429458618164e+00,2.355483055114746094e+00,2.309757471084594727e+00,2.265773296356201172e+00,2.223433256149291992e+00,2.182646512985229492e+00,2.143329143524169922e+00,2.105403184890747070e+00,2.068795919418334961e+00,2.033440113067626953e+00,1.999272584915161133e+00,1.966234087944030762e+00,1.934269785881042480e+00,1.903328299522399902e+00,1.873360991477966309e+00,1.844322562217712402e+00
2.254901647567749023e+00,2.254640579223632812e+00,2.254379272460937500e+00,2.254118204116821289e+00,2.253857135772705078e+00,2.253596067428588867e+00,2.253334999084472656e+00,2.253074169158935547e+00,2.252813339233398438e+00,2.252552509307861328e+00,2.252291917800903320e+00,2.252031087875366211e+00,2.251770496368408203e+00,2.251509904861450195e+00,2.251249551773071289e+00,2.250989198684692383e+00,2.250728607177734375e+00,2.250468492507934570e+00,2.250208139419555664e+00,2.249948024749755859e+00,2.249687910079956055e+00,2.249427795410156250e+00,2.249167919158935547e+00,2.248908042907714844e+00,2.248649120330810547e+00,2.248391389846801758e+00,2.248133659362792969e+00,2.247876167297363281e+00,2.247618675231933594e+00,2.247361183166503906e+00,2.247103929519653320e+00,2.246846437454223633e+00,2.246589183807373047e+00,2.246332168579101562e+00,2.246074914932250977e+00,2.245817899703979492e+00,2.245560884475708008e+00,2.245303869247436523e+00,2.245047092437744141e+00,2.244790315628051758e+00,2.244533538818359375e+00,2.244276762008666992e+00,2.244019985198974609e+00,2.243763446807861328e+00,2.243506908416748047e+00,2.243250370025634766e+00,2.242993831634521484e+00,2.242737531661987305e+00,2.242481231689453125e+00,2.242224931716918945e+00,2.241968870162963867e+00,2.241712570190429688e+00,2.241456508636474609e+00,2.241200685501098633e+00,2.240944623947143555e+00,2.240688800811767578e+00,2.240432977676391602e+00,2.240177154541015625e+00,2.239921331405639648e+00,2.239665746688842773e+00,2.239410161972045898e+00,2.239154577255249023e+00,2.238898992538452148e+00,2.238643646240234375e+00,2.238388061523437500e+00,2.238132953643798828e+00,2.237877607345581055e+00,2.237622499465942383e+00,2.223462581634521484e+00,2.182674646377563477e+00,2.143356323242187500e+00,2.105429410934448242e+00,2.068821430206298828e+00,2.033464670181274414e+00,1.999296188354492188e+00,1.966257095336914062e+00,1.934292078018188477e+00,1.903349637985229492e+00,1.873381733894348145e+00,1.844342827796936035e+00
1.987950563430786133e+00,1.987747550010681152e+00,1.987544536590576172e+00,1.987341642379760742e+00,1.987138509750366211e+00,1.986935615539550781e+00,1.986732840538024902e+00,1.986530065536499023e+00,1.986327290534973145e+00,1.986124396324157715e+00,1.985921740531921387e+00,1.985719203948974609e+00,1.985516548156738281e+00,1.985314011573791504e+00,1.985111355781555176e+00,1.984908938407897949e+00,1.984706521034240723e+00,1.984504103660583496e+00,1.984301805496215820e+00,1.984099268913269043e+00,1.983896970748901367e+00,1.983694791793823242e+00,1.983492732048034668e+00,1.983290553092956543e+00,1.983088254928588867e+00,1.982886195182800293e+00,1.982684254646301270e+00,1.982482314109802246e+00,1.982280373573303223e+00,1.982078313827514648e+00,1.981876492500305176e+00,1.981674671173095703e+00,1.981472849845886230e+00,1.981271147727966309e+00,1.981069564819335938e+00,1.980867624282836914e+00,1.980666041374206543e+00,1.980464577674865723e+00,1.980262994766235352e+00,1.980061531066894531e+00,1.979859948158264160e+00,1.979658603668212891e+00,1.979457259178161621e+00,1.979255914688110352e+00,1.979054689407348633e+00,1.978853225708007812e+00,1.978652000427246094e+00,1.978450894355773926e+00,1.978249788284301758e+00,1.978048801422119141e+00,1.977847456932067871e+00,1.977646589279174805e+00,1.977445602416992188e+00,1.977244734764099121e+00,1.977043867111206055e+00,1.976842761039733887e+00,1.976642012596130371e+00,1.976441383361816406e+00,1.976240634918212891e+00,1.976040005683898926e+00,1.975839376449584961e+00,1.975638628005981445e+00,1.975438117980957031e+00,1.975237607955932617e+00,1.975037097930908203e+00,1.974836707115173340e+00,1.974636197090148926e+00,1.974435806274414062e+00,1.974235534667968750e+00,1.974035382270812988e+00,1.973835110664367676e+00,1.973634719848632812e+00,1.973434567451477051e+00,1.973234534263610840e+00,1.973034501075744629e+00,1.966279864311218262e+00,1.934314131736755371e+00,1.903371214866638184e+00,1.873402357101440430e+00,1.844362854957580566e+00
1.777515769004821777e+00,1.777353405952453613e+00,1.777191162109375000e+00,1.777028918266296387e+00,1.776866436004638672e+00,1.776704311370849609e+00,1.776542067527770996e+00,1.776379942893981934e+00,1.776217818260192871e+00,1.776055574417114258e+00,1.775893568992614746e+00,1.775731563568115234e+00,1.775569558143615723e+00,1.775407552719116211e+00,1.775245666503906250e+00,1.775083541870117188e+00,1.774921655654907227e+00,1.774759769439697266e+00,1.774598002433776855e+00,1.774436235427856445e+00,1.774274230003356934e+00,1.774112582206726074e+00,1.773950815200805664e+00,1.773789167404174805e+00,1.773627519607543945e+00,1.773465752601623535e+00,1.773304104804992676e+00,1.773142576217651367e+00,1.772981047630310059e+00,1.772819519042968750e+00,1.772657871246337891e+00,1.772496461868286133e+00,1.772335052490234375e+00,1.772173643112182617e+00,1.772012352943420410e+00,1.771850824356079102e+00,1.771689534187316895e+00,1.771528244018554688e+00,1.771367073059082031e+00,1.771205782890319824e+00,1.771044492721557617e+00,1.770883321762084961e+00,1.770722270011901855e+00,1.770561099052429199e+00,1.770400047302246094e+00,1.770238995552062988e+00,1.770077824592590332e+00,1.769916892051696777e+00,1.769755959510803223e+00,1.769595026969909668e+00,1.769434213638305664e+00,1.769273161888122559e+00,1.769112348556518555e+00,1.768951535224914551e+00,1.768790721893310547e+00,1.768630027770996094e+00,1.768469095230102539e+00,1.768308520317077637e+00,1.768147826194763184e+00,1.767987251281738281e+00,1.767826676368713379e+00,1.767665863037109375e+00,1.767505288124084473e+00,1.767344832420349121e+00,1.767184376716613770e+00,1.767023921012878418e+00,1.766863346099853516e+00,1.766703009605407715e+00,1.766542673110961914e+00,1.766382336616516113e+00,1.766222000122070312e+00,1.766061782836914062e+00,1.765901327133178711e+00,1.765741109848022461e+00,1.765580892562866211e+00,1.765420794486999512e+00,1.765260696411132812e+00,1.765100479125976562e+00,1.764940381050109863e+00,1.764780402183532715e+00
1.607367634773254395e+00,1.607234835624694824e+00,1.607102155685424805e+00,1.606969475746154785e+00,1.606836795806884766e+00,1.606703996658325195e+00,1.606571435928344727e+00,1.606438755989074707e+00,1.606306195259094238e+00,1.606173634529113770e+00,1.606040954589843750e+00,1.605908393859863281e+00,1.605775952339172363e+00,1.605643510818481445e+00,1.605511069297790527e+00,1.605378508567810059e+00,1.605246067047119141e+00,1.605113625526428223e+00,1.604981303215026855e+00,1.604848980903625488e+00,1.604716539382934570e+00,1.604584217071533203e+00,1.604451894760131836e+00,1.604319691658020020e+00,1.604187488555908203e+00,1.604055285453796387e+00,1.603922843933105469e+00,1.603790760040283203e+00,1.603658556938171387e+00,1.603526473045349121e+00,1.603394389152526855e+00,1.603262066841125488e+00,1.603130102157592773e+00,1.602998018264770508e+00,1.602866053581237793e+00,1.602733969688415527e+00,1.602601885795593262e+00,1.602469921112060547e+00,1.602338075637817383e+00,1.602206110954284668e+00,1.602074265480041504e+00,1.601942181587219238e+00,1.601810336112976074e+00,1.601678609848022461e+00,1.601546764373779297e+00,1.601415038108825684e+00,1.601283073425292969e+00,1.601151347160339355e+00,1.601019620895385742e+00,1.600888013839721680e+00,1.600756287574768066e+00,1.600624561309814453e+00,1.600492954254150391e+00,1.600361347198486328e+00,1.600229740142822266e+00,1.600098133087158203e+00,1.599966526031494141e+00,1.599834918975830078e+00,1.599703431129455566e+00,1.599571943283081055e+00,1.599440455436706543e+00,1.599309086799621582e+00,1.599177479743957520e+00,1.599046111106872559e+00,1.598914742469787598e+00,1.598783493041992188e+00,1.598652124404907227e+00,1.598520636558532715e+00,1.598389387130737305e+00,1.598258137702941895e+00,1.598126888275146484e+00,1.597995758056640625e+00,1.597864389419555664e+00,1.597733139991760254e+00,1.597602009773254395e+00,1.597470879554748535e+00,1.597339868545532227e+00,1.597208619117736816e+00,1.597077488899230957e+00,1.596946477890014648e+00
1.466947793960571289e+00,1.466837286949157715e+00,1.466726660728454590e+00,1.466616153717041016e+00,1.466505646705627441e+00,1.466395139694213867e+00,1.466284513473510742e+00,1.466174125671386719e+00,1.466063618659973145e+00,1.465953230857849121e+00,1.465842843055725098e+00,1.465732336044311523e+00,1.465621948242187500e+00,1.465511560440063477e+00,1.465401291847229004e+00,1.465290904045104980e+00,1.465180516242980957e+00,1.465070128440856934e+00,1.464959859848022461e+00,1.464849710464477539e+00,1.464739441871643066e+00,1.464629054069519043e+00,1.464518904685974121e+00,1.464408636093139648e+00,1.464298486709594727e+00,1.464188337326049805e+00,1.464078068733215332e+00,1.463967919349670410e+00,1.463857769966125488e+00,1.463747739791870117e+00,1.463637709617614746e+00,1.463527441024780273e+00,1.463417410850524902e+00,1.463307380676269531e+00,1.463197350502014160e+00,1.463087439537048340e+00,1.462977409362792969e+00,1.462867379188537598e+00,1.462757349014282227e+00,1.462647438049316406e+00,1.462537527084350586e+00,1.462427735328674316e+00,1.462317705154418945e+00,1.462207794189453125e+00,1.462098002433776855e+00,1.461988210678100586e+00,1.461878299713134766e+00,1.461768388748168945e+00,1.461658596992492676e+00,1.461548924446105957e+00,1.461439132690429688e+00,1.461329460144042969e+00,1.461219549179077148e+00,1.461109876632690430e+00,1.461000204086303711e+00,1.460890531539916992e+00,1.460780858993530273e+00,1.460671186447143555e+00,1.460561513900756836e+00,1.460451960563659668e+00,1.460342407226562500e+00,1.460232853889465332e+00,1.460123181343078613e+00,1.460013628005981445e+00,1.459904074668884277e+00,1.459794640541076660e+00,1.459685087203979492e+00,1.459575653076171875e+00,1.459466099739074707e+00,1.459356665611267090e+00,1.459247231483459473e+00,1.459137797355651855e+00,1.459028482437133789e+00,1.458918929100036621e+00,1.458809614181518555e+00,1.458700299263000488e+00,1.458590984344482422e+00,1.458481669425964355e+00,1.458372235298156738e+00,1.458262920379638672e+00
1.349091053009033203e+00,1.348997473716735840e+00,1.348904013633728027e+00,1.348810553550720215e+00,1.348717093467712402e+00,1.348623633384704590e+00,1.348530054092407227e+00,1.348436594009399414e+00,1.348343133926391602e+00,1.348249793052673340e+00,1.348156452178955078e+00,1.348062872886657715e+00,1.347969532012939453e+00,1.347876191139221191e+00,1.347782850265502930e+00,1.347689509391784668e+00,1.347596168518066406e+00,1.347502827644348145e+00,1.347409486770629883e+00,1.347316265106201172e+00,1.347223043441772461e+00,1.347129821777343750e+00,1.347036480903625488e+00,1.346943259239196777e+00,1.346850037574768066e+00,1.346756815910339355e+00,1.346663594245910645e+00,1.346570372581481934e+00,1.346477270126342773e+00,1.346384048461914062e+00,1.346290946006774902e+00,1.346197843551635742e+00,1.346104621887207031e+00,1.346011519432067871e+00,1.345918416976928711e+00,1.345825314521789551e+00,1.345732331275939941e+00,1.345639228820800781e+00,1.345546126365661621e+00,1.345453143119812012e+00,1.345360159873962402e+00,1.345267176628112793e+00,1.345174074172973633e+00,1.345081090927124023e+00,1.344988107681274414e+00,1.344895243644714355e+00,1.344802260398864746e+00,1.344709396362304688e+00,1.344616293907165527e+00,1.344523429870605469e+00,1.344430565834045410e+00,1.344337701797485352e+00,1.344244837760925293e+00,1.344151973724365234e+00,1.344059109687805176e+00,1.343966245651245117e+00,1.343873500823974609e+00,1.343780755996704102e+00,1.343687772750854492e+00,1.343595027923583984e+00,1.343502283096313477e+00,1.343409538269042969e+00,1.343316912651062012e+00,1.343224048614501953e+00,1.343131303787231445e+00,1.343038678169250488e+00,1.342946052551269531e+00,1.342853307723999023e+00,1.342760562896728516e+00,1.342667937278747559e+00,1.342575311660766602e+00,1.342482686042785645e+00,1.342390179634094238e+00,1.342297554016113281e+00,1.342204928398132324e+00,1.342112302780151367e+00,1.342019796371459961e+00,1.341927289962768555e+00,1.341834783554077148e+00,1.341742157936096191e+00
1.248763561248779297e+00,1.248683452606201172e+00,1.248603224754333496e+00,1.248523116111755371e+00,1.248443126678466797e+00,1.248363018035888672e+00,1.248282909393310547e+00,1.248202800750732422e+00,1.248122692108154297e+00,1.248042702674865723e+00,1.247962713241577148e+00,1.247882723808288574e+00,1.247802615165710449e+00,1.247722625732421875e+00,1.247642636299133301e+00,1.247562646865844727e+00,1.247482657432556152e+00,1.247402667999267578e+00,1.247322678565979004e+00,1.247242808341979980e+00,1.247162818908691406e+00,1.247082948684692383e+00,1.247002959251403809e+00,1.246923089027404785e+00,1.246843099594116211e+00,1.246763229370117188e+00,1.246683478355407715e+00,1.246603608131408691e+00,1.246523618698120117e+00,1.246443867683410645e+00,1.246363997459411621e+00,1.246284127235412598e+00,1.246204376220703125e+00,1.246124505996704102e+00,1.246044754981994629e+00,1.245965003967285156e+00,1.245885252952575684e+00,1.245805501937866211e+00,1.245725631713867188e+00,1.245645880699157715e+00,1.245566129684448242e+00,1.245486497879028320e+00,1.245406746864318848e+00,1.245326995849609375e+00,1.245247364044189453e+00,1.245167613029479980e+00,1.245087981224060059e+00,1.245008349418640137e+00,1.244928598403930664e+00,1.244848966598510742e+00,1.244769334793090820e+00,1.244689822196960449e+00,1.244610190391540527e+00,1.244530558586120605e+00,1.244450926780700684e+00,1.244371414184570312e+00,1.244291782379150391e+00,1.244212269783020020e+00,1.244132757186889648e+00,1.244053125381469727e+00,1.243973612785339355e+00,1.243894100189208984e+00,1.243814587593078613e+00,1.243735194206237793e+00,1.243655562400817871e+00,1.243576169013977051e+00,1.243496656417846680e+00,1.243417263031005859e+00,1.243337750434875488e+00,1.243258237838745117e+00,1.243178844451904297e+00,1.243099451065063477e+00,1.243020057678222656e+00,1.242940664291381836e+00,1.242861270904541016e+00,1.242781877517700195e+00,1.242702484130859375e+00,1.242623209953308105e+00,1.242543816566467285e+00,1.242464423179626465e+00
1.162325263023376465e+00,1.162255883216857910e+00,1.162186384201049805e+00,1.162117004394531250e+00,1.162047624588012695e+00,1.161978244781494141e+00,1.161908864974975586e+00,1.161839365959167480e+00,1.161769986152648926e+00,1.161700725555419922e+00,1.161631345748901367e+00,1.161562085151672363e+00,1.161492705345153809e+00,1.161423325538635254e+00,1.161354064941406250e+00,1.161284685134887695e+00,1.161215424537658691e+00,1.161146163940429688e+00,1.161076784133911133e+00,1.161007523536682129e+00,1.160938262939453125e+00,1.160869002342224121e+00,1.160799860954284668e+00,1.160730481147766113e+00,1.160661339759826660e+00,1.160592079162597656e+00,1.160522937774658203e+00,1.160453677177429199e+00,1.160384416580200195e+00,1.160315275192260742e+00,1.160246014595031738e+00,1.160176873207092285e+00,1.160107731819152832e+00,1.160038471221923828e+00,1.159969329833984375e+00,1.159900307655334473e+00,1.159831166267395020e+00,1.159762024879455566e+00,1.159692883491516113e+00,1.159623742103576660e+00,1.159554600715637207e+00,1.159485578536987305e+00,1.159416556358337402e+00,1.159347414970397949e+00,1.159278273582458496e+00,1.159209251403808594e+00,1.159140229225158691e+00,1.159071207046508789e+00,1.159002184867858887e+00,1.158933043479919434e+00,1.158864021301269531e+00,1.158795118331909180e+00,1.158726096153259277e+00,1.158657073974609375e+00,1.158588051795959473e+00,1.158519029617309570e+00,1.158450126647949219e+00,1.158381223678588867e+00,1.158312201499938965e+00,1.158243298530578613e+00,1.158174276351928711e+00,1.158105373382568359e+00,1.158036470413208008e+00,1.157967567443847656e+00,1.157898664474487305e+00,1.157829761505126953e+00,1.157760858535766602e+00,1.157692074775695801e+00,1.157623171806335449e+00,1.157554268836975098e+00,1.157485365867614746e+00,1.157416582107543945e+00,1.157347798347473145e+00,1.157278895378112793e+00,1.157210111618041992e+00,1.157141208648681641e+00,1.157072424888610840e+00,1.157003641128540039e+00,1.156934857368469238e+00,1.156866073608398438e+00
1.087078571319580078e+00,1.087017893791198730e+00,1.086957097053527832e+00,1.086896419525146484e+00,1.086835622787475586e+00,1.086774945259094238e+00,1.086714267730712891e+00,1.086653590202331543e+00,1.086592912673950195e+00,1.086532235145568848e+00,1.086471557617187500e+00,1.086410999298095703e+00,1.086350321769714355e+00,1.086289644241333008e+00,1.086228966712951660e+00,1.086168408393859863e+00,1.086107730865478516e+00,1.086047172546386719e+00,1.085986495018005371e+00,1.085925936698913574e+00,1.085865259170532227e+00,1.085804700851440430e+00,1.085744142532348633e+00,1.085683584213256836e+00,1.085623025894165039e+00,1.085562467575073242e+00,1.085501909255981445e+00,1.085441350936889648e+00,1.085380792617797852e+00,1.085320234298706055e+00,1.085259675979614258e+00,1.085199236869812012e+00,1.085138678550720215e+00,1.085078239440917969e+00,1.085017681121826172e+00,1.084957122802734375e+00,1.084896683692932129e+00,1.084836244583129883e+00,1.084775805473327637e+00,1.084715247154235840e+00,1.084654688835144043e+00,1.084594249725341797e+00,1.084533810615539551e+00,1.084473490715026855e+00,1.084412932395935059e+00,1.084352493286132812e+00,1.084292173385620117e+00,1.084231734275817871e+00,1.084171295166015625e+00,1.084110975265502930e+00,1.084050536155700684e+00,1.083990097045898438e+00,1.083929777145385742e+00,1.083869338035583496e+00,1.083809018135070801e+00,1.083748579025268555e+00,1.083688259124755859e+00,1.083627939224243164e+00,1.083567619323730469e+00,1.083507299423217773e+00,1.083446860313415527e+00,1.083386540412902832e+00,1.083326339721679688e+00,1.083266019821166992e+00,1.083205699920654297e+00,1.083145380020141602e+00,1.083085060119628906e+00,1.083024859428405762e+00,1.082964539527893066e+00,1.082904338836669922e+00,1.082844018936157227e+00,1.082783699035644531e+00,1.082723498344421387e+00,1.082663297653198242e+00,1.082603096961975098e+00,1.082542777061462402e+00,1.082482576370239258e+00,1.082422375679016113e+00,1.082362174987792969e+00,1.082301974296569824e+00
1.020982146263122559e+00,1.020928621292114258e+00,1.020875096321105957e+00,1.020821571350097656e+00,1.020767927169799805e+00,1.020714402198791504e+00,1.020660877227783203e+00,1.020607352256774902e+00,1.020553827285766602e+00,1.020500302314758301e+00,1.020446777343750000e+00,1.020393252372741699e+00,1.020339727401733398e+00,1.020286321640014648e+00,1.020232677459716797e+00,1.020179271697998047e+00,1.020125746726989746e+00,1.020072340965270996e+00,1.020018815994262695e+00,1.019965291023254395e+00,1.019911885261535645e+00,1.019858479499816895e+00,1.019805073738098145e+00,1.019751548767089844e+00,1.019698143005371094e+00,1.019644618034362793e+00,1.019591212272644043e+00,1.019537806510925293e+00,1.019484400749206543e+00,1.019430994987487793e+00,1.019377589225769043e+00,1.019324183464050293e+00,1.019270777702331543e+00,1.019217491149902344e+00,1.019164085388183594e+00,1.019110679626464844e+00,1.019057273864746094e+00,1.019003987312316895e+00,1.018950581550598145e+00,1.018897294998168945e+00,1.018843889236450195e+00,1.018790483474731445e+00,1.018737196922302246e+00,1.018683910369873047e+00,1.018630623817443848e+00,1.018577218055725098e+00,1.018523931503295898e+00,1.018470644950866699e+00,1.018417358398437500e+00,1.018364071846008301e+00,1.018310666084289551e+00,1.018257379531860352e+00,1.018204092979431152e+00,1.018150925636291504e+00,1.018097639083862305e+00,1.018044352531433105e+00,1.017991065979003906e+00,1.017937779426574707e+00,1.017884612083435059e+00,1.017831325531005859e+00,1.017778158187866211e+00,1.017724871635437012e+00,1.017671585083007812e+00,1.017618417739868164e+00,1.017565250396728516e+00,1.017511963844299316e+00,1.017458796501159668e+00,1.017405629158020020e+00,1.017352342605590820e+00,1.017299175262451172e+00,1.017246007919311523e+00,1.017192840576171875e+00,1.017139673233032227e+00,1.017086505889892578e+00,1.017033338546752930e+00,1.016980171203613281e+00,1.016927003860473633e+00,1.016873955726623535e+00,1.016820788383483887e+00,1.016767621040344238e+00
9.624626636505126953e-01,9.624150991439819336e-01,9.623674750328063965e-01,9.623199105262756348e-01,9.622723460197448730e-01,9.622247219085693359e-01,9.621771574020385742e-01,9.621295928955078125e-01,9.620820879936218262e-01,9.620344042778015137e-01,9.619868397712707520e-01,9.619393348693847656e-01,9.618917703628540039e-01,9.618442058563232422e-01,9.617967009544372559e-01,9.617491960525512695e-01,9.617016315460205078e-01,9.616541266441345215e-01,9.616066217422485352e-01,9.615591168403625488e-01,9.615114927291870117e-01,9.614639878273010254e-01,9.614165425300598145e-01,9.613690376281738281e-01,9.613215327262878418e-01,9.612740874290466309e-01,9.612265825271606445e-01,9.611791372299194336e-01,9.611316919326782227e-01,9.610841870307922363e-01,9.610366225242614746e-01,9.609891772270202637e-01,9.609417319297790527e-01,9.608942866325378418e-01,9.608468413352966309e-01,9.607994556427001953e-01,9.607520103454589844e-01,9.607045650482177734e-01,9.606571793556213379e-01,9.606097340583801270e-01,9.605622291564941406e-01,9.605148434638977051e-01,9.604673981666564941e-01,9.604200124740600586e-01,9.603726267814636230e-01,9.603252410888671875e-01,9.602778553962707520e-01,9.602304697036743164e-01,9.601831436157226562e-01,9.601357579231262207e-01,9.600883722305297852e-01,9.600409269332885742e-01,9.599936008453369141e-01,9.599462151527404785e-01,9.598988890647888184e-01,9.598515629768371582e-01,9.598042368888854980e-01,9.597568511962890625e-01,9.597095251083374023e-01,9.596622586250305176e-01,9.596149325370788574e-01,9.595674872398376465e-01,9.595201611518859863e-01,9.594728946685791016e-01,9.594255685806274414e-01,9.593783020973205566e-01,9.593310356140136719e-01,9.592837095260620117e-01,9.592364430427551270e-01,9.591891765594482422e-01,9.591419100761413574e-01,9.590946435928344727e-01,9.590472579002380371e-01,9.589999914169311523e-01,9.589527845382690430e-01,9.589055180549621582e-01,9.588582515716552734e-01,9.588110446929931641e-01,9.587638378143310547e-01,9.587165713310241699e-01
9.102877974510192871e-01,9.102452397346496582e-01,9.102026820182800293e-01,9.101601243019104004e-01,9.101175665855407715e-01,9.100750088691711426e-01,9.100324511528015137e-01,9.099898934364318848e-01,9.099473357200622559e-01,9.099047780036926270e-01,9.098621606826782227e-01,9.098196029663085938e-01,9.097771048545837402e-01,9.097346067428588867e-01,9.096920490264892578e-01,9.096495509147644043e-01,9.096070528030395508e-01,9.095645546913146973e-01,9.095219969749450684e-01,9.094794988632202148e-01,9.094369411468505859e-01,9.093944430351257324e-01,9.093519449234008789e-01,9.093094468116760254e-01,9.092669486999511719e-01,9.092245101928710938e-01,9.091820120811462402e-01,9.091395735740661621e-01,9.090970754623413086e-01,9.090546369552612305e-01,9.090121984481811523e-01,9.089696407318115234e-01,9.089272022247314453e-01,9.088847041130065918e-01,9.088422656059265137e-01,9.087998867034912109e-01,9.087574481964111328e-01,9.087150096893310547e-01,9.086725711822509766e-01,9.086301326751708984e-01,9.085877537727355957e-01,9.085451960563659668e-01,9.085028171539306641e-01,9.084603786468505859e-01,9.084179997444152832e-01,9.083756208419799805e-01,9.083332419395446777e-01,9.082908034324645996e-01,9.082484245300292969e-01,9.082060456275939941e-01,9.081636667251586914e-01,9.081212282180786133e-01,9.080788493156433105e-01,9.080364704132080078e-01,9.079940915107727051e-01,9.079517722129821777e-01,9.079093933105468750e-01,9.078670740127563477e-01,9.078246951103210449e-01,9.077823758125305176e-01,9.077400565147399902e-01,9.076976776123046875e-01,9.076552391052246094e-01,9.076129198074340820e-01,9.075706005096435547e-01,9.075282812118530273e-01,9.074859619140625000e-01,9.074437022209167480e-01,9.074013829231262207e-01,9.073590636253356934e-01,9.073167443275451660e-01,9.072744846343994141e-01,9.072321057319641113e-01,9.071897864341735840e-01,9.071475267410278320e-01,9.071052670478820801e-01,9.070629477500915527e-01,9.070206880569458008e-01,9.069784283638000488e-01,9.069361686706542969e-01
