5.000000000000000000e+00,5.000000000000000000e+00,5.000000000000000000e+00,5.000000000000000000e+00,5.000000000000000000e+00,5.000000000000000000e+00,5.000000000000000000e+00,5.000000000000000000e+00,5.000000000000000000e+00,5.000000000000000000e+00,5.000000000000000000e+00,5.000000000000000000e+00,5.000000000000000000e+00,5.000000000000000000e+00,5.000000000000000000e+00,5.000000000000000000e+00,5.000000000000000000e+00,5.000000000000000000e+00,5.000000000000000000e+00,5.000000000000000000e+00,5.000000000000000000e+00,5.000000000000000000e+00,5.000000000000000000e+00,5.000000000000000000e+00,5.000000000000000000e+00,5.000000000000000000e+00,5.000000000000000000e+00,5.000000000000000000e+00,5.000000000000000000e+00,5.000000000000000000e+00,5.000000000000000000e+00,5.000000000000000000e+00,5.000000000000000000e+00,5.000000000000000000e+00,5.000000000000000000e+00,5.000000000000000000e+00,5.000000000000000000e+00,5.000000000000000000e+00,5.000000000000000000e+00,5.000000000000000000e+00,5.000000000000000000e+00,5.000000000000000000e+00,5.000000000000000000e+00,4.168151855468750000e+00,4.027085304260253906e+00,3.895255565643310547e+00,3.771782636642456055e+00,3.655897378921508789e+00,3.546920537948608398e+00,3.444252490997314453e+00,3.347360610961914062e+00,3.255771398544311523e+00,3.169060468673706055e+00,3.086848735809326172e+00,3.008794546127319336e+00,2.934590339660644531e+00,2.863958120346069336e+00,2.796646118164062500e+00,2.732425451278686523e+00,2.671088218688964844e+00,2.612444400787353516e+00,2.556319952011108398e+00,2.502556324005126953e+00,2.451007843017578125e+00,2.401540040969848633e+00,2.354029417037963867e+00,2.308362007141113281e+00,2.264433145523071289e+00,2.222144842147827148e+00,2.181406974792480469e+00,2.142135858535766602e+00,2.104254007339477539e+00,2.067688226699829102e+00,2.032371997833251953e+00,1.998241782188415527e+00,1.965238809585571289e+00,1.933308482170104980e+00,1.902398943901062012e+00,1.872462272644042969e+00,1.843453168869018555e+00
5.000000000000000000e+00,5.000000000000000000e+00,5.000000000000000000e+00,5.000000000000000000e+00,5.000000000000000000e+00,5.000000000000000000e+00,5.000000000000000000e+00,5.000000000000000000e+00,5.000000000000000000e+00,5.000000000000000000e+00,5.000000000000000000e+00,5.000000000000000000e+00,5.000000000000000000e+00,5.000000000000000000e+00,5.000000000000000000e+00,5.000000000000000000e+00,5.000000000000000000e+00,5.000000000000000000e+00,5.000000000000000000e+00,5.000000000000000000e+00,5.000000000000000000e+00,5.000000000000000000e+00,5.000000000000000000e+00,5.000000000000000000e+00,5.000000000000000000e+00,5.000000000000000000e+00,5.000000000000000000e+00,5.000000000000000000e+00,5.000000000000000000e+00,5.000000000000000000e+00,5.000000000000000000e+00,5.000000000000000000e+00,5.000000000000000000e+00,5.000000000000000000e+00,5.000000000000000000e+00,5.000000000000000000e+00,5.000000000000000000e+00,5.000000000000000000e+00,5.000000000000000000e+00,5.000000000000000000e+00,5.000000000000000000e+00,5.000000000000000000e+00,4.319569587707519531e+00,4.168254375457763672e+00,4.027181148529052734e+00,3.895344495773315430e+00,3.771866321563720703e+00,3.655975818634033203e+00,3.546994447708129883e+00,3.444322109222412109e+00,3.347426652908325195e+00,3.255833864212036133e+00,3.169119834899902344e+00,3.086905002593994141e+00,3.008847951889038086e+00,2.934641122817993164e+00,2.864006519317626953e+00,2.796692371368408203e+00,2.732469558715820312e+00,2.671130418777465820e+00,2.612484455108642578e+00,2.556358337402343750e+00,2.502593278884887695e+00,2.451043128967285156e+00,2.401573896408081055e+00,2.354062080383300781e+00,2.308393478393554688e+00,2.264463424682617188e+00,2.222173929214477539e+00,2.181435108184814453e+00,2.142163038253784180e+00,2.104279994964599609e+00,2.067713499069213867e+00,2.032396316528320312e+00,1.998265266418457031e+00,1.965261578559875488e+00,1.933330535888671875e+00,1.902420282363891602e+00,1.872482776641845703e+00,1.843473196029663086e+00
5.000000000000000000e+00,5.000000000000000000e+00,5.000000000000000000e+00,5.000000000000000000e+00,5.000000000000000000e+00,5.000000000000000000e+00,5.000000000000000000e+00,5.000000000000000000e+00,5.000000000000000000e+00,5.000000000000000000e+00,5.000000000000000000e+00,5.000000000000000000e+00,5.000000000000000000e+00,5.000000000000000000e+00,5.000000000000000000e+00,5.000000000000000000e+00,5.000000000000000000e+00,5.000000000000000000e+00,5.000000000000000000e+00,5.000000000000000000e+00,5.000000000000000000e+00,5.000000000000000000e+00,5.000000000000000000e+00,5.000000000000000000e+00,5.000000000000000000e+00,5.000000000000000000e+00,5.000000000000000000e+00,5.000000000000000000e+00,5.000000000000000000e+00,5.000000000000000000e+00,5.000000000000000000e+00,5.000000000000000000e+00,5.000000000000000000e+00,5.000000000000000000e+00,5.000000000000000000e+00,5.000000000000000000e+00,5.000000000000000000e+00,5.000000000000000000e+00,5.000000000000000000e+00,5.000000000000000000e+00,5.000000000000000000e+00,4.482403278350830078e+00,4.319679737091064453e+00,4.168356418609619141e+00,4.027276515960693359e+00,3.895434141159057617e+00,3.771950244903564453e+00,3.656054496765136719e+00,3.547068595886230469e+00,3.444392204284667969e+00,3.347492933273315430e+00,3.255896568298339844e+00,3.169179201126098633e+00,3.086961269378662109e+00,3.008901357650756836e+00,2.934692144393920898e+00,2.864054679870605469e+00,2.796738147735595703e+00,2.732513427734375000e+00,2.671172142028808594e+00,2.612524747848510742e+00,2.556396961212158203e+00,2.502630233764648438e+00,2.451078653335571289e+00,2.401607751846313477e+00,2.354094743728637695e+00,2.308424949645996094e+00,2.264493703842163086e+00,2.222203016281127930e+00,2.181463241577148438e+00,2.142189979553222656e+00,2.104306221008300781e+00,2.067738533020019531e+00,2.032420635223388672e+00,1.998288631439208984e+00,1.965284466743469238e+00,1.933352351188659668e+00,1.902441620826721191e+00,1.872503519058227539e+00,1.843493223190307617e+00
5.000000000000000000e+00,5.000000000000000000e+00,5.000000000000000000e+00,5.000000000000000000e+00,5.000000000000000000e+00,5.000000000000000000e+00,5.000000000000000000e+00,5.000000000000000000e+00,5.000000000000000000e+00,5.000000000000000000e+00,5.000000000000000000e+00,5.000000000000000000e+00,5.000000000000000000e+00,5.000000000000000000e+00,5.000000000000000000e+00,5.000000000000000000e+00,5.000000000000000000e+00,5.000000000000000000e+00,5.000000000000000000e+00,5.000000000000000000e+00,5.000000000000000000e+00,5.000000000000000000e+00,5.000000000000000000e+00,5.000000000000000000e+00,5.000000000000000000e+00,5.000000000000000000e+00,5.000000000000000000e+00,5.000000000000000000e+00,5.000000000000000000e+00,5.000000000000000000e+00,5.000000000000000000e+00,5.000000000000000000e+00,5.000000000000000000e+00,5.000000000000000000e+00,5.000000000000000000e+00,5.000000000000000000e+00,5.000000000000000000e+00,5.000000000000000000e+00,5.000000000000000000e+00,5.000000000000000000e+00,4.657994747161865234e+00,4.482522010803222656e+00,4.319789409637451172e+00,4.168458938598632812e+00,4.027371883392333984e+00,3.895523548126220703e+00,3.772034168243408203e+00,3.656133413314819336e+00,3.547142982482910156e+00,3.444462299346923828e+00,3.347558975219726562e+00,3.255958795547485352e+00,3.169238090515136719e+00,3.087017059326171875e+00,3.008954524993896484e+00,2.934742689132690430e+00,2.864103078842163086e+00,2.796784400939941406e+00,2.732557535171508789e+00,2.671214342117309570e+00,2.612564802169799805e+00,2.556435585021972656e+00,2.502667188644409180e+00,2.451113939285278320e+00,2.401641845703125000e+00,2.354127407073974609e+00,2.308456420898437500e+00,2.264523744583129883e+00,2.222232103347778320e+00,2.181491136550903320e+00,2.142216920852661133e+00,2.104332208633422852e+00,2.067763805389404297e+00,2.032444953918457031e+00,1.998312234878540039e+00,1.965307235717773438e+00,1.933374404907226562e+00,1.902462959289550781e+00,1.872524142265319824e+00,1.843513369560241699e+00
5.000000000000000000e+00,5.000000000000000000e+00,5.000000000000000000e+00,5.000000000000000000e+00,5.000000000000000000e+00,5.000000000000000000e+00,5.000000000000000000e+00,5.000000000000000000e+00,5.000000000000000000e+00,5.000000000000000000e+00,5.000000000000000000e+00,5.000000000000000000e+00,5.000000000000000000e+00,5.000000000000000000e+00,5.000000000000000000e+00,5.000000000000000000e+00,5.000000000000000000e+00,5.000000000000000000e+00,5.000000000000000000e+00,5.000000000000000000e+00,5.000000000000000000e+00,5.000000000000000000e+00,5.000000000000000000e+00,5.000000000000000000e+00,5.000000000000000000e+00,5.000000000000000000e+00,5.000000000000000000e+00,5.000000000000000000e+00,5.000000000000000000e+00,5.000000000000000000e+00,5.000000000000000000e+00,5.000000000000000000e+00,5.000000000000000000e+00,5.000000000000000000e+00,5.000000000000000000e+00,5.000000000000000000e+00,5.000000000000000000e+00,5.000000000000000000e+00,5.000000000000000000e+00,4.847903728485107422e+00,4.658122062683105469e+00,4.482640266418457031e+00,4.319899559020996094e+00,4.168561458587646484e+00,4.027467727661132812e+00,3.895613193511962891e+00,3.772118091583251953e+00,3.656211853027343750e+00,3.547216892242431641e+00,3.444531917572021484e+00,3.347624778747558594e+00,3.256021261215209961e+00,3.169297456741333008e+00,3.087073326110839844e+00,3.009007930755615234e+00,2.934793472290039062e+00,2.864151477813720703e+00,2.796830415725708008e+00,2.732601642608642578e+00,2.671256542205810547e+00,2.612605094909667969e+00,2.556473970413208008e+00,2.502704143524169922e+00,2.451149225234985352e+00,2.401675701141357422e+00,2.354160070419311523e+00,2.308487653732299805e+00,2.264554023742675781e+00,2.222261190414428711e+00,2.181519269943237305e+00,2.142244100570678711e+00,2.104358196258544922e+00,2.067789077758789062e+00,2.032469272613525391e+00,1.998335719108581543e+00,1.965330004692077637e+00,1.933396458625793457e+00,1.902484297752380371e+00,1.872544884681701660e+00,1.843533158302307129e+00
5.000000000000000000e+00,5.000000000000000000e+00,5.000000000000000000e+00,5.000000000000000000e+00,5.000000000000000000e+00,5.000000000000000000e+00,5.000000000000000000e+00,5.000000000000000000e+00,5.000000000000000000e+00,5.000000000000000000e+00,5.000000000000000000e+00,5.000000000000000000e+00,5.000000000000000000e+00,5.000000000000000000e+00,5.000000000000000000e+00,5.000000000000000000e+00,5.000000000000000000e+00,5.000000000000000000e+00,5.000000000000000000e+00,5.000000000000000000e+00,5.000000000000000000e+00,5.000000000000000000e+00,5.000000000000000000e+00,5.000000000000000000e+00,5.000000000000000000e+00,5.000000000000000000e+00,5.000000000000000000e+00,5.000000000000000000e+00,5.000000000000000000e+00,5.000000000000000000e+00,5.000000000000000000e+00,5.000000000000000000e+00,5.000000000000000000e+00,5.000000000000000000e+00,5.000000000000000000e+00,5.000000000000000000e+00,5.000000000000000000e+00,5.000000000000000000e+00,5.000000000000000000e+00,4.848042488098144531e+00,4.658250331878662109e+00,4.482758522033691406e+00,4.320009231567382812e+00,4.168663501739501953e+00,4.027563095092773438e+00,3.895702362060546875e+00,3.772201538085937500e+00,3.656290769577026367e+00,3.547291040420532227e+00,3.444601774215698242e+00,3.347690820693969727e+00,3.256083965301513672e+00,3.169356584548950195e+00,3.087129592895507812e+00,3.009061336517333984e+00,2.934844255447387695e+00,2.864199876785278320e+00,2.796876668930053711e+00,2.732645511627197266e+00,2.671298265457153320e+00,2.612645149230957031e+00,2.556512355804443359e+00,2.502740859985351562e+00,2.451184749603271484e+00,2.401709794998168945e+00,2.354192733764648438e+00,2.308519124984741211e+00,2.264584302902221680e+00,2.222290277481079102e+00,2.181547164916992188e+00,2.142271280288696289e+00,2.104384422302246094e+00,2.067814350128173828e+00,2.032493829727172852e+00,1.998359322547912598e+00,1.965352535247802734e+00,1.933418512344360352e+00,1.902505517005920410e+00,1.872565627098083496e+00,1.843553185462951660e+00
5.000000000000000000e+00,5.000000000000000000e+00,5.000000000000000000e+00,5.000000000000000000e+00,5.000000000000000000e+00,5.000000000000000000e+00,5.000000000000000000e+00,5.000000000000000000e+00,5.000000000000000000e+00,5.000000000000000000e+00,5.000000000000000000e+00,5.000000000000000000e+00,5.000000000000000000e+00,5.000000000000000000e+00,5.000000000000000000e+00,5.000000000000000000e+00,5.000000000000000000e+00,5.000000000000000000e+00,5.000000000000000000e+00,5.000000000000000000e+00,5.000000000000000000e+00,5.000000000000000000e+00,5.000000000000000000e+00,5.000000000000000000e+00,5.000000000000000000e+00,5.000000000000000000e+00,5.000000000000000000e+00,5.000000000000000000e+00,5.000000000000000000e+00,5.000000000000000000e+00,5.000000000000000000e+00,5.000000000000000000e+00,5.000000000000000000e+00,5.000000000000000000e+00,5.000000000000000000e+00,5.000000000000000000e+00,5.000000000000000000e+00,5.000000000000000000e+00,5.000000000000000000e+00,4.848180770874023438e+00,4.658378124237060547e+00,4.482876777648925781e+00,4.320119380950927734e+00,4.168766021728515625e+00,4.027658939361572266e+00,3.895791769027709961e+00,3.772285699844360352e+00,3.656369686126708984e+00,3.547365188598632812e+00,3.444671869277954102e+00,3.347757101058959961e+00,3.256146430969238281e+00,3.169415950775146484e+00,3.087185621261596680e+00,3.009114503860473633e+00,2.934894800186157227e+00,2.864248037338256836e+00,2.796922683715820312e+00,2.732689380645751953e+00,2.671340465545654297e+00,2.612685441970825195e+00,2.556550979614257812e+00,2.502777814865112305e+00,2.451220273971557617e+00,2.401743888854980469e+00,2.354225397109985352e+00,2.308550596237182617e+00,2.264614582061767578e+00,2.222319364547729492e+00,2.181575298309326172e+00,2.142298221588134766e+00,2.104410409927368164e+00,2.067839384078979492e+00,2.032517910003662109e+00,1.998382925987243652e+00,1.965375304222106934e+00,1.933440566062927246e+00,1.902526855468750000e+00,1.872586250305175781e+00,1.843573331832885742e+00
5.000000000000000000e+00,5.000000000000000000e+00,5.000000000000000000e+00,5.000000000000000000e+00,5.000000000000000000e+00,5.000000000000000000e+00,5.000000000000000000e+00,5.000000000000000000e+00,5.000000000000000000e+00,5.000000000000000000e+00,5.000000000000000000e+00,5.000000000000000000e+00,5.000000000000000000e+00,5.000000000000000000e+00,5.000000000000000000e+00,5.000000000000000000e+00,5.000000000000000000e+00,5.000000000000000000e+00,5.000000000000000000e+00,5.000000000000000000e+00,5.000000000000000000e+00,5.000000000000000000e+00,5.000000000000000000e+00,5.000000000000000000e+00,5.000000000000000000e+00,5.000000000000000000e+00,5.000000000000000000e+00,5.000000000000000000e+00,5.000000000000000000e+00,5.000000000000000000e+00,5.000000000000000000e+00,5.000000000000000000e+00,5.000000000000000000e+00,5.000000000000000000e+00,5.000000000000000000e+00,5.000000000000000000e+00,5.000000000000000000e+00,5.000000000000000000e+00,5.000000000000000000e+00,4.848319530487060547e+00,4.658505916595458984e+00,4.482995033264160156e+00,4.320229530334472656e+00,4.168868541717529297e+00,4.027754306793212891e+00,3.895881414413452148e+00,3.772369623184204102e+00,3.656448602676391602e+00,3.547439098358154297e+00,3.444741487503051758e+00,3.347822904586791992e+00,3.256208658218383789e+00,3.169474840164184570e+00,3.087241888046264648e+00,3.009168148040771484e+00,2.934945583343505859e+00,2.864296674728393555e+00,2.796968698501586914e+00,2.732733488082885742e+00,2.671382665634155273e+00,2.612725734710693359e+00,2.556589603424072266e+00,2.502814769744873047e+00,2.451255559921264648e+00,2.401777744293212891e+00,2.354257822036743164e+00,2.308581829071044922e+00,2.264644622802734375e+00,2.222348451614379883e+00,2.181603193283081055e+00,2.142325162887573242e+00,2.104436635971069336e+00,2.067864656448364258e+00,2.032542467117309570e+00,1.998406529426574707e+00,1.965398192405700684e+00,1.933462619781494141e+00,1.902548193931579590e+00,1.872606992721557617e+00,1.843593358993530273e+00
5.000000000000000000e+00,5.000000000000000000e+00,5.000000000000000000e+00,5.000000000000000000e+00,5.000000000000000000e+00,5.000000000000000000e+00,5.000000000000000000e+00,5.000000000000000000e+00,5.000000000000000000e+00,5.000000000000000000e+00,5.000000000000000000e+00,5.000000000000000000e+00,5.000000000000000000e+00,5.000000000000000000e+00,5.000000000000000000e+00,5.000000000000000000e+00,5.000000000000000000e+00,5.000000000000000000e+00,5.000000000000000000e+00,5.000000000000000000e+00,5.000000000000000000e+00,5.000000000000000000e+00,5.000000000000000000e+00,5.000000000000000000e+00,5.000000000000000000e+00,5.000000000000000000e+00,5.000000000000000000e+00,5.000000000000000000e+00,5.000000000000000000e+00,5.000000000000000000e+00,5.000000000000000000e+00,5.000000000000000000e+00,5.000000000000000000e+00,5.000000000000000000e+00,5.000000000000000000e+00,5.000000000000000000e+00,5.000000000000000000e+00,5.000000000000000000e+00,5.000000000000000000e+00,4.848457813262939453e+00,4.658633708953857422e+00,4.483113765716552734e+00,4.320339202880859375e+00,4.168970584869384766e+00,4.027850151062011719e+00,3.895970582962036133e+00,3.772453069686889648e+00,3.656527042388916016e+00,3.547513484954833984e+00,3.444811582565307617e+00,3.347888946533203125e+00,3.256271362304687500e+00,3.169534206390380859e+00,3.087298154830932617e+00,3.009221553802490234e+00,2.934996604919433594e+00,2.864345073699951172e+00,2.797014951705932617e+00,2.732777595520019531e+00,2.671424388885498047e+00,2.612765789031982422e+00,2.556627988815307617e+00,2.502851486206054688e+00,2.451290845870971680e+00,2.401811838150024414e+00,2.354290723800659180e+00,2.308613300323486328e+00,2.264674901962280273e+00,2.222377538681030273e+00,2.181631326675415039e+00,2.142352342605590820e+00,2.104462623596191406e+00,2.067889928817749023e+00,2.032566785812377930e+00,1.998430013656616211e+00,1.965420961380004883e+00,1.933484435081481934e+00,1.902569532394409180e+00,1.872627496719360352e+00,1.843613386154174805e+00
5.000000000000000000e+00,5.000000000000000000e+00,5.000000000000000000e+00,5.000000000000000000e+00,5.000000000000000000e+00,5.000000000000000000e+00,5.000000000000000000e+00,5.000000000000000000e+00,5.000000000000000000e+00,5.000000000000000000e+00,5.000000000000000000e+00,5.000000000000000000e+00,5.000000000000000000e+00,5.000000000000000000e+00,5.000000000000000000e+00,5.000000000000000000e+00,5.000000000000000000e+00,5.000000000000000000e+00,5.000000000000000000e+00,5.000000000000000000e+00,5.000000000000000000e+00,5.000000000000000000e+00,5.000000000000000000e+00,5.000000000000000000e+00,5.000000000000000000e+00,5.000000000000000000e+00,5.000000000000000000e+00,5.000000000000000000e+00,5.000000000000000000e+00,5.000000000000000000e+00,5.000000000000000000e+00,5.000000000000000000e+00,5.000000000000000000e+00,5.000000000000000000e+00,5.000000000000000000e+00,5.000000000000000000e+00,5.000000000000000000e+00,5.000000000000000000e+00,5.000000000000000000e+00,4.848596096038818359e+00,4.658761501312255859e+00,4.483232021331787109e+00,4.320449352264404297e+00,4.169073104858398438e+00,4.027945518493652344e+00,3.896060228347778320e+00,3.772536993026733398e+00,3.656605958938598633e+00,3.547587633132934570e+00,3.444881677627563477e+00,3.347955226898193359e+00,3.256333827972412109e+00,3.169593334197998047e+00,3.087354183197021484e+00,3.009274959564208984e+00,2.935047149658203125e+00,2.864393234252929688e+00,2.797060728073120117e+00,2.732821464538574219e+00,2.671466588973999023e+00,2.612806081771850586e+00,2.556666612625122070e+00,2.502888441085815430e+00,2.451326370239257812e+00,2.401845693588256836e+00,2.354323387145996094e+00,2.308644771575927734e+00,2.264705181121826172e+00,2.222406625747680664e+00,2.181659460067749023e+00,2.142379522323608398e+00,2.104488611221313477e+00,2.067914962768554688e+00,2.032591104507446289e+00,1.998453378677368164e+00,1.965443730354309082e+00,1.933506488800048828e+00,1.902590870857238770e+00,1.872648119926452637e+00,1.843633413314819336e+00
5.000000000000000000e+00,5.000000000000000000e+00,5.000000000000000000e+00,5.000000000000000000e+00,5.000000000000000000e+00,5.000000000000000000e+00,5.000000000000000000e+00,5.000000000000000000e+00,5.000000000000000000e+00,5.000000000000000000e+00,5.000000000000000000e+00,5.000000000000000000e+00,5.000000000000000000e+00,5.000000000000000000e+00,5.000000000000000000e+00,5.000000000000000000e+00,5.000000000000000000e+00,5.000000000000000000e+00,5.000000000000000000e+00,5.000000000000000000e+00,5.000000000000000000e+00,5.000000000000000000e+00,5.000000000000000000e+00,5.000000000000000000e+00,5.000000000000000000e+00,5.000000000000000000e+00,5.000000000000000000e+00,5.000000000000000000e+00,5.000000000000000000e+00,5.000000000000000000e+00,5.000000000000000000e+00,5.000000000000000000e+00,5.000000000000000000e+00,5.000000000000000000e+00,5.000000000000000000e+00,5.000000000000000000e+00,5.000000000000000000e+00,5.000000000000000000e+00,5.000000000000000000e+00,4.848734855651855469e+00,4.658889770507812500e+00,4.483350753784179688e+00,4.320559024810791016e+00,4.169175624847412109e+00,4.028041362762451172e+00,3.896149635314941406e+00,3.772621154785156250e+00,3.656684875488281250e+00,3.547662019729614258e+00,3.444951534271240234e+00,3.348021030426025391e+00,3.256396055221557617e+00,3.169652462005615234e+00,3.087410211563110352e+00,3.009328126907348633e+00,2.935097932815551758e+00,2.864441633224487305e+00,2.797106981277465820e+00,2.732865571975708008e+00,2.671508789062500000e+00,2.612846374511718750e+00,2.556704998016357422e+00,2.502925395965576172e+00,2.451361894607543945e+00,2.401879787445068359e+00,2.354356050491333008e+00,2.308676004409790039e+00,2.264735221862792969e+00,2.222435712814331055e+00,2.181687355041503906e+00,2.142406463623046875e+00,2.104514837265014648e+00,2.067940235137939453e+00,2.032615423202514648e+00,1.998476982116699219e+00,1.965466499328613281e+00,1.933528661727905273e+00,1.902612328529357910e+00,1.872668862342834473e+00,1.843653559684753418e+00
5.000000000000000000e+00,5.000000000000000000e+00,5.000000000000000000e+00,5.000000000000000000e+00,5.000000000000000000e+00,5.000000000000000000e+00,5.000000000000000000e+00,5.000000000000000000e+00,5.000000000000000000e+00,5.000000000000000000e+00,5.000000000000000000e+00,5.000000000000000000e+00,5.000000000000000000e+00,5.000000000000000000e+00,5.000000000000000000e+00,5.000000000000000000e+00,5.000000000000000000e+00,5.000000000000000000e+00,5.000000000000000000e+00,5.000000000000000000e+00,5.000000000000000000e+00,5.000000000000000000e+00,5.000000000000000000e+00,5.000000000000000000e+00,5.000000000000000000e+00,5.000000000000000000e+00,5.000000000000000000e+00,5.000000000000000000e+00,5.000000000000000000e+00,5.000000000000000000e+00,5.000000000000000000e+00,5.000000000000000000e+00,5.000000000000000000e+00,5.000000000000000000e+00,5.000000000000000000e+00,5.000000000000000000e+00,5.000000000000000000e+00,5.000000000000000000e+00,5.000000000000000000e+00,4.848873138427734375e+00,4.659017562866210938e+00,4.483469009399414062e+00,4.320669174194335938e+00,4.169278144836425781e+00,4.028136730194091797e+00,3.896238803863525391e+00,3.772704601287841797e+00,3.656763315200805664e+00,3.547735929489135742e+00,3.445021390914916992e+00,3.348087072372436523e+00,3.256458759307861328e+00,3.169711589813232422e+00,3.087466478347778320e+00,3.009381532669067383e+00,2.935148715972900391e+00,2.864490032196044922e+00,2.797153234481811523e+00,2.732909679412841797e+00,2.671550750732421875e+00,2.612886667251586914e+00,2.556743383407592773e+00,2.502962350845336914e+00,2.451397180557250977e+00,2.401913642883300781e+00,2.354388475418090820e+00,2.308707475662231445e+00,2.264765501022338867e+00,2.222464799880981445e+00,2.181715488433837891e+00,2.142433404922485352e+00,2.104541063308715820e+00,2.067965507507324219e+00,2.032639741897583008e+00,1.998500466346740723e+00,1.965489268302917480e+00,1.933550715446472168e+00,1.902633428573608398e+00,1.872689485549926758e+00,1.843673348426818848e+00
5.000000000000000000e+00,5.000000000000000000e+00,5.000000000000000000e+00,5.000000000000000000e+00,5.000000000000000000e+00,5.000000000000000000e+00,5.000000000000000000e+00,5.000000000000000000e+00,5.000000000000000000e+00,5.000000000000000000e+00,5.000000000000000000e+00,5.000000000000000000e+00,5.000000000000000000e+00,5.000000000000000000e+00,5.000000000000000000e+00,5.000000000000000000e+00,5.000000000000000000e+00,5.000000000000000000e+00,5.000000000000000000e+00,5.000000000000000000e+00,5.000000000000000000e+00,5.000000000000000000e+00,5.000000000000000000e+00,5.000000000000000000e+00,5.000000000000000000e+00,5.000000000000000000e+00,5.000000000000000000e+00,5.000000000000000000e+00,5.000000000000000000e+00,5.000000000000000000e+00,5.000000000000000000e+00,5.000000000000000000e+00,5.000000000000000000e+00,5.000000000000000000e+00,5.000000000000000000e+00,5.000000000000000000e+00,5.000000000000000000e+00,5.000000000000000000e+00,5.000000000000000000e+00,4.849011898040771484e+00,4.659145355224609375e+00,4.483587265014648438e+00,4.320778846740722656e+00,4.169380664825439453e+00,4.028232574462890625e+00,3.896328449249267578e+00,3.772788524627685547e+00,3.656842231750488281e+00,3.547810077667236328e+00,3.445091247558593750e+00,3.348153114318847656e+00,3.256521224975585938e+00,3.169770956039428711e+00,3.087522745132446289e+00,3.009434938430786133e+00,2.935199499130249023e+00,2.864538192749023438e+00,2.797199010848999023e+00,2.732953548431396484e+00,2.671592712402343750e+00,2.612926721572875977e+00,2.556782007217407227e+00,2.502999305725097656e+00,2.451432704925537109e+00,2.401947736740112305e+00,2.354421377182006836e+00,2.308738946914672852e+00,2.264795780181884766e+00,2.222494125366210938e+00,2.181743621826171875e+00,2.142460584640502930e+00,2.104567050933837891e+00,2.067990541458129883e+00,2.032664060592651367e+00,1.998524069786071777e+00,1.965511918067932129e+00,1.933572769165039062e+00,1.902654767036437988e+00,1.872710227966308594e+00,1.843693494796752930e+00
5.000000000000000000e+00,5.000000000000000000e+00,5.000000000000000000e+00,5.000000000000000000e+00,5.000000000000000000e+00,5.000000000000000000e+00,5.000000000000000000e+00,5.000000000000000000e+00,5.000000000000000000e+00,5.000000000000000000e+00,5.000000000000000000e+00,5.000000000000000000e+00,5.000000000000000000e+00,5.000000000000000000e+00,5.000000000000000000e+00,5.000000000000000000e+00,5.000000000000000000e+00,5.000000000000000000e+00,5.000000000000000000e+00,5.000000000000000000e+00,5.000000000000000000e+00,5.000000000000000000e+00,5.000000000000000000e+00,5.000000000000000000e+00,5.000000000000000000e+00,5.000000000000000000e+00,5.000000000000000000e+00,5.000000000000000000e+00,5.000000000000000000e+00,5.000000000000000000e+00,5.000000000000000000e+00,5.000000000000000000e+00,5.000000000000000000e+00,5.000000000000000000e+00,5.000000000000000000e+00,5.000000000000000000e+00,5.000000000000000000e+00,5.000000000000000000e+00,5.000000000000000000e+00,4.849150180816650391e+00,4.659273147583007812e+00,4.483705997467041016e+00,4.320888996124267578e+00,4.169482707977294922e+00,4.028327941894531250e+00,3.896418094635009766e+00,3.772872686386108398e+00,3.656921148300170898e+00,3.547884464263916016e+00,3.445161342620849609e+00,3.348219394683837891e+00,3.256583452224731445e+00,3.169830083847045898e+00,3.087578773498535156e+00,3.009488105773925781e+00,2.935250282287597656e+00,2.864586591720581055e+00,2.797245264053344727e+00,2.732997417449951172e+00,2.671634912490844727e+00,2.612967014312744141e+00,2.556820631027221680e+00,2.503036260604858398e+00,2.451467990875244141e+00,2.401981830596923828e+00,2.354454040527343750e+00,2.308770418167114258e+00,2.264825820922851562e+00,2.222522974014282227e+00,2.181771516799926758e+00,2.142487525939941406e+00,2.104593038558959961e+00,2.068015813827514648e+00,2.032688379287719727e+00,1.998547673225402832e+00,1.965534687042236328e+00,1.933594822883605957e+00,1.902676105499267578e+00,1.872730970382690430e+00,1.843713521957397461e+00
5.000000000000000000e+00,5.000000000000000000e+00,5.000000000000000000e+00,5.000000000000000000e+00,5.000000000000000000e+00,5.000000000000000000e+00,5.000000000000000000e+00,5.000000000000000000e+00,5.000000000000000000e+00,5.000000000000000000e+00,5.000000000000000000e+00,5.000000000000000000e+00,5.000000000000000000e+00,5.000000000000000000e+00,5.000000000000000000e+00,5.000000000000000000e+00,5.000000000000000000e+00,5.000000000000000000e+00,5.000000000000000000e+00,5.000000000000000000e+00,5.000000000000000000e+00,5.000000000000000000e+00,5.000000000000000000e+00,5.000000000000000000e+00,5.000000000000000000e+00,5.000000000000000000e+00,5.000000000000000000e+00,5.000000000000000000e+00,5.000000000000000000e+00,5.000000000000000000e+00,5.000000000000000000e+00,5.000000000000000000e+00,5.000000000000000000e+00,5.000000000000000000e+00,5.000000000000000000e+00,5.000000000000000000e+00,5.000000000000000000e+00,5.000000000000000000e+00,5.000000000000000000e+00,4.849288940429687500e+00,4.659400939941406250e+00,4.483824253082275391e+00,4.320999145507812500e+00,4.169585227966308594e+00,4.028423786163330078e+00,3.896507501602172852e+00,3.772956609725952148e+00,3.656999826431274414e+00,3.547958374023437500e+00,3.445230960845947266e+00,3.348285198211669922e+00,3.256646156311035156e+00,3.169889211654663086e+00,3.087635040283203125e+00,3.009541511535644531e+00,2.935301065444946289e+00,2.864634990692138672e+00,2.797291517257690430e+00,2.733041524887084961e+00,2.671676874160766602e+00,2.613007307052612305e+00,2.556859254837036133e+00,2.503073215484619141e+00,2.451503276824951172e+00,2.402015686035156250e+00,2.354486465454101562e+00,2.308801651000976562e+00,2.264856100082397461e+00,2.222552061080932617e+00,2.181799650192260742e+00,2.142514705657958984e+00,2.104619264602661133e+00,2.068041086196899414e+00,2.032712697982788086e+00,1.998571157455444336e+00,1.965557456016540527e+00,1.933616876602172852e+00,1.902697443962097168e+00,1.872751593589782715e+00,1.843733549118041992e+00
5.000000000000000000e+00,5.000000000000000000e+00,5.000000000000000000e+00,5.000000000000000000e+00,5.000000000000000000e+00,5.000000000000000000e+00,5.000000000000000000e+00,5.000000000000000000e+00,5.000000000000000000e+00,5.000000000000000000e+00,5.000000000000000000e+00,5.000000000000000000e+00,5.000000000000000000e+00,5.000000000000000000e+00,5.000000000000000000e+00,5.000000000000000000e+00,5.000000000000000000e+00,5.000000000000000000e+00,5.000000000000000000e+00,5.000000000000000000e+00,5.000000000000000000e+00,5.000000000000000000e+00,5.000000000000000000e+00,5.000000000000000000e+00,5.000000000000000000e+00,5.000000000000000000e+00,5.000000000000000000e+00,5.000000000000000000e+00,5.000000000000000000e+00,5.000000000000000000e+00,5.000000000000000000e+00,5.000000000000000000e+00,5.000000000000000000e+00,5.000000000000000000e+00,5.000000000000000000e+00,5.000000000000000000e+00,5.000000000000000000e+00,5.000000000000000000e+00,5.000000000000000000e+00,4.849427700042724609e+00,4.659529209136962891e+00,4.483942985534667969e+00,4.321108818054199219e+00,4.169687747955322266e+00,4.028519153594970703e+00,3.896596670150756836e+00,3.773040294647216797e+00,3.657078742980957031e+00,3.548032522201538086e+00,3.445301055908203125e+00,3.348351240158081055e+00,3.256708621978759766e+00,3.169948577880859375e+00,3.087691307067871094e+00,3.009594917297363281e+00,2.935351848602294922e+00,2.864683389663696289e+00,2.797337532043457031e+00,2.733085393905639648e+00,2.671718835830688477e+00,2.613047599792480469e+00,2.556897640228271484e+00,2.503109931945800781e+00,2.451538801193237305e+00,2.402049779891967773e+00,2.354519367218017578e+00,2.308833122253417969e+00,2.264886379241943359e+00,2.222581386566162109e+00,2.181827783584594727e+00,2.142541646957397461e+00,2.104645490646362305e+00,2.068066358566284180e+00,2.032737255096435547e+00,1.998594522476196289e+00,1.965580224990844727e+00,1.933638691902160645e+00,1.902718901634216309e+00,1.872772097587585449e+00,1.843753576278686523e+00
5.000000000000000000e+00,5.000000000000000000e+00,5.000000000000000000e+00,5.000000000000000000e+00,5.000000000000000000e+00,5.000000000000000000e+00,5.000000000000000000e+00,5.000000000000000000e+00,5.000000000000000000e+00,5.000000000000000000e+00,5.000000000000000000e+00,5.000000000000000000e+00,5.000000000000000000e+00,5.000000000000000000e+00,5.000000000000000000e+00,5.000000000000000000e+00,5.000000000000000000e+00,5.000000000000000000e+00,5.000000000000000000e+00,5.000000000000000000e+00,5.000000000000000000e+00,5.000000000000000000e+00,5.000000000000000000e+00,5.000000000000000000e+00,5.000000000000000000e+00,5.000000000000000000e+00,5.000000000000000000e+00,5.000000000000000000e+00,5.000000000000000000e+00,5.000000000000000000e+00,5.000000000000000000e+00,5.000000000000000000e+00,5.000000000000000000e+00,5.000000000000000000e+00,5.000000000000000000e+00,5.000000000000000000e+00,5.000000000000000000e+00,5.000000000000000000e+00,5.000000000000000000e+00,4.849565982818603516e+00,4.659657001495361328e+00,4.484061241149902344e+00,4.321218967437744141e+00,4.169790267944335938e+00,4.028614997863769531e+00,3.896686315536499023e+00,3.773124217987060547e+00,3.657157659530639648e+00,3.548106908798217773e+00,3.445371150970458984e+00,3.348417520523071289e+00,3.256771326065063477e+00,3.170007944107055664e+00,3.087747335433959961e+00,3.009648084640502930e+00,2.935402393341064453e+00,2.864731550216674805e+00,2.797383546829223633e+00,2.733129501342773438e+00,2.671761035919189453e+00,2.613087892532348633e+00,2.556936025619506836e+00,2.503146886825561523e+00,2.451574325561523438e+00,2.402083635330200195e+00,2.354552030563354492e+00,2.308864593505859375e+00,2.264916658401489258e+00,2.222610473632812500e+00,2.181855678558349609e+00,2.142568588256835938e+00,2.104671478271484375e+00,2.068091392517089844e+00,2.032761335372924805e+00,1.998618125915527344e+00,1.965603113174438477e+00,1.933660745620727539e+00,1.902740240097045898e+00,1.872792840003967285e+00,1.843773722648620605e+00
5.000000000000000000e+00,5.000000000000000000e+00,5.000000000000000000e+00,5.000000000000000000e+00,5.000000000000000000e+00,5.000000000000000000e+00,5.000000000000000000e+00,5.000000000000000000e+00,5.000000000000000000e+00,5.000000000000000000e+00,5.000000000000000000e+00,5.000000000000000000e+00,5.000000000000000000e+00,5.000000000000000000e+00,5.000000000000000000e+00,5.000000000000000000e+00,5.000000000000000000e+00,5.000000000000000000e+00,5.000000000000000000e+00,5.000000000000000000e+00,5.000000000000000000e+00,5.000000000000000000e+00,5.000000000000000000e+00,5.000000000000000000e+00,5.000000000000000000e+00,5.000000000000000000e+00,5.000000000000000000e+00,5.000000000000000000e+00,5.000000000000000000e+00,5.000000000000000000e+00,5.000000000000000000e+00,5.000000000000000000e+00,5.000000000000000000e+00,5.000000000000000000e+00,5.000000000000000000e+00,5.000000000000000000e+00,5.000000000000000000e+00,5.000000000000000000e+00,5.000000000000000000e+00,4.849704742431640625e+00,4.659784793853759766e+00,4.484179496765136719e+00,4.321329116821289062e+00,4.169892787933349609e+00,4.028710365295410156e+00,3.896775960922241211e+00,3.773208141326904297e+00,3.657236576080322266e+00,3.548180818557739258e+00,3.445440769195556641e+00,3.348483324050903320e+00,3.256833553314208984e+00,3.170066833496093750e+00,3.087803602218627930e+00,3.009701728820800781e+00,2.935453176498413086e+00,2.864779949188232422e+00,2.797429800033569336e+00,2.733173608779907227e+00,2.671802997589111328e+00,2.613128185272216797e+00,2.556974649429321289e+00,2.503183841705322266e+00,2.451609849929809570e+00,2.402117729187011719e+00,2.354584455490112305e+00,2.308895826339721680e+00,2.264946937561035156e+00,2.222639560699462891e+00,2.181883811950683594e+00,2.142595767974853516e+00,2.104697465896606445e+00,2.068116664886474609e+00,2.032785892486572266e+00,1.998641729354858398e+00,1.965625882148742676e+00,1.933682799339294434e+00,1.902761578559875488e+00,1.872813463211059570e+00,1.843793749809265137e+00
5.000000000000000000e+00,5.000000000000000000e+00,5.000000000000000000e+00,5.000000000000000000e+00,5.000000000000000000e+00,5.000000000000000000e+00,5.000000000000000000e+00,5.000000000000000000e+00,5.000000000000000000e+00,5.000000000000000000e+00,5.000000000000000000e+00,5.000000000000000000e+00,5.000000000000000000e+00,5.000000000000000000e+00,5.000000000000000000e+00,5.000000000000000000e+00,5.000000000000000000e+00,5.000000000000000000e+00,5.000000000000000000e+00,5.000000000000000000e+00,5.000000000000000000e+00,5.000000000000000000e+00,5.000000000000000000e+00,5.000000000000000000e+00,5.000000000000000000e+00,5.000000000000000000e+00,5.000000000000000000e+00,5.000000000000000000e+00,5.000000000000000000e+00,5.000000000000000000e+00,5.000000000000000000e+00,5.000000000000000000e+00,5.000000000000000000e+00,5.000000000000000000e+00,5.000000000000000000e+00,5.000000000000000000e+00,5.000000000000000000e+00,5.000000000000000000e+00,5.000000000000000000e+00,4.849843025207519531e+00,4.659913063049316406e+00,4.484298229217529297e+00,4.321439266204833984e+00,4.169995307922363281e+00,4.028806209564208984e+00,3.896865129470825195e+00,3.773291826248168945e+00,3.657315254211425781e+00,3.548254966735839844e+00,3.445510864257812500e+00,3.348549604415893555e+00,3.256896018981933594e+00,3.170126199722290039e+00,3.087859630584716797e+00,3.009755134582519531e+00,2.935504198074340820e+00,2.864828348159790039e+00,2.797475814819335938e+00,2.733217716217041016e+00,2.671845197677612305e+00,2.613168239593505859e+00,2.557013034820556641e+00,2.503220796585083008e+00,2.451645135879516602e+00,2.402151584625244141e+00,2.354617357254028320e+00,2.308927297592163086e+00,2.264977216720581055e+00,2.222668647766113281e+00,2.181911945343017578e+00,2.142622709274291992e+00,2.104723691940307617e+00,2.068141937255859375e+00,2.032810211181640625e+00,1.998665213584899902e+00,1.965648651123046875e+00,1.933704853057861328e+00,1.902782797813415527e+00,1.872834205627441406e+00,1.843813538551330566e+00
5.000000000000000000e+00,5.000000000000000000e+00,5.000000000000000000e+00,5.000000000000000000e+00,5.000000000000000000e+00,5.000000000000000000e+00,5.000000000000000000e+00,5.000000000000000000e+00,5.000000000000000000e+00,5.000000000000000000e+00,5.000000000000000000e+00,5.000000000000000000e+00,5.000000000000000000e+00,5.000000000000000000e+00,5.000000000000000000e+00,5.000000000000000000e+00,5.000000000000000000e+00,5.000000000000000000e+00,5.000000000000000000e+00,5.000000000000000000e+00,5.000000000000000000e+00,5.000000000000000000e+00,5.000000000000000000e+00,5.000000000000000000e+00,5.000000000000000000e+00,5.000000000000000000e+00,5.000000000000000000e+00,5.000000000000000000e+00,5.000000000000000000e+00,5.000000000000000000e+00,5.000000000000000000e+00,5.000000000000000000e+00,5.000000000000000000e+00,5.000000000000000000e+00,5.000000000000000000e+00,5.000000000000000000e+00,5.000000000000000000e+00,5.000000000000000000e+00,5.000000000000000000e+00,4.849981784820556641e+00,4.660040855407714844e+00,4.484416484832763672e+00,4.321548938751220703e+00,4.170097827911376953e+00,4.028902053833007812e+00,3.896954774856567383e+00,3.773375749588012695e+00,3.657394170761108398e+00,3.548329353332519531e+00,3.445580959320068359e+00,3.348615646362304688e+00,3.256958723068237305e+00,3.170185565948486328e+00,3.087915897369384766e+00,3.009808540344238281e+00,2.935554742813110352e+00,2.864876747131347656e+00,2.797521829605102539e+00,2.733261585235595703e+00,2.671887159347534180e+00,2.613208532333374023e+00,2.557051658630371094e+00,2.503257751464843750e+00,2.451680421829223633e+00,2.402185678482055664e+00,2.354650020599365234e+00,2.308958768844604492e+00,2.265007257461547852e+00,2.222697734832763672e+00,2.181939840316772461e+00,2.142649888992309570e+00,2.104749679565429688e+00,2.068166971206665039e+00,2.032834529876708984e+00,1.998688817024230957e+00,1.965671300888061523e+00,1.933726906776428223e+00,1.902804136276245117e+00,1.872854948043823242e+00,1.843833684921264648e+00
5.000000000000000000e+00,5.000000000000000000e+00,5.000000000000000000e+00,5.000000000000000000e+00,5.000000000000000000e+00,5.000000000000000000e+00,5.000000000000000000e+00,5.000000000000000000e+00,5.000000000000000000e+00,5.000000000000000000e+00,5.000000000000000000e+00,5.000000000000000000e+00,5.000000000000000000e+00,5.000000000000000000e+00,5.000000000000000000e+00,5.000000000000000000e+00,5.000000000000000000e+00,5.000000000000000000e+00,5.000000000000000000e+00,5.000000000000000000e+00,5.000000000000000000e+00,5.000000000000000000e+00,5.000000000000000000e+00,5.000000000000000000e+00,5.000000000000000000e+00,5.000000000000000000e+00,5.000000000000000000e+00,5.000000000000000000e+00,5.000000000000000000e+00,5.000000000000000000e+00,5.000000000000000000e+00,5.000000000000000000e+00,5.000000000000000000e+00,5.000000000000000000e+00,5.000000000000000000e+00,5.000000000000000000e+00,5.000000000000000000e+00,5.000000000000000000e+00,5.000000000000000000e+00,4.850120544433593750e+00,4.660168647766113281e+00,4.484535217285156250e+00,4.321659088134765625e+00,4.170199871063232422e+00,4.028997421264648438e+00,3.897044181823730469e+00,3.773459911346435547e+00,3.657473087310791016e+00,3.548403739929199219e+00,3.445651054382324219e+00,3.348681449890136719e+00,3.257020950317382812e+00,3.170244455337524414e+00,3.087971925735473633e+00,3.009861707687377930e+00,2.935605525970458984e+00,2.864925146102905273e+00,2.797568082809448242e+00,2.733305692672729492e+00,2.671929359436035156e+00,2.613248825073242188e+00,2.557090282440185547e+00,2.503294706344604492e+00,2.451715946197509766e+00,2.402219772338867188e+00,2.354682683944702148e+00,2.308990240097045898e+00,2.265037536621093750e+00,2.222726821899414062e+00,2.181967973709106445e+00,2.142676830291748047e+00,2.104775905609130859e+00,2.068192243576049805e+00,2.032858848571777344e+00,1.998712420463562012e+00,1.965694069862365723e+00,1.933748960494995117e+00,1.902825474739074707e+00,1.872875571250915527e+00,1.843853712081909180e+00
5.000000000000000000e+00,5.000000000000000000e+00,5.000000000000000000e+00,5.000000000000000000e+00,5.000000000000000000e+00,5.000000000000000000e+00,5.000000000000000000e+00,5.000000000000000000e+00,5.000000000000000000e+00,5.000000000000000000e+00,5.000000000000000000e+00,5.000000000000000000e+00,5.000000000000000000e+00,5.000000000000000000e+00,5.000000000000000000e+00,5.000000000000000000e+00,5.000000000000000000e+00,5.000000000000000000e+00,5.000000000000000000e+00,5.000000000000000000e+00,5.000000000000000000e+00,5.000000000000000000e+00,5.000000000000000000e+00,5.000000000000000000e+00,5.000000000000000000e+00,5.000000000000000000e+00,5.000000000000000000e+00,5.000000000000000000e+00,5.000000000000000000e+00,5.000000000000000000e+00,5.000000000000000000e+00,5.000000000000000000e+00,5.000000000000000000e+00,5.000000000000000000e+00,5.000000000000000000e+00,5.000000000000000000e+00,5.000000000000000000e+00,5.000000000000000000e+00,5.000000000000000000e+00,4.850258827209472656e+00,4.660296440124511719e+00,4.484653949737548828e+00,4.321769237518310547e+00,4.170302391052246094e+00,4.029093265533447266e+00,3.897133350372314453e+00,3.773543357849121094e+00,3.657551527023315430e+00,3.548477649688720703e+00,3.445720672607421875e+00,3.348747730255126953e+00,3.257083654403686523e+00,3.170303821563720703e+00,3.088028192520141602e+00,3.009915113449096680e+00,2.935656547546386719e+00,2.864973545074462891e+00,2.797614336013793945e+00,2.733349800109863281e+00,2.671971321105957031e+00,2.613289117813110352e+00,2.557128667831420898e+00,2.503331422805786133e+00,2.451751232147216797e+00,2.402253627777099609e+00,2.354715347290039062e+00,2.309021711349487305e+00,2.265067815780639648e+00,2.222755908966064453e+00,2.181995868682861328e+00,2.142704010009765625e+00,2.104801893234252930e+00,2.068217515945434570e+00,2.032883167266845703e+00,1.998735904693603516e+00,1.965716838836669922e+00,1.933771133422851562e+00,1.902846813201904297e+00,1.872896075248718262e+00,1.843873739242553711e+00
5.000000000000000000e+00,5.000000000000000000e+00,5.000000000000000000e+00,5.000000000000000000e+00,5.000000000000000000e+00,5.000000000000000000e+00,5.000000000000000000e+00,5.000000000000000000e+00,5.000000000000000000e+00,5.000000000000000000e+00,5.000000000000000000e+00,5.000000000000000000e+00,5.000000000000000000e+00,5.000000000000000000e+00,5.000000000000000000e+00,5.000000000000000000e+00,5.000000000000000000e+00,5.000000000000000000e+00,5.000000000000000000e+00,5.000000000000000000e+00,5.000000000000000000e+00,5.000000000000000000e+00,5.000000000000000000e+00,5.000000000000000000e+00,5.000000000000000000e+00,5.000000000000000000e+00,5.000000000000000000e+00,5.000000000000000000e+00,5.000000000000000000e+00,5.000000000000000000e+00,5.000000000000000000e+00,5.000000000000000000e+00,5.000000000000000000e+00,5.000000000000000000e+00,5.000000000000000000e+00,5.000000000000000000e+00,5.000000000000000000e+00,5.000000000000000000e+00,5.000000000000000000e+00,4.850397586822509766e+00,4.660424709320068359e+00,4.484772205352783203e+00,4.321879386901855469e+00,4.170404911041259766e+00,4.029188632965087891e+00,3.897222995758056641e+00,3.773627519607543945e+00,3.657630443572998047e+00,3.548551797866821289e+00,3.445790767669677734e+00,3.348813772201538086e+00,3.257146120071411133e+00,3.170363187789916992e+00,3.088084459304809570e+00,3.009968757629394531e+00,2.935707330703735352e+00,2.865021705627441406e+00,2.797660112380981445e+00,2.733393669128417969e+00,2.672013282775878906e+00,2.613329172134399414e+00,2.557167291641235352e+00,2.503368377685546875e+00,2.451786756515502930e+00,2.402287721633911133e+00,2.354748010635375977e+00,2.309052944183349609e+00,2.265098094940185547e+00,2.222784996032714844e+00,2.182024002075195312e+00,2.142730951309204102e+00,2.104828119277954102e+00,2.068242549896240234e+00,2.032907485961914062e+00,1.998759269714355469e+00,1.965739607810974121e+00,1.933792948722839355e+00,1.902868270874023438e+00,1.872916817665100098e+00,1.843893885612487793e+00
5.000000000000000000e+00,5.000000000000000000e+00,5.000000000000000000e+00,5.000000000000000000e+00,5.000000000000000000e+00,5.000000000000000000e+00,5.000000000000000000e+00,5.000000000000000000e+00,5.000000000000000000e+00,5.000000000000000000e+00,5.000000000000000000e+00,5.000000000000000000e+00,5.000000000000000000e+00,5.000000000000000000e+00,5.000000000000000000e+00,5.000000000000000000e+00,5.000000000000000000e+00,5.000000000000000000e+00,5.000000000000000000e+00,5.000000000000000000e+00,5.000000000000000000e+00,5.000000000000000000e+00,5.000000000000000000e+00,5.000000000000000000e+00,5.000000000000000000e+00,5.000000000000000000e+00,5.000000000000000000e+00,5.000000000000000000e+00,5.000000000000000000e+00,5.000000000000000000e+00,5.000000000000000000e+00,5.000000000000000000e+00,5.000000000000000000e+00,5.000000000000000000e+00,5.000000000000000000e+00,5.000000000000000000e+00,5.000000000000000000e+00,5.000000000000000000e+00,5.000000000000000000e+00,4.850536346435546875e+00,4.660552501678466797e+00,4.484890937805175781e+00,4.321989536285400391e+00,4.170507431030273438e+00,4.029284477233886719e+00,3.897312641143798828e+00,3.773711442947387695e+00,3.657709360122680664e+00,3.548626184463500977e+00,3.445860862731933594e+00,3.348880052566528320e+00,3.257208824157714844e+00,3.170422077178955078e+00,3.088140487670898438e+00,3.010021924972534180e+00,2.935757875442504883e+00,2.865070104598999023e+00,2.797706365585327148e+00,2.733437776565551758e+00,2.672055482864379883e+00,2.613369464874267578e+00,2.557205915451049805e+00,2.503405332565307617e+00,2.451822280883789062e+00,2.402321815490722656e+00,2.354780673980712891e+00,2.309084415435791016e+00,2.265128374099731445e+00,2.222814083099365234e+00,2.182052135467529297e+00,2.142757892608642578e+00,2.104854106903076172e+00,2.068267822265625000e+00,2.032931804656982422e+00,1.998782873153686523e+00,1.965762495994567871e+00,1.933815002441406250e+00,1.902889609336853027e+00,1.872937440872192383e+00,1.843913912773132324e+00
5.000000000000000000e+00,5.000000000000000000e+00,5.000000000000000000e+00,5.000000000000000000e+00,5.000000000000000000e+00,5.000000000000000000e+00,5.000000000000000000e+00,5.000000000000000000e+00,5.000000000000000000e+00,5.000000000000000000e+00,5.000000000000000000e+00,5.000000000000000000e+00,5.000000000000000000e+00,5.000000000000000000e+00,5.000000000000000000e+00,5.000000000000000000e+00,5.000000000000000000e+00,5.000000000000000000e+00,5.000000000000000000e+00,5.000000000000000000e+00,5.000000000000000000e+00,5.000000000000000000e+00,5.000000000000000000e+00,5.000000000000000000e+00,5.000000000000000000e+00,5.000000000000000000e+00,5.000000000000000000e+00,5.000000000000000000e+00,5.000000000000000000e+00,5.000000000000000000e+00,5.000000000000000000e+00,5.000000000000000000e+00,5.000000000000000000e+00,5.000000000000000000e+00,5.000000000000000000e+00,5.000000000000000000e+00,5.000000000000000000e+00,5.000000000000000000e+00,5.000000000000000000e+00,4.850674629211425781e+00,4.660680294036865234e+00,4.485009193420410156e+00,4.322099208831787109e+00,4.170609951019287109e+00,4.029380321502685547e+00,3.897402286529541016e+00,3.773795604705810547e+00,3.657788038253784180e+00,3.548700094223022461e+00,3.445930480957031250e+00,3.348945856094360352e+00,3.257271051406860352e+00,3.170481443405151367e+00,3.088196754455566406e+00,3.010075330734252930e+00,2.935808658599853516e+00,2.865118503570556641e+00,2.797752618789672852e+00,2.733481884002685547e+00,2.672097682952880859e+00,2.613409757614135742e+00,2.557244300842285156e+00,2.503442287445068359e+00,2.451857566833496094e+00,2.402355670928955078e+00,2.354813337326049805e+00,2.309115886688232422e+00,2.265158414840698242e+00,2.222843170166015625e+00,2.182080030441284180e+00,2.142785072326660156e+00,2.104880332946777344e+00,2.068293094635009766e+00,2.032956361770629883e+00,1.998806476593017578e+00,1.965785264968872070e+00,1.933837056159973145e+00,1.902910947799682617e+00,1.872958183288574219e+00,1.843933701515197754e+00
5.000000000000000000e+00,5.000000000000000000e+00,5.000000000000000000e+00,5.000000000000000000e+00,5.000000000000000000e+00,5.000000000000000000e+00,5.000000000000000000e+00,5.000000000000000000e+00,5.000000000000000000e+00,5.000000000000000000e+00,5.000000000000000000e+00,5.000000000000000000e+00,5.000000000000000000e+00,5.000000000000000000e+00,5.000000000000000000e+00,5.000000000000000000e+00,5.000000000000000000e+00,5.000000000000000000e+00,5.000000000000000000e+00,5.000000000000000000e+00,5.000000000000000000e+00,5.000000000000000000e+00,5.000000000000000000e+00,5.000000000000000000e+00,5.000000000000000000e+00,5.000000000000000000e+00,5.000000000000000000e+00,5.000000000000000000e+00,5.000000000000000000e+00,5.000000000000000000e+00,5.000000000000000000e+00,5.000000000000000000e+00,5.000000000000000000e+00,5.000000000000000000e+00,5.000000000000000000e+00,5.000000000000000000e+00,5.000000000000000000e+00,5.000000000000000000e+00,5.000000000000000000e+00,4.850813388824462891e+00,4.660808563232421875e+00,4.485127925872802734e+00,4.322209358215332031e+00,4.170712471008300781e+00,4.029475688934326172e+00,3.897491455078125000e+00,3.773879051208496094e+00,3.657866954803466797e+00,3.548774480819702148e+00,3.446000576019287109e+00,3.349012136459350586e+00,3.257333755493164062e+00,3.170540809631347656e+00,3.088253021240234375e+00,3.010128736495971680e+00,2.935859680175781250e+00,2.865166902542114258e+00,2.797798633575439453e+00,2.733525753021240234e+00,2.672139406204223633e+00,2.613449811935424805e+00,2.557282924652099609e+00,2.503479242324829102e+00,2.451892852783203125e+00,2.402389764785766602e+00,2.354846000671386719e+00,2.309147357940673828e+00,2.265188694000244141e+00,2.222872495651245117e+00,2.182108163833618164e+00,2.142812252044677734e+00,2.104906320571899414e+00,2.068318367004394531e+00,2.032980680465698242e+00,1.998829960823059082e+00,1.965807795524597168e+00,1.933859109878540039e+00,1.902932047843933105e+00,1.872978925704956055e+00,1.843953847885131836e+00
5.000000000000000000e+00,5.000000000000000000e+00,5.000000000000000000e+00,5.000000000000000000e+00,5.000000000000000000e+00,5.000000000000000000e+00,5.000000000000000000e+00,5.000000000000000000e+00,5.000000000000000000e+00,5.000000000000000000e+00,5.000000000000000000e+00,5.000000000000000000e+00,5.000000000000000000e+00,5.000000000000000000e+00,5.000000000000000000e+00,5.000000000000000000e+00,5.000000000000000000e+00,5.000000000000000000e+00,5.000000000000000000e+00,5.000000000000000000e+00,5.000000000000000000e+00,5.000000000000000000e+00,5.000000000000000000e+00,5.000000000000000000e+00,5.000000000000000000e+00,5.000000000000000000e+00,5.000000000000000000e+00,5.000000000000000000e+00,5.000000000000000000e+00,5.000000000000000000e+00,5.000000000000000000e+00,5.000000000000000000e+00,5.000000000000000000e+00,5.000000000000000000e+00,5.000000000000000000e+00,5.000000000000000000e+00,5.000000000000000000e+00,5.000000000000000000e+00,5.000000000000000000e+00,4.850952148437500000e+00,4.660936355590820312e+00,4.485246181488037109e+00,4.322319507598876953e+00,4.170814990997314453e+00,4.029571533203125000e+00,3.897581100463867188e+00,3.773963212966918945e+00,3.657945871353149414e+00,3.548848867416381836e+00,3.446070671081542969e+00,3.349078178405761719e+00,3.257396221160888672e+00,3.170599937438964844e+00,3.088309049606323242e+00,3.010181903839111328e+00,2.935910224914550781e+00,2.865215301513671875e+00,2.797844886779785156e+00,2.733569622039794922e+00,2.672181606292724609e+00,2.613490104675292969e+00,2.557321310043334961e+00,2.503516197204589844e+00,2.451928377151489258e+00,2.402423858642578125e+00,2.354878664016723633e+00,2.309178829193115234e+00,2.265218973159790039e+00,2.222901582717895508e+00,2.182136058807373047e+00,2.142839193344116211e+00,2.104932308197021484e+00,2.068343400955200195e+00,2.033004999160766602e+00,1.998853564262390137e+00,1.965830683708190918e+00,1.933881163597106934e+00,1.902953505516052246e+00,1.872999548912048340e+00,1.843973875045776367e+00
5.000000000000000000e+00,5.000000000000000000e+00,5.000000000000000000e+00,5.000000000000000000e+00,5.000000000000000000e+00,5.000000000000000000e+00,5.000000000000000000e+00,5.000000000000000000e+00,5.000000000000000000e+00,5.000000000000000000e+00,5.000000000000000000e+00,5.000000000000000000e+00,5.000000000000000000e+00,5.000000000000000000e+00,5.000000000000000000e+00,5.000000000000000000e+00,5.000000000000000000e+00,5.000000000000000000e+00,5.000000000000000000e+00,5.000000000000000000e+00,5.000000000000000000e+00,5.000000000000000000e+00,5.000000000000000000e+00,5.000000000000000000e+00,5.000000000000000000e+00,5.000000000000000000e+00,5.000000000000000000e+00,5.000000000000000000e+00,5.000000000000000000e+00,5.000000000000000000e+00,5.000000000000000000e+00,5.000000000000000000e+00,5.000000000000000000e+00,5.000000000000000000e+00,5.000000000000000000e+00,5.000000000000000000e+00,5.000000000000000000e+00,5.000000000000000000e+00,5.000000000000000000e+00,4.851089954376220703e+00,4.661064624786376953e+00,4.485364913940429688e+00,4.322429656982421875e+00,4.170917510986328125e+00,4.029666900634765625e+00,3.897670745849609375e+00,3.774047374725341797e+00,3.658024787902832031e+00,3.548922777175903320e+00,3.446140527725219727e+00,3.349143981933593750e+00,3.257458686828613281e+00,3.170659065246582031e+00,3.088365316390991211e+00,3.010235548019409180e+00,2.935961008071899414e+00,2.865263700485229492e+00,2.797890901565551758e+00,2.733613729476928711e+00,2.672223806381225586e+00,2.613530397415161133e+00,2.557359933853149414e+00,2.503553152084350586e+00,2.451963901519775391e+00,2.402457714080810547e+00,2.354911327362060547e+00,2.309210062026977539e+00,2.265249013900756836e+00,2.222930669784545898e+00,2.182164192199707031e+00,2.142866134643554688e+00,2.104958534240722656e+00,2.068368673324584961e+00,2.033029317855834961e+00,1.998877167701721191e+00,1.965853452682495117e+00,1.933903217315673828e+00,1.902974843978881836e+00,1.873020291328430176e+00,1.843993902206420898e+00
5.000000000000000000e+00,5.000000000000000000e+00,5.000000000000000000e+00,5.000000000000000000e+00,5.000000000000000000e+00,5.000000000000000000e+00,5.000000000000000000e+00,5.000000000000000000e+00,5.000000000000000000e+00,5.000000000000000000e+00,5.000000000000000000e+00,5.000000000000000000e+00,5.000000000000000000e+00,5.000000000000000000e+00,5.000000000000000000e+00,5.000000000000000000e+00,5.000000000000000000e+00,5.000000000000000000e+00,5.000000000000000000e+00,5.000000000000000000e+00,5.000000000000000000e+00,5.000000000000000000e+00,5.000000000000000000e+00,5.000000000000000000e+00,5.000000000000000000e+00,5.000000000000000000e+00,5.000000000000000000e+00,5.000000000000000000e+00,5.000000000000000000e+00,5.000000000000000000e+00,5.000000000000000000e+00,5.000000000000000000e+00,5.000000000000000000e+00,5.000000000000000000e+00,5.000000000000000000e+00,5.000000000000000000e+00,5.000000000000000000e+00,5.000000000000000000e+00,5.000000000000000000e+00,4.851228237152099609e+00,4.661192417144775391e+00,4.485483646392822266e+00,4.322539806365966797e+00,4.171020030975341797e+00,4.029762744903564453e+00,3.897759914398193359e+00,3.774130821228027344e+00,3.658103466033935547e+00,3.548996925354003906e+00,3.446210384368896484e+00,3.349210262298583984e+00,3.257521152496337891e+00,3.170718431472778320e+00,3.088421583175659180e+00,3.010288953781127930e+00,2.936012029647827148e+00,2.865312099456787109e+00,2.797937154769897461e+00,2.733657836914062500e+00,2.672266006469726562e+00,2.613570451736450195e+00,2.557398319244384766e+00,2.503589868545532227e+00,2.451999187469482422e+00,2.402491807937622070e+00,2.354943990707397461e+00,2.309241533279418945e+00,2.265279293060302734e+00,2.222959756851196289e+00,2.182192325592041016e+00,2.142893314361572266e+00,2.104984760284423828e+00,2.068393945693969727e+00,2.033053636550903320e+00,1.998900771141052246e+00,1.965876221656799316e+00,1.933925151824951172e+00,1.902996182441711426e+00,1.873040795326232910e+00,1.844014048576354980e+00
5.000000000000000000e+00,5.000000000000000000e+00,5.000000000000000000e+00,5.000000000000000000e+00,5.000000000000000000e+00,5.000000000000000000e+00,5.000000000000000000e+00,5.000000000000000000e+00,5.000000000000000000e+00,5.000000000000000000e+00,5.000000000000000000e+00,5.000000000000000000e+00,5.000000000000000000e+00,5.000000000000000000e+00,5.000000000000000000e+00,5.000000000000000000e+00,5.000000000000000000e+00,5.000000000000000000e+00,5.000000000000000000e+00,5.000000000000000000e+00,5.000000000000000000e+00,5.000000000000000000e+00,5.000000000000000000e+00,5.000000000000000000e+00,5.000000000000000000e+00,5.000000000000000000e+00,5.000000000000000000e+00,5.000000000000000000e+00,5.000000000000000000e+00,5.000000000000000000e+00,5.000000000000000000e+00,5.000000000000000000e+00,5.000000000000000000e+00,5.000000000000000000e+00,5.000000000000000000e+00,5.000000000000000000e+00,5.000000000000000000e+00,5.000000000000000000e+00,5.000000000000000000e+00,4.851366519927978516e+00,4.661319732666015625e+00,4.485601902008056641e+00,4.322649955749511719e+00,4.171122550964355469e+00,4.029858589172363281e+00,3.897849559783935547e+00,3.774214982986450195e+00,3.658182382583618164e+00,3.549071311950683594e+00,3.446280479431152344e+00,3.349276542663574219e+00,3.257583856582641602e+00,3.170777797698974609e+00,3.088477849960327148e+00,3.010342359542846680e+00,2.936062574386596680e+00,2.865360260009765625e+00,2.797983169555664062e+00,2.733701705932617188e+00,2.672307729721069336e+00,2.613610982894897461e+00,2.557436943054199219e+00,2.503627061843872070e+00,2.452034711837768555e+00,2.402525663375854492e+00,2.354976654052734375e+00,2.309273004531860352e+00,2.265309572219848633e+00,2.222988843917846680e+00,2.182220458984375000e+00,2.142920494079589844e+00,2.105010747909545898e+00,2.068418979644775391e+00,2.033077955245971680e+00,1.998924136161804199e+00,1.965899109840393066e+00,1.933947205543518066e+00,1.903017520904541016e+00,1.873061418533325195e+00,1.844034075736999512e+00
5.000000000000000000e+00,5.000000000000000000e+00,5.000000000000000000e+00,5.000000000000000000e+00,5.000000000000000000e+00,5.000000000000000000e+00,5.000000000000000000e+00,5.000000000000000000e+00,5.000000000000000000e+00,5.000000000000000000e+00,5.000000000000000000e+00,5.000000000000000000e+00,5.000000000000000000e+00,5.000000000000000000e+00,5.000000000000000000e+00,5.000000000000000000e+00,5.000000000000000000e+00,5.000000000000000000e+00,5.000000000000000000e+00,5.000000000000000000e+00,5.000000000000000000e+00,5.000000000000000000e+00,5.000000000000000000e+00,5.000000000000000000e+00,5.000000000000000000e+00,5.000000000000000000e+00,5.000000000000000000e+00,5.000000000000000000e+00,5.000000000000000000e+00,5.000000000000000000e+00,5.000000000000000000e+00,5.000000000000000000e+00,5.000000000000000000e+00,5.000000000000000000e+00,5.000000000000000000e+00,5.000000000000000000e+00,5.000000000000000000e+00,5.000000000000000000e+00,5.000000000000000000e+00,4.851504802703857422e+00,4.661447525024414062e+00,4.485720157623291016e+00,4.322759628295898438e+00,4.171225070953369141e+00,4.029953956604003906e+00,3.897939205169677734e+00,3.774298906326293945e+00,3.658261299133300781e+00,3.549145698547363281e+00,3.446350574493408203e+00,3.349342346191406250e+00,3.257646083831787109e+00,3.170836687088012695e+00,3.088533878326416016e+00,3.010395526885986328e+00,2.936113357543945312e+00,2.865408658981323242e+00,2.798029422760009766e+00,2.733745813369750977e+00,2.672349929809570312e+00,2.613651275634765625e+00,2.557475566864013672e+00,2.503664016723632812e+00,2.452070236206054688e+00,2.402559757232666016e+00,2.355009317398071289e+00,2.309304237365722656e+00,2.265339851379394531e+00,2.223017930984497070e+00,2.182248353958129883e+00,2.142947435379028320e+00,2.105036973953247070e+00,2.068444252014160156e+00,2.033102273941040039e+00,1.998947620391845703e+00,1.965921878814697266e+00,1.933969259262084961e+00,1.903038978576660156e+00,1.873082160949707031e+00,1.844054102897644043e+00
5.000000000000000000e+00,5.000000000000000000e+00,5.000000000000000000e+00,5.000000000000000000e+00,5.000000000000000000e+00,5.000000000000000000e+00,5.000000000000000000e+00,5.000000000000000000e+00,5.000000000000000000e+00,5.000000000000000000e+00,5.000000000000000000e+00,5.000000000000000000e+00,5.000000000000000000e+00,5.000000000000000000e+00,5.000000000000000000e+00,5.000000000000000000e+00,5.000000000000000000e+00,5.000000000000000000e+00,5.000000000000000000e+00,5.000000000000000000e+00,5.000000000000000000e+00,5.000000000000000000e+00,5.000000000000000000e+00,5.000000000000000000e+00,5.000000000000000000e+00,5.000000000000000000e+00,5.000000000000000000e+00,5.000000000000000000e+00,5.000000000000000000e+00,5.000000000000000000e+00,5.000000000000000000e+00,5.000000000000000000e+00,5.000000000000000000e+00,5.000000000000000000e+00,5.000000000000000000e+00,5.000000000000000000e+00,5.000000000000000000e+00,5.000000000000000000e+00,5.000000000000000000e+00,4.851643085479736328e+00,4.661574840545654297e+00,4.485837936401367188e+00,4.322869777679443359e+00,4.171327590942382812e+00,4.030049800872802734e+00,3.898028612136840820e+00,3.774382591247558594e+00,3.658339977264404297e+00,3.549219608306884766e+00,3.446420431137084961e+00,3.349408626556396484e+00,3.257708787918090820e+00,3.170896053314208984e+00,3.088590145111083984e+00,3.010449171066284180e+00,2.936164379119873047e+00,2.865457296371459961e+00,2.798075675964355469e+00,2.733789920806884766e+00,2.672392129898071289e+00,2.613691568374633789e+00,2.557513952255249023e+00,2.503700733184814453e+00,2.452105522155761719e+00,2.402593612670898438e+00,2.355041980743408203e+00,2.309335708618164062e+00,2.265370130538940430e+00,2.223047018051147461e+00,2.182276487350463867e+00,2.142974376678466797e+00,2.105062961578369141e+00,2.068469524383544922e+00,2.033126831054687500e+00,1.998971223831176758e+00,1.965944647789001465e+00,1.933991312980651855e+00,1.903060078620910645e+00,1.873102903366088867e+00,1.844074010848999023e+00
5.000000000000000000e+00,5.000000000000000000e+00,5.000000000000000000e+00,5.000000000000000000e+00,5.000000000000000000e+00,5.000000000000000000e+00,5.000000000000000000e+00,5.000000000000000000e+00,5.000000000000000000e+00,5.000000000000000000e+00,5.000000000000000000e+00,5.000000000000000000e+00,5.000000000000000000e+00,5.000000000000000000e+00,5.000000000000000000e+00,5.000000000000000000e+00,5.000000000000000000e+00,5.000000000000000000e+00,5.000000000000000000e+00,5.000000000000000000e+00,5.000000000000000000e+00,5.000000000000000000e+00,5.000000000000000000e+00,5.000000000000000000e+00,5.000000000000000000e+00,5.000000000000000000e+00,5.000000000000000000e+00,5.000000000000000000e+00,5.000000000000000000e+00,5.000000000000000000e+00,5.000000000000000000e+00,5.000000000000000000e+00,5.000000000000000000e+00,5.000000000000000000e+00,5.000000000000000000e+00,5.000000000000000000e+00,5.000000000000000000e+00,5.000000000000000000e+00,5.000000000000000000e+00,4.851780891418457031e+00,4.661702632904052734e+00,4.485956192016601562e+00,4.322979450225830078e+00,4.171430110931396484e+00,4.030145645141601562e+00,3.898118257522583008e+00,3.774466753005981445e+00,3.658418893814086914e+00,3.549293994903564453e+00,3.446490526199340820e+00,3.349474668502807617e+00,3.257771253585815430e+00,3.170955419540405273e+00,3.088646411895751953e+00,3.010502576828002930e+00,2.936215162277221680e+00,2.865505695343017578e+00,2.798121452331542969e+00,2.733833789825439453e+00,2.672434091567993164e+00,2.613731622695922852e+00,2.557552576065063477e+00,2.503737688064575195e+00,2.452141046524047852e+00,2.402627706527709961e+00,2.355074644088745117e+00,2.309367179870605469e+00,2.265400409698486328e+00,2.223076343536376953e+00,2.182304620742797852e+00,2.143001556396484375e+00,2.105089187622070312e+00,2.068494796752929688e+00,2.033150911331176758e+00,1.998994827270507812e+00,1.965967178344726562e+00,1.934013366699218750e+00,1.903081417083740234e+00,1.873123526573181152e+00,1.844094038009643555e+00
4.875504493713378906e+00,4.874294281005859375e+00,4.873084545135498047e+00,4.871875286102294922e+00,4.870666503906250000e+00,4.869458675384521484e+00,4.868251323699951172e+00,4.867044925689697266e+00,4.865838527679443359e+00,4.864633083343505859e+00,4.863428115844726562e+00,4.862223625183105469e+00,4.861020088195800781e+00,4.859816551208496094e+00,4.858613967895507812e+00,4.857411861419677734e+00,4.856210708618164062e+00,4.855010032653808594e+00,4.853809833526611328e+00,4.852610588073730469e+00,4.851411342620849609e+00,4.850213050842285156e+00,4.849015235900878906e+00,4.847817897796630859e+00,4.846621036529541016e+00,4.845425128936767578e+00,4.844229698181152344e+00,4.843034744262695312e+00,4.841840267181396484e+00,4.840646743774414062e+00,4.839453697204589844e+00,4.838261127471923828e+00,4.837069034576416016e+00,4.835877895355224609e+00,4.834687232971191406e+00,4.833497047424316406e+00,4.832307338714599609e+00,4.831118106842041016e+00,4.829929828643798828e+00,4.828742027282714844e+00,4.661829948425292969e+00,4.486073970794677734e+00,4.323089122772216797e+00,4.171531677246093750e+00,4.030241012573242188e+00,3.898207902908325195e+00,3.774550676345825195e+00,3.658497810363769531e+00,3.549368381500244141e+00,3.446560621261596680e+00,3.349540948867797852e+00,3.257833957672119141e+00,3.171014547348022461e+00,3.088702440261840820e+00,3.010555744171142578e+00,2.936265707015991211e+00,2.865553855895996094e+00,2.798167705535888672e+00,2.733877897262573242e+00,2.672476291656494141e+00,2.613771915435791016e+00,2.557591199874877930e+00,2.503774642944335938e+00,2.452176332473754883e+00,2.402661800384521484e+00,2.355107307434082031e+00,2.309398651123046875e+00,2.265430688858032227e+00,2.223105192184448242e+00,2.182332515716552734e+00,2.143028497695922852e+00,2.105115175247192383e+00,2.068519830703735352e+00,2.033175468444824219e+00,1.999018430709838867e+00,1.965990066528320312e+00,1.934035420417785645e+00,1.903102874755859375e+00,1.873144268989562988e+00,1.844114184379577637e+00
3.778360366821289062e+00,3.777633428573608398e+00,3.776906728744506836e+00,3.776180267333984375e+00,3.775454044342041016e+00,3.774728298187255859e+00,3.774002790451049805e+00,3.773277759552001953e+00,3.772552728652954102e+00,3.771828174591064453e+00,3.771103620529174805e+00,3.770379543304443359e+00,3.769655466079711914e+00,3.768931865692138672e+00,3.768208503723144531e+00,3.767485618591308594e+00,3.766762733459472656e+00,3.766040325164794922e+00,3.765317916870117188e+00,3.764595985412597656e+00,3.763874292373657227e+00,3.763152837753295898e+00,3.762431859970092773e+00,3.761710882186889648e+00,3.760990381240844727e+00,3.760270118713378906e+00,3.759550094604492188e+00,3.758830308914184570e+00,3.758110761642456055e+00,3.757391691207885742e+00,3.756672859191894531e+00,3.755954504013061523e+00,3.755236148834228516e+00,3.754518032073974609e+00,3.753800153732299805e+00,3.753082752227783203e+00,3.752365350723266602e+00,3.751648426055908203e+00,3.750931739807128906e+00,3.750215291976928711e+00,3.749499082565307617e+00,3.748783111572265625e+00,3.748067378997802734e+00,3.747352123260498047e+00,3.746637105941772461e+00,3.745922088623046875e+00,3.745207548141479492e+00,3.658576488494873047e+00,3.549442291259765625e+00,3.446630239486694336e+00,3.349606752395629883e+00,3.257896423339843750e+00,3.171073675155639648e+00,3.088758707046508789e+00,3.010609149932861328e+00,2.936316728591918945e+00,2.865602254867553711e+00,2.798213958740234375e+00,2.733922004699707031e+00,2.672518253326416016e+00,2.613812208175659180e+00,2.557629823684692383e+00,2.503811597824096680e+00,2.452211618423461914e+00,2.402695655822753906e+00,2.355139970779418945e+00,2.309430122375488281e+00,2.265460729598999023e+00,2.223134517669677734e+00,2.182360649108886719e+00,2.143055677413940430e+00,2.105141401290893555e+00,2.068545103073120117e+00,2.033199787139892578e+00,1.999042034149169922e+00,1.966012835502624512e+00,1.934057474136352539e+00,1.903124213218688965e+00,1.873165011405944824e+00,1.844134211540222168e+00
3.084295511245727539e+00,3.083811044692993164e+00,3.083326816558837891e+00,3.082842588424682617e+00,3.082358598709106445e+00,3.081874847412109375e+00,3.081391096115112305e+00,3.080907821655273438e+00,3.080424547195434570e+00,3.079941272735595703e+00,3.079458236694335938e+00,3.078975200653076172e+00,3.078492641448974609e+00,3.078009843826293945e+00,3.077527523040771484e+00,3.077045202255249023e+00,3.076562881469726562e+00,3.076081037521362305e+00,3.075599193572998047e+00,3.075117349624633789e+00,3.074635744094848633e+00,3.074154376983642578e+00,3.073673248291015625e+00,3.073192119598388672e+00,3.072710990905761719e+00,3.072230339050292969e+00,3.071749687194824219e+00,3.071269035339355469e+00,3.070788621902465820e+00,3.070308446884155273e+00,3.069828510284423828e+00,3.069348812103271484e+00,3.068869113922119141e+00,3.068389415740966797e+00,3.067909955978393555e+00,3.067430734634399414e+00,3.066951513290405273e+00,3.066472530364990234e+00,3.065993785858154297e+00,3.065515041351318359e+00,3.065036535263061523e+00,3.064558267593383789e+00,3.064079999923706055e+00,3.063601732254028320e+00,3.063123941421508789e+00,3.062646150588989258e+00,3.062168359756469727e+00,3.061690807342529297e+00,3.061213493347167969e+00,3.060736417770385742e+00,3.060259342193603516e+00,3.059782266616821289e+00,3.059305429458618164e+00,3.058828830718994141e+00,3.010662794113159180e+00,2.936367511749267578e+00,2.865650892257690430e+00,2.798260211944580078e+00,2.733965873718261719e+00,2.672560214996337891e+00,2.613852262496948242e+00,2.557668209075927734e+00,2.503848552703857422e+00,2.452247142791748047e+00,2.402729749679565430e+00,2.355172634124755859e+00,2.309461593627929688e+00,2.265491008758544922e+00,2.223163604736328125e+00,2.182388782501220703e+00,2.143082618713378906e+00,2.105167388916015625e+00,2.068570375442504883e+00,2.033224105834960938e+00,1.999065279960632324e+00,1.966035604476928711e+00,1.934079408645629883e+00,1.903145551681518555e+00,1.873185515403747559e+00,1.844154238700866699e+00
2.605650901794433594e+00,2.605305194854736328e+00,2.604959487915039062e+00,2.604614019393920898e+00,2.604268550872802734e+00,2.603923082351684570e+00,2.603577852249145508e+00,2.603232860565185547e+00,2.602887630462646484e+00,2.602542638778686523e+00,2.602197647094726562e+00,2.601852893829345703e+00,2.601508140563964844e+00,2.601163625717163086e+00,2.600818872451782227e+00,2.600474596023559570e+00,2.600130081176757812e+00,2.599785804748535156e+00,2.599441528320312500e+00,2.599097490310668945e+00,2.598753452301025391e+00,2.598409414291381836e+00,2.598065614700317383e+00,2.597722053527832031e+00,2.597378253936767578e+00,2.597034692764282227e+00,2.596691370010375977e+00,2.596347808837890625e+00,2.596004486083984375e+00,2.595661401748657227e+00,2.595318317413330078e+00,2.594975471496582031e+00,2.594632625579833984e+00,2.594289779663085938e+00,2.593946933746337891e+00,2.593604326248168945e+00,2.593261718750000000e+00,2.592919349670410156e+00,2.592576980590820312e+00,2.592234611511230469e+00,2.591892480850219727e+00,2.591550350189208984e+00,2.591208219528198242e+00,2.590866327285766602e+00,2.590524435043334961e+00,2.590182781219482422e+00,2.589841127395629883e+00,2.589499473571777344e+00,2.589158058166503906e+00,2.588816642761230469e+00,2.588475227355957031e+00,2.588134050369262695e+00,2.587793111801147461e+00,2.587451934814453125e+00,2.587110996246337891e+00,2.586770296096801758e+00,2.586429357528686523e+00,2.586088895797729492e+00,2.585748434066772461e+00,2.585407972335815430e+00,2.585067510604858398e+00,2.557706832885742188e+00,2.503885507583618164e+00,2.452282667160034180e+00,2.402763843536376953e+00,2.355205535888671875e+00,2.309493064880371094e+00,2.265521287918090820e+00,2.223192691802978516e+00,2.182416915893554688e+00,2.143109798431396484e+00,2.105193614959716797e+00,2.068595409393310547e+00,2.033248424530029297e+00,1.999088883399963379e+00,1.966058492660522461e+00,1.934101462364196777e+00,1.903167009353637695e+00,1.873206138610839844e+00,1.844174385070800781e+00
2.255615234375000000e+00,2.255355834960937500e+00,2.255096673965454102e+00,2.254837274551391602e+00,2.254578113555908203e+00,2.254318952560424805e+00,2.254059791564941406e+00,2.253800868988037109e+00,2.253541946411132812e+00,2.253283023834228516e+00,2.253024101257324219e+00,2.252765417098999023e+00,2.252506494522094727e+00,2.252247810363769531e+00,2.251989364624023438e+00,2.251730680465698242e+00,2.251472234725952148e+00,2.251213788986206055e+00,2.250955581665039062e+00,2.250697135925292969e+00,2.250438928604125977e+00,2.250180721282958984e+00,2.249922513961791992e+00,2.249664306640625000e+00,2.249406576156616211e+00,2.249149084091186523e+00,2.248891353607177734e+00,2.248633861541748047e+00,2.248376369476318359e+00,2.248118877410888672e+00,2.247861385345458984e+00,2.247604370117187500e+00,2.247347116470336914e+00,2.247089862823486328e+00,2.246832609176635742e+00,2.246575593948364258e+00,2.246318578720092773e+00,2.246061563491821289e+00,2.245804786682128906e+00,2.245547771453857422e+00,2.245290994644165039e+00,2.245034217834472656e+00,2.244777679443359375e+00,2.244520902633666992e+00,2.244264364242553711e+00,2.244007825851440430e+00,2.243751525878906250e+00,2.243494987487792969e+00,2.243238687515258789e+00,2.242982387542724609e+00,2.242726325988769531e+00,2.242470026016235352e+00,2.242213964462280273e+00,2.241957902908325195e+00,2.241702079772949219e+00,2.241446018218994141e+00,2.241190195083618164e+00,2.240934610366821289e+00,2.240678787231445312e+00,2.240423202514648438e+00,2.240167617797851562e+00,2.239912033081054688e+00,2.239656448364257812e+00,2.239401102066040039e+00,2.239145517349243164e+00,2.238890409469604492e+00,2.238635063171386719e+00,2.238379716873168945e+00,2.223221778869628906e+00,2.182444810867309570e+00,2.143136739730834961e+00,2.105219602584838867e+00,2.068620681762695312e+00,2.033272743225097656e+00,1.999112486839294434e+00,1.966081261634826660e+00,1.934123516082763672e+00,1.903188347816467285e+00,1.873226881027221680e+00,1.844194412231445312e+00
1.988500356674194336e+00,1.988298773765563965e+00,1.988097310066223145e+00,1.987895727157592773e+00,1.987694382667541504e+00,1.987492799758911133e+00,1.987291455268859863e+00,1.987089991569519043e+00,1.986888885498046875e+00,1.986687421798706055e+00,1.986486315727233887e+00,1.986284971237182617e+00,1.986083984375000000e+00,1.985882997512817383e+00,1.985681772232055664e+00,1.985480904579162598e+00,1.985279798507690430e+00,1.985078930854797363e+00,1.984877943992614746e+00,1.984677195549011230e+00,1.984476208686828613e+00,1.984275460243225098e+00,1.984074831008911133e+00,1.983874082565307617e+00,1.983673453330993652e+00,1.983472704887390137e+00,1.983272314071655273e+00,1.983071565628051758e+00,1.982871174812316895e+00,1.982670664787292480e+00,1.982470393180847168e+00,1.982270121574401855e+00,1.982069611549377441e+00,1.981869459152221680e+00,1.981669068336486816e+00,1.981468915939331055e+00,1.981268644332885742e+00,1.981068611145019531e+00,1.980868339538574219e+00,1.980668425559997559e+00,1.980468511581420898e+00,1.980268478393554688e+00,1.980068564414978027e+00,1.979868531227111816e+00,1.979668855667114258e+00,1.979468941688537598e+00,1.979269266128540039e+00,1.979069352149963379e+00,1.978869795799255371e+00,1.978670239448547363e+00,1.978470444679260254e+00,1.978271007537841797e+00,1.978071331977844238e+00,1.977872014045715332e+00,1.977672457695007324e+00,1.977473139762878418e+00,1.977273583412170410e+00,1.977074384689331055e+00,1.976875185966491699e+00,1.976675868034362793e+00,1.976476669311523438e+00,1.976277470588684082e+00,1.976078391075134277e+00,1.975879192352294922e+00,1.975680232048034668e+00,1.975481152534484863e+00,1.975282192230224609e+00,1.975083470344543457e+00,1.974884390830993652e+00,1.974685668945312500e+00,1.974486708641052246e+00,1.974288105964660645e+00,1.974089264869689941e+00,1.973890662193298340e+00,1.973691821098327637e+00,1.966104030609130859e+00,1.934145569801330566e+00,1.903209447860717773e+00,1.873247623443603516e+00,1.844214320182800293e+00
1.777951478958129883e+00,1.777790427207946777e+00,1.777629137039184570e+00,1.777468085289001465e+00,1.777306914329528809e+00,1.777145981788635254e+00,1.776984930038452148e+00,1.776823997497558594e+00,1.776663064956665039e+00,1.776502013206481934e+00,1.776341199874877930e+00,1.776180267333984375e+00,1.776019454002380371e+00,1.775858521461486816e+00,1.775697827339172363e+00,1.775537014007568359e+00,1.775376319885253906e+00,1.775215744972229004e+00,1.775054931640625000e+00,1.774894475936889648e+00,1.774733662605285645e+00,1.774573206901550293e+00,1.774412512779235840e+00,1.774252176284790039e+00,1.774091482162475586e+00,1.773931145668029785e+00,1.773770809173583984e+00,1.773610234260559082e+00,1.773450016975402832e+00,1.773289561271667480e+00,1.773129224777221680e+00,1.772968888282775879e+00,1.772808670997619629e+00,1.772648334503173828e+00,1.772488236427307129e+00,1.772328138351440430e+00,1.772167921066284180e+00,1.772007822990417480e+00,1.771847605705261230e+00,1.771687626838684082e+00,1.771527528762817383e+00,1.771367549896240234e+00,1.771207571029663086e+00,1.771047711372375488e+00,1.770887851715087891e+00,1.770727872848510742e+00,1.770568013191223145e+00,1.770408153533935547e+00,1.770248413085937500e+00,1.770088553428649902e+00,1.769928812980651855e+00,1.769769072532653809e+00,1.769609451293945312e+00,1.769449830055236816e+00,1.769290089607238770e+00,1.769130587577819824e+00,1.768970966339111328e+00,1.768811464309692383e+00,1.768651843070983887e+00,1.768492460250854492e+00,1.768332839012145996e+00,1.768173575401306152e+00,1.768014073371887207e+00,1.767854690551757812e+00,1.767695546150207520e+00,1.767536044120788574e+00,1.767376899719238281e+00,1.767217516899108887e+00,1.767058372497558594e+00,1.766899108886718750e+00,1.766739964485168457e+00,1.766580700874328613e+00,1.766421675682067871e+00,1.766262769699096680e+00,1.766103506088256836e+00,1.765944600105285645e+00,1.765785574913024902e+00,1.765626668930053711e+00,1.765467643737792969e+00,1.765308856964111328e+00
1.607720851898193359e+00,1.607589006423950195e+00,1.607457280158996582e+00,1.607325553894042969e+00,1.607193827629089355e+00,1.607062101364135742e+00,1.606930375099182129e+00,1.606798768043518066e+00,1.606667041778564453e+00,1.606535553932189941e+00,1.606403827667236328e+00,1.606272339820861816e+00,1.606140851974487305e+00,1.606009244918823242e+00,1.605877876281738281e+00,1.605746269226074219e+00,1.605614900588989258e+00,1.605483412742614746e+00,1.605352044105529785e+00,1.605220556259155273e+00,1.605089306831359863e+00,1.604957938194274902e+00,1.604826569557189941e+00,1.604695320129394531e+00,1.604563951492309570e+00,1.604432702064514160e+00,1.604301452636718750e+00,1.604170203208923340e+00,1.604038953781127930e+00,1.603907823562622070e+00,1.603776812553405762e+00,1.603645563125610352e+00,1.603514552116394043e+00,1.603383302688598633e+00,1.603252291679382324e+00,1.603121161460876465e+00,1.602990269660949707e+00,1.602859139442443848e+00,1.602728247642517090e+00,1.602597355842590332e+00,1.602466344833374023e+00,1.602335453033447266e+00,1.602204442024230957e+00,1.602073669433593750e+00,1.601942658424377441e+00,1.601811885833740234e+00,1.601680994033813477e+00,1.601550340652465820e+00,1.601419448852539062e+00,1.601288795471191406e+00,1.601158142089843750e+00,1.601027250289916992e+00,1.600896716117858887e+00,1.600765943527221680e+00,1.600635409355163574e+00,1.600504636764526367e+00,1.600374102592468262e+00,1.600243449211120605e+00,1.600113034248352051e+00,1.599982500076293945e+00,1.599851846694946289e+00,1.599721431732177734e+00,1.599590897560119629e+00,1.599460482597351074e+00,1.599329948425292969e+00,1.599199652671813965e+00,1.599069118499755859e+00,1.598938822746276855e+00,1.598808646202087402e+00,1.598678231239318848e+00,1.598547935485839844e+00,1.598417520523071289e+00,1.598287343978881836e+00,1.598157048225402832e+00,1.598026871681213379e+00,1.597896575927734375e+00,1.597766518592834473e+00,1.597636461257934570e+00,1.597506165504455566e+00,1.597376108169555664e+00
1.467239379882812500e+00,1.467129588127136230e+00,1.467019915580749512e+00,1.466910123825073242e+00,1.466800451278686523e+00,1.466690659523010254e+00,1.466580986976623535e+00,1.466471433639526367e+00,1.466361761093139648e+00,1.466252088546752930e+00,1.466142416000366211e+00,1.466032862663269043e+00,1.465923309326171875e+00,1.465813755989074707e+00,1.465704083442687988e+00,1.465594649314880371e+00,1.465485215187072754e+00,1.465375661849975586e+00,1.465266227722167969e+00,1.465156674385070801e+00,1.465047240257263184e+00,1.464937806129455566e+00,1.464828372001647949e+00,1.464718937873840332e+00,1.464609622955322266e+00,1.464500308036804199e+00,1.464390873908996582e+00,1.464281558990478516e+00,1.464172244071960449e+00,1.464062929153442383e+00,1.463953614234924316e+00,1.463844418525695801e+00,1.463735103607177734e+00,1.463625907897949219e+00,1.463516592979431152e+00,1.463407516479492188e+00,1.463298320770263672e+00,1.463189125061035156e+00,1.463080048561096191e+00,1.462970733642578125e+00,1.462861776351928711e+00,1.462752580642700195e+00,1.462643504142761230e+00,1.462534427642822266e+00,1.462425351142883301e+00,1.462316393852233887e+00,1.462207317352294922e+00,1.462098360061645508e+00,1.461989283561706543e+00,1.461880326271057129e+00,1.461771368980407715e+00,1.461662411689758301e+00,1.461553454399108887e+00,1.461444616317749023e+00,1.461335778236389160e+00,1.461226820945739746e+00,1.461117982864379883e+00,1.461009144783020020e+00,1.460900306701660156e+00,1.460791468620300293e+00,1.460682749748229980e+00,1.460573911666870117e+00,1.460465192794799805e+00,1.460356473922729492e+00,1.460247635841369629e+00,1.460139036178588867e+00,1.460030198097229004e+00,1.459921598434448242e+00,1.459812879562377930e+00,1.459704279899597168e+00,1.459595561027526855e+00,1.459486961364746094e+00,1.459378480911254883e+00,1.459269762039184570e+00,1.459161281585693359e+00,1.459052681922912598e+00,1.458944201469421387e+00,1.458835601806640625e+00,1.458727121353149414e+00,1.458618640899658203e+00
1.349335312843322754e+00,1.349242568016052246e+00,1.349149823188781738e+00,1.349056959152221680e+00,1.348964214324951172e+00,1.348871350288391113e+00,1.348778605461120605e+00,1.348685860633850098e+00,1.348593115806579590e+00,1.348500370979309082e+00,1.348407626152038574e+00,1.348314881324768066e+00,1.348222255706787109e+00,1.348129630088806152e+00,1.348036885261535645e+00,1.347944378852844238e+00,1.347851634025573730e+00,1.347759008407592773e+00,1.347666382789611816e+00,1.347573876380920410e+00,1.347481131553649902e+00,1.347388625144958496e+00,1.347296237945556641e+00,1.347203612327575684e+00,1.347111105918884277e+00,1.347018480300903320e+00,1.346926093101501465e+00,1.346833467483520508e+00,1.346741080284118652e+00,1.346648573875427246e+00,1.346556067466735840e+00,1.346463680267333984e+00,1.346371173858642578e+00,1.346278786659240723e+00,1.346186399459838867e+00,1.346094012260437012e+00,1.346001625061035156e+00,1.345909237861633301e+00,1.345816850662231445e+00,1.345724582672119141e+00,1.345632314682006836e+00,1.345539927482604980e+00,1.345447659492492676e+00,1.345355272293090820e+00,1.345263004302978516e+00,1.345170736312866211e+00,1.345078468322753906e+00,1.344986200332641602e+00,1.344894051551818848e+00,1.344801783561706543e+00,1.344709515571594238e+00,1.344617366790771484e+00,1.344525218009948730e+00,1.344433069229125977e+00,1.344340801239013672e+00,1.344248771667480469e+00,1.344156503677368164e+00,1.344064474105834961e+00,1.343972444534301758e+00,1.343880295753479004e+00,1.343788266181945801e+00,1.343696117401123047e+00,1.343604087829589844e+00,1.343512058258056641e+00,1.343420028686523438e+00,1.343327999114990234e+00,1.343235969543457031e+00,1.343144059181213379e+00,1.343052029609680176e+00,1.342960119247436523e+00,1.342868089675903320e+00,1.342776179313659668e+00,1.342684149742126465e+00,1.342592358589172363e+00,1.342500329017639160e+00,1.342408537864685059e+00,1.342316508293151855e+00,1.342224717140197754e+00,1.342132925987243652e+00,1.342041015625000000e+00
1.248970985412597656e+00,1.248891472816467285e+00,1.248811841011047363e+00,1.248732447624206543e+00,1.248652935028076172e+00,1.248573422431945801e+00,1.248493909835815430e+00,1.248414516448974609e+00,1.248335003852844238e+00,1.248255491256713867e+00,1.248176097869873047e+00,1.248096704483032227e+00,1.248017311096191406e+00,1.247937798500061035e+00,1.247858405113220215e+00,1.247779011726379395e+00,1.247699618339538574e+00,1.247620344161987305e+00,1.247540950775146484e+00,1.247461557388305664e+00,1.247382164001464844e+00,1.247302889823913574e+00,1.247223615646362305e+00,1.247144341468811035e+00,1.247064948081970215e+00,1.246985673904418945e+00,1.246906399726867676e+00,1.246827125549316406e+00,1.246747851371765137e+00,1.246668577194213867e+00,1.246589422225952148e+00,1.246510148048400879e+00,1.246430993080139160e+00,1.246351718902587891e+00,1.246272563934326172e+00,1.246193408966064453e+00,1.246114134788513184e+00,1.246034979820251465e+00,1.245955824851989746e+00,1.245876669883728027e+00,1.245797514915466309e+00,1.245718359947204590e+00,1.245639204978942871e+00,1.245560169219970703e+00,1.245481133460998535e+00,1.245401978492736816e+00,1.245322942733764648e+00,1.245243787765502930e+00,1.245164752006530762e+00,1.245085716247558594e+00,1.245006680488586426e+00,1.244927644729614258e+00,1.244848608970642090e+00,1.244769692420959473e+00,1.244690656661987305e+00,1.244611620903015137e+00,1.244532585144042969e+00,1.244453668594360352e+00,1.244374752044677734e+00,1.244295835494995117e+00,1.244216799736022949e+00,1.244137883186340332e+00,1.244058966636657715e+00,1.243980050086975098e+00,1.243901252746582031e+00,1.243822336196899414e+00,1.243743419647216797e+00,1.243664503097534180e+00,1.243585705757141113e+00,1.243506789207458496e+00,1.243427991867065430e+00,1.243349075317382812e+00,1.243270397186279297e+00,1.243191599845886230e+00,1.243112683296203613e+00,1.243034005165100098e+00,1.242955207824707031e+00,1.242876410484313965e+00,1.242797613143920898e+00,1.242718935012817383e+00
1.162503361701965332e+00,1.162434339523315430e+00,1.162365555763244629e+00,1.162296652793884277e+00,1.162227749824523926e+00,1.162158846855163574e+00,1.162089943885803223e+00,1.162021160125732422e+00,1.161952257156372070e+00,1.161883473396301270e+00,1.161814570426940918e+00,1.161745786666870117e+00,1.161677002906799316e+00,1.161608219146728516e+00,1.161539435386657715e+00,1.161470651626586914e+00,1.161401867866516113e+00,1.161333084106445312e+00,1.161264300346374512e+00,1.161195516586303711e+00,1.161126852035522461e+00,1.161058068275451660e+00,1.160989284515380859e+00,1.160920619964599609e+00,1.160851836204528809e+00,1.160783171653747559e+00,1.160714507102966309e+00,1.160645842552185059e+00,1.160577058792114258e+00,1.160508394241333008e+00,1.160439848899841309e+00,1.160371065139770508e+00,1.160302519798278809e+00,1.160233736038208008e+00,1.160165190696716309e+00,1.160096526145935059e+00,1.160027980804443359e+00,1.159959316253662109e+00,1.159890770912170410e+00,1.159822106361389160e+00,1.159753561019897461e+00,1.159685015678405762e+00,1.159616351127624512e+00,1.159547805786132812e+00,1.159479260444641113e+00,1.159410715103149414e+00,1.159342169761657715e+00,1.159273624420166016e+00,1.159205079078674316e+00,1.159136652946472168e+00,1.159068107604980469e+00,1.158999562263488770e+00,1.158931136131286621e+00,1.158862590789794922e+00,1.158794164657592773e+00,1.158725619316101074e+00,1.158657193183898926e+00,1.158588767051696777e+00,1.158520340919494629e+00,1.158451914787292480e+00,1.158383488655090332e+00,1.158315181732177734e+00,1.158246636390686035e+00,1.158178329467773438e+00,1.158109903335571289e+00,1.158041596412658691e+00,1.157973170280456543e+00,1.157904744148254395e+00,1.157836437225341797e+00,1.157768130302429199e+00,1.157699823379516602e+00,1.157631397247314453e+00,1.157563090324401855e+00,1.157494783401489258e+00,1.157426476478576660e+00,1.157358169555664062e+00,1.157289862632751465e+00,1.157221674919128418e+00,1.157153248786926270e+00,1.157085061073303223e+00
1.087232947349548340e+00,1.087172627449035645e+00,1.087112426757812500e+00,1.087052106857299805e+00,1.086991906166076660e+00,1.086931586265563965e+00,1.086871385574340820e+00,1.086811184883117676e+00,1.086750864982604980e+00,1.086690783500671387e+00,1.086630463600158691e+00,1.086570262908935547e+00,1.086510062217712402e+00,1.086449980735778809e+00,1.086389660835266113e+00,1.086329579353332520e+00,1.086269378662109375e+00,1.086209177970886230e+00,1.086149096488952637e+00,1.086088895797729492e+00,1.086028814315795898e+00,1.085968613624572754e+00,1.085908532142639160e+00,1.085848331451416016e+00,1.085788249969482422e+00,1.085728168487548828e+00,1.085668087005615234e+00,1.085608005523681641e+00,1.085547924041748047e+00,1.085487842559814453e+00,1.085427761077880859e+00,1.085367679595947266e+00,1.085307598114013672e+00,1.085247516632080078e+00,1.085187435150146484e+00,1.085127472877502441e+00,1.085067510604858398e+00,1.085007429122924805e+00,1.084947347640991211e+00,1.084887385368347168e+00,1.084827423095703125e+00,1.084767341613769531e+00,1.084707379341125488e+00,1.084647297859191895e+00,1.084587335586547852e+00,1.084527373313903809e+00,1.084467411041259766e+00,1.084407448768615723e+00,1.084347486495971680e+00,1.084287524223327637e+00,1.084227561950683594e+00,1.084167718887329102e+00,1.084107756614685059e+00,1.084047794342041016e+00,1.083987951278686523e+00,1.083927989006042480e+00,1.083868145942687988e+00,1.083808183670043945e+00,1.083748340606689453e+00,1.083688378334045410e+00,1.083628535270690918e+00,1.083568692207336426e+00,1.083508849143981934e+00,1.083449006080627441e+00,1.083389163017272949e+00,1.083329319953918457e+00,1.083269476890563965e+00,1.083209633827209473e+00,1.083149790763854980e+00,1.083089947700500488e+00,1.083030104637145996e+00,1.082970380783081055e+00,1.082910537719726562e+00,1.082850813865661621e+00,1.082790970802307129e+00,1.082731127738952637e+00,1.082671403884887695e+00,1.082611680030822754e+00,1.082551956176757812e+00,1.082492113113403320e+00
1.021116971969604492e+00,1.021063923835754395e+00,1.021010756492614746e+00,1.020957589149475098e+00,1.020904421806335449e+00,1.020851254463195801e+00,1.020798206329345703e+00,1.020745038986206055e+00,1.020691871643066406e+00,1.020638704299926758e+00,1.020585656166076660e+00,1.020532488822937012e+00,1.020479440689086914e+00,1.020426392555236816e+00,1.020373225212097168e+00,1.020320177078247070e+00,1.020267128944396973e+00,1.020214080810546875e+00,1.020160913467407227e+00,1.020107865333557129e+00,1.020054817199707031e+00,1.020001769065856934e+00,1.019948840141296387e+00,1.019895672798156738e+00,1.019842743873596191e+00,1.019789695739746094e+00,1.019736647605895996e+00,1.019683599472045898e+00,1.019630551338195801e+00,1.019577622413635254e+00,1.019524574279785156e+00,1.019471645355224609e+00,1.019418597221374512e+00,1.019365668296813965e+00,1.019312620162963867e+00,1.019259691238403320e+00,1.019206643104553223e+00,1.019153714179992676e+00,1.019100785255432129e+00,1.019047856330871582e+00,1.018994927406311035e+00,1.018941879272460938e+00,1.018889069557189941e+00,1.018836021423339844e+00,1.018783211708068848e+00,1.018730163574218750e+00,1.018677353858947754e+00,1.018624424934387207e+00,1.018571496009826660e+00,1.018518686294555664e+00,1.018465757369995117e+00,1.018412828445434570e+00,1.018359899520874023e+00,1.018307089805603027e+00,1.018254160881042480e+00,1.018201351165771484e+00,1.018148422241210938e+00,1.018095612525939941e+00,1.018042802810668945e+00,1.017989993095397949e+00,1.017937183380126953e+00,1.017884254455566406e+00,1.017831444740295410e+00,1.017778635025024414e+00,1.017725825309753418e+00,1.017673015594482422e+00,1.017620205879211426e+00,1.017567396163940430e+00,1.017514586448669434e+00,1.017461895942687988e+00,1.017409086227416992e+00,1.017356276512145996e+00,1.017303466796875000e+00,1.017250776290893555e+00,1.017197966575622559e+00,1.017145276069641113e+00,1.017092466354370117e+00,1.017039775848388672e+00,1.016986966133117676e+00,1.016934275627136230e+00
