5.000000000000000000e+00,5.000000000000000000e+00,5.000000000000000000e+00,5.000000000000000000e+00,5.000000000000000000e+00,5.000000000000000000e+00,5.000000000000000000e+00,5.000000000000000000e+00,5.000000000000000000e+00,5.000000000000000000e+00,5.000000000000000000e+00,5.000000000000000000e+00,5.000000000000000000e+00,5.000000000000000000e+00,5.000000000000000000e+00,5.000000000000000000e+00,5.000000000000000000e+00,5.000000000000000000e+00,5.000000000000000000e+00,5.000000000000000000e+00,5.000000000000000000e+00,5.000000000000000000e+00,5.000000000000000000e+00,5.000000000000000000e+00,5.000000000000000000e+00,5.000000000000000000e+00,5.000000000000000000e+00,5.000000000000000000e+00,5.000000000000000000e+00,5.000000000000000000e+00,5.000000000000000000e+00,5.000000000000000000e+00,5.000000000000000000e+00,5.000000000000000000e+00,5.000000000000000000e+00,5.000000000000000000e+00,5.000000000000000000e+00,5.000000000000000000e+00,5.000000000000000000e+00,4.861885070800781250e+00,4.670934200286865234e+00,1.549422144889831543e+00,1.530524969100952148e+00,1.537948012351989746e+00,1.529086470603942871e+00,1.493467450141906738e+00,1.447431802749633789e+00,1.437423229217529297e+00,1.427551984786987305e+00,1.420194268226623535e+00,1.508985638618469238e+00,1.506494760513305664e+00,1.533568382263183594e+00,1.552459359169006348e+00,1.689441204071044922e+00,1.668770670890808105e+00,1.658536553382873535e+00,1.666349411010742188e+00,2.736418247222900391e+00,2.674872398376464844e+00,2.616034030914306641e+00,2.559728622436523438e+00,2.505795717239379883e+00,2.454088687896728516e+00,2.404472589492797852e+00,2.356822729110717773e+00,2.311024904251098633e+00,2.266973018646240234e+00,2.224569320678710938e+00,2.183722496032714844e+00,2.144348621368408203e+00,2.106369733810424805e+00,2.069712638854980469e+00,2.034309625625610352e+00,2.000097274780273438e+00,1.967016935348510742e+00,1.935012698173522949e+00,1.904033541679382324e+00,1.874030351638793945e+00,1.844958186149597168e+00
5.000000000000000000e+00,5.000000000000000000e+00,5.000000000000000000e+00,5.000000000000000000e+00,5.000000000000000000e+00,5.000000000000000000e+00,5.000000000000000000e+00,5.000000000000000000e+00,5.000000000000000000e+00,5.000000000000000000e+00,5.000000000000000000e+00,5.000000000000000000e+00,5.000000000000000000e+00,5.000000000000000000e+00,5.000000000000000000e+00,5.000000000000000000e+00,5.000000000000000000e+00,5.000000000000000000e+00,5.000000000000000000e+00,5.000000000000000000e+00,5.000000000000000000e+00,5.000000000000000000e+00,5.000000000000000000e+00,5.000000000000000000e+00,5.000000000000000000e+00,5.000000000000000000e+00,5.000000000000000000e+00,5.000000000000000000e+00,5.000000000000000000e+00,5.000000000000000000e+00,5.000000000000000000e+00,5.000000000000000000e+00,5.000000000000000000e+00,5.000000000000000000e+00,5.000000000000000000e+00,5.000000000000000000e+00,5.000000000000000000e+00,5.000000000000000000e+00,5.000000000000000000e+00,4.862023830413818359e+00,4.671061992645263672e+00,1.544987082481384277e+00,1.526682376861572266e+00,1.528397321701049805e+00,1.522698402404785156e+00,1.471098780632019043e+00,1.424558401107788086e+00,1.417754530906677246e+00,1.411015033721923828e+00,1.404353857040405273e+00,1.423815608024597168e+00,1.520786762237548828e+00,1.551457762718200684e+00,1.560098171234130859e+00,1.702527999877929688e+00,1.670753479003906250e+00,1.655442595481872559e+00,1.648472905158996582e+00,2.736462354660034180e+00,2.674914598464965820e+00,2.616074323654174805e+00,2.559767007827758789e+00,2.505832672119140625e+00,2.454124212265014648e+00,2.404506444931030273e+00,2.356855392456054688e+00,2.311056375503540039e+00,2.267003297805786133e+00,2.224598169326782227e+00,2.183750629425048828e+00,2.144375801086425781e+00,2.106395959854125977e+00,2.069737672805786133e+00,2.034333944320678711e+00,2.000120878219604492e+00,1.967039465904235840e+00,1.935034751892089844e+00,1.904054641723632812e+00,1.874051094055175781e+00,1.844978213310241699e+00
5.000000000000000000e+00,5.000000000000000000e+00,5.000000000000000000e+00,5.000000000000000000e+00,5.000000000000000000e+00,5.000000000000000000e+00,5.000000000000000000e+00,5.000000000000000000e+00,5.000000000000000000e+00,5.000000000000000000e+00,5.000000000000000000e+00,5.000000000000000000e+00,5.000000000000000000e+00,5.000000000000000000e+00,5.000000000000000000e+00,5.000000000000000000e+00,5.000000000000000000e+00,5.000000000000000000e+00,5.000000000000000000e+00,5.000000000000000000e+00,5.000000000000000000e+00,5.000000000000000000e+00,5.000000000000000000e+00,5.000000000000000000e+00,5.000000000000000000e+00,5.000000000000000000e+00,5.000000000000000000e+00,5.000000000000000000e+00,5.000000000000000000e+00,5.000000000000000000e+00,5.000000000000000000e+00,5.000000000000000000e+00,5.000000000000000000e+00,5.000000000000000000e+00,5.000000000000000000e+00,5.000000000000000000e+00,5.000000000000000000e+00,5.000000000000000000e+00,5.000000000000000000e+00,4.862162590026855469e+00,4.671190738677978516e+00,1.560404419898986816e+00,1.520703554153442383e+00,1.514599680900573730e+00,1.511772155761718750e+00,1.458339095115661621e+00,1.410017490386962891e+00,1.403715372085571289e+00,1.397599577903747559e+00,1.391536951065063477e+00,1.385571479797363281e+00,1.444915413856506348e+00,1.553822398185729980e+00,1.556047201156616211e+00,1.605305075645446777e+00,1.684849500656127930e+00,1.652783870697021484e+00,1.638713955879211426e+00,1.638665318489074707e+00,2.674956560134887695e+00,2.616114616394042969e+00,2.559805393218994141e+00,2.505869626998901367e+00,2.454159498214721680e+00,2.404540538787841797e+00,2.356888294219970703e+00,2.311087608337402344e+00,2.267033338546752930e+00,2.224627256393432617e+00,2.183778524398803711e+00,2.144402742385864258e+00,2.106421947479248047e+00,2.069762945175170898e+00,2.034358263015747070e+00,2.000144481658935547e+00,1.967062354087829590e+00,1.935056686401367188e+00,1.904076099395751953e+00,1.874071598052978516e+00,1.844998359680175781e+00
5.000000000000000000e+00,5.000000000000000000e+00,5.000000000000000000e+00,5.000000000000000000e+00,5.000000000000000000e+00,5.000000000000000000e+00,5.000000000000000000e+00,5.000000000000000000e+00,5.000000000000000000e+00,5.000000000000000000e+00,5.000000000000000000e+00,5.000000000000000000e+00,5.000000000000000000e+00,5.000000000000000000e+00,5.000000000000000000e+00,5.000000000000000000e+00,5.000000000000000000e+00,5.000000000000000000e+00,5.000000000000000000e+00,5.000000000000000000e+00,5.000000000000000000e+00,5.000000000000000000e+00,5.000000000000000000e+00,5.000000000000000000e+00,5.000000000000000000e+00,5.000000000000000000e+00,5.000000000000000000e+00,5.000000000000000000e+00,5.000000000000000000e+00,5.000000000000000000e+00,5.000000000000000000e+00,5.000000000000000000e+00,5.000000000000000000e+00,5.000000000000000000e+00,5.000000000000000000e+00,5.000000000000000000e+00,5.000000000000000000e+00,5.000000000000000000e+00,5.000000000000000000e+00,4.862301349639892578e+00,4.671318531036376953e+00,4.494771480560302734e+00,1.513474822044372559e+00,1.504518151283264160e+00,1.512462139129638672e+00,1.452097177505493164e+00,1.412760376930236816e+00,1.392692089080810547e+00,1.385953903198242188e+00,1.379991650581359863e+00,1.374080538749694824e+00,1.409462332725524902e+00,1.547692179679870605e+00,1.548498272895812988e+00,1.583004474639892578e+00,2.939461469650268555e+00,1.664368629455566406e+00,1.638331413269042969e+00,1.624808073043823242e+00,2.674998521804809570e+00,2.616154909133911133e+00,2.559844255447387695e+00,2.505906343460083008e+00,2.454194784164428711e+00,2.404574394226074219e+00,2.356920957565307617e+00,2.311119079589843750e+00,2.267063617706298828e+00,2.224656343460083008e+00,2.183806657791137695e+00,2.144429922103881836e+00,2.106447935104370117e+00,2.069787979125976562e+00,2.034382581710815430e+00,2.000167846679687500e+00,1.967085003852844238e+00,1.935078740119934082e+00,1.904097318649291992e+00,1.874092340469360352e+00,1.845018267631530762e+00
5.000000000000000000e+00,5.000000000000000000e+00,5.000000000000000000e+00,5.000000000000000000e+00,5.000000000000000000e+00,5.000000000000000000e+00,5.000000000000000000e+00,5.000000000000000000e+00,5.000000000000000000e+00,5.000000000000000000e+00,5.000000000000000000e+00,5.000000000000000000e+00,5.000000000000000000e+00,5.000000000000000000e+00,5.000000000000000000e+00,5.000000000000000000e+00,5.000000000000000000e+00,5.000000000000000000e+00,5.000000000000000000e+00,5.000000000000000000e+00,5.000000000000000000e+00,5.000000000000000000e+00,5.000000000000000000e+00,5.000000000000000000e+00,5.000000000000000000e+00,5.000000000000000000e+00,5.000000000000000000e+00,5.000000000000000000e+00,5.000000000000000000e+00,5.000000000000000000e+00,5.000000000000000000e+00,5.000000000000000000e+00,5.000000000000000000e+00,5.000000000000000000e+00,5.000000000000000000e+00,5.000000000000000000e+00,5.000000000000000000e+00,5.000000000000000000e+00,5.000000000000000000e+00,4.862440586090087891e+00,4.671446800231933594e+00,4.494890213012695312e+00,1.507492423057556152e+00,1.498104929924011230e+00,1.521553635597229004e+00,1.449063897132873535e+00,1.416147589683532715e+00,1.382810711860656738e+00,1.375787496566772461e+00,1.368835210800170898e+00,1.362821936607360840e+00,1.381147146224975586e+00,1.539162635803222656e+00,1.539258718490600586e+00,1.560503244400024414e+00,2.939512252807617188e+00,2.868609905242919922e+00,1.650485873222351074e+00,1.628929853439331055e+00,2.675040483474731445e+00,2.616194963455200195e+00,2.559882640838623047e+00,2.505943298339843750e+00,2.454230308532714844e+00,2.404608488082885742e+00,2.356953382492065430e+00,2.311150550842285156e+00,2.267093658447265625e+00,2.224685430526733398e+00,2.183834552764892578e+00,2.144456863403320312e+00,2.106473922729492188e+00,2.069813251495361328e+00,2.034406900405883789e+00,2.000191450119018555e+00,1.967107772827148438e+00,1.935100674629211426e+00,1.904118657112121582e+00,1.874112844467163086e+00,1.845038294792175293e+00
5.000000000000000000e+00,5.000000000000000000e+00,5.000000000000000000e+00,5.000000000000000000e+00,5.000000000000000000e+00,5.000000000000000000e+00,5.000000000000000000e+00,5.000000000000000000e+00,5.000000000000000000e+00,5.000000000000000000e+00,5.000000000000000000e+00,5.000000000000000000e+00,5.000000000000000000e+00,5.000000000000000000e+00,5.000000000000000000e+00,5.000000000000000000e+00,5.000000000000000000e+00,5.000000000000000000e+00,5.000000000000000000e+00,5.000000000000000000e+00,5.000000000000000000e+00,5.000000000000000000e+00,5.000000000000000000e+00,5.000000000000000000e+00,5.000000000000000000e+00,5.000000000000000000e+00,5.000000000000000000e+00,5.000000000000000000e+00,5.000000000000000000e+00,5.000000000000000000e+00,5.000000000000000000e+00,5.000000000000000000e+00,5.000000000000000000e+00,5.000000000000000000e+00,5.000000000000000000e+00,5.000000000000000000e+00,5.000000000000000000e+00,5.000000000000000000e+00,5.000000000000000000e+00,4.862579345703125000e+00,4.671575069427490234e+00,4.495008945465087891e+00,1.510083436965942383e+00,1.502084970474243164e+00,1.528542399406433105e+00,1.460985660552978516e+00,1.419551014900207520e+00,1.386055111885070801e+00,1.366143465042114258e+00,1.359288096427917480e+00,1.352501153945922852e+00,1.353376626968383789e+00,1.396801590919494629e+00,1.535986185073852539e+00,1.557151913642883301e+00,2.939563035964965820e+00,2.868658304214477539e+00,2.801093578338623047e+00,1.596114277839660645e+00,1.597631096839904785e+00,2.616235256195068359e+00,2.559921026229858398e+00,2.505980253219604492e+00,2.454265594482421875e+00,2.404642343521118164e+00,2.356986045837402344e+00,2.311181783676147461e+00,2.267123937606811523e+00,2.224714517593383789e+00,2.183862686157226562e+00,2.144483804702758789e+00,2.106500148773193359e+00,2.069838285446166992e+00,2.034431219100952148e+00,2.000214815139770508e+00,1.967130661010742188e+00,1.935122728347778320e+00,1.904139876365661621e+00,1.874133586883544922e+00,1.845058202743530273e+00
5.000000000000000000e+00,5.000000000000000000e+00,5.000000000000000000e+00,5.000000000000000000e+00,5.000000000000000000e+00,5.000000000000000000e+00,5.000000000000000000e+00,5.000000000000000000e+00,5.000000000000000000e+00,5.000000000000000000e+00,5.000000000000000000e+00,5.000000000000000000e+00,5.000000000000000000e+00,5.000000000000000000e+00,5.000000000000000000e+00,5.000000000000000000e+00,5.000000000000000000e+00,5.000000000000000000e+00,5.000000000000000000e+00,5.000000000000000000e+00,5.000000000000000000e+00,5.000000000000000000e+00,5.000000000000000000e+00,5.000000000000000000e+00,5.000000000000000000e+00,5.000000000000000000e+00,5.000000000000000000e+00,5.000000000000000000e+00,5.000000000000000000e+00,5.000000000000000000e+00,5.000000000000000000e+00,5.000000000000000000e+00,5.000000000000000000e+00,5.000000000000000000e+00,5.000000000000000000e+00,5.000000000000000000e+00,5.000000000000000000e+00,5.000000000000000000e+00,5.000000000000000000e+00,4.862718582153320312e+00,4.671702861785888672e+00,4.495127677917480469e+00,1.500861525535583496e+00,1.481780767440795898e+00,1.483719348907470703e+00,1.473624587059020996e+00,1.422970771789550781e+00,1.389778137207031250e+00,1.356561541557312012e+00,1.348309040069580078e+00,1.340872883796691895e+00,1.333518147468566895e+00,1.367132186889648438e+00,1.534992337226867676e+00,1.557043671607971191e+00,2.939613819122314453e+00,2.868706703186035156e+00,2.801139593124389648e+00,1.602403402328491211e+00,1.571872353553771973e+00,1.586807847023010254e+00,2.559959650039672852e+00,2.506017208099365234e+00,2.454300880432128906e+00,2.404676198959350586e+00,2.357018709182739258e+00,2.311213254928588867e+00,2.267154216766357422e+00,2.224743604660034180e+00,2.183890581130981445e+00,2.144510746002197266e+00,2.106526136398315430e+00,2.069863557815551758e+00,2.034455537796020508e+00,2.000238418579101562e+00,1.967153191566467285e+00,1.935144782066345215e+00,1.904161214828491211e+00,1.874154090881347656e+00,1.845078229904174805e+00
5.000000000000000000e+00,5.000000000000000000e+00,5.000000000000000000e+00,5.000000000000000000e+00,5.000000000000000000e+00,5.000000000000000000e+00,5.000000000000000000e+00,5.000000000000000000e+00,5.000000000000000000e+00,5.000000000000000000e+00,5.000000000000000000e+00,5.000000000000000000e+00,5.000000000000000000e+00,5.000000000000000000e+00,5.000000000000000000e+00,5.000000000000000000e+00,5.000000000000000000e+00,5.000000000000000000e+00,5.000000000000000000e+00,5.000000000000000000e+00,5.000000000000000000e+00,5.000000000000000000e+00,5.000000000000000000e+00,5.000000000000000000e+00,5.000000000000000000e+00,5.000000000000000000e+00,5.000000000000000000e+00,5.000000000000000000e+00,5.000000000000000000e+00,5.000000000000000000e+00,5.000000000000000000e+00,5.000000000000000000e+00,5.000000000000000000e+00,5.000000000000000000e+00,5.000000000000000000e+00,5.000000000000000000e+00,5.000000000000000000e+00,5.000000000000000000e+00,5.000000000000000000e+00,4.862857341766357422e+00,4.671831607818603516e+00,4.495246410369873047e+00,1.493176937103271484e+00,1.466893076896667480e+00,1.481074690818786621e+00,1.475192785263061523e+00,1.434745430946350098e+00,1.393521070480346680e+00,1.360946655273437500e+00,1.337019324302673340e+00,1.328423738479614258e+00,1.321204662322998047e+00,1.340064525604248047e+00,1.536805510520935059e+00,1.562800049781799316e+00,2.939664363861083984e+00,2.868754863739013672e+00,2.801185846328735352e+00,2.736726284027099609e+00,1.566163063049316406e+00,1.582642793655395508e+00,2.559998035430908203e+00,2.506054162979125977e+00,2.454336404800415039e+00,2.404710292816162109e+00,2.357051372528076172e+00,2.311244726181030273e+00,2.267184495925903320e+00,2.224772691726684570e+00,2.183918714523315430e+00,2.144537925720214844e+00,2.106552362442016602e+00,2.069888830184936523e+00,2.034479856491088867e+00,2.000261783599853516e+00,1.967176079750061035e+00,1.935166716575622559e+00,1.904182434082031250e+00,1.874174833297729492e+00,1.845098137855529785e+00
5.000000000000000000e+00,5.000000000000000000e+00,5.000000000000000000e+00,5.000000000000000000e+00,5.000000000000000000e+00,5.000000000000000000e+00,5.000000000000000000e+00,5.000000000000000000e+00,5.000000000000000000e+00,5.000000000000000000e+00,5.000000000000000000e+00,5.000000000000000000e+00,5.000000000000000000e+00,5.000000000000000000e+00,5.000000000000000000e+00,5.000000000000000000e+00,5.000000000000000000e+00,5.000000000000000000e+00,5.000000000000000000e+00,5.000000000000000000e+00,5.000000000000000000e+00,5.000000000000000000e+00,5.000000000000000000e+00,5.000000000000000000e+00,5.000000000000000000e+00,5.000000000000000000e+00,5.000000000000000000e+00,5.000000000000000000e+00,5.000000000000000000e+00,5.000000000000000000e+00,5.000000000000000000e+00,5.000000000000000000e+00,5.000000000000000000e+00,5.000000000000000000e+00,5.000000000000000000e+00,5.000000000000000000e+00,5.000000000000000000e+00,5.000000000000000000e+00,5.000000000000000000e+00,4.862996101379394531e+00,4.671959400177001953e+00,4.495364665985107422e+00,1.488509416580200195e+00,1.471221566200256348e+00,4.037523746490478516e+00,1.463275194168090820e+00,1.445104718208312988e+00,1.398584842681884766e+00,1.365124940872192383e+00,1.331743478775024414e+00,1.318084001541137695e+00,1.309116482734680176e+00,1.314047694206237793e+00,1.347423911094665527e+00,1.568598985671997070e+00,2.939715147018432617e+00,2.868803262710571289e+00,2.801231861114501953e+00,2.736770153045654297e+00,2.675208568572998047e+00,1.628223538398742676e+00,1.556237101554870605e+00,2.506090879440307617e+00,2.454371929168701172e+00,2.404744148254394531e+00,2.357084035873413086e+00,2.311275959014892578e+00,2.267214536666870117e+00,2.224801778793334961e+00,2.183946609497070312e+00,2.144564867019653320e+00,2.106578350067138672e+00,2.069913864135742188e+00,2.034504175186157227e+00,2.000285387039184570e+00,1.967198610305786133e+00,1.935188770294189453e+00,1.904203772544860840e+00,1.874195337295532227e+00,1.845118284225463867e+00
5.000000000000000000e+00,5.000000000000000000e+00,5.000000000000000000e+00,5.000000000000000000e+00,5.000000000000000000e+00,5.000000000000000000e+00,5.000000000000000000e+00,5.000000000000000000e+00,5.000000000000000000e+00,5.000000000000000000e+00,5.000000000000000000e+00,5.000000000000000000e+00,5.000000000000000000e+00,5.000000000000000000e+00,5.000000000000000000e+00,5.000000000000000000e+00,5.000000000000000000e+00,5.000000000000000000e+00,5.000000000000000000e+00,5.000000000000000000e+00,5.000000000000000000e+00,5.000000000000000000e+00,5.000000000000000000e+00,5.000000000000000000e+00,5.000000000000000000e+00,5.000000000000000000e+00,5.000000000000000000e+00,5.000000000000000000e+00,5.000000000000000000e+00,5.000000000000000000e+00,5.000000000000000000e+00,5.000000000000000000e+00,5.000000000000000000e+00,5.000000000000000000e+00,5.000000000000000000e+00,5.000000000000000000e+00,5.000000000000000000e+00,5.000000000000000000e+00,5.000000000000000000e+00,4.863134860992431641e+00,4.672087669372558594e+00,4.495483398437500000e+00,1.490304708480834961e+00,1.469501256942749023e+00,1.443983793258666992e+00,1.468011498451232910e+00,3.780896902084350586e+00,1.409466743469238281e+00,1.369328975677490234e+00,1.336951851844787598e+00,1.311614513397216797e+00,1.299677610397338867e+00,1.290362477302551270e+00,1.319759368896484375e+00,1.576128482818603516e+00,2.939765930175781250e+00,2.868851661682128906e+00,2.801277875900268555e+00,2.736814260482788086e+00,2.675250768661499023e+00,1.647159337997436523e+00,1.589406251907348633e+00,2.506127834320068359e+00,2.454407215118408203e+00,2.404778242111206055e+00,2.357116460800170898e+00,2.311307430267333984e+00,2.267244815826416016e+00,2.224830865859985352e+00,2.183974504470825195e+00,2.144591808319091797e+00,2.106604337692260742e+00,2.069939136505126953e+00,2.034528255462646484e+00,2.000308752059936523e+00,1.967221498489379883e+00,1.935210704803466797e+00,1.904225230216979980e+00,1.874216079711914062e+00,1.845138192176818848e+00
5.000000000000000000e+00,5.000000000000000000e+00,5.000000000000000000e+00,5.000000000000000000e+00,5.000000000000000000e+00,5.000000000000000000e+00,5.000000000000000000e+00,5.000000000000000000e+00,5.000000000000000000e+00,5.000000000000000000e+00,5.000000000000000000e+00,5.000000000000000000e+00,5.000000000000000000e+00,5.000000000000000000e+00,5.000000000000000000e+00,5.000000000000000000e+00,5.000000000000000000e+00,5.000000000000000000e+00,5.000000000000000000e+00,5.000000000000000000e+00,5.000000000000000000e+00,5.000000000000000000e+00,5.000000000000000000e+00,5.000000000000000000e+00,5.000000000000000000e+00,5.000000000000000000e+00,5.000000000000000000e+00,5.000000000000000000e+00,5.000000000000000000e+00,5.000000000000000000e+00,5.000000000000000000e+00,5.000000000000000000e+00,5.000000000000000000e+00,5.000000000000000000e+00,5.000000000000000000e+00,5.000000000000000000e+00,5.000000000000000000e+00,5.000000000000000000e+00,5.000000000000000000e+00,4.863274097442626953e+00,4.672215938568115234e+00,4.495602607727050781e+00,1.484564185142517090e+00,1.457329273223876953e+00,1.432737708091735840e+00,3.905133247375488281e+00,3.780980825424194336e+00,1.419548392295837402e+00,1.377397418022155762e+00,1.341983914375305176e+00,1.307817339897155762e+00,1.293387055397033691e+00,1.282134294509887695e+00,1.294966340065002441e+00,1.587882280349731445e+00,2.939816951751708984e+00,2.868899822235107422e+00,2.801323890686035156e+00,2.736858129501342773e+00,2.675292968750000000e+00,2.616436004638671875e+00,2.560113430023193359e+00,2.506164789199829102e+00,2.454442501068115234e+00,2.404812335968017578e+00,2.357149124145507812e+00,2.311338663101196289e+00,2.267275094985961914e+00,2.224859952926635742e+00,2.184002637863159180e+00,2.144618749618530273e+00,2.106630563735961914e+00,2.069964170455932617e+00,2.034552812576293945e+00,2.000332355499267578e+00,1.967244148254394531e+00,1.935232758522033691e+00,1.904246330261230469e+00,1.874236583709716797e+00,1.845158219337463379e+00
5.000000000000000000e+00,5.000000000000000000e+00,5.000000000000000000e+00,5.000000000000000000e+00,5.000000000000000000e+00,5.000000000000000000e+00,5.000000000000000000e+00,5.000000000000000000e+00,5.000000000000000000e+00,5.000000000000000000e+00,5.000000000000000000e+00,5.000000000000000000e+00,5.000000000000000000e+00,5.000000000000000000e+00,5.000000000000000000e+00,5.000000000000000000e+00,5.000000000000000000e+00,5.000000000000000000e+00,5.000000000000000000e+00,5.000000000000000000e+00,5.000000000000000000e+00,5.000000000000000000e+00,5.000000000000000000e+00,5.000000000000000000e+00,5.000000000000000000e+00,5.000000000000000000e+00,5.000000000000000000e+00,5.000000000000000000e+00,5.000000000000000000e+00,5.000000000000000000e+00,5.000000000000000000e+00,5.000000000000000000e+00,5.000000000000000000e+00,5.000000000000000000e+00,5.000000000000000000e+00,5.000000000000000000e+00,5.000000000000000000e+00,5.000000000000000000e+00,5.000000000000000000e+00,4.863412857055664062e+00,4.672344207763671875e+00,4.495721340179443359e+00,1.479202747344970703e+00,1.448161482810974121e+00,4.037810802459716797e+00,3.905222892761230469e+00,3.781065225601196289e+00,3.664558649063110352e+00,1.385737538337707520e+00,1.346755146980285645e+00,1.312972068786621094e+00,1.289797306060791016e+00,1.277261972427368164e+00,1.284998297691345215e+00,1.305099248886108398e+00,2.939867734909057617e+00,2.868948221206665039e+00,2.801370143890380859e+00,2.736902236938476562e+00,2.675334930419921875e+00,2.616476297378540039e+00,2.560152053833007812e+00,2.506201505661010742e+00,2.454478025436401367e+00,2.404846191406250000e+00,2.357181787490844727e+00,2.311370134353637695e+00,2.267305135726928711e+00,2.224889039993286133e+00,2.184030771255493164e+00,2.144645929336547852e+00,2.106656551361083984e+00,2.069989442825317383e+00,2.034577131271362305e+00,2.000355720520019531e+00,1.967266917228698730e+00,1.935254693031311035e+00,1.904267787933349609e+00,1.874257326126098633e+00,1.845178127288818359e+00
5.000000000000000000e+00,5.000000000000000000e+00,5.000000000000000000e+00,5.000000000000000000e+00,5.000000000000000000e+00,5.000000000000000000e+00,5.000000000000000000e+00,5.000000000000000000e+00,5.000000000000000000e+00,5.000000000000000000e+00,5.000000000000000000e+00,5.000000000000000000e+00,5.000000000000000000e+00,5.000000000000000000e+00,5.000000000000000000e+00,5.000000000000000000e+00,5.000000000000000000e+00,5.000000000000000000e+00,5.000000000000000000e+00,5.000000000000000000e+00,5.000000000000000000e+00,5.000000000000000000e+00,5.000000000000000000e+00,5.000000000000000000e+00,5.000000000000000000e+00,5.000000000000000000e+00,5.000000000000000000e+00,5.000000000000000000e+00,5.000000000000000000e+00,5.000000000000000000e+00,5.000000000000000000e+00,5.000000000000000000e+00,5.000000000000000000e+00,5.000000000000000000e+00,5.000000000000000000e+00,5.000000000000000000e+00,5.000000000000000000e+00,5.000000000000000000e+00,5.000000000000000000e+00,4.863551616668701172e+00,4.672472476959228516e+00,4.495839595794677734e+00,4.332075119018554688e+00,4.179821491241455078e+00,4.037906646728515625e+00,3.905312299728393555e+00,3.781149148941040039e+00,3.664637327194213867e+00,1.391618728637695312e+00,1.353499889373779297e+00,1.318673253059387207e+00,1.289529442787170410e+00,1.276801705360412598e+00,1.280235409736633301e+00,1.297622442245483398e+00,2.939918518066406250e+00,2.868996620178222656e+00,2.801416158676147461e+00,2.736946105957031250e+00,2.675376892089843750e+00,2.616516590118408203e+00,2.560190439224243164e+00,2.506238460540771484e+00,2.454513311386108398e+00,2.404880046844482422e+00,2.357214450836181641e+00,2.311401367187500000e+00,2.267335414886474609e+00,2.224918127059936523e+00,2.184058666229248047e+00,2.144672870635986328e+00,2.106682538986206055e+00,2.070014476776123047e+00,2.034601449966430664e+00,2.000379562377929688e+00,1.967289566993713379e+00,1.935276746749877930e+00,1.904289007186889648e+00,1.874278068542480469e+00,1.845198154449462891e+00
5.000000000000000000e+00,5.000000000000000000e+00,5.000000000000000000e+00,5.000000000000000000e+00,5.000000000000000000e+00,5.000000000000000000e+00,5.000000000000000000e+00,5.000000000000000000e+00,5.000000000000000000e+00,5.000000000000000000e+00,5.000000000000000000e+00,5.000000000000000000e+00,5.000000000000000000e+00,5.000000000000000000e+00,5.000000000000000000e+00,5.000000000000000000e+00,5.000000000000000000e+00,5.000000000000000000e+00,5.000000000000000000e+00,5.000000000000000000e+00,5.000000000000000000e+00,5.000000000000000000e+00,5.000000000000000000e+00,5.000000000000000000e+00,5.000000000000000000e+00,5.000000000000000000e+00,5.000000000000000000e+00,5.000000000000000000e+00,5.000000000000000000e+00,5.000000000000000000e+00,5.000000000000000000e+00,5.000000000000000000e+00,5.000000000000000000e+00,5.000000000000000000e+00,5.000000000000000000e+00,5.000000000000000000e+00,5.000000000000000000e+00,5.000000000000000000e+00,5.000000000000000000e+00,4.863690853118896484e+00,4.672600746154785156e+00,4.495958328247070312e+00,4.332185268402099609e+00,4.179924011230468750e+00,4.038002490997314453e+00,3.905401945114135742e+00,3.781233072280883789e+00,3.664716720581054688e+00,3.555166006088256836e+00,1.361227631568908691e+00,1.318724393844604492e+00,1.293073773384094238e+00,1.278592348098754883e+00,1.283961772918701172e+00,1.302430868148803711e+00,2.939969062805175781e+00,2.869045019149780273e+00,2.801462173461914062e+00,2.736990213394165039e+00,2.675418853759765625e+00,2.616556882858276367e+00,2.560228824615478516e+00,2.506275415420532227e+00,2.454548835754394531e+00,2.404914140701293945e+00,2.357247114181518555e+00,2.311432838439941406e+00,2.267365455627441406e+00,2.224947214126586914e+00,2.184086799621582031e+00,2.144699811935424805e+00,2.106708526611328125e+00,2.070039749145507812e+00,2.034625768661499023e+00,2.000402927398681641e+00,1.967312335968017578e+00,1.935298681259155273e+00,1.904310345649719238e+00,1.874298572540283203e+00,1.845218300819396973e+00
5.000000000000000000e+00,5.000000000000000000e+00,5.000000000000000000e+00,5.000000000000000000e+00,5.000000000000000000e+00,5.000000000000000000e+00,5.000000000000000000e+00,5.000000000000000000e+00,5.000000000000000000e+00,5.000000000000000000e+00,5.000000000000000000e+00,5.000000000000000000e+00,5.000000000000000000e+00,5.000000000000000000e+00,5.000000000000000000e+00,5.000000000000000000e+00,5.000000000000000000e+00,5.000000000000000000e+00,5.000000000000000000e+00,5.000000000000000000e+00,5.000000000000000000e+00,5.000000000000000000e+00,5.000000000000000000e+00,5.000000000000000000e+00,5.000000000000000000e+00,5.000000000000000000e+00,5.000000000000000000e+00,5.000000000000000000e+00,5.000000000000000000e+00,5.000000000000000000e+00,5.000000000000000000e+00,5.000000000000000000e+00,5.000000000000000000e+00,5.000000000000000000e+00,5.000000000000000000e+00,5.000000000000000000e+00,5.000000000000000000e+00,5.000000000000000000e+00,5.000000000000000000e+00,4.863829612731933594e+00,4.672729015350341797e+00,4.496077060699462891e+00,4.332295417785644531e+00,4.180026531219482422e+00,4.038098335266113281e+00,3.905491352081298828e+00,3.781316995620727539e+00,3.664795637130737305e+00,3.555240154266357422e+00,1.356511473655700684e+00,1.318929195404052734e+00,1.300902009010314941e+00,1.286720871925354004e+00,1.296676635742187500e+00,1.319415092468261719e+00,2.940019845962524414e+00,2.869093418121337891e+00,2.801508188247680664e+00,2.737034082412719727e+00,2.675461053848266602e+00,2.616597175598144531e+00,2.560267686843872070e+00,2.506312131881713867e+00,2.454584121704101562e+00,2.404947996139526367e+00,2.357279777526855469e+00,2.311464071273803711e+00,2.267395734786987305e+00,2.224976301193237305e+00,2.184114694595336914e+00,2.144726991653442383e+00,2.106734752655029297e+00,2.070064783096313477e+00,2.034650087356567383e+00,2.000426530838012695e+00,1.967334985733032227e+00,1.935320734977722168e+00,1.904331564903259277e+00,1.874319314956665039e+00,1.845238208770751953e+00
5.000000000000000000e+00,5.000000000000000000e+00,5.000000000000000000e+00,5.000000000000000000e+00,5.000000000000000000e+00,5.000000000000000000e+00,5.000000000000000000e+00,5.000000000000000000e+00,5.000000000000000000e+00,5.000000000000000000e+00,5.000000000000000000e+00,5.000000000000000000e+00,5.000000000000000000e+00,5.000000000000000000e+00,5.000000000000000000e+00,5.000000000000000000e+00,5.000000000000000000e+00,5.000000000000000000e+00,5.000000000000000000e+00,5.000000000000000000e+00,5.000000000000000000e+00,5.000000000000000000e+00,5.000000000000000000e+00,5.000000000000000000e+00,5.000000000000000000e+00,5.000000000000000000e+00,5.000000000000000000e+00,5.000000000000000000e+00,5.000000000000000000e+00,5.000000000000000000e+00,5.000000000000000000e+00,5.000000000000000000e+00,5.000000000000000000e+00,5.000000000000000000e+00,5.000000000000000000e+00,5.000000000000000000e+00,5.000000000000000000e+00,5.000000000000000000e+00,5.000000000000000000e+00,4.863968372344970703e+00,4.672857284545898438e+00,4.496196269989013672e+00,4.332405567169189453e+00,4.180129528045654297e+00,4.038193702697753906e+00,3.905580997467041016e+00,3.781400918960571289e+00,3.664874315261840820e+00,3.555314540863037109e+00,1.348576426506042480e+00,1.321310639381408691e+00,1.310549855232238770e+00,1.296449780464172363e+00,1.312235355377197266e+00,3.014595270156860352e+00,2.940070629119873047e+00,2.869141817092895508e+00,2.801554679870605469e+00,2.737078189849853516e+00,2.675503015518188477e+00,2.616637229919433594e+00,2.560306072235107422e+00,2.506349086761474609e+00,2.454619407653808594e+00,2.404982089996337891e+00,2.357312440872192383e+00,2.311495780944824219e+00,2.267426013946533203e+00,2.225005149841308594e+00,2.184142827987670898e+00,2.144753932952880859e+00,2.106760740280151367e+00,2.070090055465698242e+00,2.034674406051635742e+00,2.000449895858764648e+00,1.967357873916625977e+00,1.935342669486999512e+00,1.904352903366088867e+00,1.874339818954467773e+00,1.845258235931396484e+00
5.000000000000000000e+00,5.000000000000000000e+00,5.000000000000000000e+00,5.000000000000000000e+00,5.000000000000000000e+00,5.000000000000000000e+00,5.000000000000000000e+00,5.000000000000000000e+00,5.000000000000000000e+00,5.000000000000000000e+00,5.000000000000000000e+00,5.000000000000000000e+00,5.000000000000000000e+00,5.000000000000000000e+00,5.000000000000000000e+00,5.000000000000000000e+00,5.000000000000000000e+00,5.000000000000000000e+00,5.000000000000000000e+00,5.000000000000000000e+00,5.000000000000000000e+00,5.000000000000000000e+00,5.000000000000000000e+00,5.000000000000000000e+00,5.000000000000000000e+00,5.000000000000000000e+00,5.000000000000000000e+00,5.000000000000000000e+00,5.000000000000000000e+00,5.000000000000000000e+00,5.000000000000000000e+00,5.000000000000000000e+00,5.000000000000000000e+00,5.000000000000000000e+00,5.000000000000000000e+00,5.000000000000000000e+00,5.000000000000000000e+00,5.000000000000000000e+00,5.000000000000000000e+00,4.864107608795166016e+00,4.672985553741455078e+00,4.496315002441406250e+00,4.332516193389892578e+00,4.180232048034667969e+00,4.038289546966552734e+00,3.905670642852783203e+00,3.781485080718994141e+00,3.664953231811523438e+00,1.401078104972839355e+00,1.347330927848815918e+00,1.326653718948364258e+00,1.319224119186401367e+00,1.309262156486511230e+00,1.336238026618957520e+00,3.014648675918579102e+00,2.940121412277221680e+00,2.869190216064453125e+00,2.801600694656372070e+00,2.737122058868408203e+00,2.675544977188110352e+00,2.616677522659301758e+00,2.560344696044921875e+00,2.506386041641235352e+00,2.454654932022094727e+00,2.405015945434570312e+00,2.357345104217529297e+00,2.311527013778686523e+00,2.267456054687500000e+00,2.225034236907958984e+00,2.184170722961425781e+00,2.144781112670898438e+00,2.106786966323852539e+00,2.070115089416503906e+00,2.034698724746704102e+00,2.000473499298095703e+00,1.967380642890930176e+00,1.935364723205566406e+00,1.904374122619628906e+00,1.874360561370849609e+00,1.845278143882751465e+00
5.000000000000000000e+00,5.000000000000000000e+00,5.000000000000000000e+00,5.000000000000000000e+00,5.000000000000000000e+00,5.000000000000000000e+00,5.000000000000000000e+00,5.000000000000000000e+00,5.000000000000000000e+00,5.000000000000000000e+00,5.000000000000000000e+00,5.000000000000000000e+00,5.000000000000000000e+00,5.000000000000000000e+00,5.000000000000000000e+00,5.000000000000000000e+00,5.000000000000000000e+00,5.000000000000000000e+00,5.000000000000000000e+00,5.000000000000000000e+00,5.000000000000000000e+00,5.000000000000000000e+00,5.000000000000000000e+00,5.000000000000000000e+00,5.000000000000000000e+00,5.000000000000000000e+00,5.000000000000000000e+00,5.000000000000000000e+00,5.000000000000000000e+00,5.000000000000000000e+00,5.000000000000000000e+00,5.000000000000000000e+00,5.000000000000000000e+00,5.000000000000000000e+00,5.000000000000000000e+00,5.000000000000000000e+00,5.000000000000000000e+00,5.000000000000000000e+00,5.000000000000000000e+00,4.864246845245361328e+00,4.673113822937011719e+00,4.496433734893798828e+00,4.332626342773437500e+00,4.180334568023681641e+00,4.038385868072509766e+00,3.905760049819946289e+00,3.781569004058837891e+00,3.665032148361206055e+00,1.380952239036560059e+00,1.352354168891906738e+00,1.334201097488403320e+00,1.328013777732849121e+00,1.325126171112060547e+00,1.557132959365844727e+00,3.014701843261718750e+00,2.940172195434570312e+00,2.869238376617431641e+00,2.801646709442138672e+00,2.737166166305541992e+00,2.675586938858032227e+00,2.616717576980590820e+00,2.560383081436157227e+00,2.506422996520996094e+00,2.454690217971801758e+00,2.405050039291381836e+00,2.357377767562866211e+00,2.311558485031127930e+00,2.267486333847045898e+00,2.225063323974609375e+00,2.184198856353759766e+00,2.144808053970336914e+00,2.106812953948974609e+00,2.070140361785888672e+00,2.034723043441772461e+00,2.000496864318847656e+00,1.967403292655944824e+00,1.935386776924133301e+00,1.904395580291748047e+00,1.874381065368652344e+00,1.845298290252685547e+00
5.000000000000000000e+00,5.000000000000000000e+00,5.000000000000000000e+00,5.000000000000000000e+00,5.000000000000000000e+00,5.000000000000000000e+00,5.000000000000000000e+00,5.000000000000000000e+00,5.000000000000000000e+00,5.000000000000000000e+00,5.000000000000000000e+00,5.000000000000000000e+00,5.000000000000000000e+00,5.000000000000000000e+00,5.000000000000000000e+00,5.000000000000000000e+00,5.000000000000000000e+00,5.000000000000000000e+00,5.000000000000000000e+00,5.000000000000000000e+00,5.000000000000000000e+00,5.000000000000000000e+00,5.000000000000000000e+00,5.000000000000000000e+00,5.000000000000000000e+00,5.000000000000000000e+00,5.000000000000000000e+00,5.000000000000000000e+00,5.000000000000000000e+00,5.000000000000000000e+00,5.000000000000000000e+00,5.000000000000000000e+00,5.000000000000000000e+00,5.000000000000000000e+00,5.000000000000000000e+00,5.000000000000000000e+00,5.000000000000000000e+00,5.000000000000000000e+00,5.000000000000000000e+00,4.864385604858398438e+00,4.673242092132568359e+00,4.496552467346191406e+00,4.332736492156982422e+00,4.180437088012695312e+00,4.038481235504150391e+00,3.905849695205688477e+00,3.781652927398681641e+00,3.665111064910888672e+00,1.379066109657287598e+00,1.357951760292053223e+00,1.343192219734191895e+00,1.336921334266662598e+00,1.351994872093200684e+00,3.093165159225463867e+00,3.014755249023437500e+00,2.940222978591918945e+00,2.869286775588989258e+00,2.801692724227905273e+00,2.737210273742675781e+00,2.675629138946533203e+00,2.616757869720458984e+00,2.560421466827392578e+00,2.506459951400756836e+00,2.454725503921508789e+00,2.405083894729614258e+00,2.357410430908203125e+00,2.311589717864990234e+00,2.267516613006591797e+00,2.225092411041259766e+00,2.184226751327514648e+00,2.144834995269775391e+00,2.106838941574096680e+00,2.070165634155273438e+00,2.034747123718261719e+00,2.000520467758178711e+00,1.967426061630249023e+00,1.935408711433410645e+00,1.904416680335998535e+00,1.874401807785034180e+00,1.845318198204040527e+00
5.000000000000000000e+00,5.000000000000000000e+00,5.000000000000000000e+00,5.000000000000000000e+00,5.000000000000000000e+00,5.000000000000000000e+00,5.000000000000000000e+00,5.000000000000000000e+00,5.000000000000000000e+00,5.000000000000000000e+00,5.000000000000000000e+00,5.000000000000000000e+00,5.000000000000000000e+00,5.000000000000000000e+00,5.000000000000000000e+00,5.000000000000000000e+00,5.000000000000000000e+00,5.000000000000000000e+00,5.000000000000000000e+00,5.000000000000000000e+00,5.000000000000000000e+00,5.000000000000000000e+00,5.000000000000000000e+00,5.000000000000000000e+00,5.000000000000000000e+00,5.000000000000000000e+00,5.000000000000000000e+00,5.000000000000000000e+00,5.000000000000000000e+00,5.000000000000000000e+00,5.000000000000000000e+00,5.000000000000000000e+00,5.000000000000000000e+00,5.000000000000000000e+00,5.000000000000000000e+00,5.000000000000000000e+00,5.000000000000000000e+00,5.000000000000000000e+00,5.000000000000000000e+00,4.864524364471435547e+00,4.673370361328125000e+00,4.496670722961425781e+00,4.332847118377685547e+00,4.180540084838867188e+00,4.038577079772949219e+00,3.905939817428588867e+00,3.781736850738525391e+00,1.691473126411437988e+00,1.384544134140014648e+00,1.363265633583068848e+00,1.347527980804443359e+00,1.341491460800170898e+00,1.361216664314270020e+00,3.093221187591552734e+00,3.014808893203735352e+00,2.940273761749267578e+00,2.869335174560546875e+00,2.801738977432250977e+00,2.737254142761230469e+00,2.675671100616455078e+00,2.616798162460327148e+00,2.560460090637207031e+00,2.506496906280517578e+00,2.454761266708374023e+00,2.405117750167846680e+00,2.357442855834960938e+00,2.311621189117431641e+00,2.267546892166137695e+00,2.225121498107910156e+00,2.184254884719848633e+00,2.144862174987792969e+00,2.106865167617797852e+00,2.070190906524658203e+00,2.034771442413330078e+00,2.000543832778930664e+00,1.967448711395263672e+00,1.935430765151977539e+00,1.904438138008117676e+00,1.874422311782836914e+00,1.845338225364685059e+00
5.000000000000000000e+00,5.000000000000000000e+00,5.000000000000000000e+00,5.000000000000000000e+00,5.000000000000000000e+00,5.000000000000000000e+00,5.000000000000000000e+00,5.000000000000000000e+00,5.000000000000000000e+00,5.000000000000000000e+00,5.000000000000000000e+00,5.000000000000000000e+00,5.000000000000000000e+00,5.000000000000000000e+00,5.000000000000000000e+00,5.000000000000000000e+00,5.000000000000000000e+00,5.000000000000000000e+00,5.000000000000000000e+00,5.000000000000000000e+00,5.000000000000000000e+00,5.000000000000000000e+00,5.000000000000000000e+00,5.000000000000000000e+00,5.000000000000000000e+00,5.000000000000000000e+00,5.000000000000000000e+00,5.000000000000000000e+00,5.000000000000000000e+00,5.000000000000000000e+00,5.000000000000000000e+00,5.000000000000000000e+00,5.000000000000000000e+00,5.000000000000000000e+00,5.000000000000000000e+00,5.000000000000000000e+00,5.000000000000000000e+00,5.000000000000000000e+00,5.000000000000000000e+00,4.864663600921630859e+00,4.673498630523681641e+00,4.496789455413818359e+00,4.332957267761230469e+00,4.180642604827880859e+00,4.038672924041748047e+00,3.906029224395751953e+00,3.781820774078369141e+00,1.668120622634887695e+00,1.390065789222717285e+00,1.368665575981140137e+00,1.351956963539123535e+00,1.345604896545410156e+00,1.370565295219421387e+00,3.093277454376220703e+00,3.014862298965454102e+00,2.940324544906616211e+00,2.869383335113525391e+00,2.801784992218017578e+00,2.737298250198364258e+00,2.675713300704956055e+00,2.616838216781616211e+00,2.560498476028442383e+00,2.506533622741699219e+00,2.454796552658081055e+00,2.405151844024658203e+00,2.357475519180297852e+00,2.311652660369873047e+00,2.267576932907104492e+00,2.225150823593139648e+00,2.184282779693603516e+00,2.144889116287231445e+00,2.106891155242919922e+00,2.070215940475463867e+00,2.034795761108398438e+00,2.000567436218261719e+00,1.967471599578857422e+00,1.935452699661254883e+00,1.904459476470947266e+00,1.874443054199218750e+00,1.845358133316040039e+00
5.000000000000000000e+00,5.000000000000000000e+00,5.000000000000000000e+00,5.000000000000000000e+00,5.000000000000000000e+00,5.000000000000000000e+00,5.000000000000000000e+00,5.000000000000000000e+00,5.000000000000000000e+00,5.000000000000000000e+00,5.000000000000000000e+00,5.000000000000000000e+00,5.000000000000000000e+00,5.000000000000000000e+00,5.000000000000000000e+00,5.000000000000000000e+00,5.000000000000000000e+00,5.000000000000000000e+00,5.000000000000000000e+00,5.000000000000000000e+00,5.000000000000000000e+00,5.000000000000000000e+00,5.000000000000000000e+00,5.000000000000000000e+00,5.000000000000000000e+00,5.000000000000000000e+00,5.000000000000000000e+00,5.000000000000000000e+00,5.000000000000000000e+00,5.000000000000000000e+00,5.000000000000000000e+00,5.000000000000000000e+00,5.000000000000000000e+00,5.000000000000000000e+00,5.000000000000000000e+00,5.000000000000000000e+00,5.000000000000000000e+00,5.000000000000000000e+00,5.000000000000000000e+00,4.864801883697509766e+00,4.673626899719238281e+00,4.496908664703369141e+00,4.333067417144775391e+00,4.180745601654052734e+00,4.038768768310546875e+00,3.906118869781494141e+00,3.781904697418212891e+00,1.660432577133178711e+00,1.395631670951843262e+00,1.374274730682373047e+00,1.357168674468994141e+00,1.349743366241455078e+00,1.378598332405090332e+00,3.093333721160888672e+00,3.014915704727172852e+00,2.940375566482543945e+00,2.869431734085083008e+00,2.801831007003784180e+00,2.737342119216918945e+00,2.675755262374877930e+00,2.616878509521484375e+00,2.560537099838256836e+00,2.506570577621459961e+00,2.454831838607788086e+00,2.405185937881469727e+00,2.357508182525634766e+00,2.311683893203735352e+00,2.267607212066650391e+00,2.225179910659790039e+00,2.184310913085937500e+00,2.144916057586669922e+00,2.106917142868041992e+00,2.070241212844848633e+00,2.034820318222045898e+00,2.000590801239013672e+00,1.967494130134582520e+00,1.935474753379821777e+00,1.904480695724487305e+00,1.874463558197021484e+00,1.845378279685974121e+00
5.000000000000000000e+00,5.000000000000000000e+00,5.000000000000000000e+00,5.000000000000000000e+00,5.000000000000000000e+00,5.000000000000000000e+00,5.000000000000000000e+00,5.000000000000000000e+00,5.000000000000000000e+00,5.000000000000000000e+00,5.000000000000000000e+00,5.000000000000000000e+00,5.000000000000000000e+00,5.000000000000000000e+00,5.000000000000000000e+00,5.000000000000000000e+00,5.000000000000000000e+00,5.000000000000000000e+00,5.000000000000000000e+00,5.000000000000000000e+00,5.000000000000000000e+00,5.000000000000000000e+00,5.000000000000000000e+00,5.000000000000000000e+00,5.000000000000000000e+00,5.000000000000000000e+00,5.000000000000000000e+00,5.000000000000000000e+00,5.000000000000000000e+00,5.000000000000000000e+00,5.000000000000000000e+00,5.000000000000000000e+00,5.000000000000000000e+00,5.000000000000000000e+00,5.000000000000000000e+00,5.000000000000000000e+00,5.000000000000000000e+00,5.000000000000000000e+00,5.000000000000000000e+00,4.864940643310546875e+00,4.673754215240478516e+00,4.497027397155761719e+00,4.333177566528320312e+00,4.180848121643066406e+00,4.038864612579345703e+00,3.906208515167236328e+00,3.781989097595214844e+00,1.661243557929992676e+00,1.401242375373840332e+00,1.379930019378662109e+00,1.362420916557312012e+00,1.353907704353332520e+00,1.386569261550903320e+00,3.093389749526977539e+00,3.014969110488891602e+00,2.940426111221313477e+00,2.869480133056640625e+00,2.801877260208129883e+00,2.737386226654052734e+00,2.675797462463378906e+00,2.616918802261352539e+00,2.560575485229492188e+00,2.506607532501220703e+00,2.454867362976074219e+00,2.405220031738281250e+00,2.357540845870971680e+00,2.311715364456176758e+00,2.267637252807617188e+00,2.225208759307861328e+00,2.184339046478271484e+00,2.144942998886108398e+00,2.106943368911743164e+00,2.070266246795654297e+00,2.034844636917114258e+00,2.000614404678344727e+00,1.967517018318176270e+00,1.935496687889099121e+00,1.904502153396606445e+00,1.874484300613403320e+00,1.845398187637329102e+00
5.000000000000000000e+00,5.000000000000000000e+00,5.000000000000000000e+00,5.000000000000000000e+00,5.000000000000000000e+00,5.000000000000000000e+00,5.000000000000000000e+00,5.000000000000000000e+00,5.000000000000000000e+00,5.000000000000000000e+00,5.000000000000000000e+00,5.000000000000000000e+00,5.000000000000000000e+00,5.000000000000000000e+00,5.000000000000000000e+00,5.000000000000000000e+00,5.000000000000000000e+00,5.000000000000000000e+00,5.000000000000000000e+00,5.000000000000000000e+00,5.000000000000000000e+00,5.000000000000000000e+00,5.000000000000000000e+00,5.000000000000000000e+00,5.000000000000000000e+00,5.000000000000000000e+00,5.000000000000000000e+00,5.000000000000000000e+00,5.000000000000000000e+00,5.000000000000000000e+00,5.000000000000000000e+00,5.000000000000000000e+00,5.000000000000000000e+00,5.000000000000000000e+00,5.000000000000000000e+00,5.000000000000000000e+00,5.000000000000000000e+00,5.000000000000000000e+00,5.000000000000000000e+00,4.865079879760742188e+00,4.673882484436035156e+00,4.497146129608154297e+00,4.333288192749023438e+00,4.180950641632080078e+00,4.038960456848144531e+00,3.906297922134399414e+00,1.725850582122802734e+00,1.662369132041931152e+00,1.406947255134582520e+00,1.385632157325744629e+00,1.367713809013366699e+00,1.358097553253173828e+00,1.394632816314697266e+00,3.093446016311645508e+00,3.015022516250610352e+00,2.940476894378662109e+00,2.869528532028198242e+00,2.801923274993896484e+00,2.737430334091186523e+00,2.675839424133300781e+00,2.616959095001220703e+00,2.560614109039306641e+00,2.506644248962402344e+00,2.454902648925781250e+00,2.405253887176513672e+00,2.357573747634887695e+00,2.311746597290039062e+00,2.267667531967163086e+00,2.225237846374511719e+00,2.184366941452026367e+00,2.144970178604125977e+00,2.106969356536865234e+00,2.070291519165039062e+00,2.034868955612182617e+00,2.000638008117675781e+00,1.967539668083190918e+00,1.935518741607666016e+00,1.904523253440856934e+00,1.874505043029785156e+00,1.845418214797973633e+00
5.000000000000000000e+00,5.000000000000000000e+00,5.000000000000000000e+00,5.000000000000000000e+00,5.000000000000000000e+00,5.000000000000000000e+00,5.000000000000000000e+00,5.000000000000000000e+00,5.000000000000000000e+00,5.000000000000000000e+00,5.000000000000000000e+00,5.000000000000000000e+00,5.000000000000000000e+00,5.000000000000000000e+00,5.000000000000000000e+00,5.000000000000000000e+00,5.000000000000000000e+00,5.000000000000000000e+00,5.000000000000000000e+00,5.000000000000000000e+00,5.000000000000000000e+00,5.000000000000000000e+00,5.000000000000000000e+00,5.000000000000000000e+00,5.000000000000000000e+00,5.000000000000000000e+00,5.000000000000000000e+00,5.000000000000000000e+00,5.000000000000000000e+00,5.000000000000000000e+00,5.000000000000000000e+00,5.000000000000000000e+00,5.000000000000000000e+00,5.000000000000000000e+00,5.000000000000000000e+00,5.000000000000000000e+00,5.000000000000000000e+00,5.000000000000000000e+00,5.000000000000000000e+00,4.865219116210937500e+00,4.674010753631591797e+00,4.497264385223388672e+00,4.333398342132568359e+00,4.181053161621093750e+00,4.039056301116943359e+00,3.906387567520141602e+00,1.710297703742980957e+00,1.664437174797058105e+00,1.413253426551818848e+00,1.391778826713562012e+00,1.374757528305053711e+00,1.365660190582275391e+00,1.405287861824035645e+00,3.093502044677734375e+00,3.015075683593750000e+00,2.940527677536010742e+00,2.869576930999755859e+00,2.801969289779663086e+00,2.737474203109741211e+00,2.675881385803222656e+00,2.616999387741088867e+00,2.560652494430541992e+00,2.506681203842163086e+00,2.454937934875488281e+00,2.405287981033325195e+00,2.357606172561645508e+00,2.311778068542480469e+00,2.267697811126708984e+00,2.225266933441162109e+00,2.184395074844360352e+00,2.144997358322143555e+00,2.106995344161987305e+00,2.070316553115844727e+00,2.034893274307250977e+00,2.000661611557006836e+00,1.967562437057495117e+00,1.935540676116943359e+00,1.904544711112976074e+00,1.874525547027587891e+00,1.845438361167907715e+00
5.000000000000000000e+00,5.000000000000000000e+00,5.000000000000000000e+00,5.000000000000000000e+00,5.000000000000000000e+00,5.000000000000000000e+00,5.000000000000000000e+00,5.000000000000000000e+00,5.000000000000000000e+00,5.000000000000000000e+00,5.000000000000000000e+00,5.000000000000000000e+00,5.000000000000000000e+00,5.000000000000000000e+00,5.000000000000000000e+00,5.000000000000000000e+00,5.000000000000000000e+00,5.000000000000000000e+00,5.000000000000000000e+00,5.000000000000000000e+00,5.000000000000000000e+00,5.000000000000000000e+00,5.000000000000000000e+00,5.000000000000000000e+00,5.000000000000000000e+00,5.000000000000000000e+00,5.000000000000000000e+00,5.000000000000000000e+00,5.000000000000000000e+00,5.000000000000000000e+00,5.000000000000000000e+00,5.000000000000000000e+00,5.000000000000000000e+00,5.000000000000000000e+00,5.000000000000000000e+00,5.000000000000000000e+00,5.000000000000000000e+00,5.000000000000000000e+00,5.000000000000000000e+00,4.865357875823974609e+00,4.674139499664306641e+00,4.497383117675781250e+00,4.333508014678955078e+00,4.181155681610107422e+00,4.039152145385742188e+00,3.906477212905883789e+00,1.696211218833923340e+00,1.668125867843627930e+00,1.420198798179626465e+00,1.398514151573181152e+00,1.383659124374389648e+00,1.375352382659912109e+00,3.176177024841308594e+00,3.093558311462402344e+00,3.015129089355468750e+00,2.940578460693359375e+00,2.869625329971313477e+00,2.802015542984008789e+00,2.737518310546875000e+00,2.675923585891723633e+00,2.617039442062377930e+00,2.560691118240356445e+00,2.506718158721923828e+00,2.454973459243774414e+00,2.405321836471557617e+00,2.357638835906982422e+00,2.311809539794921875e+00,2.267727851867675781e+00,2.225296020507812500e+00,2.184422969818115234e+00,2.145024299621582031e+00,2.107021331787109375e+00,2.070341825485229492e+00,2.034917593002319336e+00,2.000684976577758789e+00,1.967585086822509766e+00,1.935562729835510254e+00,1.904565930366516113e+00,1.874546289443969727e+00,1.845458269119262695e+00
5.000000000000000000e+00,5.000000000000000000e+00,5.000000000000000000e+00,5.000000000000000000e+00,5.000000000000000000e+00,5.000000000000000000e+00,5.000000000000000000e+00,5.000000000000000000e+00,5.000000000000000000e+00,5.000000000000000000e+00,5.000000000000000000e+00,5.000000000000000000e+00,5.000000000000000000e+00,5.000000000000000000e+00,5.000000000000000000e+00,5.000000000000000000e+00,5.000000000000000000e+00,5.000000000000000000e+00,5.000000000000000000e+00,5.000000000000000000e+00,5.000000000000000000e+00,5.000000000000000000e+00,5.000000000000000000e+00,5.000000000000000000e+00,5.000000000000000000e+00,5.000000000000000000e+00,5.000000000000000000e+00,5.000000000000000000e+00,5.000000000000000000e+00,5.000000000000000000e+00,5.000000000000000000e+00,5.000000000000000000e+00,5.000000000000000000e+00,5.000000000000000000e+00,5.000000000000000000e+00,5.000000000000000000e+00,5.000000000000000000e+00,5.000000000000000000e+00,5.000000000000000000e+00,4.865496635437011719e+00,4.674267768859863281e+00,4.497501850128173828e+00,4.333618164062500000e+00,4.181258201599121094e+00,4.039247989654541016e+00,3.906566858291625977e+00,1.697870016098022461e+00,1.672272205352783203e+00,1.427212834358215332e+00,1.405432343482971191e+00,1.390296816825866699e+00,1.385182976722717285e+00,3.176236152648925781e+00,3.093614578247070312e+00,3.015182495117187500e+00,2.940629243850708008e+00,2.869673728942871094e+00,2.802061796188354492e+00,2.737562179565429688e+00,2.675965547561645508e+00,2.617079734802246094e+00,2.560729742050170898e+00,2.506755113601684570e+00,2.455008745193481445e+00,2.405355691909790039e+00,2.357671499252319336e+00,2.311841011047363281e+00,2.267758131027221680e+00,2.225325107574462891e+00,2.184451103210449219e+00,2.145051240921020508e+00,2.107047557830810547e+00,2.070366859436035156e+00,2.034941911697387695e+00,2.000708580017089844e+00,1.967607975006103516e+00,1.935584664344787598e+00,1.904587268829345703e+00,1.874566793441772461e+00,1.845478296279907227e+00
4.870661258697509766e+00,4.869452953338623047e+00,4.868245124816894531e+00,4.867038249969482422e+00,4.865831851959228516e+00,4.864625930786132812e+00,4.863420486450195312e+00,4.862215995788574219e+00,4.861011981964111328e+00,4.859808444976806641e+00,4.858605861663818359e+00,4.857403755187988281e+00,4.856202125549316406e+00,4.855000972747802734e+00,4.853800773620605469e+00,4.852600574493408203e+00,4.851401329040527344e+00,4.850203037261962891e+00,4.849004745483398438e+00,4.847806930541992188e+00,4.846610546112060547e+00,4.845413684844970703e+00,4.844218254089355469e+00,4.843023300170898438e+00,4.841828346252441406e+00,4.840634346008300781e+00,4.839441299438476562e+00,4.838248252868652344e+00,4.837056159973144531e+00,4.835864543914794922e+00,4.834673404693603516e+00,4.833482742309570312e+00,4.832293033599853516e+00,4.831103801727294922e+00,4.829915046691894531e+00,4.828727245330810547e+00,4.827539443969726562e+00,4.826352596282958984e+00,4.825166702270507812e+00,4.823980808258056641e+00,4.674396038055419922e+00,4.497621059417724609e+00,4.333728790283203125e+00,4.181360721588134766e+00,4.039343833923339844e+00,3.906656503677368164e+00,1.702412605285644531e+00,1.679070234298706055e+00,1.434296250343322754e+00,1.412522435188293457e+00,1.396998524665832520e+00,1.395155191421508789e+00,3.176295518875122070e+00,3.093670606613159180e+00,3.015235900878906250e+00,2.940680027008056641e+00,2.869722127914428711e+00,2.802107810974121094e+00,2.737606287002563477e+00,2.676007509231567383e+00,2.617120027542114258e+00,2.560768127441406250e+00,2.506792068481445312e+00,2.455044269561767578e+00,2.405389785766601562e+00,2.357704162597656250e+00,2.311872243881225586e+00,2.267788410186767578e+00,2.225354194641113281e+00,2.184478998184204102e+00,2.145078182220458984e+00,2.107073783874511719e+00,2.070392131805419922e+00,2.034966230392456055e+00,2.000731945037841797e+00,1.967630743980407715e+00,1.935606718063354492e+00,1.904608488082885742e+00,1.874587535858154297e+00,1.845498204231262207e+00
3.775714159011840820e+00,3.774987697601318359e+00,3.774261951446533203e+00,3.773536682128906250e+00,3.772811174392700195e+00,3.772086381912231445e+00,3.771361827850341797e+00,3.770637035369873047e+00,3.769912958145141602e+00,3.769189357757568359e+00,3.768465518951416016e+00,3.767742395401000977e+00,3.767019510269165039e+00,3.766296386718750000e+00,3.765573978424072266e+00,3.764852046966552734e+00,3.764129638671875000e+00,3.763408184051513672e+00,3.762686967849731445e+00,3.761965751647949219e+00,3.761245012283325195e+00,3.760524749755859375e+00,3.759804010391235352e+00,3.759084224700927734e+00,3.758364677429199219e+00,3.757644891738891602e+00,3.756926059722900391e+00,3.756207227706909180e+00,3.755488395690917969e+00,3.754770040512084961e+00,3.754052162170410156e+00,3.753334045410156250e+00,3.752616643905639648e+00,3.751899719238281250e+00,3.751182317733764648e+00,3.750465869903564453e+00,3.749749660491943359e+00,3.749033212661743164e+00,3.748317480087280273e+00,3.747601985931396484e+00,3.746886253356933594e+00,3.746171474456787109e+00,3.745456695556640625e+00,3.744741916656494141e+00,3.744027853012084961e+00,3.743314027786254883e+00,1.706659078598022461e+00,1.687852740287780762e+00,1.441450595855712891e+00,1.419684290885925293e+00,1.403764963150024414e+00,1.405271887779235840e+00,3.176354646682739258e+00,3.093727111816406250e+00,3.015289306640625000e+00,2.940730810165405273e+00,2.869770526885986328e+00,2.802154064178466797e+00,2.737650156021118164e+00,2.676049709320068359e+00,2.617160081863403320e+00,2.560806751251220703e+00,2.506829023361206055e+00,2.455079555511474609e+00,2.405423641204833984e+00,2.357736825942993164e+00,2.311903715133666992e+00,2.267818689346313477e+00,2.225383281707763672e+00,2.184507131576538086e+00,2.145105361938476562e+00,2.107099771499633789e+00,2.070417165756225586e+00,2.034990549087524414e+00,2.000755548477172852e+00,1.967653393745422363e+00,1.935628890991210938e+00,1.904629945755004883e+00,1.874608039855957031e+00,1.845518350601196289e+00
3.082707166671752930e+00,3.082223176956176758e+00,3.081739425659179688e+00,3.081255674362182617e+00,3.080772161483764648e+00,3.080288648605346680e+00,3.079805374145507812e+00,3.079322338104248047e+00,3.078839302062988281e+00,3.078356504440307617e+00,3.077873706817626953e+00,3.077391386032104492e+00,3.076908826828002930e+00,3.076426744461059570e+00,3.075944662094116211e+00,3.075462579727172852e+00,3.074980974197387695e+00,3.074499368667602539e+00,3.074017763137817383e+00,3.073536634445190430e+00,3.073055505752563477e+00,3.072574377059936523e+00,3.072093486785888672e+00,3.071612834930419922e+00,3.071132183074951172e+00,3.070651769638061523e+00,3.070171833038330078e+00,3.069691419601440430e+00,3.069211483001708984e+00,3.068731784820556641e+00,3.068252086639404297e+00,3.067772626876831055e+00,3.067293405532836914e+00,3.066813945770263672e+00,3.066334962844848633e+00,3.065856218338012695e+00,3.065377235412597656e+00,3.064898729324340820e+00,3.064420461654663086e+00,3.063941955566406250e+00,3.063463926315307617e+00,3.062986135482788086e+00,3.062507867813110352e+00,3.062030315399169922e+00,3.061553001403808594e+00,1.783011198043823242e+00,1.722338795661926270e+00,1.696727871894836426e+00,3.059643983840942383e+00,1.438035726547241211e+00,1.411339521408081055e+00,1.417294144630432129e+00,3.057737588882446289e+00,3.057261466979980469e+00,3.015342712402343750e+00,2.940781593322753906e+00,2.869818687438964844e+00,2.802200078964233398e+00,2.737694501876831055e+00,2.676091670989990234e+00,2.617200374603271484e+00,2.560845136642456055e+00,2.506865978240966797e+00,2.455115079879760742e+00,2.405457735061645508e+00,2.357769489288330078e+00,2.311935186386108398e+00,2.267848968505859375e+00,2.225412368774414062e+00,2.184535026550292969e+00,2.145132303237915039e+00,2.107125759124755859e+00,2.070442676544189453e+00,2.035014867782592773e+00,2.000778913497924805e+00,1.967676281929016113e+00,1.935650706291198730e+00,1.904651045799255371e+00,1.874628782272338867e+00,1.845538258552551270e+00
2.604642629623413086e+00,2.604296922683715820e+00,2.603951692581176758e+00,2.603606224060058594e+00,2.603260993957519531e+00,2.602915763854980469e+00,2.602570772171020508e+00,2.602225542068481445e+00,2.601880788803100586e+00,2.601536035537719727e+00,2.601191043853759766e+00,2.600846529006958008e+00,2.600502014160156250e+00,2.600157499313354492e+00,2.599813222885131836e+00,2.599468946456909180e+00,2.599124670028686523e+00,2.598780632019042969e+00,2.598436594009399414e+00,2.598092555999755859e+00,2.597748994827270508e+00,2.597405195236206055e+00,2.597061395645141602e+00,2.596718072891235352e+00,2.596374511718750000e+00,2.596031188964843750e+00,2.595687866210937500e+00,2.595344781875610352e+00,2.595001459121704102e+00,2.594658613204956055e+00,2.594315767288208008e+00,2.593972921371459961e+00,2.593630075454711914e+00,2.593287706375122070e+00,2.592944860458374023e+00,2.592602491378784180e+00,2.592260122299194336e+00,2.591917753219604492e+00,2.591575622558593750e+00,2.591233730316162109e+00,2.590891599655151367e+00,2.590549707412719727e+00,2.590207815170288086e+00,2.589866161346435547e+00,2.589524507522583008e+00,1.751263618469238281e+00,1.720785260200500488e+00,2.588500022888183594e+00,2.588158845901489258e+00,1.441494107246398926e+00,1.427494764328002930e+00,2.587135553359985352e+00,2.586794614791870117e+00,2.586453676223754883e+00,2.586112976074218750e+00,2.585772275924682617e+00,2.585431814193725586e+00,2.585091352462768555e+00,2.584750890731811523e+00,2.584410667419433594e+00,2.584070444107055664e+00,2.560883760452270508e+00,2.506902694702148438e+00,2.455150604248046875e+00,2.405491590499877930e+00,2.357802152633666992e+00,2.311966419219970703e+00,2.267879009246826172e+00,2.225441455841064453e+00,2.184563159942626953e+00,2.145159244537353516e+00,2.107151985168457031e+00,2.070467710494995117e+00,2.035039186477661133e+00,2.000802516937255859e+00,1.967698812484741211e+00,1.935672879219055176e+00,1.904672503471374512e+00,1.874649405479431152e+00,1.845558285713195801e+00
2.254928588867187500e+00,2.254670381546020508e+00,2.254412412643432617e+00,2.254154205322265625e+00,2.253896236419677734e+00,2.253638267517089844e+00,2.253380537033081055e+00,2.253122568130493164e+00,2.252864837646484375e+00,2.252607107162475586e+00,2.252349376678466797e+00,2.252091884613037109e+00,2.251834392547607422e+00,2.251576900482177734e+00,2.251319408416748047e+00,2.251062154769897461e+00,2.250804901123046875e+00,2.250547647476196289e+00,2.250290393829345703e+00,2.250033140182495117e+00,2.249776124954223633e+00,2.249519109725952148e+00,2.249262094497680664e+00,2.249004840850830078e+00,2.248747110366821289e+00,2.248489618301391602e+00,2.248232126235961914e+00,2.247974634170532227e+00,2.247717142105102539e+00,2.247459888458251953e+00,2.247202634811401367e+00,2.246945381164550781e+00,2.246688365936279297e+00,2.246431112289428711e+00,2.246174097061157227e+00,2.245917081832885742e+00,2.245660066604614258e+00,2.245403289794921875e+00,2.245146512985229492e+00,2.244889736175537109e+00,2.244632959365844727e+00,2.244376420974731445e+00,2.244119644165039062e+00,2.243863344192504883e+00,2.243606805801391602e+00,1.745518088340759277e+00,1.694067597389221191e+00,1.688010692596435547e+00,2.242581367492675781e+00,1.432247519493103027e+00,1.410177350044250488e+00,1.414211750030517578e+00,2.241557121276855469e+00,2.241301298141479492e+00,2.241045236587524414e+00,2.240789651870727539e+00,2.240533828735351562e+00,2.240278005599975586e+00,2.240022420883178711e+00,2.239767074584960938e+00,2.239511251449584961e+00,2.239255905151367188e+00,2.239000558853149414e+00,2.238745212554931641e+00,2.238489866256713867e+00,2.238234758377075195e+00,2.237979412078857422e+00,2.237724304199218750e+00,2.225470781326293945e+00,2.184591054916381836e+00,2.145186424255371094e+00,2.107177972793579102e+00,2.070492982864379883e+00,2.035063505172729492e+00,2.000826120376586914e+00,1.967721700668334961e+00,1.935694694519042969e+00,1.904693841934204102e+00,1.874670147895812988e+00,1.845578193664550781e+00
1.987971544265747070e+00,1.987770915031433105e+00,1.987570285797119141e+00,1.987369656562805176e+00,1.987169146537780762e+00,1.986968636512756348e+00,1.986768126487731934e+00,1.986567735671997070e+00,1.986367344856262207e+00,1.986166954040527344e+00,1.985966682434082031e+00,1.985766410827636719e+00,1.985566139221191406e+00,1.985365986824035645e+00,1.985165834426879883e+00,1.984965801239013672e+00,1.984765648841857910e+00,1.984565615653991699e+00,1.984365582466125488e+00,1.984165668487548828e+00,1.983965754508972168e+00,1.983765959739685059e+00,1.983566045761108398e+00,1.983366250991821289e+00,1.983166575431823730e+00,1.982966899871826172e+00,1.982767224311828613e+00,1.982567548751831055e+00,1.982367992401123047e+00,1.982168436050415039e+00,1.981968879699707031e+00,1.981769442558288574e+00,1.981570005416870117e+00,1.981370687484741211e+00,1.981171250343322754e+00,1.980972051620483398e+00,1.980772733688354492e+00,1.980573534965515137e+00,1.980374336242675781e+00,1.980175375938415527e+00,1.979976296424865723e+00,1.979777216911315918e+00,1.979578256607055664e+00,1.979379177093505859e+00,1.979180216789245605e+00,1.759601116180419922e+00,1.668181061744689941e+00,1.643882870674133301e+00,1.486130714416503906e+00,1.415614843368530273e+00,1.394851922988891602e+00,1.386744499206542969e+00,1.977590084075927734e+00,1.977391481399536133e+00,1.977192997932434082e+00,1.976994514465332031e+00,1.976796030998229980e+00,1.976597547531127930e+00,1.976399183273315430e+00,1.976200819015502930e+00,1.976002573966979980e+00,1.975804209709167480e+00,1.975606083869934082e+00,1.975407838821411133e+00,1.975209712982177734e+00,1.975011587142944336e+00,1.974813461303710938e+00,1.974615454673767090e+00,1.974417448043823242e+00,1.974219560623168945e+00,1.974021553993225098e+00,1.973823785781860352e+00,1.973625898361206055e+00,1.973428130149841309e+00,1.973230361938476562e+00,1.967744350433349609e+00,1.935716867446899414e+00,1.904715061187744141e+00,1.874690651893615723e+00,1.845598340034484863e+00
1.777532577514648438e+00,1.777372121810913086e+00,1.777211666107177734e+00,1.777051329612731934e+00,1.776890993118286133e+00,1.776730656623840332e+00,1.776570320129394531e+00,1.776410222053527832e+00,1.776250004768371582e+00,1.776089787483215332e+00,1.775929689407348633e+00,1.775769472122192383e+00,1.775609374046325684e+00,1.775449275970458984e+00,1.775289177894592285e+00,1.775129199028015137e+00,1.774969220161437988e+00,1.774809241294860840e+00,1.774649262428283691e+00,1.774489283561706543e+00,1.774329423904418945e+00,1.774169564247131348e+00,1.774009704589843750e+00,1.773849964141845703e+00,1.773690104484558105e+00,1.773530364036560059e+00,1.773370623588562012e+00,1.773211002349853516e+00,1.773051261901855469e+00,1.772891640663146973e+00,1.772732019424438477e+00,1.772572517395019531e+00,1.772412896156311035e+00,1.772253394126892090e+00,1.772093892097473145e+00,1.771934509277343750e+00,1.771775007247924805e+00,1.771615624427795410e+00,1.771456241607666016e+00,1.771296858787536621e+00,1.771137595176696777e+00,1.770978331565856934e+00,1.770819067955017090e+00,1.770659804344177246e+00,1.770500540733337402e+00,1.770341396331787109e+00,1.770182251930236816e+00,1.610929131507873535e+00,1.600598335266113281e+00,1.389681100845336914e+00,1.374316453933715820e+00,1.364427447319030762e+00,1.362638115882873535e+00,1.769069075584411621e+00,1.768910169601440430e+00,1.768751263618469238e+00,1.768592357635498047e+00,1.768433570861816406e+00,1.768274784088134766e+00,1.768115997314453125e+00,1.767957210540771484e+00,1.767798542976379395e+00,1.767639756202697754e+00,1.767481088638305664e+00,1.767322540283203125e+00,1.767163872718811035e+00,1.767005324363708496e+00,1.766846776008605957e+00,1.766688227653503418e+00,1.766529798507690430e+00,1.766371369361877441e+00,1.766212940216064453e+00,1.766054511070251465e+00,1.765896081924438477e+00,1.765737771987915039e+00,1.765579462051391602e+00,1.765421152114868164e+00,1.765262961387634277e+00,1.765104651451110840e+00,1.764946460723876953e+00
1.607381463050842285e+00,1.607250332832336426e+00,1.607119083404541016e+00,1.606987953186035156e+00,1.606856822967529297e+00,1.606725692749023438e+00,1.606594681739807129e+00,1.606463551521301270e+00,1.606332540512084961e+00,1.606201529502868652e+00,1.606070518493652344e+00,1.605939507484436035e+00,1.605808496475219727e+00,1.605677604675292969e+00,1.605546712875366211e+00,1.605415821075439453e+00,1.605284929275512695e+00,1.605154037475585938e+00,1.605023264884948730e+00,1.604892373085021973e+00,1.604761600494384766e+00,1.604630827903747559e+00,1.604500055313110352e+00,1.604369401931762695e+00,1.604238629341125488e+00,1.604107975959777832e+00,1.603977322578430176e+00,1.603846669197082520e+00,1.603716015815734863e+00,1.603585481643676758e+00,1.603454828262329102e+00,1.603324294090270996e+00,1.603193759918212891e+00,1.603063225746154785e+00,1.602932810783386230e+00,1.602802276611328125e+00,1.602671861648559570e+00,1.602541446685791016e+00,1.602411031723022461e+00,1.602280616760253906e+00,1.602150321006774902e+00,1.602019906044006348e+00,1.601889610290527344e+00,1.601759314537048340e+00,1.601629018783569336e+00,1.601498723030090332e+00,1.601368546485900879e+00,1.601238369941711426e+00,1.601108312606811523e+00,1.369974851608276367e+00,1.352823853492736816e+00,1.335709095001220703e+00,1.324847459793090820e+00,1.326406121253967285e+00,1.600327610969543457e+00,1.600197553634643555e+00,1.600067496299743652e+00,1.599937438964843750e+00,1.599807500839233398e+00,1.599677443504333496e+00,1.599547505378723145e+00,1.599417686462402344e+00,1.599287748336791992e+00,1.599157810211181641e+00,1.599027991294860840e+00,1.598898172378540039e+00,1.598768353462219238e+00,1.598638534545898438e+00,1.598508834838867188e+00,1.598379015922546387e+00,1.598249316215515137e+00,1.598119616508483887e+00,1.597989916801452637e+00,1.597860217094421387e+00,1.597730636596679688e+00,1.597600936889648438e+00,1.597471356391906738e+00,1.597341775894165039e+00,1.597212195396423340e+00,1.597082734107971191e+00
1.466959357261657715e+00,1.466850042343139648e+00,1.466740846633911133e+00,1.466631531715393066e+00,1.466522336006164551e+00,1.466413140296936035e+00,1.466303944587707520e+00,1.466194748878479004e+00,1.466085553169250488e+00,1.465976476669311523e+00,1.465867280960083008e+00,1.465758204460144043e+00,1.465649127960205078e+00,1.465540051460266113e+00,1.465430974960327148e+00,1.465321898460388184e+00,1.465212941169738770e+00,1.465103983879089355e+00,1.464994907379150391e+00,1.464885950088500977e+00,1.464776992797851562e+00,1.464668035507202148e+00,1.464559078216552734e+00,1.464450240135192871e+00,1.464341282844543457e+00,1.464232444763183594e+00,1.464123487472534180e+00,1.464014649391174316e+00,1.463905811309814453e+00,1.463796973228454590e+00,1.463688254356384277e+00,1.463579416275024414e+00,1.463470697402954102e+00,1.463361859321594238e+00,1.463253140449523926e+00,1.463144421577453613e+00,1.463035702705383301e+00,1.462926983833312988e+00,1.462818384170532227e+00,1.462709665298461914e+00,1.462601065635681152e+00,1.462492465972900391e+00,1.462383866310119629e+00,1.462275266647338867e+00,1.462166666984558105e+00,1.462058067321777344e+00,1.461949586868286133e+00,1.461840987205505371e+00,1.461732506752014160e+00,1.461624026298522949e+00,1.332845687866210938e+00,1.322106599807739258e+00,1.311894416809082031e+00,1.307529568672180176e+00,1.461081743240356445e+00,1.460973381996154785e+00,1.460865020751953125e+00,1.460756659507751465e+00,1.460648298263549805e+00,1.460539937019348145e+00,1.460431575775146484e+00,1.460323333740234375e+00,1.460214972496032715e+00,1.460106730461120605e+00,1.459998488426208496e+00,1.459890246391296387e+00,1.459782004356384277e+00,1.459673762321472168e+00,1.459565639495849609e+00,1.459457397460937500e+00,1.459349274635314941e+00,1.459241151809692383e+00,1.459133028984069824e+00,1.459024906158447266e+00,1.458916783332824707e+00,1.458808660507202148e+00,1.458700656890869141e+00,1.458592653274536133e+00,1.458484530448913574e+00,1.458376526832580566e+00
1.349100828170776367e+00,1.349008440971374512e+00,1.348916053771972656e+00,1.348823666572570801e+00,1.348731279373168945e+00,1.348638892173767090e+00,1.348546504974365234e+00,1.348454117774963379e+00,1.348361849784851074e+00,1.348269462585449219e+00,1.348177194595336914e+00,1.348084926605224609e+00,1.347992658615112305e+00,1.347900390625000000e+00,1.347808122634887695e+00,1.347715854644775391e+00,1.347623586654663086e+00,1.347531437873840332e+00,1.347439169883728027e+00,1.347347021102905273e+00,1.347254872322082520e+00,1.347162723541259766e+00,1.347070574760437012e+00,1.346978425979614258e+00,1.346886277198791504e+00,1.346794128417968750e+00,1.346701979637145996e+00,1.346609950065612793e+00,1.346517801284790039e+00,1.346425771713256836e+00,1.346333742141723633e+00,1.346241712570190430e+00,1.346149682998657227e+00,1.346057653427124023e+00,1.345965623855590820e+00,1.345873594284057617e+00,1.345781683921813965e+00,1.345689654350280762e+00,1.345597743988037109e+00,1.345505833625793457e+00,1.345413804054260254e+00,1.345321893692016602e+00,1.345229983329772949e+00,1.345138192176818848e+00,1.345046281814575195e+00,1.344954371452331543e+00,1.344862580299377441e+00,1.344770669937133789e+00,1.344678878784179688e+00,1.344587087631225586e+00,1.344495177268981934e+00,1.344403386116027832e+00,1.344311594963073730e+00,1.344219923019409180e+00,1.344128131866455078e+00,1.344036340713500977e+00,1.343944668769836426e+00,1.343852996826171875e+00,1.343761324882507324e+00,1.343669652938842773e+00,1.343577980995178223e+00,1.343486309051513672e+00,1.343394637107849121e+00,1.343302965164184570e+00,1.343211412429809570e+00,1.343119740486145020e+00,1.343028187751770020e+00,1.342936515808105469e+00,1.342844963073730469e+00,1.342753410339355469e+00,1.342661857604980469e+00,1.342570304870605469e+00,1.342478752136230469e+00,1.342387199401855469e+00,1.342295765876770020e+00,1.342204213142395020e+00,1.342112779617309570e+00,1.342021346092224121e+00,1.341929793357849121e+00,1.341838359832763672e+00
1.248771905899047852e+00,1.248692750930786133e+00,1.248613595962524414e+00,1.248534440994262695e+00,1.248455286026000977e+00,1.248376131057739258e+00,1.248296976089477539e+00,1.248217821121215820e+00,1.248138666152954102e+00,1.248059630393981934e+00,1.247980475425720215e+00,1.247901439666748047e+00,1.247822403907775879e+00,1.247743248939514160e+00,1.247664213180541992e+00,1.247585177421569824e+00,1.247506141662597656e+00,1.247427105903625488e+00,1.247348070144653320e+00,1.247269034385681152e+00,1.247190117835998535e+00,1.247111082077026367e+00,1.247032165527343750e+00,1.246953129768371582e+00,1.246874213218688965e+00,1.246795296669006348e+00,1.246716380119323730e+00,1.246637463569641113e+00,1.246558547019958496e+00,1.246479630470275879e+00,1.246400713920593262e+00,1.246321916580200195e+00,1.246243000030517578e+00,1.246164083480834961e+00,1.246085286140441895e+00,1.246006369590759277e+00,1.245927572250366211e+00,1.245848774909973145e+00,1.245769977569580078e+00,1.245691180229187012e+00,1.245612382888793945e+00,1.245533585548400879e+00,1.245454788208007812e+00,1.245375990867614746e+00,1.245297193527221680e+00,1.245218515396118164e+00,1.245139718055725098e+00,1.245061039924621582e+00,1.244982361793518066e+00,1.244903564453125000e+00,1.244824886322021484e+00,1.244746208190917969e+00,1.244667530059814453e+00,1.244588851928710938e+00,1.244510173797607422e+00,1.244431495666503906e+00,1.244352936744689941e+00,1.244274258613586426e+00,1.244195699691772461e+00,1.244117021560668945e+00,1.244038462638854980e+00,1.243959903717041016e+00,1.243881344795227051e+00,1.243802785873413086e+00,1.243724226951599121e+00,1.243645668029785156e+00,1.243567109107971191e+00,1.243488550186157227e+00,1.243409991264343262e+00,1.243331551551818848e+00,1.243252992630004883e+00,1.243174552917480469e+00,1.243096113204956055e+00,1.243017554283142090e+00,1.242939114570617676e+00,1.242860674858093262e+00,1.242782235145568848e+00,1.242703795433044434e+00,1.242625355720520020e+00,1.242547035217285156e+00
1.162332534790039062e+00,1.162263989448547363e+00,1.162195324897766113e+00,1.162126779556274414e+00,1.162058234214782715e+00,1.161989569664001465e+00,1.161921024322509766e+00,1.161852478981018066e+00,1.161783933639526367e+00,1.161715388298034668e+00,1.161646842956542969e+00,1.161578416824340820e+00,1.161509871482849121e+00,1.161441326141357422e+00,1.161372780799865723e+00,1.161304354667663574e+00,1.161235809326171875e+00,1.161167383193969727e+00,1.161098957061767578e+00,1.161030411720275879e+00,1.160961985588073730e+00,1.160893559455871582e+00,1.160825133323669434e+00,1.160756707191467285e+00,1.160688281059265137e+00,1.160619854927062988e+00,1.160551428794860840e+00,1.160483121871948242e+00,1.160414695739746094e+00,1.160346269607543945e+00,1.160277962684631348e+00,1.160209536552429199e+00,1.160141229629516602e+00,1.160072803497314453e+00,1.160004496574401855e+00,1.159936189651489258e+00,1.159867882728576660e+00,1.159799575805664062e+00,1.159731268882751465e+00,1.159662961959838867e+00,1.159594655036926270e+00,1.159526348114013672e+00,1.159458041191101074e+00,1.159389853477478027e+00,1.159321546554565430e+00,1.159253358840942383e+00,1.159185051918029785e+00,1.159116864204406738e+00,1.159048557281494141e+00,1.158980369567871094e+00,1.158912181854248047e+00,1.158843994140625000e+00,1.158775806427001953e+00,1.158707618713378906e+00,1.158639430999755859e+00,1.158571243286132812e+00,1.158503055572509766e+00,1.158434867858886719e+00,1.158366799354553223e+00,1.158298611640930176e+00,1.158230543136596680e+00,1.158162355422973633e+00,1.158094286918640137e+00,1.158026218414306641e+00,1.157958149909973145e+00,1.157889962196350098e+00,1.157822012901306152e+00,1.157753944396972656e+00,1.157685875892639160e+00,1.157617807388305664e+00,1.157549738883972168e+00,1.157481670379638672e+00,1.157413721084594727e+00,1.157345652580261230e+00,1.157277703285217285e+00,1.157209634780883789e+00,1.157141685485839844e+00,1.157073616981506348e+00,1.157005667686462402e+00,1.156937718391418457e+00
1.087085008621215820e+00,1.087024927139282227e+00,1.086964964866638184e+00,1.086905002593994141e+00,1.086844921112060547e+00,1.086784958839416504e+00,1.086724996566772461e+00,1.086665034294128418e+00,1.086605072021484375e+00,1.086545109748840332e+00,1.086485147476196289e+00,1.086425185203552246e+00,1.086365342140197754e+00,1.086305379867553711e+00,1.086245417594909668e+00,1.086185574531555176e+00,1.086125612258911133e+00,1.086065649986267090e+00,1.086005806922912598e+00,1.085945963859558105e+00,1.085886001586914062e+00,1.085826158523559570e+00,1.085766315460205078e+00,1.085706472396850586e+00,1.085646510124206543e+00,1.085586667060852051e+00,1.085526823997497559e+00,1.085466980934143066e+00,1.085407257080078125e+00,1.085347414016723633e+00,1.085287570953369141e+00,1.085227727890014648e+00,1.085168004035949707e+00,1.085108160972595215e+00,1.085048437118530273e+00,1.084988713264465332e+00,1.084928870201110840e+00,1.084869146347045898e+00,1.084809303283691406e+00,1.084749579429626465e+00,1.084689855575561523e+00,1.084630012512207031e+00,1.084570288658142090e+00,1.084510564804077148e+00,1.084450840950012207e+00,1.084391117095947266e+00,1.084331393241882324e+00,1.084271788597106934e+00,1.084212064743041992e+00,1.084152340888977051e+00,1.084092617034912109e+00,1.084033012390136719e+00,1.083973288536071777e+00,1.083913683891296387e+00,1.083853960037231445e+00,1.083794355392456055e+00,1.083734631538391113e+00,1.083675026893615723e+00,1.083615422248840332e+00,1.083555817604064941e+00,1.083496212959289551e+00,1.083436489105224609e+00,1.083376884460449219e+00,1.083317279815673828e+00,1.083257794380187988e+00,1.083198189735412598e+00,1.083138585090637207e+00,1.083078980445861816e+00,1.083019375801086426e+00,1.082959890365600586e+00,1.082900285720825195e+00,1.082840800285339355e+00,1.082781195640563965e+00,1.082721710205078125e+00,1.082662105560302734e+00,1.082602620124816895e+00,1.082543134689331055e+00,1.082483649253845215e+00,1.082424044609069824e+00,1.082364559173583984e+00
1.020987868309020996e+00,1.020934939384460449e+00,1.020882010459899902e+00,1.020829081535339355e+00,1.020776152610778809e+00,1.020723223686218262e+00,1.020670413970947266e+00,1.020617485046386719e+00,1.020564556121826172e+00,1.020511627197265625e+00,1.020458817481994629e+00,1.020405888557434082e+00,1.020353078842163086e+00,1.020300149917602539e+00,1.020247340202331543e+00,1.020194411277770996e+00,1.020141601562500000e+00,1.020088791847229004e+00,1.020035862922668457e+00,1.019983053207397461e+00,1.019930243492126465e+00,1.019877433776855469e+00,1.019824624061584473e+00,1.019771814346313477e+00,1.019719004631042480e+00,1.019666194915771484e+00,1.019613385200500488e+00,1.019560575485229492e+00,1.019507765769958496e+00,1.019455075263977051e+00,1.019402265548706055e+00,1.019349455833435059e+00,1.019296765327453613e+00,1.019243955612182617e+00,1.019191145896911621e+00,1.019138455390930176e+00,1.019085764884948730e+00,1.019032955169677734e+00,1.018980264663696289e+00,1.018927574157714844e+00,1.018874764442443848e+00,1.018822073936462402e+00,1.018769383430480957e+00,1.018716692924499512e+00,1.018664002418518066e+00,1.018611311912536621e+00,1.018558621406555176e+00,1.018505930900573730e+00,1.018453240394592285e+00,1.018400549888610840e+00,1.018347859382629395e+00,1.018295288085937500e+00,1.018242597579956055e+00,1.018189907073974609e+00,1.018137335777282715e+00,1.018084645271301270e+00,1.018031954765319824e+00,1.017979383468627930e+00,1.017926812171936035e+00,1.017874121665954590e+00,1.017821550369262695e+00,1.017768979072570801e+00,1.017716288566589355e+00,1.017663717269897461e+00,1.017611145973205566e+00,1.017558574676513672e+00,1.017506003379821777e+00,1.017453432083129883e+00,1.017400860786437988e+00,1.017348289489746094e+00,1.017295718193054199e+00,1.017243146896362305e+00,1.017190575599670410e+00,1.017138123512268066e+00,1.017085552215576172e+00,1.017033100128173828e+00,1.016980528831481934e+00,1.016928076744079590e+00,1.016875505447387695e+00,1.016823053359985352e+00
9.624677896499633789e-01,9.624207019805908203e-01,9.623736739158630371e-01,9.623266458511352539e-01,9.622796177864074707e-01,9.622325897216796875e-01,9.621855616569519043e-01,9.621385335922241211e-01,9.620915651321411133e-01,9.620445370674133301e-01,9.619975686073303223e-01,9.619505405426025391e-01,9.619035720825195312e-01,9.618566036224365234e-01,9.618095755577087402e-01,9.617626070976257324e-01,9.617156386375427246e-01,9.616686701774597168e-01,9.616217017173767090e-01,9.615747928619384766e-01,9.615278244018554688e-01,9.614808559417724609e-01,9.614339470863342285e-01,9.613869786262512207e-01,9.613400697708129883e-01,9.612931013107299805e-01,9.612461924552917480e-01,9.611992835998535156e-01,9.611523747444152832e-01,9.611054658889770508e-01,9.610585570335388184e-01,9.610116481781005859e-01,9.609647393226623535e-01,9.609178304672241211e-01,9.608709812164306641e-01,9.608240723609924316e-01,9.607772231101989746e-01,9.607303142547607422e-01,9.606834650039672852e-01,9.606366157531738281e-01,9.605897068977355957e-01,9.605428576469421387e-01,9.604960083961486816e-01,9.604492783546447754e-01,9.604024291038513184e-01,9.603555798530578613e-01,9.603087902069091797e-01,9.602619409561157227e-01,9.602150917053222656e-01,9.601683020591735840e-01,9.601214528083801270e-01,9.600746631622314453e-01,9.600278735160827637e-01,9.599810838699340820e-01,9.599342346191406250e-01,9.598874449729919434e-01,9.598406553268432617e-01,9.597938656806945801e-01,9.597471356391906738e-01,9.597003459930419922e-01,9.596535563468933105e-01,9.596067667007446289e-01,9.595600366592407227e-01,9.595133066177368164e-01,9.594665169715881348e-01,9.594197869300842285e-01,9.593730568885803223e-01,9.593262672424316406e-01,9.592795372009277344e-01,9.592328071594238281e-01,9.591860771179199219e-01,9.591394066810607910e-01,9.590926766395568848e-01,9.590459465980529785e-01,9.589992761611938477e-01,9.589525461196899414e-01,9.589058756828308105e-01,9.588591456413269043e-01,9.588124752044677734e-01,9.587658047676086426e-01
9.102923274040222168e-01,9.102502465248107910e-01,9.102082252502441406e-01,9.101661443710327148e-01,9.101240634918212891e-01,9.100819826126098633e-01,9.100399613380432129e-01,9.099978804588317871e-01,9.099558591842651367e-01,9.099137783050537109e-01,9.098717570304870605e-01,9.098297953605651855e-01,9.097877740859985352e-01,9.097457528114318848e-01,9.097037315368652344e-01,9.096616506576538086e-01,9.096196293830871582e-01,9.095776677131652832e-01,9.095356464385986328e-01,9.094936251640319824e-01,9.094516038894653320e-01,9.094096422195434570e-01,9.093676209449768066e-01,9.093255996704101562e-01,9.092836380004882812e-01,9.092416763305664062e-01,9.091996550559997559e-01,9.091576933860778809e-01,9.091157317161560059e-01,9.090737700462341309e-01,9.090318083763122559e-01,9.089898467063903809e-01,9.089478850364685059e-01,9.089059233665466309e-01,9.088639616966247559e-01,9.088220000267028809e-01,9.087800383567810059e-01,9.087381362915039062e-01,9.086961746215820312e-01,9.086542725563049316e-01,9.086123108863830566e-01,9.085704088211059570e-01,9.085285067558288574e-01,9.084866046905517578e-01,9.084446430206298828e-01,9.084027409553527832e-01,9.083608388900756836e-01,9.083189368247985840e-01,9.082770347595214844e-01,9.082351922988891602e-01,9.081932902336120605e-01,9.081513881683349609e-01,9.081095457077026367e-01,9.080676436424255371e-01,9.080257415771484375e-01,9.079838991165161133e-01,9.079420566558837891e-01,9.079001545906066895e-01,9.078583121299743652e-01,9.078164696693420410e-01,9.077746272087097168e-01,9.077327847480773926e-01,9.076909422874450684e-01,9.076490998268127441e-01,9.076072573661804199e-01,9.075654149055480957e-01,9.075235724449157715e-01,9.074817895889282227e-01,9.074399471282958984e-01,9.073981642723083496e-01,9.073563218116760254e-01,9.073145389556884766e-01,9.072726964950561523e-01,9.072309136390686035e-01,9.071891307830810547e-01,9.071473479270935059e-01,9.071055650711059570e-01,9.070637822151184082e-01,9.070219993591308594e-01,9.069802165031433105e-01
8.634830117225646973e-01,8.634451627731323242e-01,8.634073138236999512e-01,8.633694648742675781e-01,8.633316159248352051e-01,8.632937669754028320e-01,8.632559180259704590e-01,8.632180690765380859e-01,8.631802201271057129e-01,8.631423711776733398e-01,8.631045222282409668e-01,8.630667328834533691e-01,8.630288839340209961e-01,8.629910945892333984e-01,8.629532456398010254e-01,8.629154562950134277e-01,8.628776073455810547e-01,8.628398180007934570e-01,8.628020286560058594e-01,8.627641797065734863e-01,8.627263903617858887e-01,8.626886010169982910e-01,8.626508116722106934e-01,8.626130223274230957e-01,8.625752329826354980e-01,8.625374436378479004e-01,8.624996542930603027e-01,8.624619245529174805e-01,8.624241352081298828e-01,8.623863458633422852e-01,8.623485565185546875e-01,8.623108267784118652e-01,8.622730374336242676e-01,8.622353076934814453e-01,8.621975779533386230e-01,8.621597886085510254e-01,8.621220588684082031e-01,8.620843291282653809e-01,8.620465397834777832e-01,8.620088100433349609e-01,8.619710803031921387e-01,8.619333505630493164e-01,8.618956208229064941e-01,8.618579506874084473e-01,8.618202209472656250e-01,8.617824912071228027e-01,8.617447614669799805e-01,8.617070913314819336e-01,8.616693615913391113e-01,8.616316318511962891e-01,8.615939617156982422e-01,8.615562319755554199e-01,8.615185618400573730e-01,8.614808917045593262e-01,8.614431619644165039e-01,8.614054918289184570e-01,8.613678216934204102e-01,8.613301515579223633e-01,8.612924814224243164e-01,8.612548112869262695e-01,8.612171411514282227e-01,8.611794710159301758e-01,8.611418008804321289e-01,8.611041307449340820e-01,8.610665202140808105e-01,8.610288500785827637e-01,8.609911799430847168e-01,8.609535694122314453e-01,8.609158992767333984e-01,8.608782887458801270e-01,8.608406186103820801e-01,8.608030080795288086e-01,8.607653975486755371e-01,8.607277274131774902e-01,8.606901168823242188e-01,8.606525063514709473e-01,8.606148958206176758e-01,8.605772852897644043e-01,8.605396747589111328e-01,8.605020642280578613e-01
8.212522268295288086e-01,8.212180137634277344e-01,8.211837410926818848e-01,8.211495280265808105e-01,8.211152553558349609e-01,8.210810422897338867e-01,8.210467696189880371e-01,8.210125565528869629e-01,8.209783434867858887e-01,8.209441304206848145e-01,8.209098577499389648e-01,8.208756446838378906e-01,8.208414316177368164e-01,8.208072185516357422e-01,8.207730054855346680e-01,8.207387924194335938e-01,8.207045793533325195e-01,8.206704258918762207e-01,8.206362128257751465e-01,8.206019997596740723e-01,8.205677866935729980e-01,8.205336332321166992e-01,8.204994201660156250e-01,8.204652667045593262e-01,8.204310536384582520e-01,8.203969001770019531e-01,8.203626871109008789e-01,8.203285336494445801e-01,8.202943801879882812e-01,8.202601671218872070e-01,8.202260136604309082e-01,8.201918601989746094e-01,8.201577067375183105e-01,8.201235532760620117e-01,8.200893998146057129e-01,8.200552463531494141e-01,8.200210928916931152e-01,8.199869394302368164e-01,8.199527859687805176e-01,8.199186325073242188e-01,8.198844790458679199e-01,8.198503851890563965e-01,8.198162317276000977e-01,8.197821378707885742e-01,8.197479844093322754e-01,8.197138309478759766e-01,8.196797370910644531e-01,8.196456432342529297e-01,8.196114897727966309e-01,8.195773959159851074e-01,8.195433020591735840e-01,8.195091485977172852e-01,8.194750547409057617e-01,8.194409608840942383e-01,8.194068670272827148e-01,8.193727731704711914e-01,8.193386793136596680e-01,8.193045854568481445e-01,8.192704916000366211e-01,8.192363977432250977e-01,8.192023038864135742e-01,8.191682696342468262e-01,8.191341757774353027e-01,8.191000819206237793e-01,8.190660476684570312e-01,8.190319538116455078e-01,8.189979195594787598e-01,8.189638257026672363e-01,8.189297914505004883e-01,8.188956975936889648e-01,8.188616633415222168e-01,8.188276290893554688e-01,8.187935948371887207e-01,8.187595009803771973e-01,8.187254667282104492e-01,8.186914324760437012e-01,8.186573982238769531e-01,8.186233639717102051e-01,8.185893297195434570e-01,8.185552954673767090e-01
7.829596996307373047e-01,7.829285264015197754e-01,7.828974127769470215e-01,7.828662991523742676e-01,7.828351855278015137e-01,7.828040719032287598e-01,7.827729582786560059e-01,7.827418446540832520e-01,7.827107310295104980e-01,7.826796174049377441e-01,7.826485037803649902e-01,7.826173901557922363e-01,7.825862765312194824e-01,7.825551629066467285e-01,7.825241088867187500e-01,7.824929952621459961e-01,7.824618816375732422e-01,7.824308276176452637e-01,7.823997139930725098e-01,7.823686003684997559e-01,7.823375463485717773e-01,7.823064923286437988e-01,7.822753787040710449e-01,7.822443246841430664e-01,7.822132110595703125e-01,7.821821570396423340e-01,7.821511030197143555e-01,7.821200489997863770e-01,7.820889949798583984e-01,7.820578813552856445e-01,7.820268273353576660e-01,7.819957733154296875e-01,7.819647192955017090e-01,7.819336652755737305e-01,7.819026112556457520e-01,7.818715572357177734e-01,7.818405628204345703e-01,7.818095088005065918e-01,7.817784547805786133e-01,7.817474007606506348e-01,7.817164063453674316e-01,7.816853523254394531e-01,7.816543579101562500e-01,7.816233038902282715e-01,7.815923094749450684e-01,7.815612554550170898e-01,7.815302610397338867e-01,7.814992070198059082e-01,7.814682126045227051e-01,7.814372181892395020e-01,7.814061641693115234e-01,7.813751697540283203e-01,7.813441753387451172e-01,7.813131809234619141e-01,7.812821865081787109e-01,7.812511920928955078e-01,7.812201976776123047e-01,7.811892032623291016e-01,7.811582088470458984e-01,7.811272144317626953e-01,7.810962200164794922e-01,7.810652256011962891e-01,7.810343503952026367e-01,7.810033559799194336e-01,7.809723615646362305e-01,7.809414267539978027e-01,7.809104323387145996e-01,7.808794975280761719e-01,7.808485031127929688e-01,7.808175683021545410e-01,7.807865738868713379e-01,7.807556390762329102e-01,7.807246446609497070e-01,7.806937098503112793e-01,7.806627750396728516e-01,7.806318402290344238e-01,7.806008458137512207e-01,7.805699110031127930e-01,7.805389761924743652e-01,7.805080413818359375e-01
7.480789422988891602e-01,7.480505704879760742e-01,7.480221390724182129e-01,7.479937076568603516e-01,7.479652762413024902e-01,7.479369044303894043e-01,7.479084730148315430e-01,7.478801012039184570e-01,7.478516697883605957e-01,7.478232979774475098e-01,7.477948665618896484e-01,7.477664947509765625e-01,7.477380633354187012e-01,7.477096915245056152e-01,7.476813197135925293e-01,7.476528882980346680e-01,7.476245164871215820e-01,7.475961446762084961e-01,7.475677728652954102e-01,7.475394010543823242e-01,7.475110292434692383e-01,7.474826574325561523e-01,7.474542260169982910e-01,7.474259138107299805e-01,7.473975419998168945e-01,7.473691701889038086e-01,7.473407983779907227e-01,7.473124265670776367e-01,7.472840547561645508e-01,7.472556829452514648e-01,7.472274303436279297e-01,7.471990585327148438e-01,7.471706867218017578e-01,7.471423745155334473e-01,7.471140027046203613e-01,7.470856904983520508e-01,7.470573186874389648e-01,7.470290064811706543e-01,7.470006346702575684e-01,7.469723224639892578e-01,7.469439506530761719e-01,7.469156384468078613e-01,7.468873262405395508e-01,7.468589544296264648e-01,7.468306422233581543e-01,7.468023300170898438e-01,7.467740178108215332e-01,7.467457056045532227e-01,7.467173933982849121e-01,7.466890811920166016e-01,7.466607689857482910e-01,7.466324567794799805e-01,7.466041445732116699e-01,7.465758323669433594e-01,7.465475201606750488e-01,7.465192079544067383e-01,7.464908957481384277e-01,7.464625835418701172e-01,7.464343309402465820e-01,7.464060187339782715e-01,7.463777065277099609e-01,7.463494539260864258e-01,7.463211417198181152e-01,7.462928891181945801e-01,7.462645769119262695e-01,7.462363243103027344e-01,7.462080121040344238e-01,7.461797595024108887e-01,7.461515069007873535e-01,7.461231946945190430e-01,7.460949420928955078e-01,7.460666894912719727e-01,7.460383772850036621e-01,7.460101246833801270e-01,7.459818720817565918e-01,7.459536194801330566e-01,7.459253668785095215e-01,7.458971142768859863e-01,7.458688616752624512e-01,7.458406090736389160e-01
