5.000000000000000000e+00,5.000000000000000000e+00,5.000000000000000000e+00,5.000000000000000000e+00,5.000000000000000000e+00,5.000000000000000000e+00,5.000000000000000000e+00,5.000000000000000000e+00,5.000000000000000000e+00,5.000000000000000000e+00,5.000000000000000000e+00,5.000000000000000000e+00,5.000000000000000000e+00,5.000000000000000000e+00,5.000000000000000000e+00,5.000000000000000000e+00,5.000000000000000000e+00,5.000000000000000000e+00,5.000000000000000000e+00,5.000000000000000000e+00,5.000000000000000000e+00,5.000000000000000000e+00,5.000000000000000000e+00,5.000000000000000000e+00,5.000000000000000000e+00,5.000000000000000000e+00,5.000000000000000000e+00,5.000000000000000000e+00,5.000000000000000000e+00,2.450900554656982422e+00,2.448061943054199219e+00,2.427887678146362305e+00,2.404962778091430664e+00,2.401583194732666016e+00,2.411078929901123047e+00,2.432322502136230469e+00,2.471855878829956055e+00,2.610066890716552734e+00,2.591838836669921875e+00,2.636193513870239258e+00,4.659523487091064453e+00,4.483930587768554688e+00,4.321091175079345703e+00,4.169664859771728516e+00,4.028492450714111328e+00,3.896566390991210938e+00,3.773006677627563477e+00,3.657042503356933594e+00,3.547994375228881836e+00,3.445260763168334961e+00,3.348309278488159180e+00,3.256664991378784180e+00,3.169903993606567383e+00,3.087645530700683594e+00,3.009548425674438477e+00,2.935304403305053711e+00,2.864635467529296875e+00,2.797289133071899414e+00,2.733036756515502930e+00,2.671669721603393555e+00,2.612998247146606445e+00,2.556848049163818359e+00,2.503060340881347656e+00,2.451488971710205078e+00,2.401999950408935547e+00,2.354469537734985352e+00,2.308783531188964844e+00,2.264836788177490234e+00,2.222531795501708984e+00,2.181778430938720703e+00,2.142492532730102539e+00,2.104596376419067383e+00,2.068017482757568359e+00,2.032688617706298828e+00,1.998546242713928223e+00,1.965532183647155762e+00,1.933591008186340332e+00,1.902671217918395996e+00,1.872724890708923340e+00,1.843706369400024414e+00
5.000000000000000000e+00,5.000000000000000000e+00,5.000000000000000000e+00,5.000000000000000000e+00,5.000000000000000000e+00,5.000000000000000000e+00,5.000000000000000000e+00,5.000000000000000000e+00,5.000000000000000000e+00,5.000000000000000000e+00,5.000000000000000000e+00,5.000000000000000000e+00,5.000000000000000000e+00,5.000000000000000000e+00,5.000000000000000000e+00,5.000000000000000000e+00,5.000000000000000000e+00,5.000000000000000000e+00,5.000000000000000000e+00,5.000000000000000000e+00,5.000000000000000000e+00,5.000000000000000000e+00,5.000000000000000000e+00,5.000000000000000000e+00,5.000000000000000000e+00,5.000000000000000000e+00,5.000000000000000000e+00,5.000000000000000000e+00,5.000000000000000000e+00,2.459073543548583984e+00,2.451002359390258789e+00,2.434367656707763672e+00,2.406933307647705078e+00,2.403094053268432617e+00,2.413684368133544922e+00,2.435389995574951172e+00,2.472627162933349609e+00,2.648396253585815430e+00,2.594424486160278320e+00,2.628268480300903320e+00,4.659650802612304688e+00,4.484048843383789062e+00,4.321200847625732422e+00,4.169767379760742188e+00,4.028587818145751953e+00,3.896655559539794922e+00,3.773090362548828125e+00,3.657121419906616211e+00,3.548068284988403320e+00,3.445330381393432617e+00,3.348375082015991211e+00,3.256727695465087891e+00,3.169962882995605469e+00,3.087701559066772461e+00,3.009601593017578125e+00,2.935355186462402344e+00,2.864683628082275391e+00,2.797335147857666016e+00,2.733080625534057617e+00,2.671711921691894531e+00,2.613038301467895508e+00,2.556886434555053711e+00,2.503097057342529297e+00,2.451524496078491211e+00,2.402033805847167969e+00,2.354502201080322266e+00,2.308814764022827148e+00,2.264867067337036133e+00,2.222560882568359375e+00,2.181806325912475586e+00,2.142519474029541016e+00,2.104622364044189453e+00,2.068042516708374023e+00,2.032712697982788086e+00,1.998569726943969727e+00,1.965554952621459961e+00,1.933612823486328125e+00,1.902692556381225586e+00,1.872745394706726074e+00,1.843726515769958496e+00
5.000000000000000000e+00,5.000000000000000000e+00,5.000000000000000000e+00,5.000000000000000000e+00,5.000000000000000000e+00,5.000000000000000000e+00,5.000000000000000000e+00,5.000000000000000000e+00,5.000000000000000000e+00,5.000000000000000000e+00,5.000000000000000000e+00,5.000000000000000000e+00,5.000000000000000000e+00,5.000000000000000000e+00,5.000000000000000000e+00,5.000000000000000000e+00,5.000000000000000000e+00,5.000000000000000000e+00,5.000000000000000000e+00,5.000000000000000000e+00,5.000000000000000000e+00,5.000000000000000000e+00,5.000000000000000000e+00,5.000000000000000000e+00,5.000000000000000000e+00,5.000000000000000000e+00,5.000000000000000000e+00,5.000000000000000000e+00,5.000000000000000000e+00,2.470082998275756836e+00,2.467015743255615234e+00,2.417214155197143555e+00,2.394957542419433594e+00,2.391667366027832031e+00,2.405329704284667969e+00,2.438560485839843750e+00,2.469960927963256836e+00,5.000000000000000000e+00,2.609707832336425781e+00,2.624646902084350586e+00,4.659778594970703125e+00,4.484167098999023438e+00,4.321310520172119141e+00,4.169869422912597656e+00,4.028683185577392578e+00,3.896745204925537109e+00,3.773174285888671875e+00,3.657199859619140625e+00,3.548142194747924805e+00,3.445400476455688477e+00,3.348441123962402344e+00,3.256789922714233398e+00,3.170022010803222656e+00,3.087757825851440430e+00,3.009654998779296875e+00,2.935405731201171875e+00,2.864731788635253906e+00,2.797381162643432617e+00,2.733124732971191406e+00,2.671753644943237305e+00,2.613078355789184570e+00,2.556925058364868164e+00,2.503134012222290039e+00,2.451559782028198242e+00,2.402067661285400391e+00,2.354534864425659180e+00,2.308846235275268555e+00,2.264897108078002930e+00,2.222589969635009766e+00,2.181834459304809570e+00,2.142546415328979492e+00,2.104648351669311523e+00,2.068067550659179688e+00,2.032737255096435547e+00,1.998593330383300781e+00,1.965577483177185059e+00,1.933634877204895020e+00,1.902713894844055176e+00,1.872766017913818359e+00,1.843746542930603027e+00
5.000000000000000000e+00,5.000000000000000000e+00,5.000000000000000000e+00,5.000000000000000000e+00,5.000000000000000000e+00,5.000000000000000000e+00,5.000000000000000000e+00,5.000000000000000000e+00,5.000000000000000000e+00,5.000000000000000000e+00,5.000000000000000000e+00,5.000000000000000000e+00,5.000000000000000000e+00,5.000000000000000000e+00,5.000000000000000000e+00,5.000000000000000000e+00,5.000000000000000000e+00,5.000000000000000000e+00,5.000000000000000000e+00,5.000000000000000000e+00,5.000000000000000000e+00,5.000000000000000000e+00,5.000000000000000000e+00,5.000000000000000000e+00,5.000000000000000000e+00,5.000000000000000000e+00,5.000000000000000000e+00,5.000000000000000000e+00,5.000000000000000000e+00,2.481224775314331055e+00,2.483359813690185547e+00,2.418115854263305664e+00,2.393936872482299805e+00,2.387249946594238281e+00,2.402158975601196289e+00,2.428395986557006836e+00,2.459787368774414062e+00,5.000000000000000000e+00,2.625450134277343750e+00,2.623235702514648438e+00,4.659906387329101562e+00,4.484285354614257812e+00,4.321420669555664062e+00,4.169971466064453125e+00,4.028778553009033203e+00,3.896834373474121094e+00,3.773257970809936523e+00,3.657278537750244141e+00,3.548216342926025391e+00,3.445470094680786133e+00,3.348507165908813477e+00,3.256852149963378906e+00,3.170081138610839844e+00,3.087813615798950195e+00,3.009708166122436523e+00,2.935456275939941406e+00,2.864780187606811523e+00,2.797427177429199219e+00,2.733168601989746094e+00,2.671795606613159180e+00,2.613118648529052734e+00,2.556963443756103516e+00,2.503170728683471680e+00,2.451595067977905273e+00,2.402101755142211914e+00,2.354567289352416992e+00,2.308877468109130859e+00,2.264927148818969727e+00,2.222619056701660156e+00,2.181862354278564453e+00,2.142573356628417969e+00,2.104674339294433594e+00,2.068092823028564453e+00,2.032761335372924805e+00,1.998616695404052734e+00,1.965600371360778809e+00,1.933656930923461914e+00,1.902735114097595215e+00,1.872786760330200195e+00,1.843766331672668457e+00
5.000000000000000000e+00,5.000000000000000000e+00,5.000000000000000000e+00,5.000000000000000000e+00,5.000000000000000000e+00,5.000000000000000000e+00,5.000000000000000000e+00,5.000000000000000000e+00,5.000000000000000000e+00,5.000000000000000000e+00,5.000000000000000000e+00,5.000000000000000000e+00,5.000000000000000000e+00,5.000000000000000000e+00,5.000000000000000000e+00,5.000000000000000000e+00,5.000000000000000000e+00,5.000000000000000000e+00,5.000000000000000000e+00,5.000000000000000000e+00,5.000000000000000000e+00,5.000000000000000000e+00,5.000000000000000000e+00,5.000000000000000000e+00,5.000000000000000000e+00,5.000000000000000000e+00,5.000000000000000000e+00,5.000000000000000000e+00,5.000000000000000000e+00,2.477198839187622070e+00,2.486510992050170898e+00,2.425345420837402344e+00,2.407395362854003906e+00,2.404150009155273438e+00,2.415097236633300781e+00,2.432846784591674805e+00,2.471859216690063477e+00,5.000000000000000000e+00,2.608358144760131836e+00,2.584165573120117188e+00,2.623319864273071289e+00,4.484403610229492188e+00,4.321530342102050781e+00,4.170073986053466797e+00,4.028874397277832031e+00,3.896923542022705078e+00,3.773341894149780273e+00,3.657357454299926758e+00,3.548290252685546875e+00,3.445539951324462891e+00,3.348573207855224609e+00,3.256914854049682617e+00,3.170140266418457031e+00,3.087869644165039062e+00,3.009761571884155273e+00,2.935507297515869141e+00,2.864828348159790039e+00,2.797473192214965820e+00,2.733212471008300781e+00,2.671837806701660156e+00,2.613158702850341797e+00,2.557001829147338867e+00,2.503207921981811523e+00,2.451630592346191406e+00,2.402135610580444336e+00,2.354599952697753906e+00,2.308908939361572266e+00,2.264957427978515625e+00,2.222647905349731445e+00,2.181890249252319336e+00,2.142600536346435547e+00,2.104700565338134766e+00,2.068118095397949219e+00,2.032785654067993164e+00,1.998640298843383789e+00,1.965623140335083008e+00,1.933678746223449707e+00,1.902756452560424805e+00,1.872807383537292480e+00,1.843786478042602539e+00
5.000000000000000000e+00,5.000000000000000000e+00,5.000000000000000000e+00,5.000000000000000000e+00,5.000000000000000000e+00,5.000000000000000000e+00,5.000000000000000000e+00,5.000000000000000000e+00,5.000000000000000000e+00,5.000000000000000000e+00,5.000000000000000000e+00,5.000000000000000000e+00,5.000000000000000000e+00,5.000000000000000000e+00,5.000000000000000000e+00,5.000000000000000000e+00,5.000000000000000000e+00,5.000000000000000000e+00,5.000000000000000000e+00,5.000000000000000000e+00,5.000000000000000000e+00,5.000000000000000000e+00,5.000000000000000000e+00,5.000000000000000000e+00,5.000000000000000000e+00,5.000000000000000000e+00,5.000000000000000000e+00,5.000000000000000000e+00,5.000000000000000000e+00,2.464940547943115234e+00,2.473463296890258789e+00,2.419883251190185547e+00,2.406271219253540039e+00,2.415162086486816406e+00,2.426836490631103516e+00,2.442003965377807617e+00,2.478366613388061523e+00,5.000000000000000000e+00,2.632104873657226562e+00,2.574630260467529297e+00,2.558406114578247070e+00,4.484521865844726562e+00,4.321640014648437500e+00,4.170176506042480469e+00,4.028969764709472656e+00,3.897012948989868164e+00,3.773425579071044922e+00,3.657435894012451172e+00,3.548364162445068359e+00,3.445610046386718750e+00,3.348639011383056641e+00,3.256977081298828125e+00,3.170199155807495117e+00,3.087925910949707031e+00,3.009814739227294922e+00,2.935557842254638672e+00,2.864876747131347656e+00,2.797519207000732422e+00,2.733256340026855469e+00,2.671879768371582031e+00,2.613198995590209961e+00,2.557040452957153320e+00,2.503244638442993164e+00,2.451665878295898438e+00,2.402169466018676758e+00,2.354632616043090820e+00,2.308940172195434570e+00,2.264987707138061523e+00,2.222676992416381836e+00,2.181918382644653320e+00,2.142627477645874023e+00,2.104726552963256836e+00,2.068143129348754883e+00,2.032809972763061523e+00,1.998663783073425293e+00,1.965645670890808105e+00,1.933700919151306152e+00,1.902777791023254395e+00,1.872827887535095215e+00,1.843806505203247070e+00
5.000000000000000000e+00,5.000000000000000000e+00,5.000000000000000000e+00,5.000000000000000000e+00,5.000000000000000000e+00,5.000000000000000000e+00,5.000000000000000000e+00,5.000000000000000000e+00,5.000000000000000000e+00,5.000000000000000000e+00,5.000000000000000000e+00,5.000000000000000000e+00,5.000000000000000000e+00,5.000000000000000000e+00,5.000000000000000000e+00,5.000000000000000000e+00,5.000000000000000000e+00,5.000000000000000000e+00,5.000000000000000000e+00,5.000000000000000000e+00,5.000000000000000000e+00,5.000000000000000000e+00,5.000000000000000000e+00,5.000000000000000000e+00,5.000000000000000000e+00,5.000000000000000000e+00,5.000000000000000000e+00,5.000000000000000000e+00,5.000000000000000000e+00,2.461344480514526367e+00,2.468420267105102539e+00,2.398101568222045898e+00,2.357482433319091797e+00,2.356533288955688477e+00,2.450495719909667969e+00,2.472400665283203125e+00,2.494477510452270508e+00,2.548038721084594727e+00,5.000000000000000000e+00,2.593653440475463867e+00,2.538777589797973633e+00,2.566487789154052734e+00,4.321750164031982422e+00,4.170278549194335938e+00,4.029065132141113281e+00,3.897102117538452148e+00,3.773509025573730469e+00,3.657514572143554688e+00,3.548438549041748047e+00,3.445679664611816406e+00,3.348704814910888672e+00,3.257039308547973633e+00,3.170258522033691406e+00,3.087981939315795898e+00,3.009867906570434570e+00,2.935608386993408203e+00,2.864925146102905273e+00,2.797565221786499023e+00,2.733300209045410156e+00,2.671921730041503906e+00,2.613239288330078125e+00,2.557078838348388672e+00,2.503281354904174805e+00,2.451701164245605469e+00,2.402203559875488281e+00,2.354665279388427734e+00,2.308971643447875977e+00,2.265017747879028320e+00,2.222706079483032227e+00,2.181946277618408203e+00,2.142654418945312500e+00,2.104752540588378906e+00,2.068168401718139648e+00,2.032834291458129883e+00,1.998687148094177246e+00,1.965668439865112305e+00,1.933722972869873047e+00,1.902798891067504883e+00,1.872848629951477051e+00,1.843826293945312500e+00
5.000000000000000000e+00,5.000000000000000000e+00,5.000000000000000000e+00,5.000000000000000000e+00,5.000000000000000000e+00,5.000000000000000000e+00,5.000000000000000000e+00,5.000000000000000000e+00,5.000000000000000000e+00,5.000000000000000000e+00,5.000000000000000000e+00,5.000000000000000000e+00,5.000000000000000000e+00,5.000000000000000000e+00,5.000000000000000000e+00,5.000000000000000000e+00,5.000000000000000000e+00,5.000000000000000000e+00,5.000000000000000000e+00,5.000000000000000000e+00,5.000000000000000000e+00,5.000000000000000000e+00,5.000000000000000000e+00,5.000000000000000000e+00,5.000000000000000000e+00,5.000000000000000000e+00,5.000000000000000000e+00,5.000000000000000000e+00,5.000000000000000000e+00,2.453047275543212891e+00,2.461296319961547852e+00,2.376542329788208008e+00,2.337625503540039062e+00,2.336336135864257812e+00,2.352490186691284180e+00,2.495073318481445312e+00,2.500081539154052734e+00,2.552188873291015625e+00,5.000000000000000000e+00,4.850397586822509766e+00,2.574519634246826172e+00,2.497615098953247070e+00,4.321859836578369141e+00,4.170381069183349609e+00,4.029160499572753906e+00,3.897191286087036133e+00,3.773593187332153320e+00,3.657593488693237305e+00,3.548512458801269531e+00,3.445749282836914062e+00,3.348771095275878906e+00,3.257102012634277344e+00,3.170317649841308594e+00,3.088037967681884766e+00,3.009921312332153320e+00,2.935659170150756836e+00,2.864973306655883789e+00,2.797611236572265625e+00,2.733344316482543945e+00,2.671963691711425781e+00,2.613279342651367188e+00,2.557117223739624023e+00,2.503318309783935547e+00,2.451736450195312500e+00,2.402237415313720703e+00,2.354697704315185547e+00,2.309003114700317383e+00,2.265048027038574219e+00,2.222735166549682617e+00,2.181974172592163086e+00,2.142681598663330078e+00,2.104778766632080078e+00,2.068193435668945312e+00,2.032858610153198242e+00,1.998710751533508301e+00,1.965691328048706055e+00,1.933744788169860840e+00,1.902820348739624023e+00,1.872869372367858887e+00,1.843846440315246582e+00
5.000000000000000000e+00,5.000000000000000000e+00,5.000000000000000000e+00,5.000000000000000000e+00,5.000000000000000000e+00,5.000000000000000000e+00,5.000000000000000000e+00,5.000000000000000000e+00,5.000000000000000000e+00,5.000000000000000000e+00,5.000000000000000000e+00,5.000000000000000000e+00,5.000000000000000000e+00,5.000000000000000000e+00,5.000000000000000000e+00,5.000000000000000000e+00,5.000000000000000000e+00,5.000000000000000000e+00,5.000000000000000000e+00,5.000000000000000000e+00,5.000000000000000000e+00,5.000000000000000000e+00,5.000000000000000000e+00,5.000000000000000000e+00,5.000000000000000000e+00,5.000000000000000000e+00,5.000000000000000000e+00,5.000000000000000000e+00,5.000000000000000000e+00,2.445565938949584961e+00,2.459557533264160156e+00,2.367063283920288086e+00,2.322972059249877930e+00,2.320917606353759766e+00,2.325473070144653320e+00,2.496321201324462891e+00,2.500781774520874023e+00,2.553459167480468750e+00,5.000000000000000000e+00,4.850536346435546875e+00,4.660544872283935547e+00,2.454156398773193359e+00,2.470797538757324219e+00,4.170483112335205078e+00,4.029255867004394531e+00,3.897280931472778320e+00,3.773676633834838867e+00,3.657671928405761719e+00,3.548586368560791016e+00,3.445819377899169922e+00,3.348836898803710938e+00,3.257164239883422852e+00,3.170376539230346680e+00,3.088094234466552734e+00,3.009974718093872070e+00,2.935709953308105469e+00,2.865021467208862305e+00,2.797657489776611328e+00,2.733388185501098633e+00,2.672005653381347656e+00,2.613319396972656250e+00,2.557155847549438477e+00,2.503355264663696289e+00,2.451771736145019531e+00,2.402271270751953125e+00,2.354730367660522461e+00,2.309034347534179688e+00,2.265078067779541016e+00,2.222764253616333008e+00,2.182002305984497070e+00,2.142708539962768555e+00,2.104804754257202148e+00,2.068218469619750977e+00,2.032882928848266602e+00,1.998734354972839355e+00,1.965713858604431152e+00,1.933766841888427734e+00,1.902841687202453613e+00,1.872889757156372070e+00,1.843866467475891113e+00
5.000000000000000000e+00,5.000000000000000000e+00,5.000000000000000000e+00,5.000000000000000000e+00,5.000000000000000000e+00,5.000000000000000000e+00,5.000000000000000000e+00,5.000000000000000000e+00,5.000000000000000000e+00,5.000000000000000000e+00,5.000000000000000000e+00,5.000000000000000000e+00,5.000000000000000000e+00,5.000000000000000000e+00,5.000000000000000000e+00,5.000000000000000000e+00,5.000000000000000000e+00,5.000000000000000000e+00,5.000000000000000000e+00,5.000000000000000000e+00,5.000000000000000000e+00,5.000000000000000000e+00,5.000000000000000000e+00,5.000000000000000000e+00,5.000000000000000000e+00,5.000000000000000000e+00,5.000000000000000000e+00,5.000000000000000000e+00,5.000000000000000000e+00,2.450475692749023438e+00,5.000000000000000000e+00,2.384947538375854492e+00,2.317408084869384766e+00,2.306786775588989258e+00,2.304587841033935547e+00,2.360913038253784180e+00,2.503323316574096680e+00,2.566747188568115234e+00,5.000000000000000000e+00,4.850674629211425781e+00,4.660672664642333984e+00,4.484994888305664062e+00,2.512629508972167969e+00,4.170585632324218750e+00,4.029351711273193359e+00,3.897370100021362305e+00,3.773760318756103516e+00,3.657750844955444336e+00,3.548660755157470703e+00,3.445889234542846680e+00,3.348902702331542969e+00,3.257226705551147461e+00,3.170435905456542969e+00,3.088150262832641602e+00,3.010027885437011719e+00,2.935760736465454102e+00,2.865069866180419922e+00,2.797703266143798828e+00,2.733432054519653320e+00,2.672047853469848633e+00,2.613359689712524414e+00,2.557194232940673828e+00,2.503391981124877930e+00,2.451807260513305664e+00,2.402305364608764648e+00,2.354763031005859375e+00,2.309065580368041992e+00,2.265108346939086914e+00,2.222793340682983398e+00,2.182030200958251953e+00,2.142735481262207031e+00,2.104830980300903320e+00,2.068243741989135742e+00,2.032907247543334961e+00,1.998757600784301758e+00,1.965736627578735352e+00,1.933788895606994629e+00,1.902862787246704102e+00,1.872910499572753906e+00,1.843886494636535645e+00
5.000000000000000000e+00,5.000000000000000000e+00,5.000000000000000000e+00,5.000000000000000000e+00,5.000000000000000000e+00,5.000000000000000000e+00,5.000000000000000000e+00,5.000000000000000000e+00,5.000000000000000000e+00,5.000000000000000000e+00,5.000000000000000000e+00,5.000000000000000000e+00,5.000000000000000000e+00,5.000000000000000000e+00,5.000000000000000000e+00,5.000000000000000000e+00,5.000000000000000000e+00,5.000000000000000000e+00,5.000000000000000000e+00,5.000000000000000000e+00,5.000000000000000000e+00,5.000000000000000000e+00,5.000000000000000000e+00,5.000000000000000000e+00,5.000000000000000000e+00,5.000000000000000000e+00,5.000000000000000000e+00,5.000000000000000000e+00,5.000000000000000000e+00,2.433481931686401367e+00,2.429244995117187500e+00,2.408737182617187500e+00,2.324692726135253906e+00,2.292303085327148438e+00,2.288474321365356445e+00,2.331843852996826172e+00,2.519743204116821289e+00,5.000000000000000000e+00,5.000000000000000000e+00,4.850812911987304688e+00,4.660800457000732422e+00,4.485113143920898438e+00,4.322189807891845703e+00,4.170687675476074219e+00,4.029447078704833984e+00,3.897459268569946289e+00,3.773844480514526367e+00,3.657829523086547852e+00,3.548734664916992188e+00,3.445958852767944336e+00,3.348968982696533203e+00,3.257289171218872070e+00,3.170494794845581055e+00,3.088206291198730469e+00,3.010081291198730469e+00,2.935811281204223633e+00,2.865118026733398438e+00,2.797749280929565430e+00,2.733476161956787109e+00,2.672089815139770508e+00,2.613399744033813477e+00,2.557232618331909180e+00,2.503428936004638672e+00,2.451842546463012695e+00,2.402339220046997070e+00,2.354795455932617188e+00,2.309097051620483398e+00,2.265138626098632812e+00,2.222822427749633789e+00,2.182058334350585938e+00,2.142762422561645508e+00,2.104856967926025391e+00,2.068269014358520508e+00,2.032931566238403320e+00,1.998781204223632812e+00,1.965759515762329102e+00,1.933810710906982422e+00,1.902884125709533691e+00,1.872931241989135742e+00,1.843906402587890625e+00
5.000000000000000000e+00,5.000000000000000000e+00,5.000000000000000000e+00,5.000000000000000000e+00,5.000000000000000000e+00,5.000000000000000000e+00,5.000000000000000000e+00,5.000000000000000000e+00,5.000000000000000000e+00,5.000000000000000000e+00,5.000000000000000000e+00,5.000000000000000000e+00,5.000000000000000000e+00,5.000000000000000000e+00,5.000000000000000000e+00,5.000000000000000000e+00,5.000000000000000000e+00,5.000000000000000000e+00,5.000000000000000000e+00,5.000000000000000000e+00,5.000000000000000000e+00,5.000000000000000000e+00,5.000000000000000000e+00,5.000000000000000000e+00,5.000000000000000000e+00,5.000000000000000000e+00,5.000000000000000000e+00,5.000000000000000000e+00,5.000000000000000000e+00,2.431936740875244141e+00,5.000000000000000000e+00,5.000000000000000000e+00,2.333477020263671875e+00,2.279022693634033203e+00,2.270158529281616211e+00,2.304075479507446289e+00,2.543382406234741211e+00,5.000000000000000000e+00,5.000000000000000000e+00,4.850951194763183594e+00,4.660928249359130859e+00,4.485231399536132812e+00,4.322299480438232422e+00,4.170790195465087891e+00,4.029542922973632812e+00,3.897548913955688477e+00,3.773927927017211914e+00,3.657907962799072266e+00,3.548809051513671875e+00,3.446028947830200195e+00,3.349034786224365234e+00,3.257351398468017578e+00,3.170554161071777344e+00,3.088262557983398438e+00,3.010134458541870117e+00,2.935861825942993164e+00,2.865166425704956055e+00,2.797795534133911133e+00,2.733520030975341797e+00,2.672131538391113281e+00,2.613440036773681641e+00,2.557271003723144531e+00,2.503465652465820312e+00,2.451877832412719727e+00,2.402373313903808594e+00,2.354828357696533203e+00,2.309128284454345703e+00,2.265168666839599609e+00,2.222851514816284180e+00,2.182086467742919922e+00,2.142789363861083984e+00,2.104882955551147461e+00,2.068294286727905273e+00,2.032955884933471680e+00,1.998804807662963867e+00,1.965782046318054199e+00,1.933832764625549316e+00,1.902905583381652832e+00,1.872951745986938477e+00,1.843926429748535156e+00
5.000000000000000000e+00,5.000000000000000000e+00,5.000000000000000000e+00,5.000000000000000000e+00,5.000000000000000000e+00,5.000000000000000000e+00,5.000000000000000000e+00,5.000000000000000000e+00,5.000000000000000000e+00,5.000000000000000000e+00,5.000000000000000000e+00,5.000000000000000000e+00,5.000000000000000000e+00,5.000000000000000000e+00,5.000000000000000000e+00,5.000000000000000000e+00,5.000000000000000000e+00,5.000000000000000000e+00,5.000000000000000000e+00,5.000000000000000000e+00,5.000000000000000000e+00,5.000000000000000000e+00,5.000000000000000000e+00,5.000000000000000000e+00,5.000000000000000000e+00,5.000000000000000000e+00,5.000000000000000000e+00,5.000000000000000000e+00,5.000000000000000000e+00,2.423157453536987305e+00,5.000000000000000000e+00,5.000000000000000000e+00,2.356017112731933594e+00,2.283069372177124023e+00,2.255647420883178711e+00,2.273289918899536133e+00,2.569998502731323242e+00,5.000000000000000000e+00,5.000000000000000000e+00,4.851089954376220703e+00,4.661056041717529297e+00,4.485350131988525391e+00,4.322409152984619141e+00,4.170892715454101562e+00,4.029637813568115234e+00,3.897638320922851562e+00,3.774011611938476562e+00,3.657986879348754883e+00,3.548882961273193359e+00,3.446098566055297852e+00,3.349100589752197266e+00,3.257414102554321289e+00,3.170613288879394531e+00,3.088318347930908203e+00,3.010187625885009766e+00,2.935912847518920898e+00,2.865214824676513672e+00,2.797841548919677734e+00,2.733563899993896484e+00,2.672173738479614258e+00,2.613480091094970703e+00,2.557309627532958984e+00,2.503502607345581055e+00,2.451913356781005859e+00,2.402407169342041016e+00,2.354860782623291016e+00,2.309159755706787109e+00,2.265198945999145508e+00,2.222880601882934570e+00,2.182114362716674805e+00,2.142816305160522461e+00,2.104908943176269531e+00,2.068319320678710938e+00,2.032980203628540039e+00,1.998828172683715820e+00,1.965804815292358398e+00,1.933854937553405762e+00,1.902926683425903320e+00,1.872972369194030762e+00,1.843946576118469238e+00
5.000000000000000000e+00,5.000000000000000000e+00,5.000000000000000000e+00,5.000000000000000000e+00,5.000000000000000000e+00,5.000000000000000000e+00,5.000000000000000000e+00,5.000000000000000000e+00,5.000000000000000000e+00,5.000000000000000000e+00,5.000000000000000000e+00,5.000000000000000000e+00,5.000000000000000000e+00,5.000000000000000000e+00,5.000000000000000000e+00,5.000000000000000000e+00,5.000000000000000000e+00,5.000000000000000000e+00,5.000000000000000000e+00,5.000000000000000000e+00,5.000000000000000000e+00,5.000000000000000000e+00,5.000000000000000000e+00,5.000000000000000000e+00,5.000000000000000000e+00,5.000000000000000000e+00,5.000000000000000000e+00,5.000000000000000000e+00,5.000000000000000000e+00,2.416369676589965820e+00,5.000000000000000000e+00,5.000000000000000000e+00,5.000000000000000000e+00,2.293179750442504883e+00,2.247383594512939453e+00,2.250261783599853516e+00,2.594191074371337891e+00,5.000000000000000000e+00,5.000000000000000000e+00,4.851228237152099609e+00,4.661183834075927734e+00,4.485468387603759766e+00,4.322519302368164062e+00,4.170994758605957031e+00,4.029733657836914062e+00,3.897727727890014648e+00,3.774095773696899414e+00,3.658065557479858398e+00,3.548956871032714844e+00,3.446168661117553711e+00,3.349166870117187500e+00,3.257476329803466797e+00,3.170672178268432617e+00,3.088374614715576172e+00,3.010241031646728516e+00,2.935963392257690430e+00,2.865262985229492188e+00,2.797887802124023438e+00,2.733608007431030273e+00,2.672215700149536133e+00,2.613520383834838867e+00,2.557348012924194336e+00,2.503539562225341797e+00,2.451948642730712891e+00,2.402441024780273438e+00,2.354893445968627930e+00,2.309191226959228516e+00,2.265228986740112305e+00,2.222909450531005859e+00,2.182142496109008789e+00,2.142843484878540039e+00,2.104934930801391602e+00,2.068344354629516602e+00,2.033004522323608398e+00,1.998851656913757324e+00,1.965827584266662598e+00,1.933876752853393555e+00,1.902948021888732910e+00,1.872993111610412598e+00,1.843966364860534668e+00
5.000000000000000000e+00,5.000000000000000000e+00,5.000000000000000000e+00,5.000000000000000000e+00,5.000000000000000000e+00,5.000000000000000000e+00,5.000000000000000000e+00,5.000000000000000000e+00,5.000000000000000000e+00,5.000000000000000000e+00,5.000000000000000000e+00,5.000000000000000000e+00,5.000000000000000000e+00,5.000000000000000000e+00,5.000000000000000000e+00,5.000000000000000000e+00,5.000000000000000000e+00,5.000000000000000000e+00,5.000000000000000000e+00,5.000000000000000000e+00,5.000000000000000000e+00,5.000000000000000000e+00,5.000000000000000000e+00,5.000000000000000000e+00,5.000000000000000000e+00,5.000000000000000000e+00,5.000000000000000000e+00,5.000000000000000000e+00,5.000000000000000000e+00,5.000000000000000000e+00,5.000000000000000000e+00,5.000000000000000000e+00,5.000000000000000000e+00,2.306114196777343750e+00,2.249195575714111328e+00,2.250044345855712891e+00,5.000000000000000000e+00,5.000000000000000000e+00,5.000000000000000000e+00,4.851366519927978516e+00,4.661311626434326172e+00,4.485586643218994141e+00,4.322629451751708984e+00,4.171097278594970703e+00,4.029829025268554688e+00,3.897817134857177734e+00,3.774179220199584961e+00,3.658143997192382812e+00,3.549031257629394531e+00,3.446238517761230469e+00,3.349232673645019531e+00,3.257538557052612305e+00,3.170731544494628906e+00,3.088430643081665039e+00,3.010294437408447266e+00,2.936013936996459961e+00,2.865311384201049805e+00,2.797933816909790039e+00,2.733651876449584961e+00,2.672257661819458008e+00,2.613560676574707031e+00,2.557386398315429688e+00,2.503576278686523438e+00,2.451983928680419922e+00,2.402475118637084961e+00,2.354926109313964844e+00,2.309222459793090820e+00,2.265259265899658203e+00,2.222938776016235352e+00,2.182170391082763672e+00,2.142870426177978516e+00,2.104961156845092773e+00,2.068369626998901367e+00,2.033028841018676758e+00,1.998875260353088379e+00,1.965850234031677246e+00,1.933898806571960449e+00,1.902969479560852051e+00,1.873013615608215332e+00,1.843986511230468750e+00
5.000000000000000000e+00,5.000000000000000000e+00,5.000000000000000000e+00,5.000000000000000000e+00,5.000000000000000000e+00,5.000000000000000000e+00,5.000000000000000000e+00,5.000000000000000000e+00,5.000000000000000000e+00,5.000000000000000000e+00,5.000000000000000000e+00,5.000000000000000000e+00,5.000000000000000000e+00,5.000000000000000000e+00,5.000000000000000000e+00,5.000000000000000000e+00,5.000000000000000000e+00,5.000000000000000000e+00,5.000000000000000000e+00,5.000000000000000000e+00,5.000000000000000000e+00,5.000000000000000000e+00,5.000000000000000000e+00,5.000000000000000000e+00,5.000000000000000000e+00,5.000000000000000000e+00,5.000000000000000000e+00,5.000000000000000000e+00,5.000000000000000000e+00,5.000000000000000000e+00,5.000000000000000000e+00,5.000000000000000000e+00,5.000000000000000000e+00,2.298812389373779297e+00,2.257102012634277344e+00,2.256672620773315430e+00,5.000000000000000000e+00,5.000000000000000000e+00,5.000000000000000000e+00,4.851505279541015625e+00,4.661439895629882812e+00,4.485704898834228516e+00,4.322739124298095703e+00,4.171199321746826172e+00,4.029924869537353516e+00,3.897906303405761719e+00,3.774263381958007812e+00,3.658222913742065430e+00,3.549105167388916016e+00,3.446308135986328125e+00,3.349298954010009766e+00,3.257601261138916016e+00,3.170790672302246094e+00,3.088486671447753906e+00,3.010347843170166016e+00,2.936064958572387695e+00,2.865359544754028320e+00,2.797979593276977539e+00,2.733695983886718750e+00,2.672299861907958984e+00,2.613600730895996094e+00,2.557424783706665039e+00,2.503613233566284180e+00,2.452019453048706055e+00,2.402508974075317383e+00,2.354958772659301758e+00,2.309253931045532227e+00,2.265289545059204102e+00,2.222967624664306641e+00,2.182198286056518555e+00,2.142897605895996094e+00,2.104987144470214844e+00,2.068394660949707031e+00,2.033053159713745117e+00,1.998898863792419434e+00,1.965873003005981445e+00,1.933920860290527344e+00,1.902990579605102539e+00,1.873034238815307617e+00,1.844006538391113281e+00
5.000000000000000000e+00,5.000000000000000000e+00,5.000000000000000000e+00,5.000000000000000000e+00,5.000000000000000000e+00,5.000000000000000000e+00,5.000000000000000000e+00,5.000000000000000000e+00,5.000000000000000000e+00,5.000000000000000000e+00,5.000000000000000000e+00,5.000000000000000000e+00,5.000000000000000000e+00,5.000000000000000000e+00,5.000000000000000000e+00,5.000000000000000000e+00,5.000000000000000000e+00,5.000000000000000000e+00,5.000000000000000000e+00,5.000000000000000000e+00,5.000000000000000000e+00,5.000000000000000000e+00,5.000000000000000000e+00,5.000000000000000000e+00,5.000000000000000000e+00,5.000000000000000000e+00,5.000000000000000000e+00,5.000000000000000000e+00,5.000000000000000000e+00,5.000000000000000000e+00,5.000000000000000000e+00,5.000000000000000000e+00,5.000000000000000000e+00,2.286426544189453125e+00,2.260570764541625977e+00,2.263340234756469727e+00,5.000000000000000000e+00,5.000000000000000000e+00,5.000000000000000000e+00,4.851643562316894531e+00,4.661567211151123047e+00,4.485823631286621094e+00,4.322848796844482422e+00,4.171301841735839844e+00,4.030020236968994141e+00,3.897995948791503906e+00,3.774347066879272461e+00,3.658301591873168945e+00,3.549179077148437500e+00,3.446378231048583984e+00,3.349364757537841797e+00,3.257663488388061523e+00,3.170849561691284180e+00,3.088542938232421875e+00,3.010401010513305664e+00,2.936115503311157227e+00,2.865407705307006836e+00,2.798025846481323242e+00,2.733739852905273438e+00,2.672341585159301758e+00,2.613640785217285156e+00,2.557463407516479492e+00,2.503650188446044922e+00,2.452054738998413086e+00,2.402543067932128906e+00,2.354991436004638672e+00,2.309285163879394531e+00,2.265319585800170898e+00,2.222996711730957031e+00,2.182226419448852539e+00,2.142924547195434570e+00,2.105013132095336914e+00,2.068419933319091797e+00,2.033077478408813477e+00,1.998922228813171387e+00,1.965895771980285645e+00,1.933942675590515137e+00,1.903011918067932129e+00,1.873054981231689453e+00,1.844026327133178711e+00
5.000000000000000000e+00,5.000000000000000000e+00,5.000000000000000000e+00,5.000000000000000000e+00,5.000000000000000000e+00,5.000000000000000000e+00,5.000000000000000000e+00,5.000000000000000000e+00,5.000000000000000000e+00,5.000000000000000000e+00,5.000000000000000000e+00,5.000000000000000000e+00,5.000000000000000000e+00,5.000000000000000000e+00,5.000000000000000000e+00,5.000000000000000000e+00,5.000000000000000000e+00,5.000000000000000000e+00,5.000000000000000000e+00,5.000000000000000000e+00,5.000000000000000000e+00,5.000000000000000000e+00,5.000000000000000000e+00,5.000000000000000000e+00,5.000000000000000000e+00,5.000000000000000000e+00,5.000000000000000000e+00,5.000000000000000000e+00,5.000000000000000000e+00,5.000000000000000000e+00,5.000000000000000000e+00,5.000000000000000000e+00,2.682964324951171875e+00,2.285259008407592773e+00,2.262405633926391602e+00,2.269319534301757812e+00,5.000000000000000000e+00,5.000000000000000000e+00,5.000000000000000000e+00,4.851780891418457031e+00,4.661695003509521484e+00,4.485941886901855469e+00,4.322958946228027344e+00,4.171404361724853516e+00,4.030115604400634766e+00,3.898085117340087891e+00,3.774430513381958008e+00,3.658380508422851562e+00,3.549253463745117188e+00,3.446448087692260742e+00,3.349430561065673828e+00,3.257726192474365234e+00,3.170908927917480469e+00,3.088598966598510742e+00,3.010454177856445312e+00,2.936166286468505859e+00,2.865456104278564453e+00,2.798071861267089844e+00,2.733783721923828125e+00,2.672383785247802734e+00,2.613681077957153320e+00,2.557501792907714844e+00,2.503686904907226562e+00,2.452090263366699219e+00,2.402576923370361328e+00,2.355023860931396484e+00,2.309316635131835938e+00,2.265349864959716797e+00,2.223025798797607422e+00,2.182254314422607422e+00,2.142951488494873047e+00,2.105039358139038086e+00,2.068445205688476562e+00,2.033101797103881836e+00,1.998945713043212891e+00,1.965918660163879395e+00,1.933964729309082031e+00,1.903033375740051270e+00,1.873075485229492188e+00,1.844046473503112793e+00
5.000000000000000000e+00,5.000000000000000000e+00,5.000000000000000000e+00,5.000000000000000000e+00,5.000000000000000000e+00,5.000000000000000000e+00,5.000000000000000000e+00,5.000000000000000000e+00,5.000000000000000000e+00,5.000000000000000000e+00,5.000000000000000000e+00,5.000000000000000000e+00,5.000000000000000000e+00,5.000000000000000000e+00,5.000000000000000000e+00,5.000000000000000000e+00,5.000000000000000000e+00,5.000000000000000000e+00,5.000000000000000000e+00,5.000000000000000000e+00,5.000000000000000000e+00,5.000000000000000000e+00,5.000000000000000000e+00,5.000000000000000000e+00,5.000000000000000000e+00,5.000000000000000000e+00,5.000000000000000000e+00,5.000000000000000000e+00,5.000000000000000000e+00,5.000000000000000000e+00,5.000000000000000000e+00,5.000000000000000000e+00,2.691126585006713867e+00,2.286900758743286133e+00,2.258004188537597656e+00,2.256063699722290039e+00,5.000000000000000000e+00,5.000000000000000000e+00,5.000000000000000000e+00,4.851918697357177734e+00,4.661823272705078125e+00,4.486060142517089844e+00,4.323069095611572266e+00,4.171506404876708984e+00,4.030211448669433594e+00,3.898174285888671875e+00,3.774514675140380859e+00,3.658459186553955078e+00,3.549327373504638672e+00,3.446517705917358398e+00,3.349496841430664062e+00,3.257788419723510742e+00,3.170968055725097656e+00,3.088654994964599609e+00,3.010507583618164062e+00,2.936217069625854492e+00,2.865504503250122070e+00,2.798117876052856445e+00,2.733827829360961914e+00,2.672425746917724609e+00,2.613721132278442383e+00,2.557540416717529297e+00,2.503723859786987305e+00,2.452125549316406250e+00,2.402611017227172852e+00,2.355056524276733398e+00,2.309348106384277344e+00,2.265380144119262695e+00,2.223054885864257812e+00,2.182282447814941406e+00,2.142978668212890625e+00,2.105065345764160156e+00,2.068470239639282227e+00,2.033125877380371094e+00,1.998969316482543945e+00,1.965941190719604492e+00,1.933986902236938477e+00,1.903054475784301758e+00,1.873096227645874023e+00,1.844066500663757324e+00
5.000000000000000000e+00,5.000000000000000000e+00,5.000000000000000000e+00,5.000000000000000000e+00,5.000000000000000000e+00,5.000000000000000000e+00,5.000000000000000000e+00,5.000000000000000000e+00,5.000000000000000000e+00,5.000000000000000000e+00,5.000000000000000000e+00,5.000000000000000000e+00,5.000000000000000000e+00,5.000000000000000000e+00,5.000000000000000000e+00,5.000000000000000000e+00,5.000000000000000000e+00,5.000000000000000000e+00,5.000000000000000000e+00,5.000000000000000000e+00,5.000000000000000000e+00,5.000000000000000000e+00,5.000000000000000000e+00,5.000000000000000000e+00,5.000000000000000000e+00,5.000000000000000000e+00,5.000000000000000000e+00,5.000000000000000000e+00,5.000000000000000000e+00,5.000000000000000000e+00,5.000000000000000000e+00,5.000000000000000000e+00,2.697280883789062500e+00,2.314833402633666992e+00,2.258556365966796875e+00,2.246312379837036133e+00,5.000000000000000000e+00,5.000000000000000000e+00,5.000000000000000000e+00,4.852056503295898438e+00,4.661949157714843750e+00,4.486178398132324219e+00,4.323178768157958984e+00,4.171608924865722656e+00,4.030306816101074219e+00,3.898263931274414062e+00,3.774598360061645508e+00,3.658537626266479492e+00,3.549401760101318359e+00,3.446587800979614258e+00,3.349562644958496094e+00,3.257850646972656250e+00,3.171027421951293945e+00,3.088711261749267578e+00,3.010560989379882812e+00,2.936267614364624023e+00,2.865552902221679688e+00,2.798163890838623047e+00,2.733871698379516602e+00,2.672467708587646484e+00,2.613761425018310547e+00,2.557578802108764648e+00,2.503760814666748047e+00,2.452160835266113281e+00,2.402644872665405273e+00,2.355089187622070312e+00,2.309379339218139648e+00,2.265410184860229492e+00,2.223083972930908203e+00,2.182310342788696289e+00,2.143005609512329102e+00,2.105091333389282227e+00,2.068495512008666992e+00,2.033150434494018555e+00,1.998992681503295898e+00,1.965963959693908691e+00,1.934008955955505371e+00,1.903075814247131348e+00,1.873116850852966309e+00,1.844086408615112305e+00
5.000000000000000000e+00,5.000000000000000000e+00,5.000000000000000000e+00,5.000000000000000000e+00,5.000000000000000000e+00,5.000000000000000000e+00,5.000000000000000000e+00,5.000000000000000000e+00,5.000000000000000000e+00,5.000000000000000000e+00,5.000000000000000000e+00,5.000000000000000000e+00,5.000000000000000000e+00,5.000000000000000000e+00,5.000000000000000000e+00,5.000000000000000000e+00,5.000000000000000000e+00,5.000000000000000000e+00,5.000000000000000000e+00,5.000000000000000000e+00,5.000000000000000000e+00,5.000000000000000000e+00,5.000000000000000000e+00,5.000000000000000000e+00,5.000000000000000000e+00,5.000000000000000000e+00,5.000000000000000000e+00,5.000000000000000000e+00,5.000000000000000000e+00,5.000000000000000000e+00,5.000000000000000000e+00,5.000000000000000000e+00,2.709806680679321289e+00,2.710195779800415039e+00,2.260039567947387695e+00,2.241614818572998047e+00,5.000000000000000000e+00,5.000000000000000000e+00,5.000000000000000000e+00,4.852194786071777344e+00,4.662076473236083984e+00,4.486295700073242188e+00,4.323288917541503906e+00,4.171711444854736328e+00,4.030402183532714844e+00,3.898353338241577148e+00,3.774682044982910156e+00,3.658616781234741211e+00,3.549475669860839844e+00,3.446657657623291016e+00,3.349628448486328125e+00,3.257913351058959961e+00,3.171086311340332031e+00,3.088767290115356445e+00,3.010614156723022461e+00,2.936318397521972656e+00,2.865601062774658203e+00,2.798209905624389648e+00,2.733915567398071289e+00,2.672509908676147461e+00,2.613801717758178711e+00,2.557617187500000000e+00,2.503797531127929688e+00,2.452196359634399414e+00,2.402678966522216797e+00,2.355121850967407227e+00,2.309410572052001953e+00,2.265440464019775391e+00,2.223113059997558594e+00,2.182338476181030273e+00,2.143032550811767578e+00,2.105117559432983398e+00,2.068520545959472656e+00,2.033174753189086914e+00,1.999016284942626953e+00,1.965986847877502441e+00,1.934030771255493164e+00,1.903097271919250488e+00,1.873137354850769043e+00,1.844106435775756836e+00
5.000000000000000000e+00,5.000000000000000000e+00,5.000000000000000000e+00,5.000000000000000000e+00,5.000000000000000000e+00,5.000000000000000000e+00,5.000000000000000000e+00,5.000000000000000000e+00,5.000000000000000000e+00,5.000000000000000000e+00,5.000000000000000000e+00,5.000000000000000000e+00,5.000000000000000000e+00,5.000000000000000000e+00,5.000000000000000000e+00,5.000000000000000000e+00,5.000000000000000000e+00,5.000000000000000000e+00,5.000000000000000000e+00,5.000000000000000000e+00,5.000000000000000000e+00,5.000000000000000000e+00,5.000000000000000000e+00,5.000000000000000000e+00,5.000000000000000000e+00,5.000000000000000000e+00,5.000000000000000000e+00,5.000000000000000000e+00,5.000000000000000000e+00,5.000000000000000000e+00,5.000000000000000000e+00,2.767104148864746094e+00,2.730798244476318359e+00,5.000000000000000000e+00,2.262422561645507812e+00,2.245084524154663086e+00,2.278477668762207031e+00,5.000000000000000000e+00,5.000000000000000000e+00,4.852332592010498047e+00,4.662203788757324219e+00,4.486413478851318359e+00,4.323397636413574219e+00,4.171813964843750000e+00,4.030498027801513672e+00,3.898442983627319336e+00,3.774765968322753906e+00,3.658695220947265625e+00,3.549549579620361328e+00,3.446727752685546875e+00,3.349694728851318359e+00,3.257975816726684570e+00,3.171145439147949219e+00,3.088823556900024414e+00,3.010667562484741211e+00,2.936369180679321289e+00,2.865649223327636719e+00,2.798256158828735352e+00,2.733959674835205078e+00,2.672551870346069336e+00,2.613841772079467773e+00,2.557655811309814453e+00,2.503834486007690430e+00,2.452231645584106445e+00,2.402712821960449219e+00,2.355154514312744141e+00,2.309442043304443359e+00,2.265470504760742188e+00,2.223142147064208984e+00,2.182366609573364258e+00,2.143059492111206055e+00,2.105143547058105469e+00,2.068545818328857422e+00,2.033199071884155273e+00,1.999039888381958008e+00,1.966009378433227539e+00,1.934052824974060059e+00,1.903118610382080078e+00,1.873158097267150879e+00,1.844126462936401367e+00
5.000000000000000000e+00,5.000000000000000000e+00,5.000000000000000000e+00,5.000000000000000000e+00,5.000000000000000000e+00,5.000000000000000000e+00,5.000000000000000000e+00,5.000000000000000000e+00,5.000000000000000000e+00,5.000000000000000000e+00,5.000000000000000000e+00,5.000000000000000000e+00,5.000000000000000000e+00,5.000000000000000000e+00,5.000000000000000000e+00,5.000000000000000000e+00,5.000000000000000000e+00,5.000000000000000000e+00,5.000000000000000000e+00,5.000000000000000000e+00,5.000000000000000000e+00,5.000000000000000000e+00,5.000000000000000000e+00,5.000000000000000000e+00,5.000000000000000000e+00,5.000000000000000000e+00,5.000000000000000000e+00,5.000000000000000000e+00,5.000000000000000000e+00,5.000000000000000000e+00,5.000000000000000000e+00,2.779554128646850586e+00,2.752323150634765625e+00,5.000000000000000000e+00,2.265336513519287109e+00,2.243364810943603516e+00,2.266857385635375977e+00,5.000000000000000000e+00,5.000000000000000000e+00,4.852470397949218750e+00,4.662331581115722656e+00,4.486531734466552734e+00,4.323507308959960938e+00,4.171916007995605469e+00,4.030593395233154297e+00,3.898532152175903320e+00,3.774849653244018555e+00,3.658773899078369141e+00,3.549623966217041016e+00,3.446797370910644531e+00,3.349760532379150391e+00,3.258038043975830078e+00,3.171204805374145508e+00,3.088879585266113281e+00,3.010720729827880859e+00,2.936419725418090820e+00,2.865697860717773438e+00,2.798302173614501953e+00,2.734003543853759766e+00,2.672593593597412109e+00,2.613882064819335938e+00,2.557694196701049805e+00,2.503871202468872070e+00,2.452266931533813477e+00,2.402746915817260742e+00,2.355187177658081055e+00,2.309473514556884766e+00,2.265500545501708984e+00,2.223171234130859375e+00,2.182394504547119141e+00,2.143086671829223633e+00,2.105169534683227539e+00,2.068571090698242188e+00,2.033223390579223633e+00,1.999063134193420410e+00,1.966032147407531738e+00,1.934074878692626953e+00,1.903139710426330566e+00,1.873178839683532715e+00,1.844146370887756348e+00
4.875486373901367188e+00,4.874275684356689453e+00,4.873065948486328125e+00,4.871857166290283203e+00,4.870648384094238281e+00,4.869440555572509766e+00,4.868233203887939453e+00,4.867026329040527344e+00,4.865819931030273438e+00,4.864614486694335938e+00,4.863409519195556641e+00,4.862205028533935547e+00,4.861001014709472656e+00,4.859797954559326172e+00,4.858595371246337891e+00,4.857393264770507812e+00,4.856192111968994141e+00,4.854991436004638672e+00,4.853791236877441406e+00,4.852591514587402344e+00,4.851392269134521484e+00,4.850193977355957031e+00,4.848996162414550781e+00,4.847798824310302734e+00,4.846602439880371094e+00,4.845406055450439453e+00,4.844210624694824219e+00,4.843015670776367188e+00,4.841821670532226562e+00,4.840627670288085938e+00,4.839434623718261719e+00,2.800653696060180664e+00,4.837049961090087891e+00,4.835858821868896484e+00,2.268257856369018555e+00,2.241370439529418945e+00,2.255354881286621094e+00,4.831099033355712891e+00,4.829910755157470703e+00,4.828722953796386719e+00,4.662458896636962891e+00,4.486649513244628906e+00,4.323616981506347656e+00,4.172017097473144531e+00,4.030689239501953125e+00,3.898621320724487305e+00,3.774933815002441406e+00,3.658852815628051758e+00,3.549697875976562500e+00,3.446867227554321289e+00,3.349826812744140625e+00,3.258100748062133789e+00,3.171263694763183594e+00,3.088935613632202148e+00,3.010774374008178711e+00,2.936470508575439453e+00,2.865746021270751953e+00,2.798348188400268555e+00,2.734047651290893555e+00,2.672635793685913086e+00,2.613922119140625000e+00,2.557732820510864258e+00,2.503908395767211914e+00,2.452302455902099609e+00,2.402780771255493164e+00,2.355219602584838867e+00,2.309504985809326172e+00,2.265530824661254883e+00,2.223200321197509766e+00,2.182422399520874023e+00,2.143113613128662109e+00,2.105195760726928711e+00,2.068596124649047852e+00,2.033247709274291992e+00,1.999086737632751465e+00,1.966055035591125488e+00,1.934096813201904297e+00,1.903161168098449707e+00,1.873199462890625000e+00,1.844166398048400879e+00
3.778327703475952148e+00,3.777600526809692383e+00,3.776873826980590820e+00,3.776147603988647461e+00,3.775421380996704102e+00,3.774695634841918945e+00,3.773970127105712891e+00,3.773244619369506836e+00,3.772519588470458984e+00,3.771795034408569336e+00,3.771070480346679688e+00,3.770346403121948242e+00,3.769622564315795898e+00,3.768898963928222656e+00,3.768175601959228516e+00,3.767452478408813477e+00,3.766729831695556641e+00,3.766007184982299805e+00,3.765285015106201172e+00,3.764563083648681641e+00,3.763841390609741211e+00,3.763119935989379883e+00,3.762398958206176758e+00,3.761677980422973633e+00,3.760957479476928711e+00,3.760237216949462891e+00,3.759517192840576172e+00,3.758797407150268555e+00,3.758078098297119141e+00,3.757358789443969727e+00,3.756639957427978516e+00,2.764980316162109375e+00,2.793773174285888672e+00,3.754484891891479492e+00,3.753767013549804688e+00,2.256158828735351562e+00,3.752332210540771484e+00,3.751615285873413086e+00,3.750898599624633789e+00,3.750182151794433594e+00,3.749465942382812500e+00,3.748749971389770508e+00,3.748034477233886719e+00,3.747318983078002930e+00,3.746603965759277344e+00,3.745889186859130859e+00,3.745174646377563477e+00,3.658931493759155273e+00,3.549772024154663086e+00,3.446937322616577148e+00,3.349892616271972656e+00,3.258162975311279297e+00,3.171322822570800781e+00,3.088991880416870117e+00,3.010827541351318359e+00,2.936521291732788086e+00,2.865794181823730469e+00,2.798394203186035156e+00,2.734091520309448242e+00,2.672677755355834961e+00,2.613962173461914062e+00,2.557771205902099609e+00,2.503945112228393555e+00,2.452337741851806641e+00,2.402814626693725586e+00,2.355252504348754883e+00,2.309536218643188477e+00,2.265561103820800781e+00,2.223229169845581055e+00,2.182450532913208008e+00,2.143140554428100586e+00,2.105221748352050781e+00,2.068621158599853516e+00,2.033272027969360352e+00,1.999110341072082520e+00,1.966077566146850586e+00,1.934118866920471191e+00,1.903182506561279297e+00,1.873219966888427734e+00,1.844186544418334961e+00
3.084259033203125000e+00,3.083774805068969727e+00,3.083290338516235352e+00,3.082806348800659180e+00,3.082322359085083008e+00,3.081838607788085938e+00,3.081354856491088867e+00,3.080871343612670898e+00,3.080388069152832031e+00,3.079904794692993164e+00,3.079421758651733398e+00,3.078938961029052734e+00,3.078456163406372070e+00,3.077973365783691406e+00,3.077491044998168945e+00,3.077008724212646484e+00,3.076526641845703125e+00,3.076044559478759766e+00,3.075562715530395508e+00,3.075081110000610352e+00,3.074599504470825195e+00,3.074118137359619141e+00,3.073636770248413086e+00,3.073155641555786133e+00,3.072674751281738281e+00,3.072193861007690430e+00,3.071713447570800781e+00,3.071232795715332031e+00,3.070752382278442383e+00,3.070272207260131836e+00,3.069792270660400391e+00,2.718325138092041016e+00,2.706427335739135742e+00,3.068352937698364258e+00,3.067873716354370117e+00,2.246189355850219727e+00,2.208739042282104492e+00,3.066436290740966797e+00,3.065957307815551758e+00,3.065478801727294922e+00,3.065000295639038086e+00,3.064521789550781250e+00,3.064043521881103516e+00,3.063565492630004883e+00,3.063087463378906250e+00,3.062609672546386719e+00,3.062132120132446289e+00,3.061654567718505859e+00,3.061177253723144531e+00,3.060699939727783203e+00,3.060222864151000977e+00,3.059746026992797852e+00,3.059269189834594727e+00,3.058792591094970703e+00,3.010880708694458008e+00,2.936572074890136719e+00,2.865842580795288086e+00,2.798440217971801758e+00,2.734135389328002930e+00,2.672719955444335938e+00,2.614002704620361328e+00,2.557809829711914062e+00,2.503981828689575195e+00,2.452373266220092773e+00,2.402848720550537109e+00,2.355284929275512695e+00,2.309567451477050781e+00,2.265591382980346680e+00,2.223258495330810547e+00,2.182478427886962891e+00,2.143167495727539062e+00,2.105247974395751953e+00,2.068646430969238281e+00,2.033296346664428711e+00,1.999133706092834473e+00,1.966100454330444336e+00,1.934140920639038086e+00,1.903203725814819336e+00,1.873240709304809570e+00,1.844206571578979492e+00
2.605614662170410156e+00,2.605268955230712891e+00,2.604923486709594727e+00,2.604577779769897461e+00,2.604232311248779297e+00,2.603887081146240234e+00,2.603541612625122070e+00,2.603196382522583008e+00,2.602851390838623047e+00,2.602506399154663086e+00,2.602161407470703125e+00,2.601816654205322266e+00,2.601471900939941406e+00,2.601127147674560547e+00,2.600782632827758789e+00,2.600438117980957031e+00,2.600093841552734375e+00,2.599749565124511719e+00,2.599405288696289062e+00,2.599061250686645508e+00,2.598717212677001953e+00,2.598373413085937500e+00,2.598029375076293945e+00,2.597685813903808594e+00,2.597342014312744141e+00,2.596998453140258789e+00,2.596655130386352539e+00,2.596311807632446289e+00,2.595968484878540039e+00,2.595625162124633789e+00,2.595282077789306641e+00,2.594939231872558594e+00,2.594596147537231445e+00,2.594253301620483398e+00,2.593910694122314453e+00,2.213772058486938477e+00,2.150352716445922852e+00,2.114408731460571289e+00,2.127552509307861328e+00,2.592198371887207031e+00,2.591856241226196289e+00,2.591514110565185547e+00,2.591171979904174805e+00,2.590830087661743164e+00,2.590488195419311523e+00,2.590146541595458984e+00,2.589804887771606445e+00,2.589463233947753906e+00,2.589121818542480469e+00,2.588780403137207031e+00,2.588439226150512695e+00,2.588098049163818359e+00,2.587756872177124023e+00,2.587415933609008789e+00,2.587074995040893555e+00,2.586734056472778320e+00,2.586393356323242188e+00,2.586052656173706055e+00,2.585712194442749023e+00,2.585371732711791992e+00,2.585031270980834961e+00,2.557848215103149414e+00,2.504019021987915039e+00,2.452408552169799805e+00,2.402882575988769531e+00,2.355317592620849609e+00,2.309598922729492188e+00,2.265621423721313477e+00,2.223287343978881836e+00,2.182506561279296875e+00,2.143194675445556641e+00,2.105273962020874023e+00,2.068671703338623047e+00,2.033320426940917969e+00,1.999157309532165527e+00,1.966123223304748535e+00,1.934162735939025879e+00,1.903225064277648926e+00,1.873261451721191406e+00,1.844226479530334473e+00
2.255583524703979492e+00,2.255324125289916992e+00,2.255064725875854492e+00,2.254805326461791992e+00,2.254545927047729492e+00,2.254286527633666992e+00,2.254027366638183594e+00,2.253768205642700195e+00,2.253509044647216797e+00,2.253250122070312500e+00,2.252991199493408203e+00,2.252732276916503906e+00,2.252473354339599609e+00,2.252214431762695312e+00,2.251955747604370117e+00,2.251697063446044922e+00,2.251438379287719727e+00,2.251179933547973633e+00,2.250921249389648438e+00,2.250662803649902344e+00,2.250404357910156250e+00,2.250146150588989258e+00,2.249887704849243164e+00,2.249629735946655273e+00,2.249371767044067383e+00,2.249114274978637695e+00,2.248856544494628906e+00,2.248599052429199219e+00,2.248341560363769531e+00,2.248084068298339844e+00,2.247826814651489258e+00,2.247569322586059570e+00,2.247312068939208984e+00,2.247054815292358398e+00,2.246797800064086914e+00,2.246540784835815430e+00,2.246283769607543945e+00,2.246026754379272461e+00,2.245769739151000977e+00,2.245512962341308594e+00,2.245256185531616211e+00,2.244999408721923828e+00,2.244742631912231445e+00,2.244486093521118164e+00,2.244229555130004883e+00,2.243973016738891602e+00,2.243716716766357422e+00,2.243460178375244141e+00,2.243203878402709961e+00,2.242947816848754883e+00,2.242691516876220703e+00,2.242435455322265625e+00,2.242179393768310547e+00,2.241923332214355469e+00,2.241667032241821289e+00,2.241411209106445312e+00,2.241155385971069336e+00,2.240899562835693359e+00,2.240643739700317383e+00,2.240388154983520508e+00,2.240132570266723633e+00,2.239876985549926758e+00,2.239621400833129883e+00,2.239366054534912109e+00,2.239110708236694336e+00,2.238855361938476562e+00,2.238600015640258789e+00,2.238344907760620117e+00,2.223316669464111328e+00,2.182534694671630859e+00,2.143221616744995117e+00,2.105299949645996094e+00,2.068696975708007812e+00,2.033344984054565430e+00,1.999180793762207031e+00,1.966145753860473633e+00,1.934184908866882324e+00,1.903246402740478516e+00,1.873281955718994141e+00,1.844246506690979004e+00
1.988478422164916992e+00,1.988276720046997070e+00,1.988075017929077148e+00,1.987873315811157227e+00,1.987671732902526855e+00,1.987470388412475586e+00,1.987268924713134766e+00,1.987067461013793945e+00,1.986865997314453125e+00,1.986664652824401855e+00,1.986463308334350586e+00,1.986261963844299316e+00,1.986060738563537598e+00,1.985859513282775879e+00,1.985658288002014160e+00,1.985457181930541992e+00,1.985256075859069824e+00,1.985054969787597656e+00,1.984853982925415039e+00,1.984653234481811523e+00,1.984452247619628906e+00,1.984251379966735840e+00,1.984050512313842773e+00,1.983849644660949707e+00,1.983648896217346191e+00,1.983448147773742676e+00,1.983247399330139160e+00,1.983046770095825195e+00,1.982846140861511230e+00,1.982645630836486816e+00,1.982445001602172852e+00,1.982244491577148438e+00,1.982044100761413574e+00,1.981843948364257812e+00,1.981643557548522949e+00,1.981443166732788086e+00,1.981242895126342773e+00,1.981042623519897461e+00,1.980842471122741699e+00,1.980642199516296387e+00,1.980442047119140625e+00,1.980242013931274414e+00,1.980041980743408203e+00,1.979841947555541992e+00,1.979641914367675781e+00,1.979442000389099121e+00,1.979242086410522461e+00,1.979042530059814453e+00,1.978842735290527344e+00,1.978642940521240234e+00,1.978443145751953125e+00,1.978243470191955566e+00,1.978043794631958008e+00,1.977844238281250000e+00,1.977644681930541992e+00,1.977445125579833984e+00,1.977245688438415527e+00,1.977046251296997070e+00,1.976846814155578613e+00,1.976647377014160156e+00,1.976448059082031250e+00,1.976248979568481445e+00,1.976049780845642090e+00,1.975850582122802734e+00,1.975651383399963379e+00,1.975452303886413574e+00,1.975253224372863770e+00,1.975054144859313965e+00,1.974855065345764160e+00,1.974656105041503906e+00,1.974457263946533203e+00,1.974258303642272949e+00,1.974059462547302246e+00,1.973860621452331543e+00,1.973661899566650391e+00,1.966168642044067383e+00,1.934206962585449219e+00,1.903267621994018555e+00,1.873302578926086426e+00,1.844266533851623535e+00
1.777935981750488281e+00,1.777774810791015625e+00,1.777613520622253418e+00,1.777452349662780762e+00,1.777291178703308105e+00,1.777130007743835449e+00,1.776968836784362793e+00,1.776807785034179688e+00,1.776646733283996582e+00,1.776485919952392578e+00,1.776324868202209473e+00,1.776163935661315918e+00,1.776003003120422363e+00,1.775842070579528809e+00,1.775681138038635254e+00,1.775520324707031250e+00,1.775359511375427246e+00,1.775198698043823242e+00,1.775037884712219238e+00,1.774877190589904785e+00,1.774716496467590332e+00,1.774555802345275879e+00,1.774395108222961426e+00,1.774234652519226074e+00,1.774074077606201172e+00,1.773913502693176270e+00,1.773752927780151367e+00,1.773592472076416016e+00,1.773432016372680664e+00,1.773271560668945312e+00,1.773111104965209961e+00,1.772950649261474609e+00,1.772790312767028809e+00,1.772629976272583008e+00,1.772469639778137207e+00,1.772309422492980957e+00,1.772149205207824707e+00,1.771989107131958008e+00,1.771828889846801758e+00,1.771668791770935059e+00,1.771508574485778809e+00,1.771348476409912109e+00,1.771188497543334961e+00,1.771028399467468262e+00,1.770868420600891113e+00,1.770708441734313965e+00,1.770548462867736816e+00,1.770388484001159668e+00,1.770228624343872070e+00,1.770068764686584473e+00,1.769908905029296875e+00,1.769749283790588379e+00,1.769589424133300781e+00,1.769429683685302734e+00,1.769269943237304688e+00,1.769110321998596191e+00,1.768950581550598145e+00,1.768790960311889648e+00,1.768631339073181152e+00,1.768471717834472656e+00,1.768312215805053711e+00,1.768152713775634766e+00,1.767993211746215820e+00,1.767833709716796875e+00,1.767674207687377930e+00,1.767515063285827637e+00,1.767355680465698242e+00,1.767196297645568848e+00,1.767036914825439453e+00,1.766877651214599609e+00,1.766718387603759766e+00,1.766559123992919922e+00,1.766399979591369629e+00,1.766240835189819336e+00,1.766081571578979492e+00,1.765922546386718750e+00,1.765763401985168457e+00,1.765604376792907715e+00,1.765445351600646973e+00,1.765286564826965332e+00
1.607709884643554688e+00,1.607578039169311523e+00,1.607446193695068359e+00,1.607314348220825195e+00,1.607182502746582031e+00,1.607050776481628418e+00,1.606919050216674805e+00,1.606787323951721191e+00,1.606655597686767578e+00,1.606523871421813965e+00,1.606392145156860352e+00,1.606260538101196289e+00,1.606129050254821777e+00,1.605997443199157715e+00,1.605865836143493652e+00,1.605734348297119141e+00,1.605602741241455078e+00,1.605471253395080566e+00,1.605339765548706055e+00,1.605208277702331543e+00,1.605076789855957031e+00,1.604945421218872070e+00,1.604813933372497559e+00,1.604682564735412598e+00,1.604551196098327637e+00,1.604419827461242676e+00,1.604288697242736816e+00,1.604157328605651855e+00,1.604026079177856445e+00,1.603894829750061035e+00,1.603763580322265625e+00,1.603632330894470215e+00,1.603501200675964355e+00,1.603369951248168945e+00,1.603238821029663086e+00,1.603107690811157227e+00,1.602976560592651367e+00,1.602845549583435059e+00,1.602714419364929199e+00,1.602583408355712891e+00,1.602452516555786133e+00,1.602321505546569824e+00,1.602190494537353516e+00,1.602059602737426758e+00,1.601928591728210449e+00,1.601797699928283691e+00,1.601666808128356934e+00,1.601535916328430176e+00,1.601405024528503418e+00,1.601274251937866211e+00,1.601143479347229004e+00,1.601012587547302246e+00,1.600881814956665039e+00,1.600751161575317383e+00,1.600620508193969727e+00,1.600489854812622070e+00,1.600359201431274414e+00,1.600228548049926758e+00,1.600097894668579102e+00,1.599967241287231445e+00,1.599836587905883789e+00,1.599706053733825684e+00,1.599575519561767578e+00,1.599444985389709473e+00,1.599314451217651367e+00,1.599183917045593262e+00,1.599053502082824707e+00,1.598922967910766602e+00,1.598792791366577148e+00,1.598662376403808594e+00,1.598531961441040039e+00,1.598401546478271484e+00,1.598271250724792480e+00,1.598140954971313477e+00,1.598010659217834473e+00,1.597880363464355469e+00,1.597750067710876465e+00,1.597619891166687012e+00,1.597489595413208008e+00,1.597359418869018555e+00
1.467231512069702148e+00,1.467121720314025879e+00,1.467012047767639160e+00,1.466902256011962891e+00,1.466792464256286621e+00,1.466682672500610352e+00,1.466572999954223633e+00,1.466463208198547363e+00,1.466353535652160645e+00,1.466243863105773926e+00,1.466134071350097656e+00,1.466024518013000488e+00,1.465914845466613770e+00,1.465805172920227051e+00,1.465695619583129883e+00,1.465585947036743164e+00,1.465476512908935547e+00,1.465366959571838379e+00,1.465257406234741211e+00,1.465147852897644043e+00,1.465038299560546875e+00,1.464928865432739258e+00,1.464819312095642090e+00,1.464709877967834473e+00,1.464600443840026855e+00,1.464491009712219238e+00,1.464381575584411621e+00,1.464272141456604004e+00,1.464162826538085938e+00,1.464053392410278320e+00,1.463944196701049805e+00,1.463834881782531738e+00,1.463725566864013672e+00,1.463616251945495605e+00,1.463506937026977539e+00,1.463397622108459473e+00,1.463288426399230957e+00,1.463179111480712891e+00,1.463069915771484375e+00,1.462960720062255859e+00,1.462851524353027344e+00,1.462742328643798828e+00,1.462633252143859863e+00,1.462524056434631348e+00,1.462415099143981934e+00,1.462305903434753418e+00,1.462196826934814453e+00,1.462087750434875488e+00,1.461978673934936523e+00,1.461869716644287109e+00,1.461760640144348145e+00,1.461651682853698730e+00,1.461542606353759766e+00,1.461433649063110352e+00,1.461324691772460938e+00,1.461215734481811523e+00,1.461106777191162109e+00,1.460997939109802246e+00,1.460889101028442383e+00,1.460780262947082520e+00,1.460671424865722656e+00,1.460562586784362793e+00,1.460453748703002930e+00,1.460344910621643066e+00,1.460236072540283203e+00,1.460127353668212891e+00,1.460018515586853027e+00,1.459909796714782715e+00,1.459801077842712402e+00,1.459692358970642090e+00,1.459583640098571777e+00,1.459474921226501465e+00,1.459366440773010254e+00,1.459257721900939941e+00,1.459149122238159180e+00,1.459040522575378418e+00,1.458931922912597656e+00,1.458823323249816895e+00,1.458714723587036133e+00,1.458606123924255371e+00
1.349330067634582520e+00,1.349237084388732910e+00,1.349144220352172852e+00,1.349051356315612793e+00,1.348958492279052734e+00,1.348865866661071777e+00,1.348773002624511719e+00,1.348680138587951660e+00,1.348587393760681152e+00,1.348494529724121094e+00,1.348401784896850586e+00,1.348309040069580078e+00,1.348216295242309570e+00,1.348123550415039062e+00,1.348030805587768555e+00,1.347938179969787598e+00,1.347845435142517090e+00,1.347752809524536133e+00,1.347660064697265625e+00,1.347567558288574219e+00,1.347474932670593262e+00,1.347382307052612305e+00,1.347289681434631348e+00,1.347197055816650391e+00,1.347104430198669434e+00,1.347011923789978027e+00,1.346919298171997070e+00,1.346826791763305664e+00,1.346734285354614258e+00,1.346641659736633301e+00,1.346549153327941895e+00,1.346456646919250488e+00,1.346364140510559082e+00,1.346271872520446777e+00,1.346179366111755371e+00,1.346086859703063965e+00,1.345994472503662109e+00,1.345902085304260254e+00,1.345809578895568848e+00,1.345717191696166992e+00,1.345624804496765137e+00,1.345532417297363281e+00,1.345440030097961426e+00,1.345347762107849121e+00,1.345255374908447266e+00,1.345162987709045410e+00,1.345070719718933105e+00,1.344978570938110352e+00,1.344886302947998047e+00,1.344793915748596191e+00,1.344701647758483887e+00,1.344609498977661133e+00,1.344517230987548828e+00,1.344424962997436523e+00,1.344332814216613770e+00,1.344240546226501465e+00,1.344148397445678711e+00,1.344056248664855957e+00,1.343963980674743652e+00,1.343871831893920898e+00,1.343779683113098145e+00,1.343687772750854492e+00,1.343595623970031738e+00,1.343503475189208984e+00,1.343411445617675781e+00,1.343319296836853027e+00,1.343227267265319824e+00,1.343135237693786621e+00,1.343043208122253418e+00,1.342951178550720215e+00,1.342859148979187012e+00,1.342767119407653809e+00,1.342675209045410156e+00,1.342583179473876953e+00,1.342491269111633301e+00,1.342399358749389648e+00,1.342307448387145996e+00,1.342215538024902344e+00,1.342123627662658691e+00,1.342031717300415039e+00
1.248967409133911133e+00,1.248887777328491211e+00,1.248808264732360840e+00,1.248728752136230469e+00,1.248649120330810547e+00,1.248569607734680176e+00,1.248490095138549805e+00,1.248410582542419434e+00,1.248331069946289062e+00,1.248251676559448242e+00,1.248172163963317871e+00,1.248092651367187500e+00,1.248013138771057129e+00,1.247933745384216309e+00,1.247854232788085938e+00,1.247774839401245117e+00,1.247695446014404297e+00,1.247615933418273926e+00,1.247536540031433105e+00,1.247457146644592285e+00,1.247377753257751465e+00,1.247298359870910645e+00,1.247218966484069824e+00,1.247139692306518555e+00,1.247060418128967285e+00,1.246981024742126465e+00,1.246901750564575195e+00,1.246822357177734375e+00,1.246743083000183105e+00,1.246663808822631836e+00,1.246584534645080566e+00,1.246505260467529297e+00,1.246425986289978027e+00,1.246346712112426758e+00,1.246267437934875488e+00,1.246188163757324219e+00,1.246109008789062500e+00,1.246029853820800781e+00,1.245950579643249512e+00,1.245871424674987793e+00,1.245792269706726074e+00,1.245712995529174805e+00,1.245633840560913086e+00,1.245554685592651367e+00,1.245475530624389648e+00,1.245396375656127930e+00,1.245317339897155762e+00,1.245238184928894043e+00,1.245159029960632324e+00,1.245079994201660156e+00,1.245000839233398438e+00,1.244921922683715820e+00,1.244842767715454102e+00,1.244763731956481934e+00,1.244684696197509766e+00,1.244605660438537598e+00,1.244526624679565430e+00,1.244447588920593262e+00,1.244368553161621094e+00,1.244289636611938477e+00,1.244210600852966309e+00,1.244131684303283691e+00,1.244052648544311523e+00,1.243973731994628906e+00,1.243894815444946289e+00,1.243815898895263672e+00,1.243736982345581055e+00,1.243658065795898438e+00,1.243579149246215820e+00,1.243500232696533203e+00,1.243421435356140137e+00,1.243342518806457520e+00,1.243263602256774902e+00,1.243184804916381836e+00,1.243105888366699219e+00,1.243027091026306152e+00,1.242948293685913086e+00,1.242869496345520020e+00,1.242790579795837402e+00,1.242711901664733887e+00
1.162501096725463867e+00,1.162432193756103516e+00,1.162363290786743164e+00,1.162294268608093262e+00,1.162225365638732910e+00,1.162156462669372559e+00,1.162087559700012207e+00,1.162018656730651855e+00,1.161949753761291504e+00,1.161880850791931152e+00,1.161812067031860352e+00,1.161743164062500000e+00,1.161674380302429199e+00,1.161605596542358398e+00,1.161536693572998047e+00,1.161467909812927246e+00,1.161399006843566895e+00,1.161330223083496094e+00,1.161261439323425293e+00,1.161192655563354492e+00,1.161123871803283691e+00,1.161055088043212891e+00,1.160986304283142090e+00,1.160917520523071289e+00,1.160848736763000488e+00,1.160779953002929688e+00,1.160711288452148438e+00,1.160642623901367188e+00,1.160573840141296387e+00,1.160505175590515137e+00,1.160436391830444336e+00,1.160367727279663086e+00,1.160299062728881836e+00,1.160230398178100586e+00,1.160161614418029785e+00,1.160092949867248535e+00,1.160024285316467285e+00,1.159955620765686035e+00,1.159887075424194336e+00,1.159818410873413086e+00,1.159749865531921387e+00,1.159681200981140137e+00,1.159612655639648438e+00,1.159543991088867188e+00,1.159475445747375488e+00,1.159406781196594238e+00,1.159338235855102539e+00,1.159269690513610840e+00,1.159201025962829590e+00,1.159132480621337891e+00,1.159063935279846191e+00,1.158995389938354492e+00,1.158926844596862793e+00,1.158858418464660645e+00,1.158789992332458496e+00,1.158721446990966797e+00,1.158652901649475098e+00,1.158584475517272949e+00,1.158515930175781250e+00,1.158447504043579102e+00,1.158378958702087402e+00,1.158310532569885254e+00,1.158242106437683105e+00,1.158173680305480957e+00,1.158105254173278809e+00,1.158036828041076660e+00,1.157968401908874512e+00,1.157899975776672363e+00,1.157831668853759766e+00,1.157763242721557617e+00,1.157694935798645020e+00,1.157626509666442871e+00,1.157558202743530273e+00,1.157489776611328125e+00,1.157421469688415527e+00,1.157353043556213379e+00,1.157284736633300781e+00,1.157216429710388184e+00,1.157148122787475586e+00,1.157079815864562988e+00
1.087231755256652832e+00,1.087171435356140137e+00,1.087111115455627441e+00,1.087050914764404297e+00,1.086990594863891602e+00,1.086930274963378906e+00,1.086870074272155762e+00,1.086809754371643066e+00,1.086749553680419922e+00,1.086689233779907227e+00,1.086629033088684082e+00,1.086568713188171387e+00,1.086508512496948242e+00,1.086448311805725098e+00,1.086388111114501953e+00,1.086327910423278809e+00,1.086267709732055664e+00,1.086207509040832520e+00,1.086147308349609375e+00,1.086087107658386230e+00,1.086027026176452637e+00,1.085966825485229492e+00,1.085906624794006348e+00,1.085846424102783203e+00,1.085786342620849609e+00,1.085726141929626465e+00,1.085666060447692871e+00,1.085605859756469727e+00,1.085545778274536133e+00,1.085485696792602539e+00,1.085425615310668945e+00,1.085365533828735352e+00,1.085305452346801758e+00,1.085245251655578613e+00,1.085185170173645020e+00,1.085125088691711426e+00,1.085065126419067383e+00,1.085005044937133789e+00,1.084944963455200195e+00,1.084884881973266602e+00,1.084824800491333008e+00,1.084764838218688965e+00,1.084704756736755371e+00,1.084644675254821777e+00,1.084584712982177734e+00,1.084524750709533691e+00,1.084464788436889648e+00,1.084404706954956055e+00,1.084344744682312012e+00,1.084284782409667969e+00,1.084224820137023926e+00,1.084164857864379883e+00,1.084104895591735840e+00,1.084044933319091797e+00,1.083984971046447754e+00,1.083925008773803711e+00,1.083865046501159668e+00,1.083805084228515625e+00,1.083745241165161133e+00,1.083685278892517090e+00,1.083625435829162598e+00,1.083565473556518555e+00,1.083505630493164062e+00,1.083445668220520020e+00,1.083385825157165527e+00,1.083325982093811035e+00,1.083266019821166992e+00,1.083206176757812500e+00,1.083146333694458008e+00,1.083086490631103516e+00,1.083026647567749023e+00,1.082966804504394531e+00,1.082907080650329590e+00,1.082847237586975098e+00,1.082787394523620605e+00,1.082727551460266113e+00,1.082667708396911621e+00,1.082607984542846680e+00,1.082548141479492188e+00,1.082488298416137695e+00
1.021116733551025391e+00,1.021063566207885742e+00,1.021010279655456543e+00,1.020957112312316895e+00,1.020903944969177246e+00,1.020850896835327148e+00,1.020797729492187500e+00,1.020744562149047852e+00,1.020691394805908203e+00,1.020638227462768555e+00,1.020585060119628906e+00,1.020531892776489258e+00,1.020478725433349609e+00,1.020425677299499512e+00,1.020372509956359863e+00,1.020319461822509766e+00,1.020266294479370117e+00,1.020213127136230469e+00,1.020160079002380371e+00,1.020107030868530273e+00,1.020053982734680176e+00,1.020000815391540527e+00,1.019947767257690430e+00,1.019894719123840332e+00,1.019841670989990234e+00,1.019788622856140137e+00,1.019735574722290039e+00,1.019682526588439941e+00,1.019629478454589844e+00,1.019576430320739746e+00,1.019523382186889648e+00,1.019470334053039551e+00,1.019417285919189453e+00,1.019364356994628906e+00,1.019311308860778809e+00,1.019258379936218262e+00,1.019205331802368164e+00,1.019152283668518066e+00,1.019099354743957520e+00,1.019046306610107422e+00,1.018993377685546875e+00,1.018940448760986328e+00,1.018887400627136230e+00,1.018834471702575684e+00,1.018781542778015137e+00,1.018728494644165039e+00,1.018675565719604492e+00,1.018622756004333496e+00,1.018569827079772949e+00,1.018516898155212402e+00,1.018463969230651855e+00,1.018411040306091309e+00,1.018358111381530762e+00,1.018305182456970215e+00,1.018252253532409668e+00,1.018199324607849121e+00,1.018146514892578125e+00,1.018093585968017578e+00,1.018040776252746582e+00,1.017987847328186035e+00,1.017934918403625488e+00,1.017882108688354492e+00,1.017829298973083496e+00,1.017776489257812500e+00,1.017723560333251953e+00,1.017670750617980957e+00,1.017617940902709961e+00,1.017565131187438965e+00,1.017512321472167969e+00,1.017459392547607422e+00,1.017406582832336426e+00,1.017353773117065430e+00,1.017300963401794434e+00,1.017248153686523438e+00,1.017195463180541992e+00,1.017142653465270996e+00,1.017089962959289551e+00,1.017037153244018555e+00,1.016984343528747559e+00,1.016931533813476562e+00
9.625817537307739258e-01,9.625344872474670410e-01,9.624872207641601562e-01,9.624399542808532715e-01,9.623926281929016113e-01,9.623454213142395020e-01,9.622981548309326172e-01,9.622508883476257324e-01,9.622036814689636230e-01,9.621565341949462891e-01,9.621093273162841797e-01,9.620621204376220703e-01,9.620148539543151855e-01,9.619676470756530762e-01,9.619204401969909668e-01,9.618732333183288574e-01,9.618260264396667480e-01,9.617788195610046387e-01,9.617316722869873047e-01,9.616844654083251953e-01,9.616372585296630859e-01,9.615901112556457520e-01,9.615429043769836426e-01,9.614957571029663086e-01,9.614486098289489746e-01,9.614014029502868652e-01,9.613542556762695312e-01,9.613071084022521973e-01,9.612599611282348633e-01,9.612128138542175293e-01,9.611656665802001953e-01,9.611185789108276367e-01,9.610714316368103027e-01,9.610242843627929688e-01,9.609771966934204102e-01,9.609300494194030762e-01,9.608829617500305176e-01,9.608359932899475098e-01,9.607888460159301758e-01,9.607417583465576172e-01,9.606946706771850586e-01,9.606475830078125000e-01,9.606004953384399414e-01,9.605534076690673828e-01,9.605063796043395996e-01,9.604592919349670410e-01,9.604122042655944824e-01,9.603651762008666992e-01,9.603180885314941406e-01,9.602710604667663574e-01,9.602240324020385742e-01,9.601769447326660156e-01,9.601299166679382324e-01,9.600828886032104492e-01,9.600358605384826660e-01,9.599888324737548828e-01,9.599418044090270996e-01,9.598948359489440918e-01,9.598478078842163086e-01,9.598007798194885254e-01,9.597538113594055176e-01,9.597067832946777344e-01,9.596598148345947266e-01,9.596128463745117188e-01,9.595658779144287109e-01,9.595189690589904785e-01,9.594720005989074707e-01,9.594250321388244629e-01,9.593780636787414551e-01,9.593310952186584473e-01,9.592841863632202148e-01,9.592372179031372070e-01,9.591902494430541992e-01,9.591433405876159668e-01,9.590963721275329590e-01,9.590494632720947266e-01,9.590025544166564941e-01,9.589556455612182617e-01,9.589086771011352539e-01,9.588617682456970215e-01
9.103938937187194824e-01,9.103516340255737305e-01,9.103093147277832031e-01,9.102670550346374512e-01,9.102247953414916992e-01,9.101825356483459473e-01,9.101402759552001953e-01,9.100980162620544434e-01,9.100557565689086914e-01,9.100134968757629395e-01,9.099712371826171875e-01,9.099289774894714355e-01,9.098867177963256836e-01,9.098445177078247070e-01,9.098022580146789551e-01,9.097600579261779785e-01,9.097177982330322266e-01,9.096755981445312500e-01,9.096333384513854980e-01,9.095911383628845215e-01,9.095489382743835449e-01,9.095067381858825684e-01,9.094645380973815918e-01,9.094223380088806152e-01,9.093801379203796387e-01,9.093379378318786621e-01,9.092958569526672363e-01,9.092536568641662598e-01,9.092115163803100586e-01,9.091693162918090820e-01,9.091271162033081055e-01,9.090849757194519043e-01,9.090428352355957031e-01,9.090006351470947266e-01,9.089584946632385254e-01,9.089163541793823242e-01,9.088742136955261230e-01,9.088320732116699219e-01,9.087899327278137207e-01,9.087477922439575195e-01,9.087056517601013184e-01,9.086635112762451172e-01,9.086213707923889160e-01,9.085792899131774902e-01,9.085371494293212891e-01,9.084950685501098633e-01,9.084529280662536621e-01,9.084108471870422363e-01,9.083687067031860352e-01,9.083266258239746094e-01,9.082845449447631836e-01,9.082424640655517578e-01,9.082003831863403320e-01,9.081583023071289062e-01,9.081162810325622559e-01,9.080742001533508301e-01,9.080321788787841797e-01,9.079900979995727539e-01,9.079480171203613281e-01,9.079059958457946777e-01,9.078639149665832520e-01,9.078218936920166016e-01,9.077798128128051758e-01,9.077377915382385254e-01,9.076957106590270996e-01,9.076536893844604492e-01,9.076116681098937988e-01,9.075696468353271484e-01,9.075276255607604980e-01,9.074856042861938477e-01,9.074435830116271973e-01,9.074015617370605469e-01,9.073595404624938965e-01,9.073175787925720215e-01,9.072755575180053711e-01,9.072335362434387207e-01,9.071915745735168457e-01,9.071495532989501953e-01,9.071075916290283203e-01,9.070656299591064453e-01
8.635738492012023926e-01,8.635358214378356934e-01,8.634977936744689941e-01,8.634597063064575195e-01,8.634216785430908203e-01,8.633836507797241211e-01,8.633456230163574219e-01,8.633075952529907227e-01,8.632695674896240234e-01,8.632315397262573242e-01,8.631935119628906250e-01,8.631555438041687012e-01,8.631175160408020020e-01,8.630794882774353027e-01,8.630415201187133789e-01,8.630034923553466797e-01,8.629655838012695312e-01,8.629276156425476074e-01,8.628895878791809082e-01,8.628516197204589844e-01,8.628136515617370605e-01,8.627756237983703613e-01,8.627376556396484375e-01,8.626996874809265137e-01,8.626617193222045898e-01,8.626237511634826660e-01,8.625857830047607422e-01,8.625478148460388184e-01,8.625098466873168945e-01,8.624719381332397461e-01,8.624339699745178223e-01,8.623960018157958984e-01,8.623580932617187500e-01,8.623201251029968262e-01,8.622822165489196777e-01,8.622442483901977539e-01,8.622063398361206055e-01,8.621683716773986816e-01,8.621304631233215332e-01,8.620925545692443848e-01,8.620546460151672363e-01,8.620167374610900879e-01,8.619788289070129395e-01,8.619409203529357910e-01,8.619030714035034180e-01,8.618651628494262695e-01,8.618273138999938965e-01,8.617894053459167480e-01,8.617514967918395996e-01,8.617135882377624512e-01,8.616757392883300781e-01,8.616378307342529297e-01,8.615999817848205566e-01,8.615620732307434082e-01,8.615242242813110352e-01,8.614863753318786621e-01,8.614484667778015137e-01,8.614106178283691406e-01,8.613727688789367676e-01,8.613349199295043945e-01,8.612970709800720215e-01,8.612592220306396484e-01,8.612213730812072754e-01,8.611835241317749023e-01,8.611456751823425293e-01,8.611078858375549316e-01,8.610700368881225586e-01,8.610321879386901855e-01,8.609943985939025879e-01,8.609565496444702148e-01,8.609187602996826172e-01,8.608809113502502441e-01,8.608431816101074219e-01,8.608053922653198242e-01,8.607676029205322266e-01,8.607298135757446289e-01,8.606919646263122559e-01,8.606541752815246582e-01,8.606163859367370605e-01,8.605785965919494629e-01
8.213340044021606445e-01,8.212996125221252441e-01,8.212651610374450684e-01,8.212307691574096680e-01,8.211963772773742676e-01,8.211620450019836426e-01,8.211276531219482422e-01,8.210932612419128418e-01,8.210588693618774414e-01,8.210244774818420410e-01,8.209900856018066406e-01,8.209556937217712402e-01,8.209213018417358398e-01,8.208869099617004395e-01,8.208525180816650391e-01,8.208181262016296387e-01,8.207837939262390137e-01,8.207494020462036133e-01,8.207150697708129883e-01,8.206806778907775879e-01,8.206463456153869629e-01,8.206119537353515625e-01,8.205776214599609375e-01,8.205432295799255371e-01,8.205088973045349121e-01,8.204745650291442871e-01,8.204402327537536621e-01,8.204058408737182617e-01,8.203715085983276367e-01,8.203371763229370117e-01,8.203028440475463867e-01,8.202685117721557617e-01,8.202341794967651367e-01,8.201999664306640625e-01,8.201656341552734375e-01,8.201313018798828125e-01,8.200969696044921875e-01,8.200626969337463379e-01,8.200283646583557129e-01,8.199940919876098633e-01,8.199597597122192383e-01,8.199254870414733887e-01,8.198911547660827637e-01,8.198568820953369141e-01,8.198225498199462891e-01,8.197882771492004395e-01,8.197540044784545898e-01,8.197197318077087402e-01,8.196853995323181152e-01,8.196511268615722656e-01,8.196168541908264160e-01,8.195825815200805664e-01,8.195483088493347168e-01,8.195140361785888672e-01,8.194797635078430176e-01,8.194455504417419434e-01,8.194112777709960938e-01,8.193770051002502441e-01,8.193427324295043945e-01,8.193085193634033203e-01,8.192742466926574707e-01,8.192400932312011719e-01,8.192058801651000977e-01,8.191716074943542480e-01,8.191373944282531738e-01,8.191031217575073242e-01,8.190689086914062500e-01,8.190346956253051758e-01,8.190004825592041016e-01,8.189662098884582520e-01,8.189319968223571777e-01,8.188977837562561035e-01,8.188635706901550293e-01,8.188293576240539551e-01,8.187951445579528809e-01,8.187609910964965820e-01,8.187267780303955078e-01,8.186925649642944336e-01,8.186583518981933594e-01,8.186241984367370605e-01
7.830337285995483398e-01,7.830024361610412598e-01,7.829711437225341797e-01,7.829399108886718750e-01,7.829086184501647949e-01,7.828773260116577148e-01,7.828460931777954102e-01,7.828148007392883301e-01,7.827835083007812500e-01,7.827522754669189453e-01,7.827209830284118652e-01,7.826897501945495605e-01,7.826585173606872559e-01,7.826272249221801758e-01,7.825959920883178711e-01,7.825647592544555664e-01,7.825335264205932617e-01,7.825022339820861816e-01,7.824710011482238770e-01,7.824397683143615723e-01,7.824085354804992676e-01,7.823773026466369629e-01,7.823460698127746582e-01,7.823148965835571289e-01,7.822837233543395996e-01,7.822524905204772949e-01,7.822212576866149902e-01,7.821900248527526855e-01,7.821588516235351562e-01,7.821276187896728516e-01,7.820963859558105469e-01,7.820652127265930176e-01,7.820339798927307129e-01,7.820028066635131836e-01,7.819715738296508789e-01,7.819404006004333496e-01,7.819091677665710449e-01,7.818779945373535156e-01,7.818468213081359863e-01,7.818156480789184570e-01,7.817844152450561523e-01,7.817532420158386230e-01,7.817220687866210938e-01,7.816908955574035645e-01,7.816597223281860352e-01,7.816285490989685059e-01,7.815973758697509766e-01,7.815662026405334473e-01,7.815350294113159180e-01,7.815038561820983887e-01,7.814727425575256348e-01,7.814416289329528809e-01,7.814104557037353516e-01,7.813793420791625977e-01,7.813481688499450684e-01,7.813170552253723145e-01,7.812858819961547852e-01,7.812547683715820312e-01,7.812235951423645020e-01,7.811924815177917480e-01,7.811613082885742188e-01,7.811301946640014648e-01,7.810990810394287109e-01,7.810679078102111816e-01,7.810367941856384277e-01,7.810056805610656738e-01,7.809745669364929199e-01,7.809434533119201660e-01,7.809123396873474121e-01,7.808812260627746582e-01,7.808501124382019043e-01,7.808189988136291504e-01,7.807878851890563965e-01,7.807567715644836426e-01,7.807257175445556641e-01,7.806946039199829102e-01,7.806634902954101562e-01,7.806323766708374023e-01,7.806013226509094238e-01,7.805702686309814453e-01
7.481462359428405762e-01,7.481176853179931641e-01,7.480890750885009766e-01,7.480605244636535645e-01,7.480319738388061523e-01,7.480034232139587402e-01,7.479749321937561035e-01,7.479463815689086914e-01,7.479178309440612793e-01,7.478892803192138672e-01,7.478607296943664551e-01,7.478321790695190430e-01,7.478037476539611816e-01,7.477751970291137695e-01,7.477467060089111328e-01,7.477181553840637207e-01,7.476896047592163086e-01,7.476611137390136719e-01,7.476325631141662598e-01,7.476040720939636230e-01,7.475755810737609863e-01,7.475470304489135742e-01,7.475185394287109375e-01,7.474900484085083008e-01,7.474614977836608887e-01,7.474330067634582520e-01,7.474045157432556152e-01,7.473760247230529785e-01,7.473475337028503418e-01,7.473190426826477051e-01,7.472904920578002930e-01,7.472620010375976562e-01,7.472335100173950195e-01,7.472050786018371582e-01,7.471765875816345215e-01,7.471480965614318848e-01,7.471196055412292480e-01,7.470911145210266113e-01,7.470626235008239746e-01,7.470341920852661133e-01,7.470057606697082520e-01,7.469772696495056152e-01,7.469488382339477539e-01,7.469203472137451172e-01,7.468919157981872559e-01,7.468634247779846191e-01,7.468349933624267578e-01,7.468065023422241211e-01,7.467780709266662598e-01,7.467496395111083984e-01,7.467211484909057617e-01,7.466927170753479004e-01,7.466642856597900391e-01,7.466357946395874023e-01,7.466073632240295410e-01,7.465789318084716797e-01,7.465505003929138184e-01,7.465220689773559570e-01,7.464936375617980957e-01,7.464652061462402344e-01,7.464367747306823730e-01,7.464083433151245117e-01,7.463799118995666504e-01,7.463514804840087891e-01,7.463231086730957031e-01,7.462946772575378418e-01,7.462662458419799805e-01,7.462378144264221191e-01,7.462095022201538086e-01,7.461810708045959473e-01,7.461526989936828613e-01,7.461242675781250000e-01,7.460958361625671387e-01,7.460674643516540527e-01,7.460390925407409668e-01,7.460106611251831055e-01,7.459822893142700195e-01,7.459538578987121582e-01,7.459254860877990723e-01,7.458971142768859863e-01
7.162348628044128418e-01,7.162086963653564453e-01,7.161825895309448242e-01,7.161564230918884277e-01,7.161302566528320312e-01,7.161040902137756348e-01,7.160779237747192383e-01,7.160517573356628418e-01,7.160255908966064453e-01,7.159994244575500488e-01,7.159733176231384277e-01,7.159471511840820312e-01,7.159209847450256348e-01,7.158948183059692383e-01,7.158687114715576172e-01,7.158425450325012207e-01,7.158163785934448242e-01,7.157902717590332031e-01,7.157641053199768066e-01,7.157379984855651855e-01,7.157118320465087891e-01,7.156857252120971680e-01,7.156595587730407715e-01,7.156334519386291504e-01,7.156073451042175293e-01,7.155811786651611328e-01,7.155550718307495117e-01,7.155289649963378906e-01,7.155027985572814941e-01,7.154766917228698730e-01,7.154506444931030273e-01,7.154245376586914062e-01,7.153984308242797852e-01,7.153723239898681641e-01,7.153462171554565430e-01,7.153201103210449219e-01,7.152940034866333008e-01,7.152678966522216797e-01,7.152417898178100586e-01,7.152156829833984375e-01,7.151895761489868164e-01,7.151634693145751953e-01,7.151374220848083496e-01,7.151113152503967285e-01,7.150852084159851074e-01,7.150591015815734863e-01,7.150330543518066406e-01,7.150069475173950195e-01,7.149809002876281738e-01,7.149547934532165527e-01,7.149286866188049316e-01,7.149026393890380859e-01,7.148765325546264648e-01,7.148504853248596191e-01,7.148244380950927734e-01,7.147983312606811523e-01,7.147722840309143066e-01,7.147462368011474609e-01,7.147201895713806152e-01,7.146941423416137695e-01,7.146680951118469238e-01,7.146420478820800781e-01,7.146160006523132324e-01,7.145898938179016113e-01,7.145638465881347656e-01,7.145377993583679199e-01,7.145117521286010742e-01,7.144857048988342285e-01,7.144596576690673828e-01,7.144336104393005371e-01,7.144075632095336914e-01,7.143815755844116211e-01,7.143555283546447754e-01,7.143294811248779297e-01,7.143034338951110840e-01,7.142773866653442383e-01,7.142513990402221680e-01,7.142253518104553223e-01,7.141993045806884766e-01,7.141733169555664062e-01
6.869345307350158691e-01,6.869104504585266113e-01,6.868863701820373535e-01,6.868622899055480957e-01,6.868382096290588379e-01,6.868141889572143555e-01,6.867901086807250977e-01,6.867660284042358398e-01,6.867419481277465820e-01,6.867179274559020996e-01,6.866938471794128418e-01,6.866697669029235840e-01,6.866457462310791016e-01,6.866216659545898438e-01,6.865976452827453613e-01,6.865735650062561035e-01,6.865495443344116211e-01,6.865254640579223633e-01,6.865014433860778809e-01,6.864774227142333984e-01,6.864534020423889160e-01,6.864293813705444336e-01,6.864053010940551758e-01,6.863812804222106934e-01,6.863572597503662109e-01,6.863331794738769531e-01,6.863091588020324707e-01,6.862851381301879883e-01,6.862611174583435059e-01,6.862370967864990234e-01,6.862130761146545410e-01,6.861890554428100586e-01,6.861650347709655762e-01,6.861410140991210938e-01,6.861169934272766113e-01,6.860929727554321289e-01,6.860689520835876465e-01,6.860449314117431641e-01,6.860209107398986816e-01,6.859968900680541992e-01,6.859728693962097168e-01,6.859489083290100098e-01,6.859248876571655273e-01,6.859008669853210449e-01,6.858768463134765625e-01,6.858528852462768555e-01,6.858288645744323730e-01,6.858049035072326660e-01,6.857809424400329590e-01,6.857569217681884766e-01,6.857329607009887695e-01,6.857089400291442871e-01,6.856849789619445801e-01,6.856609582901000977e-01,6.856369972229003906e-01,6.856129765510559082e-01,6.855890154838562012e-01,6.855650544166564941e-01,6.855410337448120117e-01,6.855170726776123047e-01,6.854931116104125977e-01,6.854691505432128906e-01,6.854451298713684082e-01,6.854211688041687012e-01,6.853972077369689941e-01,6.853732466697692871e-01,6.853492856025695801e-01,6.853253245353698730e-01,6.853013634681701660e-01,6.852774024009704590e-01,6.852534413337707520e-01,6.852294802665710449e-01,6.852055191993713379e-01,6.851815581321716309e-01,6.851575970649719238e-01,6.851337552070617676e-01,6.851097941398620605e-01,6.850858330726623535e-01,6.850618720054626465e-01,6.850379109382629395e-01
6.599372029304504395e-01,6.599149703979492188e-01,6.598927378654479980e-01,6.598705053329467773e-01,6.598483324050903320e-01,6.598260998725891113e-01,6.598038673400878906e-01,6.597816944122314453e-01,6.597594618797302246e-01,6.597373485565185547e-01,6.597151160240173340e-01,6.596928834915161133e-01,6.596707105636596680e-01,6.596484780311584473e-01,6.596263051033020020e-01,6.596041321754455566e-01,6.595818996429443359e-01,6.595597267150878906e-01,6.595374941825866699e-01,6.595153212547302246e-01,6.594931483268737793e-01,6.594709157943725586e-01,6.594487428665161133e-01,6.594265699386596680e-01,6.594043970108032227e-01,6.593822240829467773e-01,6.593599915504455566e-01,6.593378186225891113e-01,6.593156456947326660e-01,6.592934727668762207e-01,6.592712998390197754e-01,6.592491269111633301e-01,6.592269539833068848e-01,6.592047810554504395e-01,6.591826081275939941e-01,6.591604351997375488e-01,6.591382622718811035e-01,6.591161489486694336e-01,6.590939760208129883e-01,6.590718030929565430e-01,6.590496897697448730e-01,6.590275168418884277e-01,6.590053439140319824e-01,6.589831709861755371e-01,6.589610576629638672e-01,6.589388847351074219e-01,6.589167118072509766e-01,6.588945984840393066e-01,6.588724255561828613e-01,6.588502526283264160e-01,6.588281393051147461e-01,6.588059663772583008e-01,6.587838530540466309e-01,6.587616801261901855e-01,6.587395668029785156e-01,6.587173938751220703e-01,6.586952805519104004e-01,6.586731672286987305e-01,6.586509943008422852e-01,6.586288809776306152e-01,6.586067676544189453e-01,6.585845947265625000e-01,6.585624814033508301e-01,6.585403680801391602e-01,6.585182547569274902e-01,6.584961414337158203e-01,6.584740281105041504e-01,6.584519147872924805e-01,6.584298014640808105e-01,6.584076881408691406e-01,6.583855748176574707e-01,6.583634614944458008e-01,6.583413481712341309e-01,6.583192348480224609e-01,6.582971215248107910e-01,6.582750082015991211e-01,6.582528948783874512e-01,6.582307815551757812e-01,6.582086682319641113e-01,6.581865549087524414e-01
6.349816918373107910e-01,6.349611282348632812e-01,6.349405646324157715e-01,6.349200010299682617e-01,6.348994374275207520e-01,6.348788738250732422e-01,6.348583102226257324e-01,6.348377466201782227e-01,6.348171830177307129e-01,6.347966194152832031e-01,6.347760558128356934e-01,6.347554922103881836e-01,6.347349286079406738e-01,6.347143650054931641e-01,6.346938014030456543e-01,6.346732378005981445e-01,6.346527338027954102e-01,6.346321702003479004e-01,6.346116065979003906e-01,6.345910429954528809e-01,6.345705389976501465e-01,6.345499753952026367e-01,6.345294117927551270e-01,6.345089077949523926e-01,6.344883441925048828e-01,6.344678401947021484e-01,6.344473361968994141e-01,6.344267725944519043e-01,6.344062685966491699e-01,6.343857049942016602e-01,6.343652009963989258e-01,6.343446373939514160e-01,6.343241333961486816e-01,6.343035697937011719e-01,6.342830657958984375e-01,6.342625617980957031e-01,6.342419981956481934e-01,6.342214941978454590e-01,6.342009902000427246e-01,6.341804265975952148e-01,6.341599225997924805e-01,6.341394186019897461e-01,6.341189146041870117e-01,6.340984106063842773e-01,6.340778470039367676e-01,6.340573430061340332e-01,6.340368390083312988e-01,6.340163350105285645e-01,6.339958310127258301e-01,6.339753270149230957e-01,6.339548230171203613e-01,6.339343190193176270e-01,6.339138150215148926e-01,6.338933110237121582e-01,6.338728666305541992e-01,6.338523626327514648e-01,6.338318586349487305e-01,6.338113546371459961e-01,6.337908506393432617e-01,6.337703466415405273e-01,6.337499022483825684e-01,6.337293982505798340e-01,6.337088942527770996e-01,6.336883902549743652e-01,6.336679458618164062e-01,6.336474418640136719e-01,6.336269378662109375e-01,6.336064338684082031e-01,6.335859894752502441e-01,6.335654854774475098e-01,6.335449814796447754e-01,6.335245370864868164e-01,6.335040330886840820e-01,6.334835886955261230e-01,6.334630846977233887e-01,6.334426403045654297e-01,6.334221363067626953e-01,6.334016919136047363e-01,6.333812475204467773e-01,6.333607435226440430e-01
