5.000000000000000000e+00,5.000000000000000000e+00,5.000000000000000000e+00,5.000000000000000000e+00,5.000000000000000000e+00,5.000000000000000000e+00,5.000000000000000000e+00,5.000000000000000000e+00,5.000000000000000000e+00,5.000000000000000000e+00,5.000000000000000000e+00,5.000000000000000000e+00,5.000000000000000000e+00,5.000000000000000000e+00,5.000000000000000000e+00,5.000000000000000000e+00,5.000000000000000000e+00,5.000000000000000000e+00,5.000000000000000000e+00,5.000000000000000000e+00,5.000000000000000000e+00,5.000000000000000000e+00,5.000000000000000000e+00,5.000000000000000000e+00,5.000000000000000000e+00,5.000000000000000000e+00,5.000000000000000000e+00,5.000000000000000000e+00,5.000000000000000000e+00,5.000000000000000000e+00,5.000000000000000000e+00,5.000000000000000000e+00,5.000000000000000000e+00,5.000000000000000000e+00,5.000000000000000000e+00,5.000000000000000000e+00,5.000000000000000000e+00,5.000000000000000000e+00,5.000000000000000000e+00,4.862572669982910156e+00,1.572404742240905762e+00,1.557588696479797363e+00,1.565347790718078613e+00,1.524210572242736816e+00,1.517364501953125000e+00,1.511833906173706055e+00,1.506343364715576172e+00,1.532465934753417969e+00,1.640323758125305176e+00,1.629796981811523438e+00,1.631179690361022949e+00,1.636033773422241211e+00,1.807466864585876465e+00,3.092430353164672852e+00,3.014057397842407227e+00,2.939559221267700195e+00,2.868654489517211914e+00,2.801089763641357422e+00,2.736634492874145508e+00,2.675078868865966797e+00,2.616231679916381836e+00,2.559917688369750977e+00,2.505976915359497070e+00,2.454262256622314453e+00,2.404639244079589844e+00,2.356982946395874023e+00,2.311178684234619141e+00,2.267121076583862305e+00,2.224711656570434570e+00,2.183859825134277344e+00,2.144480943679809570e+00,2.106497526168823242e+00,2.069835662841796875e+00,2.034428358078002930e+00,2.000212192535400391e+00,1.967127799987792969e+00,1.935120224952697754e+00,1.904137492179870605e+00,1.874131083488464355e+00,1.845055699348449707e+00
5.000000000000000000e+00,5.000000000000000000e+00,5.000000000000000000e+00,5.000000000000000000e+00,5.000000000000000000e+00,5.000000000000000000e+00,5.000000000000000000e+00,5.000000000000000000e+00,5.000000000000000000e+00,5.000000000000000000e+00,5.000000000000000000e+00,5.000000000000000000e+00,5.000000000000000000e+00,5.000000000000000000e+00,5.000000000000000000e+00,5.000000000000000000e+00,5.000000000000000000e+00,5.000000000000000000e+00,5.000000000000000000e+00,5.000000000000000000e+00,5.000000000000000000e+00,5.000000000000000000e+00,5.000000000000000000e+00,5.000000000000000000e+00,5.000000000000000000e+00,5.000000000000000000e+00,5.000000000000000000e+00,5.000000000000000000e+00,5.000000000000000000e+00,5.000000000000000000e+00,5.000000000000000000e+00,5.000000000000000000e+00,5.000000000000000000e+00,5.000000000000000000e+00,5.000000000000000000e+00,5.000000000000000000e+00,5.000000000000000000e+00,5.000000000000000000e+00,5.000000000000000000e+00,4.862712383270263672e+00,1.562389492988586426e+00,1.532012701034545898e+00,1.534522652626037598e+00,1.528460621833801270e+00,1.510270953178405762e+00,1.503498554229736328e+00,1.498038053512573242e+00,1.518349051475524902e+00,1.640040278434753418e+00,1.625604987144470215e+00,1.626375317573547363e+00,1.627551198005676270e+00,1.707784771919250488e+00,3.092486858367919922e+00,3.014111280441284180e+00,2.939610242843627930e+00,2.868703126907348633e+00,2.801136255264282227e+00,2.736678838729858398e+00,2.675121307373046875e+00,2.616272211074829102e+00,2.559956550598144531e+00,2.506014108657836914e+00,2.454298019409179688e+00,2.404673337936401367e+00,2.357015848159790039e+00,2.311210393905639648e+00,2.267151594161987305e+00,2.224740982055664062e+00,2.183887958526611328e+00,2.144508361816406250e+00,2.106523513793945312e+00,2.069861173629760742e+00,2.034452915191650391e+00,2.000236034393310547e+00,1.967150926589965820e+00,1.935142397880554199e+00,1.904158830642700195e+00,1.874151825904846191e+00,1.845076084136962891e+00
5.000000000000000000e+00,5.000000000000000000e+00,5.000000000000000000e+00,5.000000000000000000e+00,5.000000000000000000e+00,5.000000000000000000e+00,5.000000000000000000e+00,5.000000000000000000e+00,5.000000000000000000e+00,5.000000000000000000e+00,5.000000000000000000e+00,5.000000000000000000e+00,5.000000000000000000e+00,5.000000000000000000e+00,5.000000000000000000e+00,5.000000000000000000e+00,5.000000000000000000e+00,5.000000000000000000e+00,5.000000000000000000e+00,5.000000000000000000e+00,5.000000000000000000e+00,5.000000000000000000e+00,5.000000000000000000e+00,5.000000000000000000e+00,5.000000000000000000e+00,5.000000000000000000e+00,5.000000000000000000e+00,5.000000000000000000e+00,5.000000000000000000e+00,5.000000000000000000e+00,5.000000000000000000e+00,5.000000000000000000e+00,5.000000000000000000e+00,5.000000000000000000e+00,5.000000000000000000e+00,5.000000000000000000e+00,5.000000000000000000e+00,5.000000000000000000e+00,5.000000000000000000e+00,4.862852573394775391e+00,1.553102254867553711e+00,1.523543596267700195e+00,1.524750947952270508e+00,1.518882155418395996e+00,1.503294110298156738e+00,1.496584057807922363e+00,1.489933609962463379e+00,1.503620982170104980e+00,1.538673996925354004e+00,1.622550964355468750e+00,1.624243974685668945e+00,1.625416994094848633e+00,1.699871778488159180e+00,3.092543601989746094e+00,3.014165163040161133e+00,2.939661264419555664e+00,2.868752002716064453e+00,2.801182746887207031e+00,2.736723184585571289e+00,2.675163745880126953e+00,2.616312742233276367e+00,2.559995412826538086e+00,2.506051301956176758e+00,2.454333782196044922e+00,2.404707670211791992e+00,2.357048749923706055e+00,2.311242103576660156e+00,2.267181873321533203e+00,2.224770307540893555e+00,2.183916091918945312e+00,2.144535541534423828e+00,2.106549978256225586e+00,2.069886445999145508e+00,2.034477472305297852e+00,2.000259637832641602e+00,1.967173695564270020e+00,1.935164451599121094e+00,1.904180526733398438e+00,1.874172687530517578e+00,1.845096111297607422e+00
5.000000000000000000e+00,5.000000000000000000e+00,5.000000000000000000e+00,5.000000000000000000e+00,5.000000000000000000e+00,5.000000000000000000e+00,5.000000000000000000e+00,5.000000000000000000e+00,5.000000000000000000e+00,5.000000000000000000e+00,5.000000000000000000e+00,5.000000000000000000e+00,5.000000000000000000e+00,5.000000000000000000e+00,5.000000000000000000e+00,5.000000000000000000e+00,5.000000000000000000e+00,5.000000000000000000e+00,5.000000000000000000e+00,5.000000000000000000e+00,5.000000000000000000e+00,5.000000000000000000e+00,5.000000000000000000e+00,5.000000000000000000e+00,5.000000000000000000e+00,5.000000000000000000e+00,5.000000000000000000e+00,5.000000000000000000e+00,5.000000000000000000e+00,5.000000000000000000e+00,5.000000000000000000e+00,5.000000000000000000e+00,5.000000000000000000e+00,5.000000000000000000e+00,5.000000000000000000e+00,5.000000000000000000e+00,5.000000000000000000e+00,5.000000000000000000e+00,5.000000000000000000e+00,4.862992286682128906e+00,1.546788096427917480e+00,1.521134138107299805e+00,1.493741393089294434e+00,1.513017773628234863e+00,1.496109127998352051e+00,1.489188671112060547e+00,1.482367873191833496e+00,1.488756299018859863e+00,1.522180795669555664e+00,1.618475437164306641e+00,1.622118473052978516e+00,1.623288154602050781e+00,1.696724057197570801e+00,1.790021657943725586e+00,3.014219045639038086e+00,2.939712524414062500e+00,2.868800640106201172e+00,2.801229238510131836e+00,2.736767530441284180e+00,2.675206184387207031e+00,2.616353273391723633e+00,2.560034275054931641e+00,2.506088495254516602e+00,2.454369306564331055e+00,2.404742002487182617e+00,2.357081651687622070e+00,2.311273813247680664e+00,2.267212390899658203e+00,2.224799633026123047e+00,2.183944463729858398e+00,2.144562721252441406e+00,2.106576204299926758e+00,2.069911718368530273e+00,2.034502029418945312e+00,2.000283241271972656e+00,1.967196822166442871e+00,1.935186743736267090e+00,1.904201865196228027e+00,1.874193429946899414e+00,1.845116257667541504e+00
5.000000000000000000e+00,5.000000000000000000e+00,5.000000000000000000e+00,5.000000000000000000e+00,5.000000000000000000e+00,5.000000000000000000e+00,5.000000000000000000e+00,5.000000000000000000e+00,5.000000000000000000e+00,5.000000000000000000e+00,5.000000000000000000e+00,5.000000000000000000e+00,5.000000000000000000e+00,5.000000000000000000e+00,5.000000000000000000e+00,5.000000000000000000e+00,5.000000000000000000e+00,5.000000000000000000e+00,5.000000000000000000e+00,5.000000000000000000e+00,5.000000000000000000e+00,5.000000000000000000e+00,5.000000000000000000e+00,5.000000000000000000e+00,5.000000000000000000e+00,5.000000000000000000e+00,5.000000000000000000e+00,5.000000000000000000e+00,5.000000000000000000e+00,5.000000000000000000e+00,5.000000000000000000e+00,5.000000000000000000e+00,5.000000000000000000e+00,5.000000000000000000e+00,5.000000000000000000e+00,5.000000000000000000e+00,5.000000000000000000e+00,5.000000000000000000e+00,5.000000000000000000e+00,4.863132953643798828e+00,1.565127730369567871e+00,1.507175803184509277e+00,1.482170701026916504e+00,1.542051911354064941e+00,1.499910473823547363e+00,1.480614185333251953e+00,1.473871588706970215e+00,1.476490497589111328e+00,1.508276343345642090e+00,1.614420175552368164e+00,1.618244409561157227e+00,1.621165156364440918e+00,1.774935960769653320e+00,1.789548873901367188e+00,3.014272689819335938e+00,2.939763784408569336e+00,2.868849277496337891e+00,2.801275730133056641e+00,2.736811876296997070e+00,2.675248384475708008e+00,2.616393804550170898e+00,2.560072898864746094e+00,2.506125688552856445e+00,2.454405069351196289e+00,2.404776334762573242e+00,2.357114553451538086e+00,2.311305522918701172e+00,2.267242908477783203e+00,2.224828720092773438e+00,2.183972835540771484e+00,2.144589900970458984e+00,2.106602430343627930e+00,2.069937229156494141e+00,2.034526586532592773e+00,2.000307083129882812e+00,1.967219710350036621e+00,1.935208916664123535e+00,1.904223322868347168e+00,1.874214410781860352e+00,1.845136523246765137e+00
5.000000000000000000e+00,5.000000000000000000e+00,5.000000000000000000e+00,5.000000000000000000e+00,5.000000000000000000e+00,5.000000000000000000e+00,5.000000000000000000e+00,5.000000000000000000e+00,5.000000000000000000e+00,5.000000000000000000e+00,5.000000000000000000e+00,5.000000000000000000e+00,5.000000000000000000e+00,5.000000000000000000e+00,5.000000000000000000e+00,5.000000000000000000e+00,5.000000000000000000e+00,5.000000000000000000e+00,5.000000000000000000e+00,5.000000000000000000e+00,5.000000000000000000e+00,5.000000000000000000e+00,5.000000000000000000e+00,5.000000000000000000e+00,5.000000000000000000e+00,5.000000000000000000e+00,5.000000000000000000e+00,5.000000000000000000e+00,5.000000000000000000e+00,5.000000000000000000e+00,5.000000000000000000e+00,5.000000000000000000e+00,5.000000000000000000e+00,5.000000000000000000e+00,5.000000000000000000e+00,5.000000000000000000e+00,5.000000000000000000e+00,5.000000000000000000e+00,5.000000000000000000e+00,4.863273143768310547e+00,1.555999040603637695e+00,1.497213602066040039e+00,4.331853389739990234e+00,1.553102016448974609e+00,1.504946708679199219e+00,1.473874211311340332e+00,1.465472102165222168e+00,1.464425086975097656e+00,1.494413495063781738e+00,1.611702442169189453e+00,1.614206790924072266e+00,1.618119001388549805e+00,3.175286293029785156e+00,1.835494279861450195e+00,3.014326572418212891e+00,2.939815044403076172e+00,2.868898153305053711e+00,2.801322221755981445e+00,2.736856460571289062e+00,2.675290822982788086e+00,2.616434574127197266e+00,2.560111761093139648e+00,2.506162881851196289e+00,2.454440832138061523e+00,2.404810428619384766e+00,2.357147455215454102e+00,2.311336994171142578e+00,2.267273187637329102e+00,2.224858045578002930e+00,2.184000968933105469e+00,2.144617319107055664e+00,2.106628894805908203e+00,2.069962501525878906e+00,2.034551143646240234e+00,2.000330686569213867e+00,1.967242479324340820e+00,1.935231208801269531e+00,1.904244899749755859e+00,1.874235153198242188e+00,1.845156550407409668e+00
5.000000000000000000e+00,5.000000000000000000e+00,5.000000000000000000e+00,5.000000000000000000e+00,5.000000000000000000e+00,5.000000000000000000e+00,5.000000000000000000e+00,5.000000000000000000e+00,5.000000000000000000e+00,5.000000000000000000e+00,5.000000000000000000e+00,5.000000000000000000e+00,5.000000000000000000e+00,5.000000000000000000e+00,5.000000000000000000e+00,5.000000000000000000e+00,5.000000000000000000e+00,5.000000000000000000e+00,5.000000000000000000e+00,5.000000000000000000e+00,5.000000000000000000e+00,5.000000000000000000e+00,5.000000000000000000e+00,5.000000000000000000e+00,5.000000000000000000e+00,5.000000000000000000e+00,5.000000000000000000e+00,5.000000000000000000e+00,5.000000000000000000e+00,5.000000000000000000e+00,5.000000000000000000e+00,5.000000000000000000e+00,5.000000000000000000e+00,5.000000000000000000e+00,5.000000000000000000e+00,5.000000000000000000e+00,5.000000000000000000e+00,5.000000000000000000e+00,5.000000000000000000e+00,4.863412857055664062e+00,4.672344207763671875e+00,4.495720863342285156e+00,4.331964492797851562e+00,1.566727042198181152e+00,1.510016560554504395e+00,1.468792676925659180e+00,1.457258343696594238e+00,1.452555179595947266e+00,1.479697108268737793e+00,1.610277771949768066e+00,1.611185193061828613e+00,1.615082859992980957e+00,3.175346136093139648e+00,1.857698202133178711e+00,1.764699816703796387e+00,2.939866065979003906e+00,2.868947029113769531e+00,2.801368713378906250e+00,2.736900806427001953e+00,2.675333499908447266e+00,2.616474866867065430e+00,2.560150623321533203e+00,2.506200075149536133e+00,2.454476594924926758e+00,2.404844760894775391e+00,2.357180356979370117e+00,2.311368703842163086e+00,2.267303705215454102e+00,2.224887609481811523e+00,2.184029102325439453e+00,2.144644498825073242e+00,2.106655120849609375e+00,2.069988012313842773e+00,2.034575700759887695e+00,2.000354528427124023e+00,1.967265605926513672e+00,1.935253262519836426e+00,1.904266238212585449e+00,1.874255895614624023e+00,1.845176935195922852e+00
5.000000000000000000e+00,5.000000000000000000e+00,5.000000000000000000e+00,5.000000000000000000e+00,5.000000000000000000e+00,5.000000000000000000e+00,5.000000000000000000e+00,5.000000000000000000e+00,5.000000000000000000e+00,5.000000000000000000e+00,5.000000000000000000e+00,5.000000000000000000e+00,5.000000000000000000e+00,5.000000000000000000e+00,5.000000000000000000e+00,5.000000000000000000e+00,5.000000000000000000e+00,5.000000000000000000e+00,5.000000000000000000e+00,5.000000000000000000e+00,5.000000000000000000e+00,5.000000000000000000e+00,5.000000000000000000e+00,5.000000000000000000e+00,5.000000000000000000e+00,5.000000000000000000e+00,5.000000000000000000e+00,5.000000000000000000e+00,5.000000000000000000e+00,5.000000000000000000e+00,5.000000000000000000e+00,5.000000000000000000e+00,5.000000000000000000e+00,5.000000000000000000e+00,5.000000000000000000e+00,5.000000000000000000e+00,5.000000000000000000e+00,5.000000000000000000e+00,5.000000000000000000e+00,4.863553047180175781e+00,4.672473430633544922e+00,4.495840549468994141e+00,4.332075595855712891e+00,4.179821968078613281e+00,1.517996668815612793e+00,1.470910310745239258e+00,1.452290534973144531e+00,1.442499160766601562e+00,1.465267896652221680e+00,1.609199047088623047e+00,1.606535553932189941e+00,1.612057924270629883e+00,3.175405979156494141e+00,3.092826843261718750e+00,1.799567103385925293e+00,2.939917325973510742e+00,2.868995904922485352e+00,2.801415205001831055e+00,2.736944913864135742e+00,2.675375938415527344e+00,2.616515398025512695e+00,2.560189485549926758e+00,2.506237268447875977e+00,2.454512357711791992e+00,2.404878854751586914e+00,2.357213258743286133e+00,2.311400413513183594e+00,2.267334222793579102e+00,2.224916934967041016e+00,2.184057474136352539e+00,2.144671678543090820e+00,2.106681346893310547e+00,2.070013284683227539e+00,2.034600257873535156e+00,2.000378131866455078e+00,1.967288374900817871e+00,1.935275435447692871e+00,1.904287934303283691e+00,1.874276757240295410e+00,1.845196962356567383e+00
5.000000000000000000e+00,5.000000000000000000e+00,5.000000000000000000e+00,5.000000000000000000e+00,5.000000000000000000e+00,5.000000000000000000e+00,5.000000000000000000e+00,5.000000000000000000e+00,5.000000000000000000e+00,5.000000000000000000e+00,5.000000000000000000e+00,5.000000000000000000e+00,5.000000000000000000e+00,5.000000000000000000e+00,5.000000000000000000e+00,5.000000000000000000e+00,5.000000000000000000e+00,5.000000000000000000e+00,5.000000000000000000e+00,5.000000000000000000e+00,5.000000000000000000e+00,5.000000000000000000e+00,5.000000000000000000e+00,5.000000000000000000e+00,5.000000000000000000e+00,5.000000000000000000e+00,5.000000000000000000e+00,5.000000000000000000e+00,5.000000000000000000e+00,5.000000000000000000e+00,5.000000000000000000e+00,5.000000000000000000e+00,5.000000000000000000e+00,5.000000000000000000e+00,5.000000000000000000e+00,5.000000000000000000e+00,5.000000000000000000e+00,5.000000000000000000e+00,5.000000000000000000e+00,4.863693237304687500e+00,4.672602653503417969e+00,4.495960235595703125e+00,4.332186698913574219e+00,4.179925441741943359e+00,1.527963638305664062e+00,1.477137804031372070e+00,1.448368072509765625e+00,1.437777519226074219e+00,1.454087495803833008e+00,1.608121752738952637e+00,1.600447058677673340e+00,1.608928680419921875e+00,3.175465822219848633e+00,3.092883586883544922e+00,3.014487981796264648e+00,2.939968585968017578e+00,2.869044303894042969e+00,2.801461696624755859e+00,2.736989498138427734e+00,2.675418376922607422e+00,2.616556167602539062e+00,2.560228347778320312e+00,2.506274461746215820e+00,2.454547882080078125e+00,2.404913187026977539e+00,2.357246160507202148e+00,2.311432123184204102e+00,2.267364501953125000e+00,2.224946260452270508e+00,2.184085845947265625e+00,2.144698858261108398e+00,2.106707811355590820e+00,2.070038795471191406e+00,2.034624814987182617e+00,2.000401973724365234e+00,1.967311501502990723e+00,1.935297727584838867e+00,1.904309272766113281e+00,1.874297499656677246e+00,1.845217108726501465e+00
5.000000000000000000e+00,5.000000000000000000e+00,5.000000000000000000e+00,5.000000000000000000e+00,5.000000000000000000e+00,5.000000000000000000e+00,5.000000000000000000e+00,5.000000000000000000e+00,5.000000000000000000e+00,5.000000000000000000e+00,5.000000000000000000e+00,5.000000000000000000e+00,5.000000000000000000e+00,5.000000000000000000e+00,5.000000000000000000e+00,5.000000000000000000e+00,5.000000000000000000e+00,5.000000000000000000e+00,5.000000000000000000e+00,5.000000000000000000e+00,5.000000000000000000e+00,5.000000000000000000e+00,5.000000000000000000e+00,5.000000000000000000e+00,5.000000000000000000e+00,5.000000000000000000e+00,5.000000000000000000e+00,5.000000000000000000e+00,5.000000000000000000e+00,5.000000000000000000e+00,5.000000000000000000e+00,5.000000000000000000e+00,5.000000000000000000e+00,5.000000000000000000e+00,5.000000000000000000e+00,5.000000000000000000e+00,5.000000000000000000e+00,5.000000000000000000e+00,5.000000000000000000e+00,4.863833427429199219e+00,4.672732353210449219e+00,4.496080398559570312e+00,4.332297801971435547e+00,4.180028915405273438e+00,1.535614252090454102e+00,1.484137535095214844e+00,1.449614048004150391e+00,1.437386035919189453e+00,1.454506516456604004e+00,1.607046008110046387e+00,1.594404578208923340e+00,1.602821946144104004e+00,3.175525188446044922e+00,3.092940330505371094e+00,3.014541864395141602e+00,2.940019845962524414e+00,2.869093179702758789e+00,2.801508188247680664e+00,2.737033843994140625e+00,2.675460577011108398e+00,2.616596698760986328e+00,2.560266971588134766e+00,2.506311893463134766e+00,2.454583644866943359e+00,2.404947519302368164e+00,2.357279062271118164e+00,2.311463594436645508e+00,2.267395019531250000e+00,2.224975347518920898e+00,2.184113979339599609e+00,2.144726276397705078e+00,2.106734037399291992e+00,2.070064067840576172e+00,2.034649372100830078e+00,2.000425577163696289e+00,1.967334270477294922e+00,1.935319781303405762e+00,1.904330730438232422e+00,1.874318480491638184e+00,1.845237374305725098e+00
5.000000000000000000e+00,5.000000000000000000e+00,5.000000000000000000e+00,5.000000000000000000e+00,5.000000000000000000e+00,5.000000000000000000e+00,5.000000000000000000e+00,5.000000000000000000e+00,5.000000000000000000e+00,5.000000000000000000e+00,5.000000000000000000e+00,5.000000000000000000e+00,5.000000000000000000e+00,5.000000000000000000e+00,5.000000000000000000e+00,5.000000000000000000e+00,5.000000000000000000e+00,5.000000000000000000e+00,5.000000000000000000e+00,5.000000000000000000e+00,5.000000000000000000e+00,5.000000000000000000e+00,5.000000000000000000e+00,5.000000000000000000e+00,5.000000000000000000e+00,5.000000000000000000e+00,5.000000000000000000e+00,5.000000000000000000e+00,5.000000000000000000e+00,5.000000000000000000e+00,5.000000000000000000e+00,5.000000000000000000e+00,5.000000000000000000e+00,5.000000000000000000e+00,5.000000000000000000e+00,5.000000000000000000e+00,5.000000000000000000e+00,5.000000000000000000e+00,5.000000000000000000e+00,4.863973617553710938e+00,4.672861576080322266e+00,4.496199607849121094e+00,4.332408905029296875e+00,4.180132389068603516e+00,1.536203742027282715e+00,1.485220789909362793e+00,1.453827381134033203e+00,1.440928339958190918e+00,1.457554101943969727e+00,1.605746865272521973e+00,1.591460943222045898e+00,1.600996255874633789e+00,3.175585031509399414e+00,3.092997074127197266e+00,3.014595746994018555e+00,2.940070867538452148e+00,2.869142055511474609e+00,2.801554679870605469e+00,2.737078428268432617e+00,2.675503015518188477e+00,2.616637229919433594e+00,2.560305833816528320e+00,2.506349086761474609e+00,2.454619169235229492e+00,2.404981613159179688e+00,2.357312202453613281e+00,2.311495304107666016e+00,2.267425537109375000e+00,2.225004911422729492e+00,2.184142351150512695e+00,2.144753456115722656e+00,2.106760263442993164e+00,2.070089578628540039e+00,2.034673690795898438e+00,2.000449419021606445e+00,1.967357158660888672e+00,1.935342192649841309e+00,1.904352307319641113e+00,1.874339222908020020e+00,1.845257520675659180e+00
5.000000000000000000e+00,5.000000000000000000e+00,5.000000000000000000e+00,5.000000000000000000e+00,5.000000000000000000e+00,5.000000000000000000e+00,5.000000000000000000e+00,5.000000000000000000e+00,5.000000000000000000e+00,5.000000000000000000e+00,5.000000000000000000e+00,5.000000000000000000e+00,5.000000000000000000e+00,5.000000000000000000e+00,5.000000000000000000e+00,5.000000000000000000e+00,5.000000000000000000e+00,5.000000000000000000e+00,5.000000000000000000e+00,5.000000000000000000e+00,5.000000000000000000e+00,5.000000000000000000e+00,5.000000000000000000e+00,5.000000000000000000e+00,5.000000000000000000e+00,5.000000000000000000e+00,5.000000000000000000e+00,5.000000000000000000e+00,5.000000000000000000e+00,5.000000000000000000e+00,5.000000000000000000e+00,5.000000000000000000e+00,5.000000000000000000e+00,5.000000000000000000e+00,5.000000000000000000e+00,5.000000000000000000e+00,5.000000000000000000e+00,5.000000000000000000e+00,5.000000000000000000e+00,4.864113807678222656e+00,4.672990798950195312e+00,4.496319770812988281e+00,4.332520484924316406e+00,1.596009373664855957e+00,1.524710178375244141e+00,1.487615346908569336e+00,1.462403416633605957e+00,1.454635977745056152e+00,1.472362041473388672e+00,1.608829855918884277e+00,1.596601843833923340e+00,1.604019522666931152e+00,3.175644874572753906e+00,3.093053579330444336e+00,3.014649629592895508e+00,2.940122127532958984e+00,2.869190931320190430e+00,2.801601171493530273e+00,2.737122774124145508e+00,2.675545454025268555e+00,2.616677761077880859e+00,2.560344696044921875e+00,2.506386041641235352e+00,2.454654932022094727e+00,2.405015945434570312e+00,2.357345104217529297e+00,2.311527013778686523e+00,2.267455816268920898e+00,2.225034236907958984e+00,2.184170484542846680e+00,2.144780874252319336e+00,2.106786489486694336e+00,2.070114850997924805e+00,2.034698247909545898e+00,2.000473022460937500e+00,1.967380166053771973e+00,1.935364246368408203e+00,1.904373645782470703e+00,1.874359965324401855e+00,1.845277786254882812e+00
5.000000000000000000e+00,5.000000000000000000e+00,5.000000000000000000e+00,5.000000000000000000e+00,5.000000000000000000e+00,5.000000000000000000e+00,5.000000000000000000e+00,5.000000000000000000e+00,5.000000000000000000e+00,5.000000000000000000e+00,5.000000000000000000e+00,5.000000000000000000e+00,5.000000000000000000e+00,5.000000000000000000e+00,5.000000000000000000e+00,5.000000000000000000e+00,5.000000000000000000e+00,5.000000000000000000e+00,5.000000000000000000e+00,5.000000000000000000e+00,5.000000000000000000e+00,5.000000000000000000e+00,5.000000000000000000e+00,5.000000000000000000e+00,5.000000000000000000e+00,5.000000000000000000e+00,5.000000000000000000e+00,5.000000000000000000e+00,5.000000000000000000e+00,5.000000000000000000e+00,5.000000000000000000e+00,5.000000000000000000e+00,5.000000000000000000e+00,5.000000000000000000e+00,5.000000000000000000e+00,5.000000000000000000e+00,5.000000000000000000e+00,5.000000000000000000e+00,5.000000000000000000e+00,4.864253997802734375e+00,4.673120021820068359e+00,4.496439456939697266e+00,4.332631587982177734e+00,1.566364288330078125e+00,1.531096935272216797e+00,1.504683613777160645e+00,1.483545780181884766e+00,1.489126682281494141e+00,1.635101199150085449e+00,1.615990638732910156e+00,1.610325455665588379e+00,1.616367340087890625e+00,3.175704717636108398e+00,3.093110322952270508e+00,3.014703512191772461e+00,2.940173387527465820e+00,2.869239330291748047e+00,2.801647663116455078e+00,2.737166881561279297e+00,2.675587892532348633e+00,2.616718292236328125e+00,2.560383558273315430e+00,2.506423473358154297e+00,2.454690694808959961e+00,2.405050277709960938e+00,2.357377767562866211e+00,2.311558485031127930e+00,2.267486333847045898e+00,2.225063562393188477e+00,2.184198856353759766e+00,2.144808053970336914e+00,2.106812953948974609e+00,2.070140123367309570e+00,2.034722805023193359e+00,2.000496625900268555e+00,1.967403054237365723e+00,1.935386419296264648e+00,1.904395341873168945e+00,1.874380826950073242e+00,1.845297813415527344e+00
5.000000000000000000e+00,5.000000000000000000e+00,5.000000000000000000e+00,5.000000000000000000e+00,5.000000000000000000e+00,5.000000000000000000e+00,5.000000000000000000e+00,5.000000000000000000e+00,5.000000000000000000e+00,5.000000000000000000e+00,5.000000000000000000e+00,5.000000000000000000e+00,5.000000000000000000e+00,5.000000000000000000e+00,5.000000000000000000e+00,5.000000000000000000e+00,5.000000000000000000e+00,5.000000000000000000e+00,5.000000000000000000e+00,5.000000000000000000e+00,5.000000000000000000e+00,5.000000000000000000e+00,5.000000000000000000e+00,5.000000000000000000e+00,5.000000000000000000e+00,5.000000000000000000e+00,5.000000000000000000e+00,5.000000000000000000e+00,5.000000000000000000e+00,5.000000000000000000e+00,5.000000000000000000e+00,5.000000000000000000e+00,5.000000000000000000e+00,5.000000000000000000e+00,5.000000000000000000e+00,5.000000000000000000e+00,5.000000000000000000e+00,5.000000000000000000e+00,5.000000000000000000e+00,4.864394187927246094e+00,4.673249721527099609e+00,4.496559143066406250e+00,4.332742691040039062e+00,1.578131437301635742e+00,1.544707179069519043e+00,1.529215097427368164e+00,1.514197349548339844e+00,1.664599180221557617e+00,1.644230723381042480e+00,1.626983404159545898e+00,1.626562476158142090e+00,3.262893915176391602e+00,3.175764560699462891e+00,3.093167066574096680e+00,3.014757156372070312e+00,2.940224647521972656e+00,2.869288206100463867e+00,2.801694154739379883e+00,2.737211465835571289e+00,2.675630331039428711e+00,2.616758823394775391e+00,2.560422420501708984e+00,2.506460666656494141e+00,2.454726219177246094e+00,2.405084609985351562e+00,2.357410907745361328e+00,2.311590194702148438e+00,2.267516851425170898e+00,2.225092887878417969e+00,2.184226989746093750e+00,2.144835233688354492e+00,2.106839179992675781e+00,2.070165634155273438e+00,2.034747362136840820e+00,2.000520467758178711e+00,1.967426061630249023e+00,1.935408711433410645e+00,1.904416680335998535e+00,1.874401569366455078e+00,1.845317959785461426e+00
5.000000000000000000e+00,5.000000000000000000e+00,5.000000000000000000e+00,5.000000000000000000e+00,5.000000000000000000e+00,5.000000000000000000e+00,5.000000000000000000e+00,5.000000000000000000e+00,5.000000000000000000e+00,5.000000000000000000e+00,5.000000000000000000e+00,5.000000000000000000e+00,5.000000000000000000e+00,5.000000000000000000e+00,5.000000000000000000e+00,5.000000000000000000e+00,5.000000000000000000e+00,5.000000000000000000e+00,5.000000000000000000e+00,5.000000000000000000e+00,5.000000000000000000e+00,5.000000000000000000e+00,5.000000000000000000e+00,5.000000000000000000e+00,5.000000000000000000e+00,5.000000000000000000e+00,5.000000000000000000e+00,5.000000000000000000e+00,5.000000000000000000e+00,5.000000000000000000e+00,5.000000000000000000e+00,5.000000000000000000e+00,5.000000000000000000e+00,5.000000000000000000e+00,5.000000000000000000e+00,5.000000000000000000e+00,5.000000000000000000e+00,5.000000000000000000e+00,5.000000000000000000e+00,4.864534378051757812e+00,4.673378944396972656e+00,4.496678829193115234e+00,1.645756840705871582e+00,1.592888116836547852e+00,1.566919565200805664e+00,1.554559826850891113e+00,1.586540818214416504e+00,1.673411726951599121e+00,1.648330211639404297e+00,1.643445014953613281e+00,1.643130421638488770e+00,3.262956857681274414e+00,3.175823926925659180e+00,3.093223810195922852e+00,3.014811038970947266e+00,2.940275907516479492e+00,2.869337081909179688e+00,2.801740646362304688e+00,2.737255811691284180e+00,2.675672531127929688e+00,2.616799592971801758e+00,2.560461282730102539e+00,2.506497859954833984e+00,2.454761981964111328e+00,2.405118942260742188e+00,2.357443809509277344e+00,2.311621904373168945e+00,2.267547369003295898e+00,2.225122213363647461e+00,2.184255361557006836e+00,2.144862413406372070e+00,2.106865406036376953e+00,2.070191144943237305e+00,2.034771680831909180e+00,2.000544071197509766e+00,1.967448949813842773e+00,1.935430765151977539e+00,1.904438138008117676e+00,1.874422550201416016e+00,1.845338225364685059e+00
5.000000000000000000e+00,5.000000000000000000e+00,5.000000000000000000e+00,5.000000000000000000e+00,5.000000000000000000e+00,5.000000000000000000e+00,5.000000000000000000e+00,5.000000000000000000e+00,5.000000000000000000e+00,5.000000000000000000e+00,5.000000000000000000e+00,5.000000000000000000e+00,5.000000000000000000e+00,5.000000000000000000e+00,5.000000000000000000e+00,5.000000000000000000e+00,5.000000000000000000e+00,5.000000000000000000e+00,5.000000000000000000e+00,5.000000000000000000e+00,5.000000000000000000e+00,5.000000000000000000e+00,5.000000000000000000e+00,5.000000000000000000e+00,5.000000000000000000e+00,5.000000000000000000e+00,5.000000000000000000e+00,5.000000000000000000e+00,5.000000000000000000e+00,5.000000000000000000e+00,5.000000000000000000e+00,5.000000000000000000e+00,5.000000000000000000e+00,5.000000000000000000e+00,5.000000000000000000e+00,5.000000000000000000e+00,5.000000000000000000e+00,5.000000000000000000e+00,5.000000000000000000e+00,4.864674568176269531e+00,4.673508167266845703e+00,4.496798515319824219e+00,1.644418120384216309e+00,1.608329176902770996e+00,1.586022377014160156e+00,1.581598401069641113e+00,1.711763262748718262e+00,1.675685405731201172e+00,1.662296652793884277e+00,1.660243391990661621e+00,1.693130970001220703e+00,3.263020038604736328e+00,3.175883769989013672e+00,3.093280553817749023e+00,3.014864921569824219e+00,2.940326929092407227e+00,2.869385957717895508e+00,2.801787137985229492e+00,2.737300157546997070e+00,2.675714969635009766e+00,2.616840124130249023e+00,2.560500144958496094e+00,2.506535053253173828e+00,2.454797744750976562e+00,2.405153036117553711e+00,2.357476711273193359e+00,2.311653614044189453e+00,2.267577886581420898e+00,2.225151538848876953e+00,2.184283733367919922e+00,2.144889831542968750e+00,2.106891632080078125e+00,2.070216417312622070e+00,2.034796237945556641e+00,2.000567913055419922e+00,1.967471837997436523e+00,1.935453176498413086e+00,1.904459714889526367e+00,1.874443292617797852e+00,1.845358371734619141e+00
5.000000000000000000e+00,5.000000000000000000e+00,5.000000000000000000e+00,5.000000000000000000e+00,5.000000000000000000e+00,5.000000000000000000e+00,5.000000000000000000e+00,5.000000000000000000e+00,5.000000000000000000e+00,5.000000000000000000e+00,5.000000000000000000e+00,5.000000000000000000e+00,5.000000000000000000e+00,5.000000000000000000e+00,5.000000000000000000e+00,5.000000000000000000e+00,5.000000000000000000e+00,5.000000000000000000e+00,5.000000000000000000e+00,5.000000000000000000e+00,5.000000000000000000e+00,5.000000000000000000e+00,5.000000000000000000e+00,5.000000000000000000e+00,5.000000000000000000e+00,5.000000000000000000e+00,5.000000000000000000e+00,5.000000000000000000e+00,5.000000000000000000e+00,5.000000000000000000e+00,5.000000000000000000e+00,5.000000000000000000e+00,5.000000000000000000e+00,5.000000000000000000e+00,5.000000000000000000e+00,5.000000000000000000e+00,5.000000000000000000e+00,5.000000000000000000e+00,5.000000000000000000e+00,4.864813804626464844e+00,4.673637866973876953e+00,4.496918678283691406e+00,1.660777688026428223e+00,1.624320983886718750e+00,1.605596661567687988e+00,1.630454778671264648e+00,1.701318144798278809e+00,1.675465703010559082e+00,1.667284011840820312e+00,1.666086435317993164e+00,3.355139255523681641e+00,3.263082981109619141e+00,3.175943613052368164e+00,3.093337059020996094e+00,3.014919042587280273e+00,2.940378189086914062e+00,2.869434833526611328e+00,2.801833629608154297e+00,2.737344503402709961e+00,2.675757408142089844e+00,2.616880655288696289e+00,2.560539007186889648e+00,2.506572246551513672e+00,2.454833507537841797e+00,2.405187368392944336e+00,2.357509613037109375e+00,2.311685323715209961e+00,2.267608165740966797e+00,2.225180864334106445e+00,2.184311866760253906e+00,2.144917011260986328e+00,2.106918096542358398e+00,2.070241928100585938e+00,2.034820795059204102e+00,2.000591516494750977e+00,1.967494845390319824e+00,1.935475230216979980e+00,1.904481172561645508e+00,1.874464035034179688e+00,1.845378637313842773e+00
5.000000000000000000e+00,5.000000000000000000e+00,5.000000000000000000e+00,5.000000000000000000e+00,5.000000000000000000e+00,5.000000000000000000e+00,5.000000000000000000e+00,5.000000000000000000e+00,5.000000000000000000e+00,5.000000000000000000e+00,5.000000000000000000e+00,5.000000000000000000e+00,5.000000000000000000e+00,5.000000000000000000e+00,5.000000000000000000e+00,5.000000000000000000e+00,5.000000000000000000e+00,5.000000000000000000e+00,5.000000000000000000e+00,5.000000000000000000e+00,5.000000000000000000e+00,5.000000000000000000e+00,5.000000000000000000e+00,5.000000000000000000e+00,5.000000000000000000e+00,5.000000000000000000e+00,5.000000000000000000e+00,5.000000000000000000e+00,5.000000000000000000e+00,5.000000000000000000e+00,5.000000000000000000e+00,5.000000000000000000e+00,5.000000000000000000e+00,5.000000000000000000e+00,5.000000000000000000e+00,5.000000000000000000e+00,5.000000000000000000e+00,5.000000000000000000e+00,5.000000000000000000e+00,4.864953517913818359e+00,4.673767089843750000e+00,1.759512305259704590e+00,1.678504228591918945e+00,1.643257856369018555e+00,1.626783728599548340e+00,3.906216144561767578e+00,1.700637817382812500e+00,1.676194429397583008e+00,1.671988368034362793e+00,1.671096682548522949e+00,3.355206012725830078e+00,3.263146162033081055e+00,3.176003456115722656e+00,3.093393802642822266e+00,3.014972925186157227e+00,2.940429449081420898e+00,2.869483232498168945e+00,2.801880121231079102e+00,2.737388849258422852e+00,2.675800085067749023e+00,2.616921186447143555e+00,2.560577869415283203e+00,2.506609439849853516e+00,2.454869031906127930e+00,2.405221700668334961e+00,2.357542514801025391e+00,2.311716794967651367e+00,2.267638683319091797e+00,2.225210189819335938e+00,2.184340238571166992e+00,2.144944429397583008e+00,2.106944322586059570e+00,2.070267200469970703e+00,2.034845352172851562e+00,2.000615119934082031e+00,1.967517733573913574e+00,1.935497403144836426e+00,1.904502749443054199e+00,1.874484896659851074e+00,1.845398783683776855e+00
5.000000000000000000e+00,5.000000000000000000e+00,5.000000000000000000e+00,5.000000000000000000e+00,5.000000000000000000e+00,5.000000000000000000e+00,5.000000000000000000e+00,5.000000000000000000e+00,5.000000000000000000e+00,5.000000000000000000e+00,5.000000000000000000e+00,5.000000000000000000e+00,5.000000000000000000e+00,5.000000000000000000e+00,5.000000000000000000e+00,5.000000000000000000e+00,5.000000000000000000e+00,5.000000000000000000e+00,5.000000000000000000e+00,5.000000000000000000e+00,5.000000000000000000e+00,5.000000000000000000e+00,5.000000000000000000e+00,5.000000000000000000e+00,5.000000000000000000e+00,5.000000000000000000e+00,5.000000000000000000e+00,5.000000000000000000e+00,5.000000000000000000e+00,5.000000000000000000e+00,5.000000000000000000e+00,5.000000000000000000e+00,5.000000000000000000e+00,5.000000000000000000e+00,5.000000000000000000e+00,5.000000000000000000e+00,5.000000000000000000e+00,5.000000000000000000e+00,5.000000000000000000e+00,4.865092277526855469e+00,4.673895359039306641e+00,1.738914847373962402e+00,1.697765946388244629e+00,1.670035839080810547e+00,1.677693724632263184e+00,3.906306266784667969e+00,1.700287222862243652e+00,1.676923751831054688e+00,1.676570415496826172e+00,1.676137089729309082e+00,3.355272769927978516e+00,3.263209342956542969e+00,3.176063060760498047e+00,3.093450546264648438e+00,3.015026569366455078e+00,2.940480947494506836e+00,2.869532108306884766e+00,2.801926851272583008e+00,2.737433433532714844e+00,2.675842285156250000e+00,2.616961717605590820e+00,2.560616493225097656e+00,2.506646871566772461e+00,2.454904794692993164e+00,2.405256032943725586e+00,2.357575416564941406e+00,2.311748504638671875e+00,2.267669200897216797e+00,2.225239515304565430e+00,2.184368371963500977e+00,2.144971370697021484e+00,2.106970787048339844e+00,2.070292472839355469e+00,2.034869909286499023e+00,2.000638961791992188e+00,1.967540502548217773e+00,1.935519695281982422e+00,1.904524207115173340e+00,1.874505639076232910e+00,1.845418810844421387e+00
5.000000000000000000e+00,5.000000000000000000e+00,5.000000000000000000e+00,5.000000000000000000e+00,5.000000000000000000e+00,5.000000000000000000e+00,5.000000000000000000e+00,5.000000000000000000e+00,5.000000000000000000e+00,5.000000000000000000e+00,5.000000000000000000e+00,5.000000000000000000e+00,5.000000000000000000e+00,5.000000000000000000e+00,5.000000000000000000e+00,5.000000000000000000e+00,5.000000000000000000e+00,5.000000000000000000e+00,5.000000000000000000e+00,5.000000000000000000e+00,5.000000000000000000e+00,5.000000000000000000e+00,5.000000000000000000e+00,5.000000000000000000e+00,5.000000000000000000e+00,5.000000000000000000e+00,5.000000000000000000e+00,5.000000000000000000e+00,5.000000000000000000e+00,5.000000000000000000e+00,5.000000000000000000e+00,5.000000000000000000e+00,5.000000000000000000e+00,5.000000000000000000e+00,5.000000000000000000e+00,5.000000000000000000e+00,5.000000000000000000e+00,5.000000000000000000e+00,5.000000000000000000e+00,4.865231037139892578e+00,4.674024105072021484e+00,1.759632945060729980e+00,1.718215942382812500e+00,1.700334310531616211e+00,4.039066314697265625e+00,3.906396627426147461e+00,1.701547980308532715e+00,1.680454373359680176e+00,1.681177616119384766e+00,1.687181472778320312e+00,3.355339050292968750e+00,3.263272285461425781e+00,3.176122903823852539e+00,3.093507289886474609e+00,3.015080451965332031e+00,2.940532207489013672e+00,2.869580984115600586e+00,2.801973104476928711e+00,2.737477779388427734e+00,2.675884723663330078e+00,2.617002487182617188e+00,2.560655355453491211e+00,2.506684064865112305e+00,2.454940557479858398e+00,2.405290126800537109e+00,2.357608318328857422e+00,2.311780214309692383e+00,2.267699718475341797e+00,2.225268840789794922e+00,2.184396743774414062e+00,2.144998788833618164e+00,2.106997013092041016e+00,2.070317983627319336e+00,2.034894466400146484e+00,2.000662803649902344e+00,1.967563629150390625e+00,1.935541749000549316e+00,1.904545545578002930e+00,1.874526619911193848e+00,1.845439195632934570e+00
5.000000000000000000e+00,5.000000000000000000e+00,5.000000000000000000e+00,5.000000000000000000e+00,5.000000000000000000e+00,5.000000000000000000e+00,5.000000000000000000e+00,5.000000000000000000e+00,5.000000000000000000e+00,5.000000000000000000e+00,5.000000000000000000e+00,5.000000000000000000e+00,5.000000000000000000e+00,5.000000000000000000e+00,5.000000000000000000e+00,5.000000000000000000e+00,5.000000000000000000e+00,5.000000000000000000e+00,5.000000000000000000e+00,5.000000000000000000e+00,5.000000000000000000e+00,5.000000000000000000e+00,5.000000000000000000e+00,5.000000000000000000e+00,5.000000000000000000e+00,5.000000000000000000e+00,5.000000000000000000e+00,5.000000000000000000e+00,5.000000000000000000e+00,5.000000000000000000e+00,5.000000000000000000e+00,5.000000000000000000e+00,5.000000000000000000e+00,5.000000000000000000e+00,5.000000000000000000e+00,5.000000000000000000e+00,5.000000000000000000e+00,5.000000000000000000e+00,5.000000000000000000e+00,4.865370750427246094e+00,4.674152374267578125e+00,1.796455979347229004e+00,1.739164590835571289e+00,1.732976675033569336e+00,4.039163112640380859e+00,3.906487226486206055e+00,1.704686284065246582e+00,1.685827851295471191e+00,1.686270475387573242e+00,3.452822923660278320e+00,3.355406045913696289e+00,3.263335466384887695e+00,3.176182746887207031e+00,3.093563795089721680e+00,3.015134334564208984e+00,2.940583229064941406e+00,2.869629859924316406e+00,2.802019596099853516e+00,2.737522125244140625e+00,2.675927162170410156e+00,2.617043018341064453e+00,2.560694217681884766e+00,2.506721019744873047e+00,2.454976320266723633e+00,2.405324459075927734e+00,2.357641458511352539e+00,2.311811923980712891e+00,2.267730236053466797e+00,2.225298166275024414e+00,2.184424877166748047e+00,2.145025968551635742e+00,2.107023239135742188e+00,2.070343494415283203e+00,2.034919023513793945e+00,2.000686407089233398e+00,1.967586517333984375e+00,1.935564160346984863e+00,1.904567241668701172e+00,1.874547362327575684e+00,1.845459222793579102e+00
5.000000000000000000e+00,5.000000000000000000e+00,5.000000000000000000e+00,5.000000000000000000e+00,5.000000000000000000e+00,5.000000000000000000e+00,5.000000000000000000e+00,5.000000000000000000e+00,5.000000000000000000e+00,5.000000000000000000e+00,5.000000000000000000e+00,5.000000000000000000e+00,5.000000000000000000e+00,5.000000000000000000e+00,5.000000000000000000e+00,5.000000000000000000e+00,5.000000000000000000e+00,5.000000000000000000e+00,5.000000000000000000e+00,5.000000000000000000e+00,5.000000000000000000e+00,5.000000000000000000e+00,5.000000000000000000e+00,5.000000000000000000e+00,5.000000000000000000e+00,5.000000000000000000e+00,5.000000000000000000e+00,5.000000000000000000e+00,5.000000000000000000e+00,5.000000000000000000e+00,5.000000000000000000e+00,5.000000000000000000e+00,5.000000000000000000e+00,5.000000000000000000e+00,5.000000000000000000e+00,5.000000000000000000e+00,5.000000000000000000e+00,5.000000000000000000e+00,5.000000000000000000e+00,4.865509510040283203e+00,4.674280643463134766e+00,1.800264835357666016e+00,1.781946539878845215e+00,4.181271076202392578e+00,4.039259433746337891e+00,1.771798253059387207e+00,1.707836270332336426e+00,1.691355943679809570e+00,1.691801309585571289e+00,3.452893257141113281e+00,3.355472803115844727e+00,3.263398408889770508e+00,3.176242589950561523e+00,3.093620538711547852e+00,3.015188217163085938e+00,2.940634489059448242e+00,2.869678735733032227e+00,2.802066326141357422e+00,2.737566471099853516e+00,2.675969600677490234e+00,2.617083311080932617e+00,2.560733318328857422e+00,2.506758451461791992e+00,2.455012083053588867e+00,2.405358791351318359e+00,2.357674121856689453e+00,2.311843633651733398e+00,2.267760515213012695e+00,2.225327491760253906e+00,2.184453248977661133e+00,2.145053386688232422e+00,2.107049465179443359e+00,2.070368766784667969e+00,2.034943580627441406e+00,2.000710010528564453e+00,1.967609524726867676e+00,1.935586214065551758e+00,1.904588580131530762e+00,1.874568104743957520e+00,1.845479488372802734e+00
4.871752262115478516e+00,4.870530128479003906e+00,4.869309425354003906e+00,4.868088722229003906e+00,4.866868972778320312e+00,4.865649700164794922e+00,4.864430904388427734e+00,4.863212585449218750e+00,4.861995220184326172e+00,4.860778331756591797e+00,4.859561920166015625e+00,4.858346462249755859e+00,4.857131481170654297e+00,4.855916976928710938e+00,4.854703426361083984e+00,4.853489875793457031e+00,4.852277278900146484e+00,4.851065635681152344e+00,4.849853992462158203e+00,4.848643302917480469e+00,4.847433090209960938e+00,4.846223831176757812e+00,4.845014572143554688e+00,4.843806266784667969e+00,4.842598438262939453e+00,4.841391086578369141e+00,4.840184688568115234e+00,4.838978290557861328e+00,4.837773323059082031e+00,4.836568832397460938e+00,4.835364341735839844e+00,4.834160804748535156e+00,4.832957744598388672e+00,4.831755161285400391e+00,4.830553531646728516e+00,4.829352378845214844e+00,4.828152179718017578e+00,4.826951980590820312e+00,4.825752735137939453e+00,4.824553966522216797e+00,4.674408912658691406e+00,1.794063925743103027e+00,1.779231190681457520e+00,4.181374073028564453e+00,4.039356231689453125e+00,1.759277105331420898e+00,1.710744976997375488e+00,1.696920156478881836e+00,1.716198921203613281e+00,3.452963829040527344e+00,3.355539560317993164e+00,3.263461589813232422e+00,3.176302433013916016e+00,3.093677282333374023e+00,3.015241861343383789e+00,2.940685749053955078e+00,2.869727134704589844e+00,2.802112817764282227e+00,2.737610816955566406e+00,2.676012039184570312e+00,2.617124080657958984e+00,2.560772180557250977e+00,2.506795644760131836e+00,2.455047607421875000e+00,2.405393123626708984e+00,2.357707262039184570e+00,2.311875104904174805e+00,2.267791032791137695e+00,2.225356817245483398e+00,2.184481382369995117e+00,2.145080566406250000e+00,2.107075691223144531e+00,2.070394039154052734e+00,2.034968137741088867e+00,2.000733852386474609e+00,1.967632412910461426e+00,1.935608267784118652e+00,1.904610276222229004e+00,1.874589085578918457e+00,1.845499634742736816e+00
3.776581525802612305e+00,3.775847196578979492e+00,3.775113582611083984e+00,3.774379730224609375e+00,3.773646116256713867e+00,3.772912979125976562e+00,3.772180318832397461e+00,3.771447896957397461e+00,3.770715475082397461e+00,3.769983768463134766e+00,3.769252061843872070e+00,3.768520593643188477e+00,3.767789363861083984e+00,3.767058849334716797e+00,3.766328096389770508e+00,3.765597820281982422e+00,3.764868021011352539e+00,3.764138221740722656e+00,3.763408660888671875e+00,3.762679815292358398e+00,3.761950969696044922e+00,3.761222362518310547e+00,3.760493755340576172e+00,3.759766101837158203e+00,3.759038448333740234e+00,3.758310794830322266e+00,3.757583856582641602e+00,3.756856918334960938e+00,3.756130218505859375e+00,3.755403757095336914e+00,3.754678010940551758e+00,3.753952264785766602e+00,3.753226757049560547e+00,3.752501726150512695e+00,3.751776695251464844e+00,3.751051902770996094e+00,3.750327587127685547e+00,3.749603748321533203e+00,3.748879909515380859e+00,3.748156309127807617e+00,3.747433185577392578e+00,1.783765435218811035e+00,1.775000333786010742e+00,1.788781523704528809e+00,3.744543075561523438e+00,1.746931910514831543e+00,1.713611006736755371e+00,1.702521324157714844e+00,3.556289911270141602e+00,3.453034639358520508e+00,3.355606317520141602e+00,3.263524770736694336e+00,3.176361799240112305e+00,3.093734025955200195e+00,3.015295743942260742e+00,2.940737009048461914e+00,2.869776010513305664e+00,2.802159309387207031e+00,2.737655401229858398e+00,2.676054239273071289e+00,2.617164611816406250e+00,2.560810804367065430e+00,2.506832838058471680e+00,2.455083370208740234e+00,2.405427455902099609e+00,2.357740163803100586e+00,2.311906814575195312e+00,2.267821550369262695e+00,2.225386142730712891e+00,2.184509754180908203e+00,2.145107746124267578e+00,2.107102155685424805e+00,2.070419549942016602e+00,2.034992694854736328e+00,2.000757455825805664e+00,1.967655301094055176e+00,1.935630679130554199e+00,1.904631614685058594e+00,1.874609827995300293e+00,1.845519781112670898e+00
3.083426713943481445e+00,3.082937240600585938e+00,3.082447767257690430e+00,3.081958770751953125e+00,3.081469774246215820e+00,3.080980777740478516e+00,3.080492258071899414e+00,3.080003738403320312e+00,3.079515218734741211e+00,3.079026937484741211e+00,3.078539133071899414e+00,3.078051090240478516e+00,3.077563285827636719e+00,3.077075958251953125e+00,3.076588392257690430e+00,3.076101064682006836e+00,3.075613737106323242e+00,3.075126886367797852e+00,3.074640035629272461e+00,3.074153184890747070e+00,3.073667049407958984e+00,3.073180437088012695e+00,3.072694301605224609e+00,3.072208404541015625e+00,3.071722269058227539e+00,3.071236610412597656e+00,3.070750713348388672e+00,3.070265531539916992e+00,3.069780111312866211e+00,3.069294929504394531e+00,3.068810224533081055e+00,3.068325281143188477e+00,3.067840576171875000e+00,3.067355871200561523e+00,3.066871643066406250e+00,3.066387414932250977e+00,3.065903186798095703e+00,3.065419673919677734e+00,3.064935684204101562e+00,3.064452171325683594e+00,3.063968896865844727e+00,1.769939422607421875e+00,1.768396615982055664e+00,1.771621584892272949e+00,3.062036514282226562e+00,1.763841271400451660e+00,1.730533599853515625e+00,1.709433436393737793e+00,3.060106515884399414e+00,3.059624433517456055e+00,3.059142351150512695e+00,3.058660745620727539e+00,3.058179140090942383e+00,3.057697534561157227e+00,3.015349626541137695e+00,2.940788030624389648e+00,2.869824886322021484e+00,2.802205801010131836e+00,2.737699747085571289e+00,2.676096916198730469e+00,2.617205381393432617e+00,2.560849666595458984e+00,2.506870269775390625e+00,2.455119132995605469e+00,2.405461549758911133e+00,2.357773065567016602e+00,2.311938524246215820e+00,2.267852067947387695e+00,2.225415468215942383e+00,2.184538125991821289e+00,2.145135164260864258e+00,2.107128381729125977e+00,2.070445060729980469e+00,2.035017013549804688e+00,2.000781297683715820e+00,1.967678308486938477e+00,1.935652732849121094e+00,1.904653072357177734e+00,1.874630689620971680e+00,1.845540046691894531e+00
2.605257034301757812e+00,2.604907512664794922e+00,2.604558229446411133e+00,2.604209184646606445e+00,2.603859901428222656e+00,2.603510856628417969e+00,2.603161811828613281e+00,2.602813005447387695e+00,2.602464199066162109e+00,2.602115392684936523e+00,2.601767063140869141e+00,2.601418495178222656e+00,2.601069927215576172e+00,2.600721836090087891e+00,2.600373506546020508e+00,2.600025415420532227e+00,2.599677324295043945e+00,2.599329471588134766e+00,2.598981618881225586e+00,2.598633766174316406e+00,2.598286151885986328e+00,2.597938537597656250e+00,2.597590923309326172e+00,2.597243547439575195e+00,2.596896409988403320e+00,2.596549272537231445e+00,2.596202135086059570e+00,2.595855236053466797e+00,2.595508098602294922e+00,2.595161437988281250e+00,2.594814538955688477e+00,2.594468116760253906e+00,2.594121456146240234e+00,2.593775033950805664e+00,2.593428611755371094e+00,2.593082427978515625e+00,2.592736244201660156e+00,2.592390298843383789e+00,2.592044115066528320e+00,2.591698169708251953e+00,2.591352224349975586e+00,1.757449626922607422e+00,1.751009106636047363e+00,1.760162591934204102e+00,2.589970111846923828e+00,1.749199390411376953e+00,1.722844839096069336e+00,2.588934183120727539e+00,2.588589429855346680e+00,2.588244438171386719e+00,2.587899446487426758e+00,2.587554693222045898e+00,2.587209939956665039e+00,2.586865425109863281e+00,2.586520910263061523e+00,2.586176395416259766e+00,2.585832118988037109e+00,2.585487842559814453e+00,2.585143804550170898e+00,2.584799766540527344e+00,2.584455728530883789e+00,2.560888528823852539e+00,2.506907224655151367e+00,2.455154895782470703e+00,2.405495882034301758e+00,2.357805967330932617e+00,2.311970233917236328e+00,2.267882585525512695e+00,2.225444793701171875e+00,2.184566259384155273e+00,2.145162343978881836e+00,2.107154607772827148e+00,2.070470333099365234e+00,2.035041570663452148e+00,2.000804901123046875e+00,1.967701196670532227e+00,1.935674905776977539e+00,1.904674649238586426e+00,1.874651432037353516e+00,1.845560073852539062e+00
2.255442142486572266e+00,2.255182266235351562e+00,2.254922151565551758e+00,2.254662036895751953e+00,2.254402160644531250e+00,2.254142522811889648e+00,2.253882646560668945e+00,2.253623008728027344e+00,2.253363132476806641e+00,2.253103733062744141e+00,2.252844095230102539e+00,2.252584695816040039e+00,2.252325057983398438e+00,2.252065896987915039e+00,2.251806497573852539e+00,2.251547336578369141e+00,2.251287937164306641e+00,2.251029014587402344e+00,2.250769853591918945e+00,2.250510931015014648e+00,2.250251770019531250e+00,2.249993085861206055e+00,2.249734163284301758e+00,2.249474287033081055e+00,2.249213933944702148e+00,2.248953342437744141e+00,2.248692989349365234e+00,2.248432397842407227e+00,2.248172283172607422e+00,2.247912168502807617e+00,2.247651815414428711e+00,2.247391939163208008e+00,2.247131824493408203e+00,2.246871709823608398e+00,2.246612071990966797e+00,2.246352195739746094e+00,2.246092319488525391e+00,2.245832443237304688e+00,2.245572805404663086e+00,2.245313167572021484e+00,2.245053529739379883e+00,2.244794368743896484e+00,1.752171277999877930e+00,1.750080227851867676e+00,2.244015932083129883e+00,1.745800375938415527e+00,1.693533658981323242e+00,1.690518975257873535e+00,2.242979526519775391e+00,2.242720365524291992e+00,2.242461442947387695e+00,2.242202758789062500e+00,2.241943836212158203e+00,2.241684913635253906e+00,2.241426229476928711e+00,2.241167545318603516e+00,2.240909099578857422e+00,2.240650415420532227e+00,2.240391969680786133e+00,2.240133523941040039e+00,2.239875316619873047e+00,2.239616870880126953e+00,2.239358663558959961e+00,2.239100456237792969e+00,2.238842248916625977e+00,2.238584280014038086e+00,2.238326311111450195e+00,2.238068342208862305e+00,2.225474119186401367e+00,2.184594631195068359e+00,2.145189762115478516e+00,2.107181072235107422e+00,2.070495605468750000e+00,2.035066127777099609e+00,2.000828742980957031e+00,1.967724204063415527e+00,1.935697197914123535e+00,1.904696106910705566e+00,1.874672174453735352e+00,1.845580458641052246e+00
1.988367795944213867e+00,1.988165736198425293e+00,1.987963795661926270e+00,1.987761735916137695e+00,1.987559676170349121e+00,1.987357616424560547e+00,1.987155675888061523e+00,1.986953735351562500e+00,1.986751914024353027e+00,1.986550092697143555e+00,1.986348509788513184e+00,1.986146807670593262e+00,1.985944986343383789e+00,1.985743403434753418e+00,1.985541701316833496e+00,1.985340118408203125e+00,1.985138654708862305e+00,1.984937071800231934e+00,1.984735846519470215e+00,1.984534382820129395e+00,1.984333038330078125e+00,1.984131693840026855e+00,1.983930349349975586e+00,1.983729124069213867e+00,1.983527898788452148e+00,1.983326673507690430e+00,1.983125805854797363e+00,1.982924699783325195e+00,1.982723593711853027e+00,1.982522606849670410e+00,1.982321619987487793e+00,1.982120633125305176e+00,1.981919765472412109e+00,1.981718897819519043e+00,1.981518268585205078e+00,1.981317520141601562e+00,1.981116771697998047e+00,1.980916142463684082e+00,1.980715394020080566e+00,1.980514764785766602e+00,1.980314254760742188e+00,1.980113744735717773e+00,1.979913473129272461e+00,1.979712963104248047e+00,1.979512572288513184e+00,1.763133764266967773e+00,1.663603305816650391e+00,1.640944004058837891e+00,1.684711575508117676e+00,1.978511095046997070e+00,1.978310942649841309e+00,1.978111028671264648e+00,1.977910876274108887e+00,1.977710843086242676e+00,1.977510809898376465e+00,1.977310895919799805e+00,1.977110981941223145e+00,1.976911067962646484e+00,1.976711273193359375e+00,1.976511597633361816e+00,1.976311922073364258e+00,1.976112127304077148e+00,1.975912451744079590e+00,1.975712776184082031e+00,1.975513219833374023e+00,1.975313663482666016e+00,1.975114107131958008e+00,1.974914908409118652e+00,1.974715352058410645e+00,1.974516034126281738e+00,1.974316596984863281e+00,1.974117279052734375e+00,1.973918080329895020e+00,1.973718762397766113e+00,1.973519563674926758e+00,1.967747092247009277e+00,1.935719370841979980e+00,1.904717445373535156e+00,1.874693155288696289e+00,1.845600485801696777e+00
1.777847290039062500e+00,1.777685642242431641e+00,1.777524113655090332e+00,1.777362465858459473e+00,1.777200937271118164e+00,1.777039408683776855e+00,1.776877999305725098e+00,1.776716709136962891e+00,1.776555299758911133e+00,1.776393890380859375e+00,1.776232600212097168e+00,1.776071190834045410e+00,1.775909900665283203e+00,1.775748610496520996e+00,1.775587320327758789e+00,1.775426387786865234e+00,1.775265216827392578e+00,1.775104045867919922e+00,1.774942874908447266e+00,1.774781823158264160e+00,1.774620652198791504e+00,1.774459719657897949e+00,1.774298667907714844e+00,1.774137854576110840e+00,1.773976922035217285e+00,1.773815989494323730e+00,1.773655056953430176e+00,1.773494243621826172e+00,1.773333430290222168e+00,1.773172497749328613e+00,1.773011803627014160e+00,1.772851228713989258e+00,1.772690534591674805e+00,1.772529840469360352e+00,1.772369146347045898e+00,1.772208452224731445e+00,1.772047877311706543e+00,1.771887302398681641e+00,1.771726727485656738e+00,1.771566390991210938e+00,1.771405935287475586e+00,1.771245479583740234e+00,1.771085023880004883e+00,1.770924687385559082e+00,1.770764231681823730e+00,1.770603895187377930e+00,1.651608824729919434e+00,1.605740904808044434e+00,1.590126276016235352e+00,1.654675960540771484e+00,1.769802808761596680e+00,1.769642591476440430e+00,1.769482493400573730e+00,1.769322395324707031e+00,1.769162297248840332e+00,1.769002199172973633e+00,1.768842458724975586e+00,1.768682479858398438e+00,1.768522500991821289e+00,1.768362522125244141e+00,1.768202662467956543e+00,1.768042683601379395e+00,1.767882823944091797e+00,1.767723083496093750e+00,1.767563462257385254e+00,1.767403721809387207e+00,1.767243981361389160e+00,1.767084240913391113e+00,1.766924619674682617e+00,1.766764879226684570e+00,1.766605257987976074e+00,1.766445755958557129e+00,1.766286373138427734e+00,1.766126751899719238e+00,1.765967249870300293e+00,1.765807867050170898e+00,1.765648365020751953e+00,1.765488982200622559e+00,1.765329599380493164e+00,1.765170216560363770e+00
1.607636809349060059e+00,1.607504725456237793e+00,1.607372522354125977e+00,1.607240438461303711e+00,1.607108473777770996e+00,1.606976389884948730e+00,1.606844305992126465e+00,1.606712341308593750e+00,1.606580376625061035e+00,1.606448292732238770e+00,1.606316328048706055e+00,1.606184363365173340e+00,1.606052637100219727e+00,1.605920791625976562e+00,1.605788826942443848e+00,1.605656981468200684e+00,1.605525135993957520e+00,1.605393409729003906e+00,1.605261564254760742e+00,1.605129837989807129e+00,1.604998230934143066e+00,1.604866504669189453e+00,1.604734778404235840e+00,1.604603052139282227e+00,1.604471445083618164e+00,1.604339718818664551e+00,1.604208111763000488e+00,1.604076504707336426e+00,1.603945136070251465e+00,1.603813529014587402e+00,1.603682041168212891e+00,1.603550553321838379e+00,1.603419065475463867e+00,1.603287577629089355e+00,1.603156089782714844e+00,1.603024721145629883e+00,1.602893471717834473e+00,1.602762103080749512e+00,1.602630734443664551e+00,1.602499365806579590e+00,1.602367997169494629e+00,1.602236747741699219e+00,1.602105498313903809e+00,1.601974248886108398e+00,1.601843118667602539e+00,1.601711869239807129e+00,1.601580739021301270e+00,1.601449608802795410e+00,1.601318359375000000e+00,1.601187229156494141e+00,1.601056218147277832e+00,1.600925087928771973e+00,1.600794076919555664e+00,1.600663185119628906e+00,1.600532174110412598e+00,1.600401163101196289e+00,1.600270152091979980e+00,1.600139260292053223e+00,1.600008249282836914e+00,1.599877357482910156e+00,1.599746465682983398e+00,1.599615693092346191e+00,1.599484920501708984e+00,1.599354028701782227e+00,1.599223256111145020e+00,1.599092483520507812e+00,1.598961710929870605e+00,1.598830938339233398e+00,1.598700284957885742e+00,1.598569750785827637e+00,1.598439097404479980e+00,1.598308444023132324e+00,1.598177790641784668e+00,1.598047137260437012e+00,1.597916603088378906e+00,1.597785949707031250e+00,1.597655415534973145e+00,1.597525119781494141e+00,1.597394585609436035e+00,1.597264051437377930e+00
1.467170476913452148e+00,1.467060565948486328e+00,1.466950535774230957e+00,1.466840386390686035e+00,1.466730356216430664e+00,1.466620445251464844e+00,1.466510415077209473e+00,1.466400384902954102e+00,1.466290473937988281e+00,1.466180682182312012e+00,1.466070652008056641e+00,1.465960741043090820e+00,1.465850949287414551e+00,1.465741038322448730e+00,1.465631127357482910e+00,1.465521335601806641e+00,1.465411424636840820e+00,1.465301752090454102e+00,1.465191960334777832e+00,1.465082168579101562e+00,1.464972496032714844e+00,1.464862704277038574e+00,1.464752912521362305e+00,1.464643239974975586e+00,1.464533567428588867e+00,1.464424014091491699e+00,1.464314341545104980e+00,1.464204668998718262e+00,1.464094996452331543e+00,1.463985443115234375e+00,1.463875770568847656e+00,1.463766217231750488e+00,1.463656663894653320e+00,1.463547229766845703e+00,1.463437676429748535e+00,1.463328242301940918e+00,1.463218688964843750e+00,1.463109254837036133e+00,1.462999701499938965e+00,1.462890267372131348e+00,1.462780833244323730e+00,1.462671518325805664e+00,1.462562203407287598e+00,1.462452769279479980e+00,1.462343454360961914e+00,1.462234020233154297e+00,1.462124705314636230e+00,1.462015390396118164e+00,1.461906075477600098e+00,1.461796879768371582e+00,1.461687684059143066e+00,1.461578488349914551e+00,1.461469173431396484e+00,1.461359977722167969e+00,1.461250782012939453e+00,1.461141586303710938e+00,1.461032390594482422e+00,1.460923194885253906e+00,1.460814237594604492e+00,1.460705161094665527e+00,1.460595965385437012e+00,1.460486888885498047e+00,1.460377812385559082e+00,1.460268735885620117e+00,1.460159778594970703e+00,1.460050702095031738e+00,1.459941864013671875e+00,1.459832787513732910e+00,1.459723830223083496e+00,1.459614872932434082e+00,1.459505915641784668e+00,1.459396958351135254e+00,1.459288120269775391e+00,1.459179162979125977e+00,1.459070444107055664e+00,1.458961606025695801e+00,1.458852767944335938e+00,1.458743929862976074e+00,1.458635091781616211e+00,1.458526253700256348e+00
1.349278092384338379e+00,1.349184989929199219e+00,1.349092006683349609e+00,1.348998904228210449e+00,1.348905801773071289e+00,1.348812818527221680e+00,1.348719835281372070e+00,1.348626852035522461e+00,1.348533868789672852e+00,1.348440885543823242e+00,1.348347902297973633e+00,1.348254919052124023e+00,1.348161935806274414e+00,1.348068952560424805e+00,1.347976207733154297e+00,1.347883224487304688e+00,1.347790360450744629e+00,1.347697496414184570e+00,1.347604513168334961e+00,1.347511649131774902e+00,1.347418904304504395e+00,1.347326040267944336e+00,1.347233295440673828e+00,1.347140550613403320e+00,1.347047686576843262e+00,1.346954941749572754e+00,1.346862196922302246e+00,1.346769332885742188e+00,1.346676588058471680e+00,1.346583843231201172e+00,1.346491217613220215e+00,1.346398591995239258e+00,1.346305847167968750e+00,1.346213221549987793e+00,1.346120476722717285e+00,1.346027851104736328e+00,1.345935225486755371e+00,1.345842480659484863e+00,1.345749974250793457e+00,1.345657467842102051e+00,1.345564842224121094e+00,1.345472216606140137e+00,1.345379590988159180e+00,1.345287084579467773e+00,1.345194578170776367e+00,1.345101952552795410e+00,1.345009446144104004e+00,1.344917058944702148e+00,1.344824552536010742e+00,1.344732046127319336e+00,1.344639658927917480e+00,1.344547152519226074e+00,1.344454765319824219e+00,1.344362258911132812e+00,1.344269871711730957e+00,1.344177603721618652e+00,1.344085216522216797e+00,1.343992829322814941e+00,1.343900442123413086e+00,1.343808054924011230e+00,1.343715667724609375e+00,1.343623399734497070e+00,1.343531012535095215e+00,1.343438863754272461e+00,1.343346595764160156e+00,1.343254327774047852e+00,1.343162059783935547e+00,1.343069791793823242e+00,1.342977523803710938e+00,1.342885255813598633e+00,1.342792987823486328e+00,1.342700958251953125e+00,1.342608809471130371e+00,1.342516541481018066e+00,1.342424392700195312e+00,1.342332243919372559e+00,1.342240095138549805e+00,1.342147946357727051e+00,1.342055797576904297e+00,1.341963887214660645e+00
1.248922705650329590e+00,1.248842954635620117e+00,1.248763203620910645e+00,1.248683571815490723e+00,1.248603820800781250e+00,1.248524069786071777e+00,1.248444437980651855e+00,1.248364686965942383e+00,1.248284935951232910e+00,1.248205304145812988e+00,1.248125672340393066e+00,1.248046040534973145e+00,1.247966408729553223e+00,1.247886776924133301e+00,1.247807145118713379e+00,1.247727513313293457e+00,1.247647881507873535e+00,1.247568249702453613e+00,1.247488737106323242e+00,1.247409224510192871e+00,1.247329592704772949e+00,1.247250080108642578e+00,1.247170567512512207e+00,1.247090935707092285e+00,1.247011423110961914e+00,1.246931910514831543e+00,1.246852397918701172e+00,1.246773004531860352e+00,1.246693491935729980e+00,1.246614098548889160e+00,1.246534585952758789e+00,1.246455073356628418e+00,1.246375679969787598e+00,1.246296167373657227e+00,1.246216773986816406e+00,1.246137499809265137e+00,1.246058106422424316e+00,1.245978713035583496e+00,1.245899319648742676e+00,1.245819926261901855e+00,1.245740532875061035e+00,1.245661139488220215e+00,1.245581865310668945e+00,1.245502591133117676e+00,1.245423197746276855e+00,1.245343923568725586e+00,1.245264649391174316e+00,1.245185256004333496e+00,1.245105981826782227e+00,1.245026707649230957e+00,1.244947433471679688e+00,1.244868159294128418e+00,1.244789004325866699e+00,1.244709849357604980e+00,1.244630575180053711e+00,1.244551420211791992e+00,1.244472146034240723e+00,1.244392991065979004e+00,1.244313836097717285e+00,1.244234561920166016e+00,1.244155526161193848e+00,1.244076371192932129e+00,1.243997216224670410e+00,1.243918061256408691e+00,1.243839025497436523e+00,1.243759870529174805e+00,1.243680715560913086e+00,1.243601679801940918e+00,1.243522644042968750e+00,1.243443608283996582e+00,1.243364572525024414e+00,1.243285417556762695e+00,1.243206381797790527e+00,1.243127346038818359e+00,1.243048310279846191e+00,1.242969393730163574e+00,1.242890477180480957e+00,1.242811441421508789e+00,1.242732405662536621e+00,1.242653489112854004e+00
1.162462234497070312e+00,1.162393093109130859e+00,1.162324070930480957e+00,1.162254929542541504e+00,1.162185907363891602e+00,1.162116765975952148e+00,1.162047743797302246e+00,1.161978721618652344e+00,1.161909699440002441e+00,1.161840677261352539e+00,1.161771655082702637e+00,1.161702632904052734e+00,1.161633610725402832e+00,1.161564588546752930e+00,1.161495566368103027e+00,1.161426663398742676e+00,1.161357760429382324e+00,1.161288738250732422e+00,1.161219835281372070e+00,1.161150813102722168e+00,1.161081910133361816e+00,1.161012887954711914e+00,1.160943984985351562e+00,1.160875082015991211e+00,1.160806298255920410e+00,1.160737395286560059e+00,1.160668492317199707e+00,1.160599589347839355e+00,1.160530686378479004e+00,1.160461783409118652e+00,1.160392880439758301e+00,1.160324096679687500e+00,1.160255312919616699e+00,1.160186409950256348e+00,1.160117626190185547e+00,1.160048842430114746e+00,1.159979939460754395e+00,1.159911155700683594e+00,1.159842371940612793e+00,1.159773588180541992e+00,1.159704804420471191e+00,1.159636139869689941e+00,1.159567356109619141e+00,1.159498572349548340e+00,1.159429788589477539e+00,1.159361004829406738e+00,1.159292340278625488e+00,1.159223556518554688e+00,1.159154891967773438e+00,1.159086227416992188e+00,1.159017562866210938e+00,1.158948779106140137e+00,1.158880114555358887e+00,1.158811450004577637e+00,1.158742785453796387e+00,1.158674120903015137e+00,1.158605456352233887e+00,1.158536911010742188e+00,1.158468246459960938e+00,1.158399581909179688e+00,1.158331036567687988e+00,1.158262491226196289e+00,1.158193826675415039e+00,1.158125281333923340e+00,1.158056616783142090e+00,1.157988190650939941e+00,1.157919526100158691e+00,1.157850980758666992e+00,1.157782435417175293e+00,1.157713890075683594e+00,1.157645344734191895e+00,1.157576799392700195e+00,1.157508373260498047e+00,1.157439827919006348e+00,1.157371401786804199e+00,1.157302856445312500e+00,1.157234430313110352e+00,1.157165884971618652e+00,1.157097458839416504e+00,1.157028913497924805e+00
1.087197542190551758e+00,1.087137103080749512e+00,1.087076663970947266e+00,1.087016224861145020e+00,1.086955785751342773e+00,1.086895465850830078e+00,1.086835026741027832e+00,1.086774587631225586e+00,1.086714267730712891e+00,1.086653828620910645e+00,1.086593508720397949e+00,1.086533069610595703e+00,1.086472749710083008e+00,1.086412429809570312e+00,1.086352109909057617e+00,1.086291670799255371e+00,1.086231350898742676e+00,1.086171030998229980e+00,1.086110711097717285e+00,1.086050391197204590e+00,1.085990071296691895e+00,1.085929870605468750e+00,1.085869550704956055e+00,1.085809230804443359e+00,1.085748910903930664e+00,1.085688710212707520e+00,1.085628390312194824e+00,1.085568070411682129e+00,1.085507869720458984e+00,1.085447669029235840e+00,1.085387468338012695e+00,1.085327148437500000e+00,1.085266947746276855e+00,1.085206747055053711e+00,1.085146427154541016e+00,1.085086226463317871e+00,1.085026025772094727e+00,1.084965944290161133e+00,1.084905743598937988e+00,1.084845542907714844e+00,1.084785342216491699e+00,1.084725141525268555e+00,1.084664940834045410e+00,1.084604859352111816e+00,1.084544658660888672e+00,1.084484577178955078e+00,1.084424495697021484e+00,1.084364295005798340e+00,1.084304213523864746e+00,1.084244012832641602e+00,1.084183931350708008e+00,1.084123849868774414e+00,1.084063768386840820e+00,1.084003686904907227e+00,1.083943605422973633e+00,1.083883523941040039e+00,1.083823442459106445e+00,1.083763360977172852e+00,1.083703279495239258e+00,1.083643317222595215e+00,1.083583235740661621e+00,1.083523154258728027e+00,1.083463191986083984e+00,1.083403229713439941e+00,1.083343148231506348e+00,1.083283185958862305e+00,1.083223104476928711e+00,1.083163142204284668e+00,1.083103179931640625e+00,1.083043098449707031e+00,1.082983255386352539e+00,1.082923293113708496e+00,1.082863211631774902e+00,1.082803249359130859e+00,1.082743287086486816e+00,1.082683444023132324e+00,1.082623481750488281e+00,1.082563519477844238e+00,1.082503676414489746e+00,1.082443714141845703e+00
1.021086335182189941e+00,1.021033048629760742e+00,1.020979762077331543e+00,1.020926475524902344e+00,1.020873188972473145e+00,1.020819902420043945e+00,1.020766615867614746e+00,1.020713329315185547e+00,1.020660042762756348e+00,1.020606756210327148e+00,1.020553588867187500e+00,1.020500302314758301e+00,1.020447015762329102e+00,1.020393848419189453e+00,1.020340561866760254e+00,1.020287275314331055e+00,1.020234107971191406e+00,1.020180821418762207e+00,1.020127654075622559e+00,1.020074486732482910e+00,1.020021319389343262e+00,1.019968032836914062e+00,1.019914865493774414e+00,1.019861698150634766e+00,1.019808530807495117e+00,1.019755244255065918e+00,1.019702196121215820e+00,1.019649028778076172e+00,1.019595861434936523e+00,1.019542694091796875e+00,1.019489526748657227e+00,1.019436359405517578e+00,1.019383192062377930e+00,1.019330143928527832e+00,1.019276976585388184e+00,1.019223928451538086e+00,1.019170761108398438e+00,1.019117712974548340e+00,1.019064545631408691e+00,1.019011497497558594e+00,1.018958330154418945e+00,1.018905282020568848e+00,1.018852233886718750e+00,1.018799185752868652e+00,1.018746018409729004e+00,1.018692970275878906e+00,1.018639922142028809e+00,1.018586874008178711e+00,1.018533825874328613e+00,1.018480777740478516e+00,1.018427729606628418e+00,1.018374681472778320e+00,1.018321633338928223e+00,1.018268704414367676e+00,1.018215656280517578e+00,1.018162608146667480e+00,1.018109560012817383e+00,1.018056631088256836e+00,1.018003582954406738e+00,1.017950654029846191e+00,1.017897725105285645e+00,1.017844676971435547e+00,1.017791748046875000e+00,1.017738699913024902e+00,1.017685770988464355e+00,1.017632842063903809e+00,1.017579793930053711e+00,1.017526984214782715e+00,1.017474055290222168e+00,1.017421007156372070e+00,1.017368078231811523e+00,1.017315149307250977e+00,1.017262220382690430e+00,1.017209410667419434e+00,1.017156481742858887e+00,1.017103552818298340e+00,1.017050743103027344e+00,1.016997814178466797e+00,1.016944885253906250e+00,1.016892075538635254e+00
9.625546932220458984e-01,9.625073075294494629e-01,9.624599218368530273e-01,9.624125361442565918e-01,9.623651504516601562e-01,9.623178243637084961e-01,9.622704386711120605e-01,9.622232317924499512e-01,9.621758460998535156e-01,9.621285200119018555e-01,9.620811939239501953e-01,9.620338678359985352e-01,9.619865417480468750e-01,9.619392156600952148e-01,9.618918895721435547e-01,9.618445634841918945e-01,9.617972373962402344e-01,9.617499709129333496e-01,9.617026448249816895e-01,9.616553783416748047e-01,9.616080522537231445e-01,9.615607857704162598e-01,9.615135192871093750e-01,9.614663124084472656e-01,9.614190459251403809e-01,9.613717794418334961e-01,9.613245129585266113e-01,9.612772464752197266e-01,9.612300395965576172e-01,9.611827731132507324e-01,9.611355066299438477e-01,9.610882997512817383e-01,9.610410332679748535e-01,9.609938263893127441e-01,9.609465599060058594e-01,9.608993530273437500e-01,9.608521461486816406e-01,9.608049392700195312e-01,9.607577323913574219e-01,9.607106447219848633e-01,9.606634378433227539e-01,9.606162309646606445e-01,9.605690240859985352e-01,9.605218768119812012e-01,9.604746699333190918e-01,9.604275226593017578e-01,9.603803157806396484e-01,9.603331685066223145e-01,9.602860212326049805e-01,9.602388739585876465e-01,9.601917266845703125e-01,9.601445794105529785e-01,9.600974321365356445e-01,9.600502848625183105e-01,9.600031375885009766e-01,9.599559903144836426e-01,9.599089622497558594e-01,9.598618745803833008e-01,9.598147273063659668e-01,9.597676396369934082e-01,9.597205519676208496e-01,9.596734642982482910e-01,9.596263170242309570e-01,9.595792293548583984e-01,9.595321416854858398e-01,9.594850540161132812e-01,9.594379663467407227e-01,9.593909382820129395e-01,9.593438506126403809e-01,9.592967629432678223e-01,9.592497348785400391e-01,9.592026472091674805e-01,9.591557383537292480e-01,9.591086506843566895e-01,9.590616226196289062e-01,9.590145945549011230e-01,9.589675664901733398e-01,9.589205384254455566e-01,9.588735103607177734e-01,9.588264822959899902e-01
9.103695154190063477e-01,9.103271365165710449e-01,9.102847576141357422e-01,9.102423787117004395e-01,9.102001190185546875e-01,9.101577401161193848e-01,9.101153612136840820e-01,9.100729823112487793e-01,9.100306630134582520e-01,9.099882841110229492e-01,9.099459648132324219e-01,9.099036455154418945e-01,9.098612666130065918e-01,9.098189473152160645e-01,9.097766280174255371e-01,9.097343087196350098e-01,9.096919894218444824e-01,9.096496701240539551e-01,9.096073508262634277e-01,9.095650315284729004e-01,9.095228314399719238e-01,9.094805121421813965e-01,9.094381928443908691e-01,9.093959331512451172e-01,9.093536138534545898e-01,9.093113541603088379e-01,9.092690348625183105e-01,9.092267751693725586e-01,9.091845154762268066e-01,9.091421961784362793e-01,9.090999364852905273e-01,9.090576767921447754e-01,9.090154170989990234e-01,9.089731574058532715e-01,9.089308977127075195e-01,9.088886976242065430e-01,9.088464975357055664e-01,9.088042974472045898e-01,9.087620377540588379e-01,9.087198376655578613e-01,9.086775779724121094e-01,9.086353778839111328e-01,9.085931181907653809e-01,9.085509181022644043e-01,9.085087180137634277e-01,9.084665179252624512e-01,9.084243178367614746e-01,9.083821177482604980e-01,9.083399176597595215e-01,9.082977175712585449e-01,9.082555174827575684e-01,9.082133173942565918e-01,9.081711769104003906e-01,9.081290960311889648e-01,9.080868959426879883e-01,9.080447554588317871e-01,9.080025553703308105e-01,9.079604148864746094e-01,9.079182744026184082e-01,9.078760743141174316e-01,9.078339338302612305e-01,9.077917933464050293e-01,9.077496528625488281e-01,9.077075123786926270e-01,9.076653718948364258e-01,9.076232314109802246e-01,9.075811505317687988e-01,9.075390100479125977e-01,9.074968695640563965e-01,9.074548482894897461e-01,9.074127674102783203e-01,9.073706269264221191e-01,9.073285460472106934e-01,9.072864651679992676e-01,9.072443842887878418e-01,9.072022438049316406e-01,9.071601629257202148e-01,9.071180820465087891e-01,9.070760011672973633e-01,9.070339202880859375e-01
8.635517954826354980e-01,8.635137677192687988e-01,8.634756207466125488e-01,8.634375333786010742e-01,8.633993864059448242e-01,8.633612394332885742e-01,8.633231520652770996e-01,8.632850050926208496e-01,8.632469177246093750e-01,8.632088303565979004e-01,8.631706833839416504e-01,8.631325960159301758e-01,8.630945086479187012e-01,8.630564212799072266e-01,8.630183339118957520e-01,8.629802465438842773e-01,8.629421591758728027e-01,8.629041314125061035e-01,8.628661036491394043e-01,8.628280162811279297e-01,8.627899289131164551e-01,8.627518415451049805e-01,8.627138137817382812e-01,8.626757264137268066e-01,8.626376986503601074e-01,8.625996112823486328e-01,8.625615835189819336e-01,8.625235557556152344e-01,8.624854683876037598e-01,8.624474406242370605e-01,8.624094128608703613e-01,8.623713850975036621e-01,8.623333573341369629e-01,8.622953891754150391e-01,8.622573614120483398e-01,8.622193336486816406e-01,8.621813058853149414e-01,8.621433377265930176e-01,8.621053099632263184e-01,8.620672821998596191e-01,8.620293140411376953e-01,8.619912862777709961e-01,8.619533181190490723e-01,8.619152903556823730e-01,8.618773221969604492e-01,8.618393540382385254e-01,8.618013262748718262e-01,8.617633581161499023e-01,8.617253899574279785e-01,8.616874217987060547e-01,8.616495132446289062e-01,8.616115450859069824e-01,8.615735769271850586e-01,8.615356087684631348e-01,8.614977002143859863e-01,8.614597320556640625e-01,8.614217638969421387e-01,8.613838553428649902e-01,8.613458871841430664e-01,8.613079190254211426e-01,8.612700104713439941e-01,8.612320423126220703e-01,8.611941337585449219e-01,8.611562252044677734e-01,8.611183166503906250e-01,8.610803484916687012e-01,8.610425591468811035e-01,8.610046505928039551e-01,8.609667420387268066e-01,8.609288334846496582e-01,8.608909249305725098e-01,8.608530163764953613e-01,8.608151078224182129e-01,8.607771992683410645e-01,8.607393503189086914e-01,8.607014417648315430e-01,8.606635332107543945e-01,8.606256842613220215e-01,8.605877757072448730e-01,8.605499267578125000e-01
8.213140964508056641e-01,8.212795853614807129e-01,8.212450742721557617e-01,8.212106227874755859e-01,8.211761116981506348e-01,8.211416006088256836e-01,8.211071491241455078e-01,8.210726976394653320e-01,8.210381865501403809e-01,8.210037350654602051e-01,8.209692239761352539e-01,8.209347724914550781e-01,8.209003210067749023e-01,8.208658695220947266e-01,8.208314776420593262e-01,8.207970261573791504e-01,8.207625746726989746e-01,8.207281231880187988e-01,8.206936717033386230e-01,8.206592202186584473e-01,8.206248283386230469e-01,8.205903768539428711e-01,8.205559253692626953e-01,8.205214738845825195e-01,8.204870820045471191e-01,8.204526305198669434e-01,8.204182386398315430e-01,8.203837871551513672e-01,8.203493952751159668e-01,8.203149437904357910e-01,8.202806115150451660e-01,8.202462196350097656e-01,8.202118277549743652e-01,8.201774358749389648e-01,8.201430439949035645e-01,8.201085925102233887e-01,8.200742006301879883e-01,8.200398087501525879e-01,8.200054764747619629e-01,8.199710845947265625e-01,8.199366927146911621e-01,8.199023008346557617e-01,8.198679089546203613e-01,8.198335170745849609e-01,8.197991847991943359e-01,8.197647929191589355e-01,8.197304606437683105e-01,8.196961283683776855e-01,8.196617960929870605e-01,8.196274638175964355e-01,8.195930719375610352e-01,8.195587396621704102e-01,8.195244073867797852e-01,8.194900155067443848e-01,8.194556832313537598e-01,8.194213509559631348e-01,8.193870186805725098e-01,8.193526864051818848e-01,8.193183541297912598e-01,8.192840218544006348e-01,8.192496895790100098e-01,8.192153573036193848e-01,8.191810846328735352e-01,8.191468119621276855e-01,8.191124796867370605e-01,8.190782070159912109e-01,8.190438747406005859e-01,8.190096020698547363e-01,8.189752697944641113e-01,8.189409971237182617e-01,8.189066648483276367e-01,8.188723921775817871e-01,8.188381195068359375e-01,8.188037872314453125e-01,8.187695145606994629e-01,8.187352418899536133e-01,8.187009692192077637e-01,8.186666965484619141e-01,8.186324238777160645e-01,8.185982108116149902e-01
7.830154299736022949e-01,7.829840779304504395e-01,7.829527258872985840e-01,7.829213738441467285e-01,7.828900218009948730e-01,7.828587293624877930e-01,7.828273773193359375e-01,7.827960252761840820e-01,7.827646732330322266e-01,7.827333807945251465e-01,7.827020287513732910e-01,7.826707363128662109e-01,7.826394438743591309e-01,7.826080918312072754e-01,7.825767993927001953e-01,7.825454473495483398e-01,7.825141549110412598e-01,7.824828624725341797e-01,7.824515104293823242e-01,7.824202179908752441e-01,7.823889255523681641e-01,7.823576331138610840e-01,7.823262810707092285e-01,7.822949886322021484e-01,7.822636961936950684e-01,7.822324037551879883e-01,7.822011113166809082e-01,7.821699380874633789e-01,7.821386456489562988e-01,7.821073532104492188e-01,7.820760607719421387e-01,7.820447683334350586e-01,7.820134758949279785e-01,7.819822430610656738e-01,7.819509506225585938e-01,7.819196581840515137e-01,7.818884253501892090e-01,7.818571329116821289e-01,7.818259000778198242e-01,7.817946076393127441e-01,7.817633748054504395e-01,7.817321419715881348e-01,7.817008495330810547e-01,7.816696763038635254e-01,7.816384434700012207e-01,7.816072106361389160e-01,7.815759778022766113e-01,7.815447449684143066e-01,7.815135121345520020e-01,7.814822793006896973e-01,7.814510464668273926e-01,7.814198136329650879e-01,7.813885807991027832e-01,7.813573479652404785e-01,7.813261151313781738e-01,7.812948822975158691e-01,7.812637090682983398e-01,7.812324762344360352e-01,7.812012434005737305e-01,7.811700701713562012e-01,7.811388969421386719e-01,7.811077237129211426e-01,7.810764908790588379e-01,7.810453176498413086e-01,7.810141444206237793e-01,7.809829115867614746e-01,7.809517383575439453e-01,7.809205651283264160e-01,7.808893322944641113e-01,7.808581590652465820e-01,7.808269858360290527e-01,7.807958126068115234e-01,7.807646393775939941e-01,7.807334661483764648e-01,7.807022929191589355e-01,7.806711196899414062e-01,7.806400060653686523e-01,7.806088924407958984e-01,7.805777192115783691e-01,7.805465459823608398e-01
7.481294870376586914e-01,7.481008172035217285e-01,7.480722069740295410e-01,7.480435967445373535e-01,7.480149865150451660e-01,7.479863762855529785e-01,7.479577660560607910e-01,7.479291558265686035e-01,7.479006052017211914e-01,7.478719949722290039e-01,7.478433847427368164e-01,7.478148341178894043e-01,7.477862238883972168e-01,7.477576136589050293e-01,7.477290034294128418e-01,7.477004528045654297e-01,7.476718425750732422e-01,7.476432323455810547e-01,7.476146817207336426e-01,7.475860714912414551e-01,7.475575208663940430e-01,7.475289106369018555e-01,7.475003600120544434e-01,7.474717497825622559e-01,7.474432587623596191e-01,7.474147081375122070e-01,7.473861575126647949e-01,7.473575472831726074e-01,7.473289966583251953e-01,7.473004460334777832e-01,7.472718954086303711e-01,7.472433447837829590e-01,7.472147941589355469e-01,7.471862435340881348e-01,7.471576929092407227e-01,7.471291422843933105e-01,7.471005916595458984e-01,7.470720410346984863e-01,7.470434904098510742e-01,7.470149397850036621e-01,7.469864487648010254e-01,7.469579577445983887e-01,7.469294071197509766e-01,7.469008564949035645e-01,7.468723654747009277e-01,7.468438148498535156e-01,7.468153238296508789e-01,7.467867732048034668e-01,7.467582821846008301e-01,7.467297315597534180e-01,7.467012405395507812e-01,7.466726899147033691e-01,7.466441988945007324e-01,7.466157078742980957e-01,7.465871572494506836e-01,7.465586662292480469e-01,7.465301752090454102e-01,7.465017437934875488e-01,7.464732527732849121e-01,7.464447617530822754e-01,7.464162707328796387e-01,7.463877797126770020e-01,7.463592886924743652e-01,7.463307976722717285e-01,7.463023066520690918e-01,7.462738156318664551e-01,7.462453246116638184e-01,7.462168335914611816e-01,7.461884021759033203e-01,7.461599111557006836e-01,7.461314201354980469e-01,7.461029887199401855e-01,7.460744976997375488e-01,7.460461258888244629e-01,7.460176348686218262e-01,7.459891438484191895e-01,7.459607124328613281e-01,7.459322810173034668e-01,7.459037899971008301e-01,7.458753585815429688e-01
7.162194848060607910e-01,7.161932587623596191e-01,7.161669731140136719e-01,7.161407470703125000e-01,7.161145210266113281e-01,7.160883545875549316e-01,7.160621881484985352e-01,7.160359621047973633e-01,7.160097360610961914e-01,7.159835100173950195e-01,7.159572839736938477e-01,7.159310579299926758e-01,7.159048318862915039e-01,7.158786654472351074e-01,7.158524394035339355e-01,7.158262133598327637e-01,7.158000469207763672e-01,7.157738208770751953e-01,7.157476544380187988e-01,7.157214283943176270e-01,7.156952619552612305e-01,7.156690955162048340e-01,7.156429290771484375e-01,7.156167030334472656e-01,7.155905365943908691e-01,7.155643701553344727e-01,7.155381441116333008e-01,7.155119776725769043e-01,7.154858112335205078e-01,7.154596447944641113e-01,7.154334187507629395e-01,7.154072523117065430e-01,7.153810858726501465e-01,7.153549194335937500e-01,7.153287529945373535e-01,7.153025865554809570e-01,7.152764201164245605e-01,7.152503132820129395e-01,7.152241468429565430e-01,7.151979804039001465e-01,7.151718139648437500e-01,7.151457071304321289e-01,7.151195406913757324e-01,7.150933742523193359e-01,7.150672078132629395e-01,7.150411009788513184e-01,7.150149345397949219e-01,7.149887681007385254e-01,7.149626612663269043e-01,7.149364948272705078e-01,7.149103879928588867e-01,7.148842215538024902e-01,7.148581147193908691e-01,7.148319482803344727e-01,7.148059010505676270e-01,7.147797942161560059e-01,7.147536277770996094e-01,7.147275209426879883e-01,7.147014141082763672e-01,7.146752476692199707e-01,7.146491408348083496e-01,7.146230340003967285e-01,7.145969271659851074e-01,7.145708203315734863e-01,7.145447134971618652e-01,7.145186066627502441e-01,7.144924998283386230e-01,7.144663929939270020e-01,7.144402861595153809e-01,7.144141793251037598e-01,7.143881320953369141e-01,7.143620252609252930e-01,7.143359184265136719e-01,7.143098115921020508e-01,7.142837643623352051e-01,7.142576575279235840e-01,7.142315506935119629e-01,7.142054438591003418e-01,7.141793966293334961e-01,7.141532897949218750e-01
6.869202256202697754e-01,6.868960857391357422e-01,6.868720650672912598e-01,6.868479251861572266e-01,6.868237853050231934e-01,6.867996454238891602e-01,6.867755651473999023e-01,6.867514252662658691e-01,6.867272853851318359e-01,6.867032051086425781e-01,6.866790652275085449e-01,6.866549253463745117e-01,6.866308450698852539e-01,6.866067051887512207e-01,6.865826249122619629e-01,6.865585446357727051e-01,6.865344047546386719e-01,6.865103244781494141e-01,6.864862442016601562e-01,6.864621639251708984e-01,6.864380836486816406e-01,6.864139437675476074e-01,6.863898634910583496e-01,6.863657832145690918e-01,6.863417029380798340e-01,6.863176226615905762e-01,6.862934827804565430e-01,6.862694025039672852e-01,6.862453222274780273e-01,6.862212419509887695e-01,6.861971616744995117e-01,6.861730813980102539e-01,6.861490011215209961e-01,6.861249208450317383e-01,6.861009001731872559e-01,6.860768198966979980e-01,6.860527992248535156e-01,6.860287189483642578e-01,6.860046386718750000e-01,6.859805583953857422e-01,6.859565377235412598e-01,6.859324574470520020e-01,6.859083771705627441e-01,6.858842968940734863e-01,6.858602762222290039e-01,6.858361959457397461e-01,6.858121752738952637e-01,6.857880949974060059e-01,6.857640743255615234e-01,6.857399940490722656e-01,6.857159733772277832e-01,6.856919527053833008e-01,6.856679320335388184e-01,6.856438517570495605e-01,6.856198310852050781e-01,6.855958104133605957e-01,6.855717897415161133e-01,6.855477094650268555e-01,6.855236887931823730e-01,6.854996681213378906e-01,6.854756474494934082e-01,6.854516267776489258e-01,6.854275465011596680e-01,6.854035258293151855e-01,6.853795051574707031e-01,6.853554844856262207e-01,6.853314638137817383e-01,6.853075027465820312e-01,6.852834820747375488e-01,6.852594614028930664e-01,6.852355003356933594e-01,6.852114796638488770e-01,6.851874589920043945e-01,6.851634383201599121e-01,6.851394176483154297e-01,6.851154565811157227e-01,6.850914359092712402e-01,6.850674152374267578e-01,6.850433945655822754e-01,6.850194334983825684e-01
6.599240303039550781e-01,6.599017381668090820e-01,6.598794460296630859e-01,6.598572134971618652e-01,6.598349213600158691e-01,6.598126888275146484e-01,6.597903966903686523e-01,6.597681641578674316e-01,6.597458720207214355e-01,6.597236394882202148e-01,6.597013473510742188e-01,6.596791148185729980e-01,6.596568822860717773e-01,6.596345901489257812e-01,6.596123576164245605e-01,6.595901250839233398e-01,6.595678925514221191e-01,6.595456600189208984e-01,6.595234274864196777e-01,6.595011949539184570e-01,6.594789028167724609e-01,6.594566702842712402e-01,6.594344377517700195e-01,6.594122052192687988e-01,6.593899726867675781e-01,6.593677401542663574e-01,6.593455076217651367e-01,6.593232750892639160e-01,6.593010425567626953e-01,6.592788100242614746e-01,6.592565774917602539e-01,6.592344045639038086e-01,6.592121720314025879e-01,6.591899394989013672e-01,6.591677665710449219e-01,6.591455340385437012e-01,6.591233015060424805e-01,6.591010689735412598e-01,6.590788960456848145e-01,6.590566635131835938e-01,6.590344309806823730e-01,6.590122580528259277e-01,6.589900255203247070e-01,6.589677929878234863e-01,6.589456200599670410e-01,6.589233875274658203e-01,6.589012145996093750e-01,6.588789820671081543e-01,6.588568687438964844e-01,6.588346362113952637e-01,6.588124632835388184e-01,6.587902307510375977e-01,6.587680578231811523e-01,6.587458848953247070e-01,6.587236523628234863e-01,6.587014794349670410e-01,6.586793065071105957e-01,6.586571335792541504e-01,6.586349010467529297e-01,6.586127281188964844e-01,6.585905551910400391e-01,6.585683822631835938e-01,6.585462093353271484e-01,6.585240364074707031e-01,6.585019230842590332e-01,6.584797501564025879e-01,6.584575772285461426e-01,6.584353446960449219e-01,6.584132313728332520e-01,6.583910584449768066e-01,6.583688855171203613e-01,6.583467125892639160e-01,6.583245396614074707e-01,6.583023667335510254e-01,6.582801938056945801e-01,6.582580208778381348e-01,6.582359075546264648e-01,6.582137346267700195e-01,6.581915616989135742e-01,6.581694483757019043e-01
6.349694132804870605e-01,6.349487900733947754e-01,6.349281668663024902e-01,6.349075436592102051e-01,6.348869204521179199e-01,6.348662972450256348e-01,6.348456740379333496e-01,6.348251104354858398e-01,6.348044872283935547e-01,6.347838640213012695e-01,6.347632408142089844e-01,6.347426772117614746e-01,6.347221136093139648e-01,6.347014904022216797e-01,6.346809267997741699e-01,6.346603035926818848e-01,6.346396803855895996e-01,6.346191167831420898e-01,6.345984935760498047e-01,6.345779299736022949e-01,6.345573067665100098e-01,6.345367431640625000e-01,6.345161199569702148e-01,6.344955563545227051e-01,6.344749927520751953e-01,6.344543695449829102e-01,6.344338059425354004e-01,6.344131827354431152e-01,6.343926787376403809e-01,6.343721151351928711e-01,6.343514919281005859e-01,6.343309283256530762e-01,6.343103647232055664e-01,6.342898011207580566e-01,6.342692375183105469e-01,6.342486143112182617e-01,6.342280507087707520e-01,6.342074871063232422e-01,6.341869235038757324e-01,6.341663599014282227e-01,6.341457962989807129e-01,6.341252326965332031e-01,6.341046690940856934e-01,6.340841054916381836e-01,6.340636014938354492e-01,6.340430378913879395e-01,6.340224742889404297e-01,6.340019106864929199e-01,6.339813470840454102e-01,6.339607834815979004e-01,6.339402794837951660e-01,6.339197158813476562e-01,6.338991522789001465e-01,6.338785886764526367e-01,6.338580250740051270e-01,6.338375210762023926e-01,6.338169574737548828e-01,6.337963938713073730e-01,6.337758898735046387e-01,6.337553262710571289e-01,6.337348222732543945e-01,6.337143182754516602e-01,6.336937546730041504e-01,6.336732506752014160e-01,6.336526870727539062e-01,6.336321830749511719e-01,6.336116194725036621e-01,6.335911154747009277e-01,6.335705518722534180e-01,6.335500478744506836e-01,6.335294842720031738e-01,6.335089802742004395e-01,6.334884762763977051e-01,6.334679126739501953e-01,6.334474086761474609e-01,6.334269046783447266e-01,6.334064006805419922e-01,6.333858966827392578e-01,6.333653926849365234e-01,6.333448886871337891e-01
6.118333339691162109e-01,6.118142008781433105e-01,6.117950677871704102e-01,6.117759346961975098e-01,6.117567420005798340e-01,6.117376089096069336e-01,6.117184758186340332e-01,6.116993427276611328e-01,6.116802096366882324e-01,6.116611361503601074e-01,6.116420030593872070e-01,6.116228699684143066e-01,6.116037368774414062e-01,6.115846037864685059e-01,6.115654706954956055e-01,6.115463376045227051e-01,6.115272045135498047e-01,6.115081310272216797e-01,6.114889979362487793e-01,6.114698648452758789e-01,6.114507317543029785e-01,6.114315986633300781e-01,6.114125251770019531e-01,6.113933920860290527e-01,6.113742589950561523e-01,6.113551855087280273e-01,6.113360524177551270e-01,6.113169789314270020e-01,6.112978458404541016e-01,6.112787723541259766e-01,6.112596392631530762e-01,6.112405061721801758e-01,6.112214326858520508e-01,6.112022995948791504e-01,6.111832261085510254e-01,6.111640930175781250e-01,6.111450195312500000e-01,6.111258864402770996e-01,6.111068129539489746e-01,6.110877394676208496e-01,6.110686063766479492e-01,6.110495924949645996e-01,6.110304594039916992e-01,6.110113859176635742e-01,6.109922528266906738e-01,6.109731793403625488e-01,6.109541058540344238e-01,6.109350323677062988e-01,6.109158992767333984e-01,6.108968257904052734e-01,6.108777523040771484e-01,6.108586788177490234e-01,6.108396053314208984e-01,6.108205318450927734e-01,6.108013987541198730e-01,6.107823252677917480e-01,6.107632517814636230e-01,6.107441782951354980e-01,6.107251644134521484e-01,6.107060909271240234e-01,6.106870174407958984e-01,6.106679439544677734e-01,6.106488704681396484e-01,6.106297969818115234e-01,6.106107234954833984e-01,6.105916500091552734e-01,6.105725765228271484e-01,6.105535626411437988e-01,6.105344891548156738e-01,6.105154156684875488e-01,6.104963421821594238e-01,6.104772686958312988e-01,6.104582548141479492e-01,6.104391813278198242e-01,6.104201674461364746e-01,6.104010939598083496e-01,6.103820204734802246e-01,6.103630065917968750e-01,6.103439331054687500e-01,6.103249192237854004e-01
