5.000000000000000000e+00,5.000000000000000000e+00,5.000000000000000000e+00,5.000000000000000000e+00,5.000000000000000000e+00,5.000000000000000000e+00,5.000000000000000000e+00,5.000000000000000000e+00,5.000000000000000000e+00,5.000000000000000000e+00,5.000000000000000000e+00,5.000000000000000000e+00,5.000000000000000000e+00,5.000000000000000000e+00,5.000000000000000000e+00,5.000000000000000000e+00,5.000000000000000000e+00,5.000000000000000000e+00,5.000000000000000000e+00,5.000000000000000000e+00,5.000000000000000000e+00,5.000000000000000000e+00,5.000000000000000000e+00,5.000000000000000000e+00,5.000000000000000000e+00,5.000000000000000000e+00,5.000000000000000000e+00,5.000000000000000000e+00,5.000000000000000000e+00,5.000000000000000000e+00,5.000000000000000000e+00,5.000000000000000000e+00,5.000000000000000000e+00,5.000000000000000000e+00,5.000000000000000000e+00,5.000000000000000000e+00,5.000000000000000000e+00,5.000000000000000000e+00,5.000000000000000000e+00,5.000000000000000000e+00,4.659966945648193359e+00,4.484334468841552734e+00,4.321460247039794922e+00,4.170002937316894531e+00,4.028802871704101562e+00,3.896851539611816406e+00,3.773269653320312500e+00,3.657285213470458984e+00,3.548218250274658203e+00,3.445468425750732422e+00,3.348501682281494141e+00,3.256843566894531250e+00,3.170069456100463867e+00,3.087799787521362305e+00,3.009691953659057617e+00,2.935438156127929688e+00,2.864760160446166992e+00,2.797405481338500977e+00,2.733145236968994141e+00,2.671771287918090820e+00,2.613093137741088867e+00,2.556936740875244141e+00,2.503143310546875000e+00,2.451566457748413086e+00,2.402072668075561523e+00,2.354537487030029297e+00,2.308846950531005859e+00,2.264896392822265625e+00,2.222587585449218750e+00,2.181830406188964844e+00,2.142541170120239258e+00,2.104641914367675781e+00,2.068059921264648438e+00,2.032728195190429688e+00,1.998583555221557617e+00,1.965566992759704590e+00,1.933623313903808594e+00,1.902701377868652344e+00,1.872752904891967773e+00,1.843732595443725586e+00
5.000000000000000000e+00,5.000000000000000000e+00,5.000000000000000000e+00,5.000000000000000000e+00,5.000000000000000000e+00,5.000000000000000000e+00,5.000000000000000000e+00,5.000000000000000000e+00,5.000000000000000000e+00,5.000000000000000000e+00,5.000000000000000000e+00,5.000000000000000000e+00,5.000000000000000000e+00,5.000000000000000000e+00,5.000000000000000000e+00,5.000000000000000000e+00,5.000000000000000000e+00,5.000000000000000000e+00,5.000000000000000000e+00,5.000000000000000000e+00,5.000000000000000000e+00,5.000000000000000000e+00,5.000000000000000000e+00,5.000000000000000000e+00,5.000000000000000000e+00,5.000000000000000000e+00,5.000000000000000000e+00,5.000000000000000000e+00,5.000000000000000000e+00,5.000000000000000000e+00,5.000000000000000000e+00,5.000000000000000000e+00,5.000000000000000000e+00,5.000000000000000000e+00,5.000000000000000000e+00,5.000000000000000000e+00,5.000000000000000000e+00,5.000000000000000000e+00,5.000000000000000000e+00,4.850056648254394531e+00,4.660095214843750000e+00,4.484453678131103516e+00,4.321570873260498047e+00,4.170105934143066406e+00,4.028898715972900391e+00,3.896941661834716797e+00,3.773353815078735352e+00,3.657364130020141602e+00,3.548292875289916992e+00,3.445538520812988281e+00,3.348567962646484375e+00,3.256906509399414062e+00,3.170129060745239258e+00,3.087856054306030273e+00,3.009745359420776367e+00,2.935489177703857422e+00,2.864808559417724609e+00,2.797451734542846680e+00,2.733189582824707031e+00,2.671813488006591797e+00,2.613133430480957031e+00,2.556975364685058594e+00,2.503180265426635742e+00,2.451602220535278320e+00,2.402106523513793945e+00,2.354570150375366211e+00,2.308878660202026367e+00,2.264926671981811523e+00,2.222616672515869141e+00,2.181858539581298828e+00,2.142568349838256836e+00,2.104668140411376953e+00,2.068085193634033203e+00,2.032752752304077148e+00,1.998607158660888672e+00,1.965589761734008789e+00,1.933645367622375488e+00,1.902722716331481934e+00,1.872773528099060059e+00,1.843752622604370117e+00
5.000000000000000000e+00,5.000000000000000000e+00,5.000000000000000000e+00,5.000000000000000000e+00,5.000000000000000000e+00,5.000000000000000000e+00,5.000000000000000000e+00,5.000000000000000000e+00,5.000000000000000000e+00,5.000000000000000000e+00,5.000000000000000000e+00,5.000000000000000000e+00,5.000000000000000000e+00,5.000000000000000000e+00,5.000000000000000000e+00,5.000000000000000000e+00,5.000000000000000000e+00,5.000000000000000000e+00,5.000000000000000000e+00,5.000000000000000000e+00,5.000000000000000000e+00,5.000000000000000000e+00,5.000000000000000000e+00,5.000000000000000000e+00,5.000000000000000000e+00,5.000000000000000000e+00,5.000000000000000000e+00,5.000000000000000000e+00,5.000000000000000000e+00,5.000000000000000000e+00,5.000000000000000000e+00,5.000000000000000000e+00,5.000000000000000000e+00,5.000000000000000000e+00,5.000000000000000000e+00,5.000000000000000000e+00,5.000000000000000000e+00,5.000000000000000000e+00,5.000000000000000000e+00,4.850195884704589844e+00,4.660223484039306641e+00,4.484572410583496094e+00,4.321681022644042969e+00,4.170208930969238281e+00,4.028994560241699219e+00,3.897031068801879883e+00,3.773438215255737305e+00,3.657443523406982422e+00,3.548367261886596680e+00,3.445608615875244141e+00,3.348634481430053711e+00,3.256969213485717773e+00,3.170188426971435547e+00,3.087912559509277344e+00,3.009799003601074219e+00,2.935540199279785156e+00,2.864856958389282227e+00,2.797497987747192383e+00,2.733233690261840820e+00,2.671855688095092773e+00,2.613173961639404297e+00,2.557013988494873047e+00,2.503217458724975586e+00,2.451637744903564453e+00,2.402140855789184570e+00,2.354603052139282227e+00,2.308910131454467773e+00,2.264956951141357422e+00,2.222645998001098633e+00,2.181886672973632812e+00,2.142595529556274414e+00,2.104694366455078125e+00,2.068110704421997070e+00,2.032777070999145508e+00,1.998630762100219727e+00,1.965612530708312988e+00,1.933667421340942383e+00,1.902744174003601074e+00,1.872794508934020996e+00,1.843772888183593750e+00
5.000000000000000000e+00,5.000000000000000000e+00,5.000000000000000000e+00,5.000000000000000000e+00,5.000000000000000000e+00,5.000000000000000000e+00,5.000000000000000000e+00,5.000000000000000000e+00,5.000000000000000000e+00,5.000000000000000000e+00,5.000000000000000000e+00,5.000000000000000000e+00,5.000000000000000000e+00,5.000000000000000000e+00,5.000000000000000000e+00,5.000000000000000000e+00,5.000000000000000000e+00,5.000000000000000000e+00,5.000000000000000000e+00,5.000000000000000000e+00,5.000000000000000000e+00,5.000000000000000000e+00,5.000000000000000000e+00,5.000000000000000000e+00,5.000000000000000000e+00,5.000000000000000000e+00,5.000000000000000000e+00,5.000000000000000000e+00,5.000000000000000000e+00,5.000000000000000000e+00,5.000000000000000000e+00,5.000000000000000000e+00,5.000000000000000000e+00,5.000000000000000000e+00,5.000000000000000000e+00,5.000000000000000000e+00,5.000000000000000000e+00,5.000000000000000000e+00,5.000000000000000000e+00,4.850335121154785156e+00,4.660352230072021484e+00,4.484691619873046875e+00,4.321791648864746094e+00,4.170311450958251953e+00,4.029090404510498047e+00,3.897121191024780273e+00,3.773522138595581055e+00,3.657522439956665039e+00,3.548441886901855469e+00,3.445678949356079102e+00,3.348700523376464844e+00,3.257031679153442383e+00,3.170248031616210938e+00,3.087968826293945312e+00,3.009852647781372070e+00,2.935591220855712891e+00,2.864905834197998047e+00,2.797544240951538086e+00,2.733277797698974609e+00,2.671897888183593750e+00,2.613214254379272461e+00,2.557052612304687500e+00,2.503254413604736328e+00,2.451673269271850586e+00,2.402174949645996094e+00,2.354635715484619141e+00,2.308941602706909180e+00,2.264987230300903320e+00,2.222675085067749023e+00,2.181914806365966797e+00,2.142622709274291992e+00,2.104720592498779297e+00,2.068135976791381836e+00,2.032801628112792969e+00,1.998654246330261230e+00,1.965635299682617188e+00,1.933689475059509277e+00,1.902765750885009766e+00,1.872815132141113281e+00,1.843792915344238281e+00
5.000000000000000000e+00,5.000000000000000000e+00,5.000000000000000000e+00,5.000000000000000000e+00,5.000000000000000000e+00,5.000000000000000000e+00,5.000000000000000000e+00,5.000000000000000000e+00,5.000000000000000000e+00,5.000000000000000000e+00,5.000000000000000000e+00,5.000000000000000000e+00,5.000000000000000000e+00,5.000000000000000000e+00,5.000000000000000000e+00,5.000000000000000000e+00,5.000000000000000000e+00,5.000000000000000000e+00,5.000000000000000000e+00,5.000000000000000000e+00,5.000000000000000000e+00,5.000000000000000000e+00,5.000000000000000000e+00,5.000000000000000000e+00,5.000000000000000000e+00,5.000000000000000000e+00,5.000000000000000000e+00,5.000000000000000000e+00,5.000000000000000000e+00,5.000000000000000000e+00,5.000000000000000000e+00,5.000000000000000000e+00,5.000000000000000000e+00,5.000000000000000000e+00,5.000000000000000000e+00,5.000000000000000000e+00,5.000000000000000000e+00,5.000000000000000000e+00,5.000000000000000000e+00,4.850473880767822266e+00,4.660480499267578125e+00,4.484810352325439453e+00,4.321902275085449219e+00,4.170414447784423828e+00,4.029186725616455078e+00,3.897210836410522461e+00,3.773606300354003906e+00,3.657601833343505859e+00,3.548516273498535156e+00,3.445749044418334961e+00,3.348767042160034180e+00,3.257094621658325195e+00,3.170307397842407227e+00,3.088025093078613281e+00,3.009906291961669922e+00,2.935642004013061523e+00,2.864954233169555664e+00,2.797590732574462891e+00,2.733322143554687500e+00,2.671940088272094727e+00,2.613254547119140625e+00,2.557091474533081055e+00,2.503291368484497070e+00,2.451708793640136719e+00,2.402209043502807617e+00,2.354668617248535156e+00,2.308973073959350586e+00,2.265017509460449219e+00,2.222704410552978516e+00,2.181942939758300781e+00,2.142649650573730469e+00,2.104746580123901367e+00,2.068161249160766602e+00,2.032826185226440430e+00,1.998677849769592285e+00,1.965658307075500488e+00,1.933711767196655273e+00,1.902787089347839355e+00,1.872835874557495117e+00,1.843812942504882812e+00
5.000000000000000000e+00,5.000000000000000000e+00,5.000000000000000000e+00,5.000000000000000000e+00,5.000000000000000000e+00,5.000000000000000000e+00,5.000000000000000000e+00,5.000000000000000000e+00,5.000000000000000000e+00,5.000000000000000000e+00,5.000000000000000000e+00,5.000000000000000000e+00,5.000000000000000000e+00,5.000000000000000000e+00,5.000000000000000000e+00,5.000000000000000000e+00,5.000000000000000000e+00,5.000000000000000000e+00,5.000000000000000000e+00,5.000000000000000000e+00,5.000000000000000000e+00,5.000000000000000000e+00,5.000000000000000000e+00,5.000000000000000000e+00,5.000000000000000000e+00,5.000000000000000000e+00,5.000000000000000000e+00,5.000000000000000000e+00,5.000000000000000000e+00,5.000000000000000000e+00,5.000000000000000000e+00,5.000000000000000000e+00,5.000000000000000000e+00,5.000000000000000000e+00,5.000000000000000000e+00,5.000000000000000000e+00,5.000000000000000000e+00,5.000000000000000000e+00,5.000000000000000000e+00,4.850613117218017578e+00,4.660608768463134766e+00,4.484929084777832031e+00,4.322012424468994141e+00,4.170517444610595703e+00,4.029282569885253906e+00,3.897300958633422852e+00,3.773690700531005859e+00,3.657680749893188477e+00,3.548590660095214844e+00,3.445819377899169922e+00,3.348833322525024414e+00,3.257157325744628906e+00,3.170367002487182617e+00,3.088081598281860352e+00,3.009959697723388672e+00,2.935693025588989258e+00,2.865002870559692383e+00,2.797636747360229492e+00,2.733366250991821289e+00,2.671982526779174805e+00,2.613294839859008789e+00,2.557130098342895508e+00,2.503328561782836914e+00,2.451744556427001953e+00,2.402243137359619141e+00,2.354701280593872070e+00,2.309004783630371094e+00,2.265048027038574219e+00,2.222733497619628906e+00,2.181971073150634766e+00,2.142677068710327148e+00,2.104772806167602539e+00,2.068186521530151367e+00,2.032850503921508789e+00,1.998701691627502441e+00,1.965681195259094238e+00,1.933733820915222168e+00,1.902808427810668945e+00,1.872856616973876953e+00,1.843833088874816895e+00
5.000000000000000000e+00,5.000000000000000000e+00,5.000000000000000000e+00,5.000000000000000000e+00,5.000000000000000000e+00,5.000000000000000000e+00,5.000000000000000000e+00,5.000000000000000000e+00,5.000000000000000000e+00,5.000000000000000000e+00,5.000000000000000000e+00,5.000000000000000000e+00,5.000000000000000000e+00,5.000000000000000000e+00,5.000000000000000000e+00,5.000000000000000000e+00,5.000000000000000000e+00,5.000000000000000000e+00,5.000000000000000000e+00,5.000000000000000000e+00,5.000000000000000000e+00,5.000000000000000000e+00,5.000000000000000000e+00,5.000000000000000000e+00,5.000000000000000000e+00,5.000000000000000000e+00,5.000000000000000000e+00,5.000000000000000000e+00,5.000000000000000000e+00,5.000000000000000000e+00,5.000000000000000000e+00,5.000000000000000000e+00,5.000000000000000000e+00,5.000000000000000000e+00,5.000000000000000000e+00,5.000000000000000000e+00,5.000000000000000000e+00,5.000000000000000000e+00,5.000000000000000000e+00,4.850752353668212891e+00,4.660737514495849609e+00,4.485048294067382812e+00,4.322123050689697266e+00,4.170619964599609375e+00,4.029378890991210938e+00,3.897390604019165039e+00,3.773774862289428711e+00,3.657760143280029297e+00,3.548665285110473633e+00,3.445889472961425781e+00,3.348899364471435547e+00,3.257220268249511719e+00,3.170426368713378906e+00,3.088137865066528320e+00,3.010013580322265625e+00,2.935744047164916992e+00,2.865051269531250000e+00,2.797683000564575195e+00,2.733410596847534180e+00,2.672024488449096680e+00,2.613335371017456055e+00,2.557168722152709961e+00,2.503365516662597656e+00,2.451779842376708984e+00,2.402277231216430664e+00,2.354734182357788086e+00,2.309036254882812500e+00,2.265078306198120117e+00,2.222762823104858398e+00,2.181999444961547852e+00,2.142704010009765625e+00,2.104799032211303711e+00,2.068211793899536133e+00,2.032875061035156250e+00,1.998725295066833496e+00,1.965703964233398438e+00,1.933755874633789062e+00,1.902829766273498535e+00,1.872877240180969238e+00,1.843853354454040527e+00
5.000000000000000000e+00,5.000000000000000000e+00,5.000000000000000000e+00,5.000000000000000000e+00,5.000000000000000000e+00,5.000000000000000000e+00,5.000000000000000000e+00,5.000000000000000000e+00,5.000000000000000000e+00,5.000000000000000000e+00,5.000000000000000000e+00,5.000000000000000000e+00,5.000000000000000000e+00,5.000000000000000000e+00,5.000000000000000000e+00,5.000000000000000000e+00,5.000000000000000000e+00,5.000000000000000000e+00,5.000000000000000000e+00,5.000000000000000000e+00,5.000000000000000000e+00,5.000000000000000000e+00,5.000000000000000000e+00,5.000000000000000000e+00,5.000000000000000000e+00,5.000000000000000000e+00,5.000000000000000000e+00,5.000000000000000000e+00,5.000000000000000000e+00,5.000000000000000000e+00,5.000000000000000000e+00,5.000000000000000000e+00,5.000000000000000000e+00,5.000000000000000000e+00,5.000000000000000000e+00,5.000000000000000000e+00,5.000000000000000000e+00,5.000000000000000000e+00,5.000000000000000000e+00,4.850891590118408203e+00,4.660865783691406250e+00,4.485167026519775391e+00,4.322233676910400391e+00,4.170722961425781250e+00,4.029474735260009766e+00,3.897480249404907227e+00,3.773859262466430664e+00,3.657839059829711914e+00,3.548739433288574219e+00,3.445960044860839844e+00,3.348965883255004883e+00,3.257282733917236328e+00,3.170485496520996094e+00,3.088194608688354492e+00,3.010066986083984375e+00,2.935794830322265625e+00,2.865099906921386719e+00,2.797729492187500000e+00,2.733454704284667969e+00,2.672066688537597656e+00,2.613375663757324219e+00,2.557207345962524414e+00,2.503402709960937500e+00,2.451815605163574219e+00,2.402311563491821289e+00,2.354766845703125000e+00,2.309067726135253906e+00,2.265108823776245117e+00,2.222791910171508789e+00,2.182027578353881836e+00,2.142731189727783203e+00,2.104825258255004883e+00,2.068237066268920898e+00,2.032899379730224609e+00,1.998748779296875000e+00,1.965726733207702637e+00,1.933777928352355957e+00,1.902851104736328125e+00,1.872898221015930176e+00,1.843873381614685059e+00
5.000000000000000000e+00,5.000000000000000000e+00,5.000000000000000000e+00,5.000000000000000000e+00,5.000000000000000000e+00,5.000000000000000000e+00,5.000000000000000000e+00,5.000000000000000000e+00,5.000000000000000000e+00,5.000000000000000000e+00,5.000000000000000000e+00,5.000000000000000000e+00,5.000000000000000000e+00,5.000000000000000000e+00,5.000000000000000000e+00,5.000000000000000000e+00,5.000000000000000000e+00,5.000000000000000000e+00,5.000000000000000000e+00,5.000000000000000000e+00,5.000000000000000000e+00,5.000000000000000000e+00,5.000000000000000000e+00,5.000000000000000000e+00,5.000000000000000000e+00,5.000000000000000000e+00,5.000000000000000000e+00,5.000000000000000000e+00,5.000000000000000000e+00,5.000000000000000000e+00,5.000000000000000000e+00,5.000000000000000000e+00,5.000000000000000000e+00,5.000000000000000000e+00,5.000000000000000000e+00,5.000000000000000000e+00,5.000000000000000000e+00,5.000000000000000000e+00,5.000000000000000000e+00,4.851030349731445312e+00,4.660994052886962891e+00,4.485286235809326172e+00,4.322344303131103516e+00,4.170825958251953125e+00,4.029570579528808594e+00,3.897570371627807617e+00,3.773943185806274414e+00,3.657917976379394531e+00,3.548814296722412109e+00,3.446029901504516602e+00,3.349032163619995117e+00,3.257345676422119141e+00,3.170545339584350586e+00,3.088250875473022461e+00,3.010120391845703125e+00,2.935846090316772461e+00,2.865148305892944336e+00,2.797775745391845703e+00,2.733498811721801758e+00,2.672109127044677734e+00,2.613415956497192383e+00,2.557245969772338867e+00,2.503439664840698242e+00,2.451851129531860352e+00,2.402345418930053711e+00,2.354799747467041016e+00,2.309099197387695312e+00,2.265139102935791016e+00,2.222821235656738281e+00,2.182055711746215820e+00,2.142758369445800781e+00,2.104851484298706055e+00,2.068262338638305664e+00,2.032923936843872070e+00,1.998772382736206055e+00,1.965749502182006836e+00,1.933800220489501953e+00,1.902872800827026367e+00,1.872918844223022461e+00,1.843893408775329590e+00
5.000000000000000000e+00,5.000000000000000000e+00,5.000000000000000000e+00,5.000000000000000000e+00,5.000000000000000000e+00,5.000000000000000000e+00,5.000000000000000000e+00,5.000000000000000000e+00,5.000000000000000000e+00,5.000000000000000000e+00,5.000000000000000000e+00,5.000000000000000000e+00,5.000000000000000000e+00,5.000000000000000000e+00,5.000000000000000000e+00,5.000000000000000000e+00,5.000000000000000000e+00,5.000000000000000000e+00,5.000000000000000000e+00,5.000000000000000000e+00,5.000000000000000000e+00,5.000000000000000000e+00,5.000000000000000000e+00,5.000000000000000000e+00,5.000000000000000000e+00,5.000000000000000000e+00,5.000000000000000000e+00,5.000000000000000000e+00,5.000000000000000000e+00,5.000000000000000000e+00,5.000000000000000000e+00,5.000000000000000000e+00,5.000000000000000000e+00,5.000000000000000000e+00,5.000000000000000000e+00,5.000000000000000000e+00,5.000000000000000000e+00,5.000000000000000000e+00,5.000000000000000000e+00,4.851169586181640625e+00,4.661122798919677734e+00,4.485404968261718750e+00,4.322454452514648438e+00,4.170928955078125000e+00,4.029666900634765625e+00,3.897660017013549805e+00,3.774027824401855469e+00,3.657997369766235352e+00,3.548888444900512695e+00,3.446099996566772461e+00,3.349098682403564453e+00,3.257408380508422852e+00,3.170604467391967773e+00,3.088307380676269531e+00,3.010174036026000977e+00,2.935896873474121094e+00,2.865196943283081055e+00,2.797822237014770508e+00,2.733542919158935547e+00,2.672151327133178711e+00,2.613456487655639648e+00,2.557284832000732422e+00,2.503476858139038086e+00,2.451886415481567383e+00,2.402379751205444336e+00,2.354832649230957031e+00,2.309130668640136719e+00,2.265169382095336914e+00,2.222850561141967773e+00,2.182083845138549805e+00,2.142785549163818359e+00,2.104877710342407227e+00,2.068287611007690430e+00,2.032948255538940430e+00,1.998795986175537109e+00,1.965772628784179688e+00,1.933822393417358398e+00,1.902894139289855957e+00,1.872939586639404297e+00,1.843913435935974121e+00
5.000000000000000000e+00,5.000000000000000000e+00,5.000000000000000000e+00,5.000000000000000000e+00,5.000000000000000000e+00,5.000000000000000000e+00,5.000000000000000000e+00,5.000000000000000000e+00,5.000000000000000000e+00,5.000000000000000000e+00,5.000000000000000000e+00,5.000000000000000000e+00,5.000000000000000000e+00,5.000000000000000000e+00,5.000000000000000000e+00,5.000000000000000000e+00,5.000000000000000000e+00,5.000000000000000000e+00,5.000000000000000000e+00,5.000000000000000000e+00,5.000000000000000000e+00,5.000000000000000000e+00,5.000000000000000000e+00,5.000000000000000000e+00,5.000000000000000000e+00,5.000000000000000000e+00,5.000000000000000000e+00,5.000000000000000000e+00,5.000000000000000000e+00,5.000000000000000000e+00,5.000000000000000000e+00,5.000000000000000000e+00,5.000000000000000000e+00,5.000000000000000000e+00,5.000000000000000000e+00,5.000000000000000000e+00,5.000000000000000000e+00,5.000000000000000000e+00,5.000000000000000000e+00,4.851308822631835938e+00,4.661251068115234375e+00,4.485524177551269531e+00,4.322565078735351562e+00,4.171031951904296875e+00,4.029762744903564453e+00,3.897750139236450195e+00,3.774111747741699219e+00,3.658076286315917969e+00,3.548963308334350586e+00,3.446170568466186523e+00,3.349164724349975586e+00,3.257470846176147461e+00,3.170664072036743164e+00,3.088363647460937500e+00,3.010227680206298828e+00,2.935947895050048828e+00,2.865245580673217773e+00,2.797868490219116211e+00,2.733587026596069336e+00,2.672193527221679688e+00,2.613496780395507812e+00,2.557323455810546875e+00,2.503514051437377930e+00,2.451922178268432617e+00,2.402413845062255859e+00,2.354865312576293945e+00,2.309162378311157227e+00,2.265199661254882812e+00,2.222879648208618164e+00,2.182111978530883789e+00,2.142812728881835938e+00,2.104903936386108398e+00,2.068312883377075195e+00,2.032972812652587891e+00,1.998819828033447266e+00,1.965795397758483887e+00,1.933844447135925293e+00,1.902915477752685547e+00,1.872960209846496582e+00,1.843933582305908203e+00
5.000000000000000000e+00,5.000000000000000000e+00,5.000000000000000000e+00,5.000000000000000000e+00,5.000000000000000000e+00,5.000000000000000000e+00,5.000000000000000000e+00,5.000000000000000000e+00,5.000000000000000000e+00,5.000000000000000000e+00,5.000000000000000000e+00,5.000000000000000000e+00,5.000000000000000000e+00,5.000000000000000000e+00,5.000000000000000000e+00,5.000000000000000000e+00,5.000000000000000000e+00,5.000000000000000000e+00,5.000000000000000000e+00,5.000000000000000000e+00,5.000000000000000000e+00,5.000000000000000000e+00,5.000000000000000000e+00,5.000000000000000000e+00,5.000000000000000000e+00,5.000000000000000000e+00,5.000000000000000000e+00,5.000000000000000000e+00,5.000000000000000000e+00,5.000000000000000000e+00,5.000000000000000000e+00,5.000000000000000000e+00,5.000000000000000000e+00,5.000000000000000000e+00,5.000000000000000000e+00,5.000000000000000000e+00,5.000000000000000000e+00,5.000000000000000000e+00,5.000000000000000000e+00,4.851448059082031250e+00,4.661379814147949219e+00,4.485643386840820312e+00,4.322675228118896484e+00,4.171134471893310547e+00,4.029858589172363281e+00,3.897839784622192383e+00,3.774195909500122070e+00,3.658155679702758789e+00,3.549037456512451172e+00,3.446240663528442383e+00,3.349231243133544922e+00,3.257533788681030273e+00,3.170723438262939453e+00,3.088419914245605469e+00,3.010281324386596680e+00,2.935998916625976562e+00,2.865293979644775391e+00,2.797914743423461914e+00,2.733631372451782227e+00,2.672235727310180664e+00,2.613537073135375977e+00,2.557362079620361328e+00,2.503551006317138672e+00,2.451957702636718750e+00,2.402447938919067383e+00,2.354898214340209961e+00,2.309193849563598633e+00,2.265229940414428711e+00,2.222908973693847656e+00,2.182140111923217773e+00,2.142839908599853516e+00,2.104930162429809570e+00,2.068338394165039062e+00,2.032997131347656250e+00,1.998843312263488770e+00,1.965818166732788086e+00,1.933866500854492188e+00,1.902936816215515137e+00,1.872980952262878418e+00,1.843953847885131836e+00
5.000000000000000000e+00,5.000000000000000000e+00,5.000000000000000000e+00,5.000000000000000000e+00,5.000000000000000000e+00,5.000000000000000000e+00,5.000000000000000000e+00,5.000000000000000000e+00,5.000000000000000000e+00,5.000000000000000000e+00,5.000000000000000000e+00,5.000000000000000000e+00,5.000000000000000000e+00,5.000000000000000000e+00,5.000000000000000000e+00,5.000000000000000000e+00,5.000000000000000000e+00,5.000000000000000000e+00,5.000000000000000000e+00,5.000000000000000000e+00,5.000000000000000000e+00,5.000000000000000000e+00,5.000000000000000000e+00,5.000000000000000000e+00,5.000000000000000000e+00,5.000000000000000000e+00,5.000000000000000000e+00,5.000000000000000000e+00,5.000000000000000000e+00,5.000000000000000000e+00,5.000000000000000000e+00,5.000000000000000000e+00,5.000000000000000000e+00,5.000000000000000000e+00,5.000000000000000000e+00,5.000000000000000000e+00,5.000000000000000000e+00,5.000000000000000000e+00,5.000000000000000000e+00,4.851587295532226562e+00,4.661508083343505859e+00,4.485762119293212891e+00,4.322785854339599609e+00,4.171237468719482422e+00,4.029954910278320312e+00,3.897929906845092773e+00,3.774280309677124023e+00,3.658234596252441406e+00,3.549111843109130859e+00,3.446310997009277344e+00,3.349297523498535156e+00,3.257596492767333984e+00,3.170783042907714844e+00,3.088476419448852539e+00,3.010334730148315430e+00,2.936049699783325195e+00,2.865342617034912109e+00,2.797960996627807617e+00,2.733675479888916016e+00,2.672278165817260742e+00,2.613577604293823242e+00,2.557400703430175781e+00,2.503587961196899414e+00,2.451993227005004883e+00,2.402482032775878906e+00,2.354930877685546875e+00,2.309225559234619141e+00,2.265260457992553711e+00,2.222938060760498047e+00,2.182168245315551758e+00,2.142867088317871094e+00,2.104956388473510742e+00,2.068363428115844727e+00,2.033021688461303711e+00,1.998866915702819824e+00,1.965841054916381836e+00,1.933888554573059082e+00,1.902958393096923828e+00,1.873001813888549805e+00,1.843973875045776367e+00
5.000000000000000000e+00,5.000000000000000000e+00,5.000000000000000000e+00,5.000000000000000000e+00,5.000000000000000000e+00,5.000000000000000000e+00,5.000000000000000000e+00,5.000000000000000000e+00,5.000000000000000000e+00,5.000000000000000000e+00,5.000000000000000000e+00,5.000000000000000000e+00,5.000000000000000000e+00,5.000000000000000000e+00,5.000000000000000000e+00,5.000000000000000000e+00,5.000000000000000000e+00,5.000000000000000000e+00,5.000000000000000000e+00,5.000000000000000000e+00,5.000000000000000000e+00,5.000000000000000000e+00,5.000000000000000000e+00,5.000000000000000000e+00,5.000000000000000000e+00,5.000000000000000000e+00,5.000000000000000000e+00,5.000000000000000000e+00,5.000000000000000000e+00,5.000000000000000000e+00,5.000000000000000000e+00,5.000000000000000000e+00,5.000000000000000000e+00,5.000000000000000000e+00,5.000000000000000000e+00,5.000000000000000000e+00,5.000000000000000000e+00,5.000000000000000000e+00,5.000000000000000000e+00,4.851726531982421875e+00,4.661636829376220703e+00,4.485880851745605469e+00,4.322896480560302734e+00,4.171340465545654297e+00,4.030050754547119141e+00,3.898019552230834961e+00,3.774364471435546875e+00,3.658313989639282227e+00,3.549186706542968750e+00,3.446381092071533203e+00,3.349363803863525391e+00,3.257659435272216797e+00,3.170842409133911133e+00,3.088532686233520508e+00,3.010388612747192383e+00,2.936100959777832031e+00,2.865391016006469727e+00,2.798007249832153320e+00,2.733719825744628906e+00,2.672320127487182617e+00,2.613617897033691406e+00,2.557439565658569336e+00,2.503625154495239258e+00,2.452028751373291016e+00,2.402516126632690430e+00,2.354963779449462891e+00,2.309257030487060547e+00,2.265290737152099609e+00,2.222967386245727539e+00,2.182196378707885742e+00,2.142894029617309570e+00,2.104982376098632812e+00,2.068388938903808594e+00,2.033046007156372070e+00,1.998890519142150879e+00,1.965864062309265137e+00,1.933910846710205078e+00,1.902979850769042969e+00,1.873022556304931641e+00,1.843993902206420898e+00
5.000000000000000000e+00,5.000000000000000000e+00,5.000000000000000000e+00,5.000000000000000000e+00,5.000000000000000000e+00,5.000000000000000000e+00,5.000000000000000000e+00,5.000000000000000000e+00,5.000000000000000000e+00,5.000000000000000000e+00,5.000000000000000000e+00,5.000000000000000000e+00,5.000000000000000000e+00,5.000000000000000000e+00,5.000000000000000000e+00,5.000000000000000000e+00,5.000000000000000000e+00,5.000000000000000000e+00,5.000000000000000000e+00,5.000000000000000000e+00,5.000000000000000000e+00,5.000000000000000000e+00,5.000000000000000000e+00,5.000000000000000000e+00,5.000000000000000000e+00,5.000000000000000000e+00,5.000000000000000000e+00,5.000000000000000000e+00,5.000000000000000000e+00,5.000000000000000000e+00,5.000000000000000000e+00,5.000000000000000000e+00,5.000000000000000000e+00,5.000000000000000000e+00,5.000000000000000000e+00,5.000000000000000000e+00,5.000000000000000000e+00,5.000000000000000000e+00,5.000000000000000000e+00,4.851865768432617188e+00,4.661765575408935547e+00,4.486000061035156250e+00,4.323007106781005859e+00,4.171442985534667969e+00,4.030147075653076172e+00,3.898109674453735352e+00,3.774448871612548828e+00,3.658392906188964844e+00,3.549260854721069336e+00,3.446451663970947266e+00,3.349430322647094727e+00,3.257722139358520508e+00,3.170901775360107422e+00,3.088589429855346680e+00,3.010442018508911133e+00,2.936151742935180664e+00,2.865439891815185547e+00,2.798053503036499023e+00,2.733763933181762695e+00,2.672362327575683594e+00,2.613658428192138672e+00,2.557478189468383789e+00,2.503662109375000000e+00,2.452064514160156250e+00,2.402550458908081055e+00,2.354996442794799805e+00,2.309288501739501953e+00,2.265321254730224609e+00,2.222996473312377930e+00,2.182224512100219727e+00,2.142921447753906250e+00,2.105008840560913086e+00,2.068414211273193359e+00,2.033070325851440430e+00,1.998914361000061035e+00,1.965886831283569336e+00,1.933932900428771973e+00,1.903001189231872559e+00,1.873043298721313477e+00,1.844014048576354980e+00
5.000000000000000000e+00,5.000000000000000000e+00,5.000000000000000000e+00,5.000000000000000000e+00,5.000000000000000000e+00,5.000000000000000000e+00,5.000000000000000000e+00,5.000000000000000000e+00,5.000000000000000000e+00,5.000000000000000000e+00,5.000000000000000000e+00,5.000000000000000000e+00,5.000000000000000000e+00,5.000000000000000000e+00,5.000000000000000000e+00,5.000000000000000000e+00,5.000000000000000000e+00,5.000000000000000000e+00,5.000000000000000000e+00,5.000000000000000000e+00,5.000000000000000000e+00,5.000000000000000000e+00,5.000000000000000000e+00,5.000000000000000000e+00,5.000000000000000000e+00,5.000000000000000000e+00,5.000000000000000000e+00,5.000000000000000000e+00,5.000000000000000000e+00,5.000000000000000000e+00,5.000000000000000000e+00,5.000000000000000000e+00,5.000000000000000000e+00,5.000000000000000000e+00,5.000000000000000000e+00,5.000000000000000000e+00,5.000000000000000000e+00,5.000000000000000000e+00,5.000000000000000000e+00,4.852005004882812500e+00,4.661893844604492188e+00,4.486119270324707031e+00,4.323117733001708984e+00,4.171545982360839844e+00,4.030242919921875000e+00,3.898199319839477539e+00,3.774533033370971680e+00,3.658472299575805664e+00,3.549335718154907227e+00,3.446521759033203125e+00,3.349496364593505859e+00,3.257785081863403320e+00,3.170961380004882812e+00,3.088645696640014648e+00,3.010495424270629883e+00,2.936202764511108398e+00,2.865488290786743164e+00,2.798099756240844727e+00,2.733808279037475586e+00,2.672404766082763672e+00,2.613698720932006836e+00,2.557516813278198242e+00,2.503699302673339844e+00,2.452099800109863281e+00,2.402584314346313477e+00,2.355029344558715820e+00,2.309319972991943359e+00,2.265351533889770508e+00,2.223025798797607422e+00,2.182252883911132812e+00,2.142948389053344727e+00,2.105034828186035156e+00,2.068439483642578125e+00,2.033094882965087891e+00,1.998937845230102539e+00,1.965909600257873535e+00,1.933954954147338867e+00,1.903022527694702148e+00,1.873063921928405762e+00,1.844034314155578613e+00
5.000000000000000000e+00,5.000000000000000000e+00,5.000000000000000000e+00,5.000000000000000000e+00,5.000000000000000000e+00,5.000000000000000000e+00,5.000000000000000000e+00,5.000000000000000000e+00,5.000000000000000000e+00,5.000000000000000000e+00,5.000000000000000000e+00,5.000000000000000000e+00,5.000000000000000000e+00,5.000000000000000000e+00,5.000000000000000000e+00,5.000000000000000000e+00,5.000000000000000000e+00,5.000000000000000000e+00,5.000000000000000000e+00,5.000000000000000000e+00,5.000000000000000000e+00,5.000000000000000000e+00,5.000000000000000000e+00,5.000000000000000000e+00,5.000000000000000000e+00,5.000000000000000000e+00,5.000000000000000000e+00,5.000000000000000000e+00,5.000000000000000000e+00,5.000000000000000000e+00,5.000000000000000000e+00,5.000000000000000000e+00,5.000000000000000000e+00,5.000000000000000000e+00,5.000000000000000000e+00,5.000000000000000000e+00,5.000000000000000000e+00,5.000000000000000000e+00,5.000000000000000000e+00,4.852144241333007812e+00,4.662022113800048828e+00,4.486238002777099609e+00,4.323228359222412109e+00,4.171648979187011719e+00,4.030339241027832031e+00,3.898288965225219727e+00,3.774617433547973633e+00,3.658551216125488281e+00,3.549409866333007812e+00,3.446591854095458984e+00,3.349562883377075195e+00,3.257847547531127930e+00,3.171020746231079102e+00,3.088702201843261719e+00,3.010549306869506836e+00,2.936253786087036133e+00,2.865536689758300781e+00,2.798146247863769531e+00,2.733852386474609375e+00,2.672446727752685547e+00,2.613739252090454102e+00,2.557555437088012695e+00,2.503736257553100586e+00,2.452135324478149414e+00,2.402618646621704102e+00,2.355062246322631836e+00,2.309351444244384766e+00,2.265381813049316406e+00,2.223055124282836914e+00,2.182281017303466797e+00,2.142975568771362305e+00,2.105061054229736328e+00,2.068464756011962891e+00,2.033119440078735352e+00,1.998961448669433594e+00,1.965932488441467285e+00,1.933977007865905762e+00,1.903043866157531738e+00,1.873084902763366699e+00,1.844054341316223145e+00
5.000000000000000000e+00,5.000000000000000000e+00,5.000000000000000000e+00,5.000000000000000000e+00,5.000000000000000000e+00,5.000000000000000000e+00,5.000000000000000000e+00,5.000000000000000000e+00,5.000000000000000000e+00,5.000000000000000000e+00,5.000000000000000000e+00,5.000000000000000000e+00,5.000000000000000000e+00,5.000000000000000000e+00,5.000000000000000000e+00,5.000000000000000000e+00,5.000000000000000000e+00,5.000000000000000000e+00,5.000000000000000000e+00,5.000000000000000000e+00,5.000000000000000000e+00,5.000000000000000000e+00,5.000000000000000000e+00,5.000000000000000000e+00,5.000000000000000000e+00,5.000000000000000000e+00,5.000000000000000000e+00,5.000000000000000000e+00,5.000000000000000000e+00,5.000000000000000000e+00,5.000000000000000000e+00,5.000000000000000000e+00,5.000000000000000000e+00,5.000000000000000000e+00,5.000000000000000000e+00,5.000000000000000000e+00,5.000000000000000000e+00,5.000000000000000000e+00,5.000000000000000000e+00,4.852283477783203125e+00,4.662150859832763672e+00,4.486357212066650391e+00,4.323338508605957031e+00,4.171751976013183594e+00,4.030435085296630859e+00,3.898379087448120117e+00,3.774701595306396484e+00,3.658630371093750000e+00,3.549484729766845703e+00,3.446662187576293945e+00,3.349629163742065430e+00,3.257910251617431641e+00,3.171080350875854492e+00,3.088758468627929688e+00,3.010602712631225586e+00,2.936304807662963867e+00,2.865585327148437500e+00,2.798192501068115234e+00,2.733896493911743164e+00,2.672489166259765625e+00,2.613779544830322266e+00,2.557594060897827148e+00,2.503773450851440430e+00,2.452171087265014648e+00,2.402652740478515625e+00,2.355094909667968750e+00,2.309383153915405273e+00,2.265412092208862305e+00,2.223084211349487305e+00,2.182309150695800781e+00,2.143002748489379883e+00,2.105087280273437500e+00,2.068490028381347656e+00,2.033143758773803711e+00,1.998985052108764648e+00,1.965955257415771484e+00,1.933999300003051758e+00,1.903065443038940430e+00,1.873105645179748535e+00,1.844074368476867676e+00
5.000000000000000000e+00,5.000000000000000000e+00,5.000000000000000000e+00,5.000000000000000000e+00,5.000000000000000000e+00,5.000000000000000000e+00,5.000000000000000000e+00,5.000000000000000000e+00,5.000000000000000000e+00,5.000000000000000000e+00,5.000000000000000000e+00,5.000000000000000000e+00,5.000000000000000000e+00,5.000000000000000000e+00,5.000000000000000000e+00,5.000000000000000000e+00,5.000000000000000000e+00,5.000000000000000000e+00,5.000000000000000000e+00,5.000000000000000000e+00,5.000000000000000000e+00,5.000000000000000000e+00,5.000000000000000000e+00,5.000000000000000000e+00,5.000000000000000000e+00,5.000000000000000000e+00,5.000000000000000000e+00,5.000000000000000000e+00,5.000000000000000000e+00,5.000000000000000000e+00,5.000000000000000000e+00,5.000000000000000000e+00,5.000000000000000000e+00,5.000000000000000000e+00,5.000000000000000000e+00,5.000000000000000000e+00,5.000000000000000000e+00,5.000000000000000000e+00,5.000000000000000000e+00,4.852422714233398438e+00,4.662279605865478516e+00,4.486476421356201172e+00,4.323449134826660156e+00,4.171854972839355469e+00,4.030530929565429688e+00,3.898468732833862305e+00,3.774785995483398438e+00,3.658709764480590820e+00,3.549559116363525391e+00,3.446732282638549805e+00,3.349695682525634766e+00,3.257973194122314453e+00,3.171139717102050781e+00,3.088814735412597656e+00,3.010656595230102539e+00,2.936355829238891602e+00,2.865633964538574219e+00,2.798238992691040039e+00,2.733940839767456055e+00,2.672531366348266602e+00,2.613820075988769531e+00,2.557632923126220703e+00,2.503810405731201172e+00,2.452206611633300781e+00,2.402687072753906250e+00,2.355127811431884766e+00,2.309414625167846680e+00,2.265442371368408203e+00,2.223113536834716797e+00,2.182337284088134766e+00,2.143029928207397461e+00,2.105113506317138672e+00,2.068515300750732422e+00,2.033168315887451172e+00,1.999008655548095703e+00,1.965978264808654785e+00,1.934021353721618652e+00,1.903086900711059570e+00,1.873126268386840820e+00,1.844094514846801758e+00
5.000000000000000000e+00,5.000000000000000000e+00,5.000000000000000000e+00,5.000000000000000000e+00,5.000000000000000000e+00,5.000000000000000000e+00,5.000000000000000000e+00,5.000000000000000000e+00,5.000000000000000000e+00,5.000000000000000000e+00,5.000000000000000000e+00,5.000000000000000000e+00,5.000000000000000000e+00,5.000000000000000000e+00,5.000000000000000000e+00,5.000000000000000000e+00,5.000000000000000000e+00,5.000000000000000000e+00,5.000000000000000000e+00,5.000000000000000000e+00,5.000000000000000000e+00,5.000000000000000000e+00,5.000000000000000000e+00,5.000000000000000000e+00,5.000000000000000000e+00,5.000000000000000000e+00,5.000000000000000000e+00,5.000000000000000000e+00,5.000000000000000000e+00,5.000000000000000000e+00,5.000000000000000000e+00,5.000000000000000000e+00,5.000000000000000000e+00,5.000000000000000000e+00,5.000000000000000000e+00,5.000000000000000000e+00,5.000000000000000000e+00,5.000000000000000000e+00,5.000000000000000000e+00,4.852561473846435547e+00,4.662407875061035156e+00,4.486595630645751953e+00,4.323559761047363281e+00,4.171957969665527344e+00,4.030627250671386719e+00,3.898558855056762695e+00,3.774870157241821289e+00,3.658788681030273438e+00,3.549633741378784180e+00,3.446802854537963867e+00,3.349761962890625000e+00,3.258035898208618164e+00,3.171199321746826172e+00,3.088871479034423828e+00,3.010710000991821289e+00,2.936406612396240234e+00,2.865682601928710938e+00,2.798285007476806641e+00,2.733984947204589844e+00,2.672573804855346680e+00,2.613860368728637695e+00,2.557671546936035156e+00,2.503847360610961914e+00,2.452242136001586914e+00,2.402720928192138672e+00,2.355160474777221680e+00,2.309446334838867188e+00,2.265472888946533203e+00,2.223142623901367188e+00,2.182365417480468750e+00,2.143057107925415039e+00,2.105139732360839844e+00,2.068540573120117188e+00,2.033192873001098633e+00,1.999032497406005859e+00,1.966001152992248535e+00,1.934043526649475098e+00,1.903108239173889160e+00,1.873147010803222656e+00,1.844114542007446289e+00
5.000000000000000000e+00,5.000000000000000000e+00,5.000000000000000000e+00,5.000000000000000000e+00,5.000000000000000000e+00,5.000000000000000000e+00,5.000000000000000000e+00,5.000000000000000000e+00,5.000000000000000000e+00,5.000000000000000000e+00,5.000000000000000000e+00,5.000000000000000000e+00,5.000000000000000000e+00,5.000000000000000000e+00,5.000000000000000000e+00,5.000000000000000000e+00,5.000000000000000000e+00,5.000000000000000000e+00,5.000000000000000000e+00,5.000000000000000000e+00,5.000000000000000000e+00,5.000000000000000000e+00,5.000000000000000000e+00,5.000000000000000000e+00,5.000000000000000000e+00,5.000000000000000000e+00,5.000000000000000000e+00,5.000000000000000000e+00,5.000000000000000000e+00,5.000000000000000000e+00,5.000000000000000000e+00,5.000000000000000000e+00,5.000000000000000000e+00,5.000000000000000000e+00,5.000000000000000000e+00,5.000000000000000000e+00,5.000000000000000000e+00,5.000000000000000000e+00,5.000000000000000000e+00,4.852701187133789062e+00,4.662536621093750000e+00,4.486714363098144531e+00,4.323670387268066406e+00,4.172060966491699219e+00,4.030723094940185547e+00,3.898648500442504883e+00,3.774954080581665039e+00,3.658868074417114258e+00,3.549708127975463867e+00,3.446872949600219727e+00,3.349828481674194336e+00,3.258098840713500977e+00,3.171258687973022461e+00,3.088927745819091797e+00,3.010763645172119141e+00,2.936457633972167969e+00,2.865731000900268555e+00,2.798331260681152344e+00,2.734029293060302734e+00,2.672615766525268555e+00,2.613900899887084961e+00,2.557710409164428711e+00,2.503884553909301758e+00,2.452277660369873047e+00,2.402755022048950195e+00,2.355193376541137695e+00,2.309477806091308594e+00,2.265502929687500000e+00,2.223171949386596680e+00,2.182393550872802734e+00,2.143084287643432617e+00,2.105165958404541016e+00,2.068566083908081055e+00,2.033217191696166992e+00,1.999055981636047363e+00,1.966023921966552734e+00,1.934065580368041992e+00,1.903129577636718750e+00,1.873167753219604492e+00,1.844134807586669922e+00
5.000000000000000000e+00,5.000000000000000000e+00,5.000000000000000000e+00,5.000000000000000000e+00,5.000000000000000000e+00,5.000000000000000000e+00,5.000000000000000000e+00,5.000000000000000000e+00,5.000000000000000000e+00,5.000000000000000000e+00,5.000000000000000000e+00,5.000000000000000000e+00,5.000000000000000000e+00,5.000000000000000000e+00,5.000000000000000000e+00,5.000000000000000000e+00,5.000000000000000000e+00,5.000000000000000000e+00,5.000000000000000000e+00,5.000000000000000000e+00,5.000000000000000000e+00,5.000000000000000000e+00,5.000000000000000000e+00,5.000000000000000000e+00,5.000000000000000000e+00,5.000000000000000000e+00,5.000000000000000000e+00,5.000000000000000000e+00,5.000000000000000000e+00,5.000000000000000000e+00,5.000000000000000000e+00,5.000000000000000000e+00,5.000000000000000000e+00,5.000000000000000000e+00,5.000000000000000000e+00,5.000000000000000000e+00,5.000000000000000000e+00,5.000000000000000000e+00,5.000000000000000000e+00,4.852840423583984375e+00,4.662665367126464844e+00,4.486833095550537109e+00,4.323781013488769531e+00,4.172163486480712891e+00,4.030819416046142578e+00,3.898738622665405273e+00,3.775038719177246094e+00,3.658946990966796875e+00,3.549782514572143555e+00,3.446943283081054688e+00,3.349894762039184570e+00,3.258161306381225586e+00,3.171318292617797852e+00,3.088984251022338867e+00,3.010817289352416992e+00,2.936508655548095703e+00,2.865779638290405273e+00,2.798377752304077148e+00,2.734073400497436523e+00,2.672657966613769531e+00,2.613941431045532227e+00,2.557748794555664062e+00,2.503921508789062500e+00,2.452313423156738281e+00,2.402789354324340820e+00,2.355226039886474609e+00,2.309509277343750000e+00,2.265533447265625000e+00,2.223201036453247070e+00,2.182421684265136719e+00,2.143111467361450195e+00,2.105192184448242188e+00,2.068591356277465820e+00,2.033241510391235352e+00,1.999079585075378418e+00,1.966046690940856934e+00,1.934087634086608887e+00,1.903151154518127441e+00,1.873188614845275879e+00,1.844154834747314453e+00
5.000000000000000000e+00,5.000000000000000000e+00,5.000000000000000000e+00,5.000000000000000000e+00,5.000000000000000000e+00,5.000000000000000000e+00,5.000000000000000000e+00,5.000000000000000000e+00,5.000000000000000000e+00,5.000000000000000000e+00,5.000000000000000000e+00,5.000000000000000000e+00,5.000000000000000000e+00,5.000000000000000000e+00,5.000000000000000000e+00,5.000000000000000000e+00,5.000000000000000000e+00,5.000000000000000000e+00,5.000000000000000000e+00,5.000000000000000000e+00,5.000000000000000000e+00,5.000000000000000000e+00,5.000000000000000000e+00,5.000000000000000000e+00,5.000000000000000000e+00,5.000000000000000000e+00,5.000000000000000000e+00,5.000000000000000000e+00,5.000000000000000000e+00,5.000000000000000000e+00,5.000000000000000000e+00,5.000000000000000000e+00,5.000000000000000000e+00,5.000000000000000000e+00,5.000000000000000000e+00,5.000000000000000000e+00,5.000000000000000000e+00,5.000000000000000000e+00,5.000000000000000000e+00,4.852979660034179688e+00,4.662793636322021484e+00,4.486952304840087891e+00,4.323891639709472656e+00,4.172266483306884766e+00,4.030915737152099609e+00,3.898828506469726562e+00,3.775122880935668945e+00,3.659026384353637695e+00,3.549857139587402344e+00,3.447013378143310547e+00,3.349961042404174805e+00,3.258224248886108398e+00,3.171377658843994141e+00,3.089040517807006836e+00,3.010870933532714844e+00,2.936559677124023438e+00,2.865828275680541992e+00,2.798424005508422852e+00,2.734117746353149414e+00,2.672700405120849609e+00,2.613981723785400391e+00,2.557787418365478516e+00,2.503958702087402344e+00,2.452348947525024414e+00,2.402823448181152344e+00,2.355258941650390625e+00,2.309540748596191406e+00,2.265563726425170898e+00,2.223230361938476562e+00,2.182450056076049805e+00,2.143138647079467773e+00,2.105218410491943359e+00,2.068616628646850586e+00,2.033266067504882812e+00,1.999103188514709473e+00,1.966069579124450684e+00,1.934109926223754883e+00,1.903172612190246582e+00,1.873209357261657715e+00,1.844174981117248535e+00
5.000000000000000000e+00,5.000000000000000000e+00,5.000000000000000000e+00,5.000000000000000000e+00,5.000000000000000000e+00,5.000000000000000000e+00,5.000000000000000000e+00,5.000000000000000000e+00,5.000000000000000000e+00,5.000000000000000000e+00,5.000000000000000000e+00,5.000000000000000000e+00,5.000000000000000000e+00,5.000000000000000000e+00,5.000000000000000000e+00,5.000000000000000000e+00,5.000000000000000000e+00,5.000000000000000000e+00,5.000000000000000000e+00,5.000000000000000000e+00,5.000000000000000000e+00,5.000000000000000000e+00,5.000000000000000000e+00,5.000000000000000000e+00,5.000000000000000000e+00,5.000000000000000000e+00,5.000000000000000000e+00,5.000000000000000000e+00,5.000000000000000000e+00,5.000000000000000000e+00,5.000000000000000000e+00,5.000000000000000000e+00,5.000000000000000000e+00,5.000000000000000000e+00,5.000000000000000000e+00,5.000000000000000000e+00,5.000000000000000000e+00,5.000000000000000000e+00,5.000000000000000000e+00,4.853118896484375000e+00,4.662922382354736328e+00,4.487071514129638672e+00,4.324002265930175781e+00,4.172369480133056641e+00,4.031011581420898438e+00,3.898918151855468750e+00,3.775207281112670898e+00,3.659105539321899414e+00,3.549931526184082031e+00,3.447083950042724609e+00,3.350027561187744141e+00,3.258286952972412109e+00,3.171437025070190430e+00,3.089097261428833008e+00,3.010924577713012695e+00,2.936610698699951172e+00,2.865876913070678711e+00,2.798470497131347656e+00,2.734161853790283203e+00,2.672742605209350586e+00,2.614022254943847656e+00,2.557826280593872070e+00,2.503995656967163086e+00,2.452384233474731445e+00,2.402857542037963867e+00,2.355291843414306641e+00,2.309572219848632812e+00,2.265594244003295898e+00,2.223259687423706055e+00,2.182478189468383789e+00,2.143165588378906250e+00,2.105244636535644531e+00,2.068641901016235352e+00,2.033290386199951172e+00,1.999127030372619629e+00,1.966092586517333984e+00,1.934131979942321777e+00,1.903193950653076172e+00,1.873229980468750000e+00,1.844195008277893066e+00
5.000000000000000000e+00,5.000000000000000000e+00,5.000000000000000000e+00,5.000000000000000000e+00,5.000000000000000000e+00,5.000000000000000000e+00,5.000000000000000000e+00,5.000000000000000000e+00,5.000000000000000000e+00,5.000000000000000000e+00,5.000000000000000000e+00,5.000000000000000000e+00,5.000000000000000000e+00,5.000000000000000000e+00,5.000000000000000000e+00,5.000000000000000000e+00,5.000000000000000000e+00,5.000000000000000000e+00,5.000000000000000000e+00,5.000000000000000000e+00,5.000000000000000000e+00,5.000000000000000000e+00,5.000000000000000000e+00,5.000000000000000000e+00,5.000000000000000000e+00,5.000000000000000000e+00,5.000000000000000000e+00,5.000000000000000000e+00,5.000000000000000000e+00,5.000000000000000000e+00,5.000000000000000000e+00,5.000000000000000000e+00,5.000000000000000000e+00,5.000000000000000000e+00,5.000000000000000000e+00,5.000000000000000000e+00,5.000000000000000000e+00,5.000000000000000000e+00,5.000000000000000000e+00,4.853257179260253906e+00,4.663050651550292969e+00,4.487190723419189453e+00,4.324112415313720703e+00,4.172472476959228516e+00,4.031107902526855469e+00,3.899008274078369141e+00,3.775291442871093750e+00,3.659184455871582031e+00,3.550006389617919922e+00,3.447154045104980469e+00,3.350093841552734375e+00,3.258349895477294922e+00,3.171496629714965820e+00,3.089153528213500977e+00,3.010977983474731445e+00,2.936661720275878906e+00,2.865925312042236328e+00,2.798516511917114258e+00,2.734205961227416992e+00,2.672784805297851562e+00,2.614062547683715820e+00,2.557864904403686523e+00,2.504032850265502930e+00,2.452419996261596680e+00,2.402891635894775391e+00,2.355324506759643555e+00,2.309603929519653320e+00,2.265624523162841797e+00,2.223288774490356445e+00,2.182506322860717773e+00,2.143193006515502930e+00,2.105270862579345703e+00,2.068667173385620117e+00,2.033314943313598633e+00,1.999150633811950684e+00,1.966115355491638184e+00,1.934154033660888672e+00,1.903215289115905762e+00,1.873250722885131836e+00,1.844215035438537598e+00
5.000000000000000000e+00,5.000000000000000000e+00,5.000000000000000000e+00,5.000000000000000000e+00,5.000000000000000000e+00,5.000000000000000000e+00,5.000000000000000000e+00,5.000000000000000000e+00,5.000000000000000000e+00,5.000000000000000000e+00,5.000000000000000000e+00,5.000000000000000000e+00,5.000000000000000000e+00,5.000000000000000000e+00,5.000000000000000000e+00,5.000000000000000000e+00,5.000000000000000000e+00,5.000000000000000000e+00,5.000000000000000000e+00,5.000000000000000000e+00,5.000000000000000000e+00,5.000000000000000000e+00,5.000000000000000000e+00,5.000000000000000000e+00,5.000000000000000000e+00,5.000000000000000000e+00,5.000000000000000000e+00,5.000000000000000000e+00,5.000000000000000000e+00,5.000000000000000000e+00,5.000000000000000000e+00,5.000000000000000000e+00,5.000000000000000000e+00,5.000000000000000000e+00,5.000000000000000000e+00,5.000000000000000000e+00,5.000000000000000000e+00,5.000000000000000000e+00,5.000000000000000000e+00,4.853395462036132812e+00,4.663179397583007812e+00,4.487309932708740234e+00,4.324223041534423828e+00,4.172575473785400391e+00,4.031203746795654297e+00,3.899097919464111328e+00,3.775375843048095703e+00,3.659263849258422852e+00,3.550080776214599609e+00,3.447224140167236328e+00,3.350160360336303711e+00,3.258412599563598633e+00,3.171555995941162109e+00,3.089210033416748047e+00,3.011031866073608398e+00,2.936712741851806641e+00,2.865973949432373047e+00,2.798563003540039062e+00,2.734250307083129883e+00,2.672827005386352539e+00,2.614102840423583984e+00,2.557903766632080078e+00,2.504070043563842773e+00,2.452455520629882812e+00,2.402925968170166016e+00,2.355357408523559570e+00,2.309635400772094727e+00,2.265654802322387695e+00,2.223318099975585938e+00,2.182534456253051758e+00,2.143219947814941406e+00,2.105297088623046875e+00,2.068692445755004883e+00,2.033339500427246094e+00,1.999174237251281738e+00,1.966138243675231934e+00,1.934176206588745117e+00,1.903236746788024902e+00,1.873271703720092773e+00,1.844235420227050781e+00
5.000000000000000000e+00,5.000000000000000000e+00,5.000000000000000000e+00,5.000000000000000000e+00,5.000000000000000000e+00,5.000000000000000000e+00,5.000000000000000000e+00,5.000000000000000000e+00,5.000000000000000000e+00,5.000000000000000000e+00,5.000000000000000000e+00,5.000000000000000000e+00,5.000000000000000000e+00,5.000000000000000000e+00,5.000000000000000000e+00,5.000000000000000000e+00,5.000000000000000000e+00,5.000000000000000000e+00,5.000000000000000000e+00,5.000000000000000000e+00,5.000000000000000000e+00,5.000000000000000000e+00,5.000000000000000000e+00,5.000000000000000000e+00,5.000000000000000000e+00,5.000000000000000000e+00,5.000000000000000000e+00,5.000000000000000000e+00,5.000000000000000000e+00,5.000000000000000000e+00,5.000000000000000000e+00,5.000000000000000000e+00,5.000000000000000000e+00,5.000000000000000000e+00,5.000000000000000000e+00,5.000000000000000000e+00,5.000000000000000000e+00,5.000000000000000000e+00,5.000000000000000000e+00,4.853533744812011719e+00,4.663306236267089844e+00,4.487428665161132812e+00,4.324333667755126953e+00,4.172678470611572266e+00,4.031299591064453125e+00,3.899188041687011719e+00,3.775460004806518555e+00,3.659342765808105469e+00,3.550155401229858398e+00,3.447294712066650391e+00,3.350226402282714844e+00,3.258475303649902344e+00,3.171615600585937500e+00,3.089266300201416016e+00,3.011085271835327148e+00,2.936763763427734375e+00,2.866022586822509766e+00,2.798609256744384766e+00,2.734294414520263672e+00,2.672869443893432617e+00,2.614143371582031250e+00,2.557942390441894531e+00,2.504106998443603516e+00,2.452491044998168945e+00,2.402960062026977539e+00,2.355390071868896484e+00,2.309667110443115234e+00,2.265685319900512695e+00,2.223347187042236328e+00,2.182562589645385742e+00,2.143247365951538086e+00,2.105323314666748047e+00,2.068717718124389648e+00,2.033363819122314453e+00,1.999197721481323242e+00,1.966161012649536133e+00,1.934198260307312012e+00,1.903258323669433594e+00,1.873292326927185059e+00,1.844255447387695312e+00
5.000000000000000000e+00,5.000000000000000000e+00,5.000000000000000000e+00,5.000000000000000000e+00,5.000000000000000000e+00,5.000000000000000000e+00,5.000000000000000000e+00,5.000000000000000000e+00,5.000000000000000000e+00,5.000000000000000000e+00,5.000000000000000000e+00,5.000000000000000000e+00,5.000000000000000000e+00,5.000000000000000000e+00,5.000000000000000000e+00,5.000000000000000000e+00,5.000000000000000000e+00,5.000000000000000000e+00,5.000000000000000000e+00,5.000000000000000000e+00,5.000000000000000000e+00,5.000000000000000000e+00,5.000000000000000000e+00,5.000000000000000000e+00,5.000000000000000000e+00,5.000000000000000000e+00,5.000000000000000000e+00,5.000000000000000000e+00,5.000000000000000000e+00,5.000000000000000000e+00,5.000000000000000000e+00,5.000000000000000000e+00,5.000000000000000000e+00,5.000000000000000000e+00,5.000000000000000000e+00,5.000000000000000000e+00,5.000000000000000000e+00,5.000000000000000000e+00,5.000000000000000000e+00,4.853672027587890625e+00,4.663434028625488281e+00,4.487546920776367188e+00,4.324444293975830078e+00,4.172781467437744141e+00,4.031395912170410156e+00,3.899277925491333008e+00,3.775544166564941406e+00,3.659422159194946289e+00,3.550229787826538086e+00,3.447364807128906250e+00,3.350293159484863281e+00,3.258538246154785156e+00,3.171674966812133789e+00,3.089322805404663086e+00,3.011139154434204102e+00,2.936814785003662109e+00,2.866070985794067383e+00,2.798655748367309570e+00,2.734338760375976562e+00,2.672911643981933594e+00,2.614183664321899414e+00,2.557981014251708984e+00,2.504144191741943359e+00,2.452526569366455078e+00,2.402994155883789062e+00,2.355422973632812500e+00,2.309698581695556641e+00,2.265715599060058594e+00,2.223376512527465820e+00,2.182590723037719727e+00,2.143274307250976562e+00,2.105349302291870117e+00,2.068743228912353516e+00,2.033388376235961914e+00,1.999221324920654297e+00,1.966184020042419434e+00,1.934220552444458008e+00,1.903279662132263184e+00,1.873313069343566895e+00,1.844275474548339844e+00
5.000000000000000000e+00,5.000000000000000000e+00,5.000000000000000000e+00,5.000000000000000000e+00,5.000000000000000000e+00,5.000000000000000000e+00,5.000000000000000000e+00,5.000000000000000000e+00,5.000000000000000000e+00,5.000000000000000000e+00,5.000000000000000000e+00,5.000000000000000000e+00,5.000000000000000000e+00,5.000000000000000000e+00,5.000000000000000000e+00,5.000000000000000000e+00,5.000000000000000000e+00,5.000000000000000000e+00,5.000000000000000000e+00,5.000000000000000000e+00,5.000000000000000000e+00,5.000000000000000000e+00,5.000000000000000000e+00,5.000000000000000000e+00,5.000000000000000000e+00,5.000000000000000000e+00,5.000000000000000000e+00,5.000000000000000000e+00,5.000000000000000000e+00,5.000000000000000000e+00,5.000000000000000000e+00,5.000000000000000000e+00,5.000000000000000000e+00,5.000000000000000000e+00,5.000000000000000000e+00,5.000000000000000000e+00,5.000000000000000000e+00,5.000000000000000000e+00,5.000000000000000000e+00,4.853809833526611328e+00,4.663561820983886719e+00,4.487665176391601562e+00,4.324553966522216797e+00,4.172884464263916016e+00,4.031492233276367188e+00,3.899368047714233398e+00,3.775628805160522461e+00,3.659501314163208008e+00,3.550304174423217773e+00,3.447435140609741211e+00,3.350359201431274414e+00,3.258600950241088867e+00,3.171734809875488281e+00,3.089379310607910156e+00,3.011192560195922852e+00,2.936865568161010742e+00,2.866119861602783203e+00,2.798702001571655273e+00,2.734382867813110352e+00,2.672953844070434570e+00,2.614224195480346680e+00,2.558019638061523438e+00,2.504181146621704102e+00,2.452562332153320312e+00,2.403028249740600586e+00,2.355455875396728516e+00,2.309730052947998047e+00,2.265745878219604492e+00,2.223405838012695312e+00,2.182618856430053711e+00,2.143301725387573242e+00,2.105375766754150391e+00,2.068768501281738281e+00,2.033412694931030273e+00,1.999245166778564453e+00,1.966206908226013184e+00,1.934242606163024902e+00,1.903301000595092773e+00,1.873333811759948730e+00,1.844295620918273926e+00
5.000000000000000000e+00,5.000000000000000000e+00,5.000000000000000000e+00,5.000000000000000000e+00,5.000000000000000000e+00,5.000000000000000000e+00,5.000000000000000000e+00,5.000000000000000000e+00,5.000000000000000000e+00,5.000000000000000000e+00,5.000000000000000000e+00,5.000000000000000000e+00,5.000000000000000000e+00,5.000000000000000000e+00,5.000000000000000000e+00,5.000000000000000000e+00,5.000000000000000000e+00,5.000000000000000000e+00,5.000000000000000000e+00,5.000000000000000000e+00,5.000000000000000000e+00,5.000000000000000000e+00,5.000000000000000000e+00,5.000000000000000000e+00,5.000000000000000000e+00,5.000000000000000000e+00,5.000000000000000000e+00,5.000000000000000000e+00,5.000000000000000000e+00,5.000000000000000000e+00,5.000000000000000000e+00,5.000000000000000000e+00,5.000000000000000000e+00,5.000000000000000000e+00,5.000000000000000000e+00,5.000000000000000000e+00,5.000000000000000000e+00,5.000000000000000000e+00,5.000000000000000000e+00,4.853948593139648438e+00,4.663689613342285156e+00,4.487783432006835938e+00,4.324664115905761719e+00,4.172987461090087891e+00,4.031588077545166016e+00,3.899457693099975586e+00,3.775712966918945312e+00,3.659580707550048828e+00,3.550379037857055664e+00,3.447505474090576172e+00,3.350425481796264648e+00,3.258663892745971680e+00,3.171794176101684570e+00,3.089435577392578125e+00,3.011246204376220703e+00,2.936916828155517578e+00,2.866168260574340820e+00,2.798748254776000977e+00,2.734427213668823242e+00,2.672996044158935547e+00,2.614264488220214844e+00,2.558058500289916992e+00,2.504218339920043945e+00,2.452597856521606445e+00,2.403062343597412109e+00,2.355488777160644531e+00,2.309761762619018555e+00,2.265776157379150391e+00,2.223434925079345703e+00,2.182647228240966797e+00,2.143328666687011719e+00,2.105401754379272461e+00,2.068793773651123047e+00,2.033437252044677734e+00,1.999268770217895508e+00,1.966229677200317383e+00,1.934264659881591797e+00,1.903322458267211914e+00,1.873354434967041016e+00,1.844315886497497559e+00
4.875174045562744141e+00,4.873963832855224609e+00,4.872753620147705078e+00,4.871544837951660156e+00,4.870336055755615234e+00,4.869127750396728516e+00,4.867920398712158203e+00,4.866713523864746094e+00,4.865507125854492188e+00,4.864301681518554688e+00,4.863096237182617188e+00,4.861891746520996094e+00,4.860687732696533203e+00,4.859484672546386719e+00,4.858282089233398438e+00,4.857080459594726562e+00,4.855878829956054688e+00,4.854677677154541016e+00,4.853477478027343750e+00,4.852277755737304688e+00,4.851078510284423828e+00,4.849880218505859375e+00,4.848682403564453125e+00,4.847485065460205078e+00,4.846288204193115234e+00,4.845092296600341797e+00,4.843896389007568359e+00,4.842701435089111328e+00,4.841506958007812500e+00,4.840312957763671875e+00,4.839119911193847656e+00,4.837927341461181641e+00,4.836735248565673828e+00,4.835544109344482422e+00,4.834352970123291016e+00,4.833162784576416016e+00,4.831972599029541016e+00,4.830783843994140625e+00,4.829595088958740234e+00,4.828407764434814453e+00,4.663816928863525391e+00,4.487901210784912109e+00,4.324773788452148438e+00,4.173089504241943359e+00,4.031684398651123047e+00,3.899547576904296875e+00,3.775797367095947266e+00,3.659659862518310547e+00,3.550453424453735352e+00,3.447575807571411133e+00,3.350492238998413086e+00,3.258726596832275391e+00,3.171853542327880859e+00,3.089492321014404297e+00,3.011299848556518555e+00,2.936967611312866211e+00,2.866216897964477539e+00,2.798794507980346680e+00,2.734471321105957031e+00,2.673038244247436523e+00,2.614305019378662109e+00,2.558097124099731445e+00,2.504255294799804688e+00,2.452633380889892578e+00,2.403096675872802734e+00,2.355521440505981445e+00,2.309793233871459961e+00,2.265806674957275391e+00,2.223464250564575195e+00,2.182675361633300781e+00,2.143355846405029297e+00,2.105427980422973633e+00,2.068819046020507812e+00,2.033461570739746094e+00,1.999292373657226562e+00,1.966252446174621582e+00,1.934286713600158691e+00,1.903343796730041504e+00,1.873375415802001953e+00,1.844335913658142090e+00
3.777997493743896484e+00,3.777270555496215820e+00,3.776543617248535156e+00,3.775817394256591797e+00,3.775091409683227539e+00,3.774365186691284180e+00,3.773639678955078125e+00,3.772914648056030273e+00,3.772189378738403320e+00,3.771464824676513672e+00,3.770740509033203125e+00,3.770015954971313477e+00,3.769292116165161133e+00,3.768568754196166992e+00,3.767845153808593750e+00,3.767122268676757812e+00,3.766399621963500977e+00,3.765676736831665039e+00,3.764954566955566406e+00,3.764232873916625977e+00,3.763510942459106445e+00,3.762789487838745117e+00,3.762068510055541992e+00,3.761347532272338867e+00,3.760627031326293945e+00,3.759907007217407227e+00,3.759186506271362305e+00,3.758466958999633789e+00,3.757747650146484375e+00,3.757028102874755859e+00,3.756309270858764648e+00,3.755590915679931641e+00,3.754872322082519531e+00,3.754154205322265625e+00,3.753436565399169922e+00,3.752718687057495117e+00,3.752001523971557617e+00,3.751284837722778320e+00,3.750567674636840820e+00,3.749851465225219727e+00,3.749135255813598633e+00,3.748419284820556641e+00,3.747703552246093750e+00,3.746988534927368164e+00,3.746273040771484375e+00,3.745558500289916992e+00,3.744843959808349609e+00,3.659738779067993164e+00,3.550528049468994141e+00,3.447645902633666992e+00,3.350558280944824219e+00,3.258789539337158203e+00,3.171913146972656250e+00,3.089548587799072266e+00,3.011353254318237305e+00,2.937018871307373047e+00,2.866265535354614258e+00,2.798840761184692383e+00,2.734515666961669922e+00,2.673080682754516602e+00,2.614345312118530273e+00,2.558135747909545898e+00,2.504292488098144531e+00,2.452668905258178711e+00,2.403130769729614258e+00,2.355554342269897461e+00,2.309824705123901367e+00,2.265836954116821289e+00,2.223493337631225586e+00,2.182703495025634766e+00,2.143383026123046875e+00,2.105454206466674805e+00,2.068844318389892578e+00,2.033486127853393555e+00,1.999315977096557617e+00,1.966275334358215332e+00,1.934309005737304688e+00,1.903365373611450195e+00,1.873396158218383789e+00,1.844355940818786621e+00
3.083944082260131836e+00,3.083459615707397461e+00,3.082975387573242188e+00,3.082491397857666016e+00,3.082007169723510742e+00,3.081523656845092773e+00,3.081039905548095703e+00,3.080556392669677734e+00,3.080073118209838867e+00,3.079589843750000000e+00,3.079106569290161133e+00,3.078623771667480469e+00,3.078140974044799805e+00,3.077658414840698242e+00,3.077176094055175781e+00,3.076693773269653320e+00,3.076211452484130859e+00,3.075729608535766602e+00,3.075247526168823242e+00,3.074765920639038086e+00,3.074284553527832031e+00,3.073803186416625977e+00,3.073321819305419922e+00,3.072840690612792969e+00,3.072359561920166016e+00,3.071878910064697266e+00,3.071398496627807617e+00,3.070918083190917969e+00,3.070437431335449219e+00,3.069957494735717773e+00,3.069477081298828125e+00,3.068997383117675781e+00,3.068517684936523438e+00,3.068038225173950195e+00,3.067558526992797852e+00,3.067079544067382812e+00,3.066600084304809570e+00,3.066121339797973633e+00,3.065642595291137695e+00,3.065164089202880859e+00,3.064685344696044922e+00,3.064207077026367188e+00,3.063728570938110352e+00,3.063250541687011719e+00,3.062772750854492188e+00,3.062294960021972656e+00,3.061817169189453125e+00,3.061339855194091797e+00,3.060862302780151367e+00,3.060385227203369141e+00,3.059908151626586914e+00,3.059431314468383789e+00,3.058954477310180664e+00,3.058477878570556641e+00,3.011407136917114258e+00,2.937069654464721680e+00,2.866313934326171875e+00,2.798887252807617188e+00,2.734559774398803711e+00,2.673122882843017578e+00,2.614385843276977539e+00,2.558174610137939453e+00,2.504329442977905273e+00,2.452704429626464844e+00,2.403165102005004883e+00,2.355587005615234375e+00,2.309856176376342773e+00,2.265867233276367188e+00,2.223522663116455078e+00,2.182731628417968750e+00,2.143410205841064453e+00,2.105480432510375977e+00,2.068869590759277344e+00,2.033510446548461914e+00,1.999339461326599121e+00,1.966298341751098633e+00,1.934331178665161133e+00,1.903386712074279785e+00,1.873416781425476074e+00,1.844376087188720703e+00
2.605322122573852539e+00,2.604976415634155273e+00,2.604630470275878906e+00,2.604285001754760742e+00,2.603939771652221680e+00,2.603594303131103516e+00,2.603249073028564453e+00,2.602903842926025391e+00,2.602558612823486328e+00,2.602213621139526367e+00,2.601868867874145508e+00,2.601523876190185547e+00,2.601179361343383789e+00,2.600834608078002930e+00,2.600490093231201172e+00,2.600145578384399414e+00,2.599801301956176758e+00,2.599457025527954102e+00,2.599112749099731445e+00,2.598768711090087891e+00,2.598424673080444336e+00,2.598080873489379883e+00,2.597737073898315430e+00,2.597393274307250977e+00,2.597049713134765625e+00,2.596706151962280273e+00,2.596362590789794922e+00,2.596019268035888672e+00,2.595676183700561523e+00,2.595332860946655273e+00,2.594989776611328125e+00,2.594646692276000977e+00,2.594303846359252930e+00,2.593961000442504883e+00,2.593618392944335938e+00,2.593275547027587891e+00,2.592933177947998047e+00,2.592590808868408203e+00,2.592248201370239258e+00,2.591906070709228516e+00,2.591563940048217773e+00,2.591221570968627930e+00,2.590879678726196289e+00,2.590537786483764648e+00,2.590195894241333008e+00,2.589854240417480469e+00,2.589512586593627930e+00,2.589170932769775391e+00,2.588829517364501953e+00,2.588488340377807617e+00,2.588146924972534180e+00,2.587805747985839844e+00,2.587464809417724609e+00,2.587123632431030273e+00,2.586782693862915039e+00,2.586441993713378906e+00,2.586101055145263672e+00,2.585760593414306641e+00,2.585420131683349609e+00,2.585079431533813477e+00,2.584739208221435547e+00,2.558213233947753906e+00,2.504366636276245117e+00,2.452740192413330078e+00,2.403199195861816406e+00,2.355619907379150391e+00,2.309887886047363281e+00,2.265897750854492188e+00,2.223551988601684570e+00,2.182759761810302734e+00,2.143437385559082031e+00,2.105506658554077148e+00,2.068894863128662109e+00,2.033535003662109375e+00,1.999363303184509277e+00,1.966321110725402832e+00,1.934353232383728027e+00,1.903408169746398926e+00,1.873437523841857910e+00,1.844396114349365234e+00
2.255328178405761719e+00,2.255067825317382812e+00,2.254807949066162109e+00,2.254547834396362305e+00,2.254287958145141602e+00,2.254028081893920898e+00,2.253768205642700195e+00,2.253508567810058594e+00,2.253248691558837891e+00,2.252989053726196289e+00,2.252729415893554688e+00,2.252470016479492188e+00,2.252210378646850586e+00,2.251950979232788086e+00,2.251691579818725586e+00,2.251432418823242188e+00,2.251173019409179688e+00,2.250913858413696289e+00,2.250654935836791992e+00,2.250395774841308594e+00,2.250136852264404297e+00,2.249877929687500000e+00,2.249619007110595703e+00,2.249360084533691406e+00,2.249101877212524414e+00,2.248844146728515625e+00,2.248586654663085938e+00,2.248329162597656250e+00,2.248071670532226562e+00,2.247814178466796875e+00,2.247556686401367188e+00,2.247299432754516602e+00,2.247042179107666016e+00,2.246785163879394531e+00,2.246527910232543945e+00,2.246270895004272461e+00,2.246013879776000977e+00,2.245756864547729492e+00,2.245500087738037109e+00,2.245243310928344727e+00,2.244986295700073242e+00,2.244729757308959961e+00,2.244472980499267578e+00,2.244216442108154297e+00,2.243959903717041016e+00,2.243703365325927734e+00,2.243446826934814453e+00,2.243190526962280273e+00,2.242934226989746094e+00,2.242677927017211914e+00,2.242421865463256836e+00,2.242165803909301758e+00,2.241909503936767578e+00,2.241653680801391602e+00,2.241397619247436523e+00,2.241141796112060547e+00,2.240885972976684570e+00,2.240630149841308594e+00,2.240374326705932617e+00,2.240118741989135742e+00,2.239863157272338867e+00,2.239607572555541992e+00,2.239352226257324219e+00,2.239096879959106445e+00,2.238841295242309570e+00,2.238585948944091797e+00,2.238330602645874023e+00,2.238075494766235352e+00,2.223581314086914062e+00,2.182788133621215820e+00,2.143464565277099609e+00,2.105532884597778320e+00,2.068920373916625977e+00,2.033559560775756836e+00,1.999386906623840332e+00,1.966343998908996582e+00,1.934375286102294922e+00,1.903429508209228516e+00,1.873458266258239746e+00,1.844416379928588867e+00
1.988278508186340332e+00,1.988076448440551758e+00,1.987874269485473633e+00,1.987672209739685059e+00,1.987470149993896484e+00,1.987268209457397461e+00,1.987066030502319336e+00,1.986864089965820312e+00,1.986662268638610840e+00,1.986460447311401367e+00,1.986258625984191895e+00,1.986056923866271973e+00,1.985855221748352051e+00,1.985653638839721680e+00,1.985451698303222656e+00,1.985250115394592285e+00,1.985048651695251465e+00,1.984847187995910645e+00,1.984645724296569824e+00,1.984444260597229004e+00,1.984242916107177734e+00,1.984041333198547363e+00,1.983839988708496094e+00,1.983638763427734375e+00,1.983437538146972656e+00,1.983236432075500488e+00,1.983035326004028320e+00,1.982834219932556152e+00,1.982632875442504883e+00,1.982431888580322266e+00,1.982230901718139648e+00,1.982030034065246582e+00,1.981829166412353516e+00,1.981628298759460449e+00,1.981427550315856934e+00,1.981226682662963867e+00,1.981025815010070801e+00,1.980825066566467285e+00,1.980624437332153320e+00,1.980423927307128906e+00,1.980223298072814941e+00,1.980022788047790527e+00,1.979822278022766113e+00,1.979621648788452148e+00,1.979421257972717285e+00,1.979220867156982422e+00,1.979020595550537109e+00,1.978820323944091797e+00,1.978620052337646484e+00,1.978419899940490723e+00,1.978219509124755859e+00,1.978019356727600098e+00,1.977819323539733887e+00,1.977619290351867676e+00,1.977419257164001465e+00,1.977219343185424805e+00,1.977019429206848145e+00,1.976819276809692383e+00,1.976619482040405273e+00,1.976419687271118164e+00,1.976219892501831055e+00,1.976020216941833496e+00,1.975820541381835938e+00,1.975620865821838379e+00,1.975421309471130371e+00,1.975221514701843262e+00,1.975022077560424805e+00,1.974822521209716797e+00,1.974623084068298340e+00,1.974423766136169434e+00,1.974224448204040527e+00,1.974025130271911621e+00,1.973825573921203613e+00,1.973626375198364258e+00,1.973427176475524902e+00,1.966366767883300781e+00,1.934397339820861816e+00,1.903451085090637207e+00,1.873479127883911133e+00,1.844436526298522949e+00
1.777775287628173828e+00,1.777613759040832520e+00,1.777452111244201660e+00,1.777290582656860352e+00,1.777129054069519043e+00,1.776967406272888184e+00,1.776805877685546875e+00,1.776644468307495117e+00,1.776483058929443359e+00,1.776321649551391602e+00,1.776160359382629395e+00,1.775999069213867188e+00,1.775837540626525879e+00,1.775676250457763672e+00,1.775515079498291016e+00,1.775353789329528809e+00,1.775192618370056152e+00,1.775031566619873047e+00,1.774870395660400391e+00,1.774709105491638184e+00,1.774548053741455078e+00,1.774387001991271973e+00,1.774226069450378418e+00,1.774065017700195312e+00,1.773904085159301758e+00,1.773743152618408203e+00,1.773582100868225098e+00,1.773421287536621094e+00,1.773260474205017090e+00,1.773099660873413086e+00,1.772938847541809082e+00,1.772778153419494629e+00,1.772617459297180176e+00,1.772456765174865723e+00,1.772295951843261719e+00,1.772135257720947266e+00,1.771974682807922363e+00,1.771814107894897461e+00,1.771653652191162109e+00,1.771493077278137207e+00,1.771332621574401855e+00,1.771172046661376953e+00,1.771011590957641602e+00,1.770851135253906250e+00,1.770690798759460449e+00,1.770530462265014648e+00,1.770370244979858398e+00,1.770209908485412598e+00,1.770049452781677246e+00,1.769889235496520996e+00,1.769729137420654297e+00,1.769568920135498047e+00,1.769408822059631348e+00,1.769248723983764648e+00,1.769088625907897949e+00,1.768928527832031250e+00,1.768768429756164551e+00,1.768608450889587402e+00,1.768448472023010254e+00,1.768288493156433105e+00,1.768128633499145508e+00,1.767968773841857910e+00,1.767808914184570312e+00,1.767648935317993164e+00,1.767489194869995117e+00,1.767329454421997070e+00,1.767169713973999023e+00,1.767009973526000977e+00,1.766850352287292480e+00,1.766690731048583984e+00,1.766530871391296387e+00,1.766371369361877441e+00,1.766211748123168945e+00,1.766052246093750000e+00,1.765892744064331055e+00,1.765733242034912109e+00,1.765573859214782715e+00,1.765414357185363770e+00,1.765254974365234375e+00,1.765095591545104980e+00
1.607577681541442871e+00,1.607445597648620605e+00,1.607313394546508789e+00,1.607181191444396973e+00,1.607049107551574707e+00,1.606917023658752441e+00,1.606784939765930176e+00,1.606652975082397461e+00,1.606520891189575195e+00,1.606388926506042480e+00,1.606256842613220215e+00,1.606124877929687500e+00,1.605993032455444336e+00,1.605861067771911621e+00,1.605729222297668457e+00,1.605597376823425293e+00,1.605465531349182129e+00,1.605333566665649414e+00,1.605201840400695801e+00,1.605069994926452637e+00,1.604938268661499023e+00,1.604806542396545410e+00,1.604674935340881348e+00,1.604543209075927734e+00,1.604411602020263672e+00,1.604279756546020508e+00,1.604148149490356445e+00,1.604016542434692383e+00,1.603885054588317871e+00,1.603753447532653809e+00,1.603621959686279297e+00,1.603490471839904785e+00,1.603358864784240723e+00,1.603227376937866211e+00,1.603095889091491699e+00,1.602964520454406738e+00,1.602833151817321777e+00,1.602701663970947266e+00,1.602570414543151855e+00,1.602438926696777344e+00,1.602307558059692383e+00,1.602176308631896973e+00,1.602045059204101562e+00,1.601913809776306152e+00,1.601782560348510742e+00,1.601651310920715332e+00,1.601520061492919922e+00,1.601388812065124512e+00,1.601257681846618652e+00,1.601126670837402344e+00,1.600995540618896484e+00,1.600864410400390625e+00,1.600733399391174316e+00,1.600602388381958008e+00,1.600471258163452148e+00,1.600340247154235840e+00,1.600209236145019531e+00,1.600078344345092773e+00,1.599947333335876465e+00,1.599816441535949707e+00,1.599685549736022949e+00,1.599554538726806641e+00,1.599423766136169434e+00,1.599292874336242676e+00,1.599162101745605469e+00,1.599031329154968262e+00,1.598900556564331055e+00,1.598769903182983398e+00,1.598639011383056641e+00,1.598508358001708984e+00,1.598377704620361328e+00,1.598247051239013672e+00,1.598116397857666016e+00,1.597985863685607910e+00,1.597855210304260254e+00,1.597724676132202148e+00,1.597594022750854492e+00,1.597463488578796387e+00,1.597332954406738281e+00,1.597202539443969727e+00
1.467121005058288574e+00,1.467010736465454102e+00,1.466900706291198730e+00,1.466790676116943359e+00,1.466680645942687988e+00,1.466570615768432617e+00,1.466460704803466797e+00,1.466350674629211426e+00,1.466240644454956055e+00,1.466130614280700684e+00,1.466020703315734863e+00,1.465910792350769043e+00,1.465801000595092773e+00,1.465691089630126953e+00,1.465581178665161133e+00,1.465471386909484863e+00,1.465361475944519043e+00,1.465251684188842773e+00,1.465141892433166504e+00,1.465032100677490234e+00,1.464922308921813965e+00,1.464812517166137695e+00,1.464702844619750977e+00,1.464593052864074707e+00,1.464483261108398438e+00,1.464373588562011719e+00,1.464264035224914551e+00,1.464154362678527832e+00,1.464044690132141113e+00,1.463935136795043945e+00,1.463825345039367676e+00,1.463715791702270508e+00,1.463606238365173340e+00,1.463496685028076172e+00,1.463387131690979004e+00,1.463277697563171387e+00,1.463168144226074219e+00,1.463058590888977051e+00,1.462949156761169434e+00,1.462839603424072266e+00,1.462730288505554199e+00,1.462620854377746582e+00,1.462511420249938965e+00,1.462402105331420898e+00,1.462292671203613281e+00,1.462183237075805664e+00,1.462073922157287598e+00,1.461964607238769531e+00,1.461855292320251465e+00,1.461745977401733398e+00,1.461636781692504883e+00,1.461527466773986816e+00,1.461418151855468750e+00,1.461308956146240234e+00,1.461199760437011719e+00,1.461090564727783203e+00,1.460981369018554688e+00,1.460872173309326172e+00,1.460763096809387207e+00,1.460653901100158691e+00,1.460544705390930176e+00,1.460435628890991211e+00,1.460326552391052246e+00,1.460217595100402832e+00,1.460108518600463867e+00,1.459999442100524902e+00,1.459890365600585938e+00,1.459781408309936523e+00,1.459672451019287109e+00,1.459563493728637695e+00,1.459454536437988281e+00,1.459345579147338867e+00,1.459236741065979004e+00,1.459127783775329590e+00,1.459018826484680176e+00,1.458909988403320312e+00,1.458801150321960449e+00,1.458692312240600586e+00,1.458583474159240723e+00,1.458474636077880859e+00
1.349235773086547852e+00,1.349142789840698242e+00,1.349049687385559082e+00,1.348956584930419922e+00,1.348863482475280762e+00,1.348770499229431152e+00,1.348677396774291992e+00,1.348584294319152832e+00,1.348491311073303223e+00,1.348398327827453613e+00,1.348305344581604004e+00,1.348212361335754395e+00,1.348119497299194336e+00,1.348026514053344727e+00,1.347933530807495117e+00,1.347840547561645508e+00,1.347747683525085449e+00,1.347654819488525391e+00,1.347561955451965332e+00,1.347469091415405273e+00,1.347376227378845215e+00,1.347283363342285156e+00,1.347190499305725098e+00,1.347097635269165039e+00,1.347004890441894531e+00,1.346912145614624023e+00,1.346819281578063965e+00,1.346726536750793457e+00,1.346633672714233398e+00,1.346540927886962891e+00,1.346448302268981934e+00,1.346355557441711426e+00,1.346262812614440918e+00,1.346170186996459961e+00,1.346077561378479004e+00,1.345984816551208496e+00,1.345892071723937988e+00,1.345799446105957031e+00,1.345706820487976074e+00,1.345614194869995117e+00,1.345521688461303711e+00,1.345429062843322754e+00,1.345336437225341797e+00,1.345243811607360840e+00,1.345151305198669434e+00,1.345058798789978027e+00,1.344966292381286621e+00,1.344873785972595215e+00,1.344781279563903809e+00,1.344688773155212402e+00,1.344596147537231445e+00,1.344503760337829590e+00,1.344411253929138184e+00,1.344318866729736328e+00,1.344226479530334473e+00,1.344134092330932617e+00,1.344041705131530762e+00,1.343949198722839355e+00,1.343856811523437500e+00,1.343764424324035645e+00,1.343672156333923340e+00,1.343579769134521484e+00,1.343487501144409180e+00,1.343395113945007324e+00,1.343302845954895020e+00,1.343210458755493164e+00,1.343118190765380859e+00,1.343026041984558105e+00,1.342933773994445801e+00,1.342841506004333496e+00,1.342749357223510742e+00,1.342657089233398438e+00,1.342564821243286133e+00,1.342472672462463379e+00,1.342380523681640625e+00,1.342288374900817871e+00,1.342196226119995117e+00,1.342104077339172363e+00,1.342011928558349609e+00,1.341919779777526855e+00
1.248886227607727051e+00,1.248806476593017578e+00,1.248726725578308105e+00,1.248646974563598633e+00,1.248567342758178711e+00,1.248487472534179688e+00,1.248407721519470215e+00,1.248328089714050293e+00,1.248248338699340820e+00,1.248168706893920898e+00,1.248089075088500977e+00,1.248009443283081055e+00,1.247929692268371582e+00,1.247850060462951660e+00,1.247770428657531738e+00,1.247690796852111816e+00,1.247611165046691895e+00,1.247531533241271973e+00,1.247452020645141602e+00,1.247372269630432129e+00,1.247292757034301758e+00,1.247213125228881836e+00,1.247133612632751465e+00,1.247054100036621094e+00,1.246974587440490723e+00,1.246895074844360352e+00,1.246815443038940430e+00,1.246735930442810059e+00,1.246656417846679688e+00,1.246577024459838867e+00,1.246497511863708496e+00,1.246418118476867676e+00,1.246338605880737305e+00,1.246259212493896484e+00,1.246179699897766113e+00,1.246100306510925293e+00,1.246020793914794922e+00,1.245941400527954102e+00,1.245862126350402832e+00,1.245782732963562012e+00,1.245703339576721191e+00,1.245623826980590820e+00,1.245544552803039551e+00,1.245465159416198730e+00,1.245385885238647461e+00,1.245306611061096191e+00,1.245227217674255371e+00,1.245147943496704102e+00,1.245068550109863281e+00,1.244989275932312012e+00,1.244910001754760742e+00,1.244830846786499023e+00,1.244751572608947754e+00,1.244672298431396484e+00,1.244593143463134766e+00,1.244513869285583496e+00,1.244434595108032227e+00,1.244355440139770508e+00,1.244276165962219238e+00,1.244197010993957520e+00,1.244117856025695801e+00,1.244038701057434082e+00,1.243959546089172363e+00,1.243880391120910645e+00,1.243801236152648926e+00,1.243722200393676758e+00,1.243643045425415039e+00,1.243564009666442871e+00,1.243484854698181152e+00,1.243405818939208984e+00,1.243326663970947266e+00,1.243247628211975098e+00,1.243168592453002930e+00,1.243089556694030762e+00,1.243010520935058594e+00,1.242931485176086426e+00,1.242852449417114258e+00,1.242773413658142090e+00,1.242694497108459473e+00,1.242615461349487305e+00
1.162430405616760254e+00,1.162361264228820801e+00,1.162292242050170898e+00,1.162223100662231445e+00,1.162153959274291992e+00,1.162084937095642090e+00,1.162015914916992188e+00,1.161946773529052734e+00,1.161877751350402832e+00,1.161808729171752930e+00,1.161739587783813477e+00,1.161670565605163574e+00,1.161601662635803223e+00,1.161532640457153320e+00,1.161463618278503418e+00,1.161394596099853516e+00,1.161325693130493164e+00,1.161256551742553711e+00,1.161187648773193359e+00,1.161118626594543457e+00,1.161049723625183105e+00,1.160980820655822754e+00,1.160911917686462402e+00,1.160842895507812500e+00,1.160773992538452148e+00,1.160705089569091797e+00,1.160636186599731445e+00,1.160567283630371094e+00,1.160498380661010742e+00,1.160429477691650391e+00,1.160360693931579590e+00,1.160291790962219238e+00,1.160222887992858887e+00,1.160153985023498535e+00,1.160085201263427734e+00,1.160016417503356934e+00,1.159947514533996582e+00,1.159878730773925781e+00,1.159809947013854980e+00,1.159741044044494629e+00,1.159672260284423828e+00,1.159603595733642578e+00,1.159534811973571777e+00,1.159466028213500977e+00,1.159397244453430176e+00,1.159328579902648926e+00,1.159259676933288574e+00,1.159191012382507324e+00,1.159122228622436523e+00,1.159053564071655273e+00,1.158984899520874023e+00,1.158916115760803223e+00,1.158847451210021973e+00,1.158778786659240723e+00,1.158710122108459473e+00,1.158641457557678223e+00,1.158572793006896973e+00,1.158504128456115723e+00,1.158435463905334473e+00,1.158366918563842773e+00,1.158298254013061523e+00,1.158229589462280273e+00,1.158160924911499023e+00,1.158092379570007324e+00,1.158023834228515625e+00,1.157955169677734375e+00,1.157886624336242676e+00,1.157818078994750977e+00,1.157749414443969727e+00,1.157680869102478027e+00,1.157612442970275879e+00,1.157543897628784180e+00,1.157475352287292480e+00,1.157406806945800781e+00,1.157338380813598633e+00,1.157269835472106934e+00,1.157201290130615234e+00,1.157132744789123535e+00,1.157064318656921387e+00,1.156995892524719238e+00
1.087169528007507324e+00,1.087109088897705078e+00,1.087048649787902832e+00,1.086988210678100586e+00,1.086927771568298340e+00,1.086867332458496094e+00,1.086806893348693848e+00,1.086746573448181152e+00,1.086686134338378906e+00,1.086625695228576660e+00,1.086565375328063965e+00,1.086504936218261719e+00,1.086444616317749023e+00,1.086384177207946777e+00,1.086323857307434082e+00,1.086263537406921387e+00,1.086203098297119141e+00,1.086142778396606445e+00,1.086082458496093750e+00,1.086022138595581055e+00,1.085961818695068359e+00,1.085901498794555664e+00,1.085841178894042969e+00,1.085780858993530273e+00,1.085720539093017578e+00,1.085660219192504883e+00,1.085600018501281738e+00,1.085539698600769043e+00,1.085479497909545898e+00,1.085419178009033203e+00,1.085358858108520508e+00,1.085298657417297363e+00,1.085238456726074219e+00,1.085178256034851074e+00,1.085117936134338379e+00,1.085057735443115234e+00,1.084997534751892090e+00,1.084937334060668945e+00,1.084877133369445801e+00,1.084816932678222656e+00,1.084756731986999512e+00,1.084696531295776367e+00,1.084636330604553223e+00,1.084576249122619629e+00,1.084516048431396484e+00,1.084455847740173340e+00,1.084395766258239746e+00,1.084335565567016602e+00,1.084275484085083008e+00,1.084215283393859863e+00,1.084155201911926270e+00,1.084095120429992676e+00,1.084034919738769531e+00,1.083974838256835938e+00,1.083914756774902344e+00,1.083854675292968750e+00,1.083794593811035156e+00,1.083734512329101562e+00,1.083674430847167969e+00,1.083614349365234375e+00,1.083554267883300781e+00,1.083494305610656738e+00,1.083434224128723145e+00,1.083374261856079102e+00,1.083314180374145508e+00,1.083254218101501465e+00,1.083194136619567871e+00,1.083134055137634277e+00,1.083074092864990234e+00,1.083014130592346191e+00,1.082954168319702148e+00,1.082894206047058105e+00,1.082834243774414062e+00,1.082774281501770020e+00,1.082714200019836426e+00,1.082654237747192383e+00,1.082594275474548340e+00,1.082534432411193848e+00,1.082474470138549805e+00,1.082414507865905762e+00
1.021061539649963379e+00,1.021008253097534180e+00,1.020954847335815430e+00,1.020901560783386230e+00,1.020848274230957031e+00,1.020794987678527832e+00,1.020741701126098633e+00,1.020688414573669434e+00,1.020635128021240234e+00,1.020581841468811035e+00,1.020528554916381836e+00,1.020475268363952637e+00,1.020422101020812988e+00,1.020368814468383789e+00,1.020315527915954590e+00,1.020262241363525391e+00,1.020209074020385742e+00,1.020155787467956543e+00,1.020102620124816895e+00,1.020049333572387695e+00,1.019996166229248047e+00,1.019942879676818848e+00,1.019889712333679199e+00,1.019836544990539551e+00,1.019783377647399902e+00,1.019730091094970703e+00,1.019676923751831055e+00,1.019623756408691406e+00,1.019570589065551758e+00,1.019517421722412109e+00,1.019464254379272461e+00,1.019411087036132812e+00,1.019357919692993164e+00,1.019304871559143066e+00,1.019251704216003418e+00,1.019198536872863770e+00,1.019145369529724121e+00,1.019092321395874023e+00,1.019039154052734375e+00,1.018986105918884277e+00,1.018932938575744629e+00,1.018879890441894531e+00,1.018826842308044434e+00,1.018773674964904785e+00,1.018720507621765137e+00,1.018667459487915039e+00,1.018614411354064941e+00,1.018561363220214844e+00,1.018508315086364746e+00,1.018455266952514648e+00,1.018402218818664551e+00,1.018349170684814453e+00,1.018296122550964355e+00,1.018243074417114258e+00,1.018190026283264160e+00,1.018136978149414062e+00,1.018084049224853516e+00,1.018031001091003418e+00,1.017977952957153320e+00,1.017924904823303223e+00,1.017871975898742676e+00,1.017819046974182129e+00,1.017765998840332031e+00,1.017713069915771484e+00,1.017660021781921387e+00,1.017607092857360840e+00,1.017554163932800293e+00,1.017501115798950195e+00,1.017448186874389648e+00,1.017395257949829102e+00,1.017342329025268555e+00,1.017289400100708008e+00,1.017236471176147461e+00,1.017183542251586914e+00,1.017130613327026367e+00,1.017077684402465820e+00,1.017024755477905273e+00,1.016971945762634277e+00,1.016919016838073730e+00,1.016866087913513184e+00
9.625324606895446777e-01,9.624850749969482422e-01,9.624377489089965820e-01,9.623903632164001465e-01,9.623429775238037109e-01,9.622954726219177246e-01,9.622481465339660645e-01,9.622008204460144043e-01,9.621534347534179688e-01,9.621061086654663086e-01,9.620587825775146484e-01,9.620114564895629883e-01,9.619641304016113281e-01,9.619168043136596680e-01,9.618694782257080078e-01,9.618221521377563477e-01,9.617748856544494629e-01,9.617275595664978027e-01,9.616802930831909180e-01,9.616328477859497070e-01,9.615855813026428223e-01,9.615383148193359375e-01,9.614909887313842773e-01,9.614437222480773926e-01,9.613964557647705078e-01,9.613491892814636230e-01,9.613019227981567383e-01,9.612547159194946289e-01,9.612074494361877441e-01,9.611601829528808594e-01,9.611129164695739746e-01,9.610657095909118652e-01,9.610185027122497559e-01,9.609712362289428711e-01,9.609239101409912109e-01,9.608767032623291016e-01,9.608294963836669922e-01,9.607822895050048828e-01,9.607350826263427734e-01,9.606878757476806641e-01,9.606406688690185547e-01,9.605934619903564453e-01,9.605462551116943359e-01,9.604991078376770020e-01,9.604519009590148926e-01,9.604047536849975586e-01,9.603576064109802246e-01,9.603103995323181152e-01,9.602631330490112305e-01,9.602159857749938965e-01,9.601688385009765625e-01,9.601216912269592285e-01,9.600745439529418945e-01,9.600273966789245605e-01,9.599803090095520020e-01,9.599331617355346680e-01,9.598860144615173340e-01,9.598389267921447754e-01,9.597917795181274414e-01,9.597446918487548828e-01,9.596976041793823242e-01,9.596505165100097656e-01,9.596033692359924316e-01,9.595561623573303223e-01,9.595091342926025391e-01,9.594620466232299805e-01,9.594149589538574219e-01,9.593678712844848633e-01,9.593207836151123047e-01,9.592737555503845215e-01,9.592266678810119629e-01,9.591796398162841797e-01,9.591326117515563965e-01,9.590855240821838379e-01,9.590384960174560547e-01,9.589914679527282715e-01,9.589444398880004883e-01,9.588972926139831543e-01,9.588502645492553711e-01,9.588032364845275879e-01
9.103495478630065918e-01,9.103071689605712891e-01,9.102647900581359863e-01,9.102222919464111328e-01,9.101799726486206055e-01,9.101375937461853027e-01,9.100952148437500000e-01,9.100528955459594727e-01,9.100105166435241699e-01,9.099681973457336426e-01,9.099258184432983398e-01,9.098834991455078125e-01,9.098411202430725098e-01,9.097988009452819824e-01,9.097564816474914551e-01,9.097141623497009277e-01,9.096718430519104004e-01,9.096294045448303223e-01,9.095870852470397949e-01,9.095448255538940430e-01,9.095025062561035156e-01,9.094601869583129883e-01,9.094178676605224609e-01,9.093756079673767090e-01,9.093332886695861816e-01,9.092910289764404297e-01,9.092487692832946777e-01,9.092064499855041504e-01,9.091641902923583984e-01,9.091219305992126465e-01,9.090796709060668945e-01,9.090374112129211426e-01,9.089950323104858398e-01,9.089527726173400879e-01,9.089105129241943359e-01,9.088683128356933594e-01,9.088260531425476074e-01,9.087837934494018555e-01,9.087415933609008789e-01,9.086993336677551270e-01,9.086571335792541504e-01,9.086148738861083984e-01,9.085726737976074219e-01,9.085304737091064453e-01,9.084882736206054688e-01,9.084460139274597168e-01,9.084037542343139648e-01,9.083615541458129883e-01,9.083193540573120117e-01,9.082771539688110352e-01,9.082349538803100586e-01,9.081928133964538574e-01,9.081506133079528809e-01,9.081084132194519043e-01,9.080662727355957031e-01,9.080240726470947266e-01,9.079819321632385254e-01,9.079397916793823242e-01,9.078975915908813477e-01,9.078554511070251465e-01,9.078133106231689453e-01,9.077710509300231934e-01,9.077289104461669922e-01,9.076867699623107910e-01,9.076446890830993652e-01,9.076025485992431641e-01,9.075604081153869629e-01,9.075182676315307617e-01,9.074761867523193359e-01,9.074340462684631348e-01,9.073919653892517090e-01,9.073498249053955078e-01,9.073077440261840820e-01,9.072656631469726562e-01,9.072235822677612305e-01,9.071814417839050293e-01,9.071393013000488281e-01,9.070972204208374023e-01,9.070551395416259766e-01,9.070130586624145508e-01
8.635337948799133301e-01,8.634955286979675293e-01,8.634574413299560547e-01,8.634192943572998047e-01,8.633811473846435547e-01,8.633430600166320801e-01,8.633049130439758301e-01,8.632668256759643555e-01,8.632286787033081055e-01,8.631905913352966309e-01,8.631525039672851562e-01,8.631144165992736816e-01,8.630763292312622070e-01,8.630381822586059570e-01,8.630000948905944824e-01,8.629620075225830078e-01,8.629238605499267578e-01,8.628857731819152832e-01,8.628476858139038086e-01,8.628096580505371094e-01,8.627715706825256348e-01,8.627334833145141602e-01,8.626954555511474609e-01,8.626573681831359863e-01,8.626193404197692871e-01,8.625812530517578125e-01,8.625432252883911133e-01,8.625051975250244141e-01,8.624671101570129395e-01,8.624290823936462402e-01,8.623909354209899902e-01,8.623529076576232910e-01,8.623148798942565918e-01,8.622768521308898926e-01,8.622388243675231934e-01,8.622008562088012695e-01,8.621628284454345703e-01,8.621248006820678711e-01,8.620867729187011719e-01,8.620488047599792480e-01,8.620107769966125488e-01,8.619728088378906250e-01,8.619347810745239258e-01,8.618968129158020020e-01,8.618587851524353027e-01,8.618207573890686035e-01,8.617827296257019043e-01,8.617447614669799805e-01,8.617067933082580566e-01,8.616688251495361328e-01,8.616308569908142090e-01,8.615928888320922852e-01,8.615549206733703613e-01,8.615169525146484375e-01,8.614789843559265137e-01,8.614410758018493652e-01,8.614031076431274414e-01,8.613651394844055176e-01,8.613272309303283691e-01,8.612892031669616699e-01,8.612512350082397461e-01,8.612133264541625977e-01,8.611754179000854492e-01,8.611374497413635254e-01,8.610995411872863770e-01,8.610616326332092285e-01,8.610237240791320801e-01,8.609858155250549316e-01,8.609479069709777832e-01,8.609099984169006348e-01,8.608720898628234863e-01,8.608341813087463379e-01,8.607962727546691895e-01,8.607584238052368164e-01,8.607203960418701172e-01,8.606825470924377441e-01,8.606446385383605957e-01,8.606067895889282227e-01,8.605688810348510742e-01,8.605310320854187012e-01
