5.000000000000000000e+00,5.000000000000000000e+00,5.000000000000000000e+00,5.000000000000000000e+00,5.000000000000000000e+00,5.000000000000000000e+00,5.000000000000000000e+00,5.000000000000000000e+00,5.000000000000000000e+00,5.000000000000000000e+00,5.000000000000000000e+00,5.000000000000000000e+00,5.000000000000000000e+00,5.000000000000000000e+00,5.000000000000000000e+00,5.000000000000000000e+00,5.000000000000000000e+00,5.000000000000000000e+00,5.000000000000000000e+00,5.000000000000000000e+00,5.000000000000000000e+00,5.000000000000000000e+00,5.000000000000000000e+00,5.000000000000000000e+00,5.000000000000000000e+00,5.000000000000000000e+00,5.000000000000000000e+00,2.703522443771362305e+00,2.704916000366210938e+00,2.735947370529174805e+00,2.726747274398803711e+00,2.732813358306884766e+00,2.832139730453491211e+00,2.809715032577514648e+00,5.000000000000000000e+00,5.000000000000000000e+00,5.000000000000000000e+00,5.000000000000000000e+00,5.000000000000000000e+00,4.862779617309570312e+00,4.671756267547607422e+00,4.495172977447509766e+00,4.331452846527099609e+00,4.179239273071289062e+00,4.037360191345214844e+00,3.904798746109008789e+00,3.780665159225463867e+00,3.664180755615234375e+00,3.554659843444824219e+00,3.451495885848999023e+00,3.354151248931884766e+00,3.262146711349487305e+00,3.175055027008056641e+00,3.092492580413818359e+00,3.014115095138549805e+00,2.939612388610839844e+00,2.868703842163085938e+00,2.801135778427124023e+00,2.736677169799804688e+00,2.675118684768676758e+00,2.616268396377563477e+00,2.559951782226562500e+00,2.506008625030517578e+00,2.454291820526123047e+00,2.404666423797607422e+00,2.357008218765258789e+00,2.311202287673950195e+00,2.267142772674560547e+00,2.224731683731079102e+00,2.183878183364868164e+00,2.144498109817504883e+00,2.106513023376464844e+00,2.069850206375122070e+00,2.034441709518432617e+00,2.000224351882934570e+00,1.967139244079589844e+00,1.935130476951599121e+00,1.904146909713745117e+00,1.874139547348022461e+00,1.845063567161560059e+00
5.000000000000000000e+00,5.000000000000000000e+00,5.000000000000000000e+00,5.000000000000000000e+00,5.000000000000000000e+00,5.000000000000000000e+00,5.000000000000000000e+00,5.000000000000000000e+00,5.000000000000000000e+00,5.000000000000000000e+00,5.000000000000000000e+00,5.000000000000000000e+00,5.000000000000000000e+00,5.000000000000000000e+00,5.000000000000000000e+00,5.000000000000000000e+00,5.000000000000000000e+00,5.000000000000000000e+00,5.000000000000000000e+00,5.000000000000000000e+00,5.000000000000000000e+00,5.000000000000000000e+00,5.000000000000000000e+00,5.000000000000000000e+00,5.000000000000000000e+00,5.000000000000000000e+00,5.000000000000000000e+00,2.683773756027221680e+00,2.695006370544433594e+00,2.695876359939575195e+00,2.709033727645874023e+00,2.730690956115722656e+00,2.756944894790649414e+00,2.793268442153930664e+00,2.836214780807495117e+00,2.894070148468017578e+00,5.000000000000000000e+00,5.000000000000000000e+00,5.000000000000000000e+00,4.862919330596923828e+00,4.671885013580322266e+00,4.495292186737060547e+00,4.331563472747802734e+00,4.179342269897460938e+00,4.037456512451171875e+00,3.904888868331909180e+00,3.780749559402465820e+00,3.664260149002075195e+00,3.554734468460083008e+00,3.451566219329833984e+00,3.354217529296875000e+00,3.262209653854370117e+00,3.175114393234252930e+00,3.092549085617065430e+00,3.014168739318847656e+00,2.939663410186767578e+00,2.868752479553222656e+00,2.801182031631469727e+00,2.736721277236938477e+00,2.675160884857177734e+00,2.616308927536010742e+00,2.559990406036376953e+00,2.506045579910278320e+00,2.454327344894409180e+00,2.404700517654418945e+00,2.357041120529174805e+00,2.311233758926391602e+00,2.267173051834106445e+00,2.224760770797729492e+00,2.183906316757202148e+00,2.144525051116943359e+00,2.106539249420166016e+00,2.069875478744506836e+00,2.034466266632080078e+00,2.000247955322265625e+00,1.967162132263183594e+00,1.935152530670166016e+00,1.904168248176574707e+00,1.874160289764404297e+00,1.845083594322204590e+00
5.000000000000000000e+00,5.000000000000000000e+00,5.000000000000000000e+00,5.000000000000000000e+00,5.000000000000000000e+00,5.000000000000000000e+00,5.000000000000000000e+00,5.000000000000000000e+00,5.000000000000000000e+00,5.000000000000000000e+00,5.000000000000000000e+00,5.000000000000000000e+00,5.000000000000000000e+00,5.000000000000000000e+00,5.000000000000000000e+00,5.000000000000000000e+00,5.000000000000000000e+00,5.000000000000000000e+00,5.000000000000000000e+00,5.000000000000000000e+00,5.000000000000000000e+00,5.000000000000000000e+00,5.000000000000000000e+00,5.000000000000000000e+00,5.000000000000000000e+00,5.000000000000000000e+00,5.000000000000000000e+00,2.700042724609375000e+00,2.715427398681640625e+00,2.702105045318603516e+00,2.691689252853393555e+00,2.697664022445678711e+00,2.715363025665283203e+00,2.740814208984375000e+00,2.788740634918212891e+00,2.891287326812744141e+00,2.923959493637084961e+00,5.000000000000000000e+00,5.000000000000000000e+00,4.863059043884277344e+00,4.672013759613037109e+00,4.495411872863769531e+00,4.331674575805664062e+00,4.179445743560791016e+00,4.037552833557128906e+00,3.904978752136230469e+00,3.780833959579467773e+00,3.664339303970336914e+00,3.554808855056762695e+00,3.451636552810668945e+00,3.354284048080444336e+00,3.262272357940673828e+00,3.175173997879028320e+00,3.092605352401733398e+00,3.014222383499145508e+00,2.939714431762695312e+00,2.868801116943359375e+00,2.801228284835815430e+00,2.736765623092651367e+00,2.675203084945678711e+00,2.616349220275878906e+00,2.560029029846191406e+00,2.506082773208618164e+00,2.454362869262695312e+00,2.404734611511230469e+00,2.357073783874511719e+00,2.311265230178833008e+00,2.267203092575073242e+00,2.224789857864379883e+00,2.183934450149536133e+00,2.144552230834960938e+00,2.106565475463867188e+00,2.069900751113891602e+00,2.034490585327148438e+00,2.000271558761596680e+00,1.967184901237487793e+00,1.935174584388732910e+00,1.904189586639404297e+00,1.874181032180786133e+00,1.845103740692138672e+00
5.000000000000000000e+00,5.000000000000000000e+00,5.000000000000000000e+00,5.000000000000000000e+00,5.000000000000000000e+00,5.000000000000000000e+00,5.000000000000000000e+00,5.000000000000000000e+00,5.000000000000000000e+00,5.000000000000000000e+00,5.000000000000000000e+00,5.000000000000000000e+00,5.000000000000000000e+00,5.000000000000000000e+00,5.000000000000000000e+00,5.000000000000000000e+00,5.000000000000000000e+00,5.000000000000000000e+00,5.000000000000000000e+00,5.000000000000000000e+00,5.000000000000000000e+00,5.000000000000000000e+00,5.000000000000000000e+00,5.000000000000000000e+00,5.000000000000000000e+00,5.000000000000000000e+00,5.000000000000000000e+00,2.724119186401367188e+00,2.724499225616455078e+00,2.714165210723876953e+00,2.693977832794189453e+00,2.701159477233886719e+00,2.717207908630371094e+00,2.750201225280761719e+00,2.785745859146118164e+00,2.921088695526123047e+00,2.933562278747558594e+00,5.000000000000000000e+00,5.000000000000000000e+00,4.863199234008789062e+00,4.672142982482910156e+00,4.495531558990478516e+00,4.331785678863525391e+00,4.179548740386962891e+00,4.037649631500244141e+00,3.905069112777709961e+00,3.780918598175048828e+00,3.664418935775756836e+00,3.554883956909179688e+00,3.451707124710083008e+00,3.354350566864013672e+00,3.262335538864135742e+00,3.175233840942382812e+00,3.092662096023559570e+00,3.014276266098022461e+00,2.939765691757202148e+00,2.868849754333496094e+00,2.801274776458740234e+00,2.736809968948364258e+00,2.675245523452758789e+00,2.616389751434326172e+00,2.560067892074584961e+00,2.506119966506958008e+00,2.454398632049560547e+00,2.404768943786621094e+00,2.357106685638427734e+00,2.311296701431274414e+00,2.267233610153198242e+00,2.224819183349609375e+00,2.183962821960449219e+00,2.144579648971557617e+00,2.106591701507568359e+00,2.069926023483276367e+00,2.034515142440795898e+00,2.000295400619506836e+00,1.967207789421081543e+00,1.935196995735168457e+00,1.904211044311523438e+00,1.874201893806457520e+00,1.845123767852783203e+00
5.000000000000000000e+00,5.000000000000000000e+00,5.000000000000000000e+00,5.000000000000000000e+00,5.000000000000000000e+00,5.000000000000000000e+00,5.000000000000000000e+00,5.000000000000000000e+00,5.000000000000000000e+00,5.000000000000000000e+00,5.000000000000000000e+00,5.000000000000000000e+00,5.000000000000000000e+00,5.000000000000000000e+00,5.000000000000000000e+00,5.000000000000000000e+00,5.000000000000000000e+00,5.000000000000000000e+00,5.000000000000000000e+00,5.000000000000000000e+00,5.000000000000000000e+00,5.000000000000000000e+00,5.000000000000000000e+00,5.000000000000000000e+00,5.000000000000000000e+00,5.000000000000000000e+00,5.000000000000000000e+00,2.736683607101440430e+00,2.733230829238891602e+00,2.730802059173583984e+00,2.705824613571166992e+00,2.703338623046875000e+00,2.709351778030395508e+00,2.739503860473632812e+00,2.803489685058593750e+00,2.910784721374511719e+00,2.934939384460449219e+00,5.000000000000000000e+00,5.000000000000000000e+00,4.863338470458984375e+00,4.672271728515625000e+00,4.495650768280029297e+00,4.331896305084228516e+00,4.179652214050292969e+00,4.037745475769042969e+00,3.905159235000610352e+00,3.781002998352050781e+00,3.664498090744018555e+00,3.554958581924438477e+00,3.451777458190917969e+00,3.354417085647583008e+00,3.262398242950439453e+00,3.175293207168579102e+00,3.092718601226806641e+00,3.014329910278320312e+00,2.939816713333129883e+00,2.868898391723632812e+00,2.801321268081665039e+00,2.736854076385498047e+00,2.675287723541259766e+00,2.616430282592773438e+00,2.560106754302978516e+00,2.506156921386718750e+00,2.454434156417846680e+00,2.404803037643432617e+00,2.357139348983764648e+00,2.311328172683715820e+00,2.267264127731323242e+00,2.224848508834838867e+00,2.183990955352783203e+00,2.144606590270996094e+00,2.106617927551269531e+00,2.069951295852661133e+00,2.034539699554443359e+00,2.000319004058837891e+00,1.967230558395385742e+00,1.935219049453735352e+00,1.904232382774353027e+00,1.874222636222839355e+00,1.845143914222717285e+00
5.000000000000000000e+00,5.000000000000000000e+00,5.000000000000000000e+00,5.000000000000000000e+00,5.000000000000000000e+00,5.000000000000000000e+00,5.000000000000000000e+00,5.000000000000000000e+00,5.000000000000000000e+00,5.000000000000000000e+00,5.000000000000000000e+00,5.000000000000000000e+00,5.000000000000000000e+00,5.000000000000000000e+00,5.000000000000000000e+00,5.000000000000000000e+00,5.000000000000000000e+00,5.000000000000000000e+00,5.000000000000000000e+00,5.000000000000000000e+00,5.000000000000000000e+00,5.000000000000000000e+00,5.000000000000000000e+00,5.000000000000000000e+00,5.000000000000000000e+00,5.000000000000000000e+00,5.000000000000000000e+00,2.744757413864135742e+00,2.738554716110229492e+00,2.741874456405639648e+00,2.708340167999267578e+00,2.700546026229858398e+00,2.711341142654418945e+00,2.738849163055419922e+00,2.793544530868530273e+00,2.907795429229736328e+00,2.932367801666259766e+00,5.000000000000000000e+00,5.000000000000000000e+00,4.863478660583496094e+00,4.672400951385498047e+00,4.495770454406738281e+00,4.332007408142089844e+00,4.179755210876464844e+00,4.037842273712158203e+00,3.905249118804931641e+00,3.781087398529052734e+00,3.664577484130859375e+00,3.555032968521118164e+00,3.451847791671752930e+00,3.354483366012573242e+00,3.262461185455322266e+00,3.175352811813354492e+00,3.092775106430053711e+00,3.014383554458618164e+00,2.939867734909057617e+00,2.868947029113769531e+00,2.801367521286010742e+00,2.736898422241210938e+00,2.675329923629760742e+00,2.616470575332641602e+00,2.560145378112792969e+00,2.506194114685058594e+00,2.454469680786132812e+00,2.404836893081665039e+00,2.357172012329101562e+00,2.311359882354736328e+00,2.267294406890869141e+00,2.224877595901489258e+00,2.184019088745117188e+00,2.144633769989013672e+00,2.106644153594970703e+00,2.069976568222045898e+00,2.034564018249511719e+00,2.000342607498168945e+00,1.967253446578979492e+00,1.935241103172302246e+00,1.904253840446472168e+00,1.874243378639221191e+00,1.845163941383361816e+00
5.000000000000000000e+00,5.000000000000000000e+00,5.000000000000000000e+00,5.000000000000000000e+00,5.000000000000000000e+00,5.000000000000000000e+00,5.000000000000000000e+00,5.000000000000000000e+00,5.000000000000000000e+00,5.000000000000000000e+00,5.000000000000000000e+00,5.000000000000000000e+00,5.000000000000000000e+00,5.000000000000000000e+00,5.000000000000000000e+00,5.000000000000000000e+00,5.000000000000000000e+00,5.000000000000000000e+00,5.000000000000000000e+00,5.000000000000000000e+00,5.000000000000000000e+00,5.000000000000000000e+00,5.000000000000000000e+00,5.000000000000000000e+00,5.000000000000000000e+00,5.000000000000000000e+00,5.000000000000000000e+00,2.754381179809570312e+00,2.744547367095947266e+00,2.747403383255004883e+00,2.704573154449462891e+00,2.695986032485961914e+00,2.711966514587402344e+00,2.742293596267700195e+00,2.795247077941894531e+00,2.916324615478515625e+00,2.928075790405273438e+00,5.000000000000000000e+00,5.000000000000000000e+00,4.863618373870849609e+00,4.672530174255371094e+00,4.495889663696289062e+00,4.332118034362792969e+00,4.179858684539794922e+00,4.037938594818115234e+00,3.905339717864990234e+00,3.781172275543212891e+00,3.664657115936279297e+00,3.555108070373535156e+00,3.451918363571166992e+00,3.354550123214721680e+00,3.262524127960205078e+00,3.175412654876708984e+00,3.092831850051879883e+00,3.014437437057495117e+00,2.939918994903564453e+00,2.868995904922485352e+00,2.801414012908935547e+00,2.736942768096923828e+00,2.675372362136840820e+00,2.616511106491088867e+00,2.560184240341186523e+00,2.506231307983398438e+00,2.454505205154418945e+00,2.404871225357055664e+00,2.357205152511596680e+00,2.311391592025756836e+00,2.267324924468994141e+00,2.224907159805297852e+00,2.184047222137451172e+00,2.144661188125610352e+00,2.106670379638671875e+00,2.070002079010009766e+00,2.034588575363159180e+00,2.000366210937500000e+00,1.967276453971862793e+00,1.935263276100158691e+00,1.904275417327880859e+00,1.874264121055603027e+00,1.845184326171875000e+00
5.000000000000000000e+00,5.000000000000000000e+00,5.000000000000000000e+00,5.000000000000000000e+00,5.000000000000000000e+00,5.000000000000000000e+00,5.000000000000000000e+00,5.000000000000000000e+00,5.000000000000000000e+00,5.000000000000000000e+00,5.000000000000000000e+00,5.000000000000000000e+00,5.000000000000000000e+00,5.000000000000000000e+00,5.000000000000000000e+00,5.000000000000000000e+00,5.000000000000000000e+00,5.000000000000000000e+00,5.000000000000000000e+00,5.000000000000000000e+00,5.000000000000000000e+00,5.000000000000000000e+00,5.000000000000000000e+00,5.000000000000000000e+00,5.000000000000000000e+00,5.000000000000000000e+00,5.000000000000000000e+00,2.766484498977661133e+00,2.756253004074096680e+00,2.723712682723999023e+00,2.696245908737182617e+00,2.686887502670288086e+00,2.702363014221191406e+00,2.735701799392700195e+00,2.774326324462890625e+00,2.929423570632934570e+00,2.934006690979003906e+00,5.000000000000000000e+00,5.000000000000000000e+00,4.863758087158203125e+00,4.672658920288085938e+00,4.496008872985839844e+00,4.332229137420654297e+00,4.179961681365966797e+00,4.038034915924072266e+00,3.905429601669311523e+00,3.781256675720214844e+00,3.664736270904541016e+00,3.555182695388793945e+00,3.451988697052001953e+00,3.354616641998291016e+00,3.262587070465087891e+00,3.175472021102905273e+00,3.092888116836547852e+00,3.014491081237792969e+00,2.939970016479492188e+00,2.869044303894042969e+00,2.801460266113281250e+00,2.736987113952636719e+00,2.675414562225341797e+00,2.616551637649536133e+00,2.560222864151000977e+00,2.506268262863159180e+00,2.454540729522705078e+00,2.404905319213867188e+00,2.357237815856933594e+00,2.311423063278198242e+00,2.267355203628540039e+00,2.224936246871948242e+00,2.184075355529785156e+00,2.144688367843627930e+00,2.106696605682373047e+00,2.070027351379394531e+00,2.034612894058227539e+00,2.000390052795410156e+00,1.967299342155456543e+00,1.935285329818725586e+00,1.904296875000000000e+00,1.874284863471984863e+00,1.845204353332519531e+00
5.000000000000000000e+00,5.000000000000000000e+00,5.000000000000000000e+00,5.000000000000000000e+00,5.000000000000000000e+00,5.000000000000000000e+00,5.000000000000000000e+00,5.000000000000000000e+00,5.000000000000000000e+00,5.000000000000000000e+00,5.000000000000000000e+00,5.000000000000000000e+00,5.000000000000000000e+00,5.000000000000000000e+00,5.000000000000000000e+00,5.000000000000000000e+00,5.000000000000000000e+00,5.000000000000000000e+00,5.000000000000000000e+00,5.000000000000000000e+00,5.000000000000000000e+00,5.000000000000000000e+00,5.000000000000000000e+00,5.000000000000000000e+00,5.000000000000000000e+00,5.000000000000000000e+00,5.000000000000000000e+00,2.810019493103027344e+00,2.760067224502563477e+00,2.725131273269653320e+00,2.701757907867431641e+00,2.700357198715209961e+00,2.711239576339721680e+00,2.735696792602539062e+00,2.794503211975097656e+00,2.934152603149414062e+00,2.927120923995971680e+00,5.000000000000000000e+00,5.000000000000000000e+00,4.863897800445556641e+00,4.672788143157958984e+00,4.496128559112548828e+00,4.332340240478515625e+00,4.180065155029296875e+00,4.038131237030029297e+00,3.905519723892211914e+00,3.781340837478637695e+00,3.664815425872802734e+00,3.555257081985473633e+00,3.452059030532836914e+00,3.354682922363281250e+00,3.262649774551391602e+00,3.175531625747680664e+00,3.092944622039794922e+00,3.014544486999511719e+00,2.940021038055419922e+00,2.869092941284179688e+00,2.801506757736206055e+00,2.737031221389770508e+00,2.675457000732421875e+00,2.616591930389404297e+00,2.560261487960815430e+00,2.506305217742919922e+00,2.454576253890991211e+00,2.404939651489257812e+00,2.357270717620849609e+00,2.311454534530639648e+00,2.267385482788085938e+00,2.224965572357177734e+00,2.184103488922119141e+00,2.144715309143066406e+00,2.106722831726074219e+00,2.070052623748779297e+00,2.034637451171875000e+00,2.000413656234741211e+00,1.967322230339050293e+00,1.935307383537292480e+00,1.904318213462829590e+00,1.874305605888366699e+00,1.845224499702453613e+00
5.000000000000000000e+00,5.000000000000000000e+00,5.000000000000000000e+00,5.000000000000000000e+00,5.000000000000000000e+00,5.000000000000000000e+00,5.000000000000000000e+00,5.000000000000000000e+00,5.000000000000000000e+00,5.000000000000000000e+00,5.000000000000000000e+00,5.000000000000000000e+00,5.000000000000000000e+00,5.000000000000000000e+00,5.000000000000000000e+00,5.000000000000000000e+00,5.000000000000000000e+00,5.000000000000000000e+00,5.000000000000000000e+00,5.000000000000000000e+00,5.000000000000000000e+00,5.000000000000000000e+00,5.000000000000000000e+00,5.000000000000000000e+00,5.000000000000000000e+00,5.000000000000000000e+00,5.000000000000000000e+00,5.000000000000000000e+00,2.738755464553833008e+00,2.736096143722534180e+00,2.702856302261352539e+00,2.705157518386840820e+00,2.719348669052124023e+00,2.738033533096313477e+00,2.783774852752685547e+00,2.947929143905639648e+00,2.909013509750366211e+00,2.935765027999877930e+00,5.000000000000000000e+00,4.864037990570068359e+00,4.672917366027832031e+00,4.496248245239257812e+00,4.332450866699218750e+00,4.180168628692626953e+00,4.038227558135986328e+00,3.905610084533691406e+00,3.781425714492797852e+00,3.664895296096801758e+00,3.555332183837890625e+00,3.452129840850830078e+00,3.354749679565429688e+00,3.262712955474853516e+00,3.175591468811035156e+00,3.093001365661621094e+00,3.014598608016967773e+00,2.940072298049926758e+00,2.869141817092895508e+00,2.801553249359130859e+00,2.737075567245483398e+00,2.675499439239501953e+00,2.616632461547851562e+00,2.560300111770629883e+00,2.506342411041259766e+00,2.454612016677856445e+00,2.404973745346069336e+00,2.357303619384765625e+00,2.311486244201660156e+00,2.267416000366210938e+00,2.224994897842407227e+00,2.184131860733032227e+00,2.144742727279663086e+00,2.106749057769775391e+00,2.070078134536743164e+00,2.034662008285522461e+00,2.000437259674072266e+00,1.967344999313354492e+00,1.935329794883728027e+00,1.904339671134948730e+00,1.874326467514038086e+00,1.845244526863098145e+00
5.000000000000000000e+00,5.000000000000000000e+00,5.000000000000000000e+00,5.000000000000000000e+00,5.000000000000000000e+00,5.000000000000000000e+00,5.000000000000000000e+00,5.000000000000000000e+00,5.000000000000000000e+00,5.000000000000000000e+00,5.000000000000000000e+00,5.000000000000000000e+00,5.000000000000000000e+00,5.000000000000000000e+00,5.000000000000000000e+00,5.000000000000000000e+00,5.000000000000000000e+00,5.000000000000000000e+00,5.000000000000000000e+00,5.000000000000000000e+00,5.000000000000000000e+00,5.000000000000000000e+00,5.000000000000000000e+00,5.000000000000000000e+00,5.000000000000000000e+00,5.000000000000000000e+00,5.000000000000000000e+00,5.000000000000000000e+00,2.724298715591430664e+00,2.713085412979125977e+00,2.643769979476928711e+00,2.637903213500976562e+00,2.741987705230712891e+00,2.769241809844970703e+00,2.793193101882934570e+00,5.000000000000000000e+00,2.905815362930297852e+00,2.896981239318847656e+00,5.000000000000000000e+00,4.864177703857421875e+00,4.673046112060546875e+00,4.496367454528808594e+00,4.332561969757080078e+00,4.180271625518798828e+00,4.038323879241943359e+00,3.905700206756591797e+00,3.781510114669799805e+00,3.664974451065063477e+00,3.555406808853149414e+00,3.452200174331665039e+00,3.354816198348999023e+00,3.262775897979736328e+00,3.175650835037231445e+00,3.093057870864868164e+00,3.014652013778686523e+00,2.940123319625854492e+00,2.869190454483032227e+00,2.801599502563476562e+00,2.737119913101196289e+00,2.675541639328002930e+00,2.616672754287719727e+00,2.560338973999023438e+00,2.506379604339599609e+00,2.454647541046142578e+00,2.405008077621459961e+00,2.357336282730102539e+00,2.311517715454101562e+00,2.267446279525756836e+00,2.225023984909057617e+00,2.184159994125366211e+00,2.144769906997680664e+00,2.106775283813476562e+00,2.070103406906127930e+00,2.034686326980590820e+00,2.000460863113403320e+00,1.967367887496948242e+00,1.935351848602294922e+00,1.904361009597778320e+00,1.874347209930419922e+00,1.845264673233032227e+00
5.000000000000000000e+00,5.000000000000000000e+00,5.000000000000000000e+00,5.000000000000000000e+00,5.000000000000000000e+00,5.000000000000000000e+00,5.000000000000000000e+00,5.000000000000000000e+00,5.000000000000000000e+00,5.000000000000000000e+00,5.000000000000000000e+00,5.000000000000000000e+00,5.000000000000000000e+00,5.000000000000000000e+00,5.000000000000000000e+00,5.000000000000000000e+00,5.000000000000000000e+00,5.000000000000000000e+00,5.000000000000000000e+00,5.000000000000000000e+00,5.000000000000000000e+00,5.000000000000000000e+00,5.000000000000000000e+00,5.000000000000000000e+00,5.000000000000000000e+00,5.000000000000000000e+00,5.000000000000000000e+00,5.000000000000000000e+00,2.704949855804443359e+00,2.678896665573120117e+00,2.618489027023315430e+00,2.612838745117187500e+00,2.636366844177246094e+00,2.775927543640136719e+00,2.782778024673461914e+00,2.840708971023559570e+00,5.000000000000000000e+00,2.881590366363525391e+00,5.000000000000000000e+00,4.864317417144775391e+00,4.673175334930419922e+00,4.496487140655517578e+00,4.332673072814941406e+00,4.180375099182128906e+00,4.038420200347900391e+00,3.905790090560913086e+00,3.781594514846801758e+00,3.665053844451904297e+00,3.555481433868408203e+00,3.452270507812500000e+00,3.354882478713989258e+00,3.262838602066040039e+00,3.175710439682006836e+00,3.093114376068115234e+00,3.014705657958984375e+00,2.940174341201782227e+00,2.869238853454589844e+00,2.801645755767822266e+00,2.737163782119750977e+00,2.675583600997924805e+00,2.616713285446166992e+00,2.560377597808837891e+00,2.506416559219360352e+00,2.454683065414428711e+00,2.405042171478271484e+00,2.357369184494018555e+00,2.311549186706542969e+00,2.267476797103881836e+00,2.225053310394287109e+00,2.184188127517700195e+00,2.144797086715698242e+00,2.106801509857177734e+00,2.070128679275512695e+00,2.034710884094238281e+00,2.000484466552734375e+00,1.967390656471252441e+00,1.935374021530151367e+00,1.904382467269897461e+00,1.874367952346801758e+00,1.845284700393676758e+00
5.000000000000000000e+00,5.000000000000000000e+00,5.000000000000000000e+00,5.000000000000000000e+00,5.000000000000000000e+00,5.000000000000000000e+00,5.000000000000000000e+00,5.000000000000000000e+00,5.000000000000000000e+00,5.000000000000000000e+00,5.000000000000000000e+00,5.000000000000000000e+00,5.000000000000000000e+00,5.000000000000000000e+00,5.000000000000000000e+00,5.000000000000000000e+00,5.000000000000000000e+00,5.000000000000000000e+00,5.000000000000000000e+00,5.000000000000000000e+00,5.000000000000000000e+00,5.000000000000000000e+00,5.000000000000000000e+00,5.000000000000000000e+00,5.000000000000000000e+00,5.000000000000000000e+00,5.000000000000000000e+00,5.000000000000000000e+00,2.705243825912475586e+00,2.690683603286743164e+00,2.599446058273315430e+00,2.591996192932128906e+00,2.604682683944702148e+00,2.761533260345458984e+00,2.769200325012207031e+00,2.825039386749267578e+00,5.000000000000000000e+00,2.857464551925659180e+00,5.000000000000000000e+00,4.864457607269287109e+00,4.673304557800292969e+00,4.496606826782226562e+00,4.332784175872802734e+00,4.180478572845458984e+00,4.038516998291015625e+00,3.905880689620971680e+00,3.781679391860961914e+00,3.665133476257324219e+00,3.555556297302246094e+00,3.452341079711914062e+00,3.354949235916137695e+00,3.262901782989501953e+00,3.175770282745361328e+00,3.093171119689941406e+00,3.014759540557861328e+00,2.940225601196289062e+00,2.869287729263305664e+00,2.801692247390747070e+00,2.737208127975463867e+00,2.675626039505004883e+00,2.616753816604614258e+00,2.560416460037231445e+00,2.506453752517700195e+00,2.454718828201293945e+00,2.405076503753662109e+00,2.357402086257934570e+00,2.311580896377563477e+00,2.267507076263427734e+00,2.225082635879516602e+00,2.184216499328613281e+00,2.144824266433715820e+00,2.106827735900878906e+00,2.070153951644897461e+00,2.034735441207885742e+00,2.000508308410644531e+00,1.967413783073425293e+00,1.935396075248718262e+00,1.904404044151306152e+00,1.874388694763183594e+00,1.845305085182189941e+00
5.000000000000000000e+00,5.000000000000000000e+00,5.000000000000000000e+00,5.000000000000000000e+00,5.000000000000000000e+00,5.000000000000000000e+00,5.000000000000000000e+00,5.000000000000000000e+00,5.000000000000000000e+00,5.000000000000000000e+00,5.000000000000000000e+00,5.000000000000000000e+00,5.000000000000000000e+00,5.000000000000000000e+00,5.000000000000000000e+00,5.000000000000000000e+00,5.000000000000000000e+00,5.000000000000000000e+00,5.000000000000000000e+00,5.000000000000000000e+00,5.000000000000000000e+00,5.000000000000000000e+00,5.000000000000000000e+00,5.000000000000000000e+00,5.000000000000000000e+00,5.000000000000000000e+00,5.000000000000000000e+00,5.000000000000000000e+00,2.680915117263793945e+00,2.687280654907226562e+00,2.602655887603759766e+00,2.573733806610107422e+00,2.572545289993286133e+00,2.760894775390625000e+00,2.767552137374877930e+00,2.825839042663574219e+00,5.000000000000000000e+00,5.000000000000000000e+00,2.844277381896972656e+00,4.864597320556640625e+00,4.673433303833007812e+00,4.496726036071777344e+00,4.332894802093505859e+00,4.180581569671630859e+00,4.038613319396972656e+00,3.905970573425292969e+00,3.781763792037963867e+00,3.665212631225585938e+00,3.555630922317504883e+00,3.452411413192749023e+00,3.355015754699707031e+00,3.262964487075805664e+00,3.175829648971557617e+00,3.093227624893188477e+00,3.014813184738159180e+00,2.940276622772216797e+00,2.869336366653442383e+00,2.801738500595092773e+00,2.737252473831176758e+00,2.675668239593505859e+00,2.616794109344482422e+00,2.560455083847045898e+00,2.506490945816040039e+00,2.454754352569580078e+00,2.405110597610473633e+00,2.357434988021850586e+00,2.311612606048583984e+00,2.267537593841552734e+00,2.225111722946166992e+00,2.184244632720947266e+00,2.144851446151733398e+00,2.106853961944580078e+00,2.070179224014282227e+00,2.034759759902954102e+00,2.000531911849975586e+00,1.967436552047729492e+00,1.935418128967285156e+00,1.904425501823425293e+00,1.874409437179565430e+00,1.845325112342834473e+00
5.000000000000000000e+00,5.000000000000000000e+00,5.000000000000000000e+00,5.000000000000000000e+00,5.000000000000000000e+00,5.000000000000000000e+00,5.000000000000000000e+00,5.000000000000000000e+00,5.000000000000000000e+00,5.000000000000000000e+00,5.000000000000000000e+00,5.000000000000000000e+00,5.000000000000000000e+00,5.000000000000000000e+00,5.000000000000000000e+00,5.000000000000000000e+00,5.000000000000000000e+00,5.000000000000000000e+00,5.000000000000000000e+00,5.000000000000000000e+00,5.000000000000000000e+00,5.000000000000000000e+00,5.000000000000000000e+00,5.000000000000000000e+00,5.000000000000000000e+00,5.000000000000000000e+00,5.000000000000000000e+00,5.000000000000000000e+00,2.673810720443725586e+00,2.676608562469482422e+00,2.612821102142333984e+00,2.550972461700439453e+00,2.541988611221313477e+00,2.591747045516967773e+00,2.770109415054321289e+00,2.833549499511718750e+00,5.000000000000000000e+00,5.000000000000000000e+00,5.000000000000000000e+00,4.864737033843994141e+00,4.673562526702880859e+00,4.496845722198486328e+00,4.333005905151367188e+00,4.180685043334960938e+00,4.038709640502929688e+00,3.906060695648193359e+00,3.781848192214965820e+00,3.665292024612426758e+00,3.555705547332763672e+00,3.452481746673583984e+00,3.355082273483276367e+00,3.263027429580688477e+00,3.175889253616333008e+00,3.093283891677856445e+00,3.014866828918457031e+00,2.940327644348144531e+00,2.869384765625000000e+00,2.801784753799438477e+00,2.737296581268310547e+00,2.675710439682006836e+00,2.616834640502929688e+00,2.560493707656860352e+00,2.506527900695800781e+00,2.454790115356445312e+00,2.405144691467285156e+00,2.357467651367187500e+00,2.311644077301025391e+00,2.267567873001098633e+00,2.225141048431396484e+00,2.184272766113281250e+00,2.144878625869750977e+00,2.106880187988281250e+00,2.070204496383666992e+00,2.034784317016601562e+00,2.000555515289306641e+00,1.967459440231323242e+00,1.935440301895141602e+00,1.904446840286254883e+00,1.874430179595947266e+00,1.845345258712768555e+00
5.000000000000000000e+00,5.000000000000000000e+00,5.000000000000000000e+00,5.000000000000000000e+00,5.000000000000000000e+00,5.000000000000000000e+00,5.000000000000000000e+00,5.000000000000000000e+00,5.000000000000000000e+00,5.000000000000000000e+00,5.000000000000000000e+00,5.000000000000000000e+00,5.000000000000000000e+00,5.000000000000000000e+00,5.000000000000000000e+00,5.000000000000000000e+00,5.000000000000000000e+00,5.000000000000000000e+00,5.000000000000000000e+00,5.000000000000000000e+00,5.000000000000000000e+00,5.000000000000000000e+00,5.000000000000000000e+00,5.000000000000000000e+00,5.000000000000000000e+00,5.000000000000000000e+00,5.000000000000000000e+00,5.000000000000000000e+00,2.658599138259887695e+00,5.000000000000000000e+00,2.643978595733642578e+00,2.540666818618774414e+00,2.519222974777221680e+00,2.555287122726440430e+00,2.771927118301391602e+00,5.000000000000000000e+00,5.000000000000000000e+00,5.000000000000000000e+00,5.000000000000000000e+00,4.864877223968505859e+00,4.673691749572753906e+00,4.496965408325195312e+00,4.333117008209228516e+00,4.180788516998291016e+00,4.038805961608886719e+00,3.906151056289672852e+00,3.781932830810546875e+00,3.665371656417846680e+00,3.555780410766601562e+00,3.452552556991577148e+00,3.355149030685424805e+00,3.263090610504150391e+00,3.175949096679687500e+00,3.093340635299682617e+00,3.014920711517333984e+00,2.940378665924072266e+00,2.869433403015136719e+00,2.801831245422363281e+00,2.737341165542602539e+00,2.675753116607666016e+00,2.616875171661376953e+00,2.560532569885253906e+00,2.506565332412719727e+00,2.454825639724731445e+00,2.405179023742675781e+00,2.357500791549682617e+00,2.311675786972045898e+00,2.267598390579223633e+00,2.225170373916625977e+00,2.184301137924194336e+00,2.144905805587768555e+00,2.106906652450561523e+00,2.070230007171630859e+00,2.034808874130249023e+00,2.000579118728637695e+00,1.967482328414916992e+00,1.935462594032287598e+00,1.904468297958374023e+00,1.874451160430908203e+00,1.845365285873413086e+00
5.000000000000000000e+00,5.000000000000000000e+00,5.000000000000000000e+00,5.000000000000000000e+00,5.000000000000000000e+00,5.000000000000000000e+00,5.000000000000000000e+00,5.000000000000000000e+00,5.000000000000000000e+00,5.000000000000000000e+00,5.000000000000000000e+00,5.000000000000000000e+00,5.000000000000000000e+00,5.000000000000000000e+00,5.000000000000000000e+00,5.000000000000000000e+00,5.000000000000000000e+00,5.000000000000000000e+00,5.000000000000000000e+00,5.000000000000000000e+00,5.000000000000000000e+00,5.000000000000000000e+00,5.000000000000000000e+00,5.000000000000000000e+00,5.000000000000000000e+00,5.000000000000000000e+00,5.000000000000000000e+00,5.000000000000000000e+00,5.000000000000000000e+00,5.000000000000000000e+00,5.000000000000000000e+00,2.555702447891235352e+00,2.505941867828369141e+00,2.528041601181030273e+00,2.773075342178344727e+00,5.000000000000000000e+00,5.000000000000000000e+00,5.000000000000000000e+00,5.000000000000000000e+00,4.865016937255859375e+00,4.673820972442626953e+00,4.497084617614746094e+00,4.333227634429931641e+00,4.180891513824462891e+00,4.038902282714843750e+00,3.906241178512573242e+00,3.782017230987548828e+00,3.665450811386108398e+00,3.555855035781860352e+00,3.452622890472412109e+00,3.355215311050415039e+00,3.263153314590454102e+00,3.176008701324462891e+00,3.093397140502929688e+00,3.014974117279052734e+00,2.940429687500000000e+00,2.869482040405273438e+00,2.801877737045288086e+00,2.737385272979736328e+00,2.675795316696166992e+00,2.616915702819824219e+00,2.560571432113647461e+00,2.506602287292480469e+00,2.454861402511596680e+00,2.405213117599487305e+00,2.357533454895019531e+00,2.311707258224487305e+00,2.267628669738769531e+00,2.225199699401855469e+00,2.184329271316528320e+00,2.144932985305786133e+00,2.106932640075683594e+00,2.070255279541015625e+00,2.034833192825317383e+00,2.000602722167968750e+00,1.967505097389221191e+00,1.935484766960144043e+00,1.904489636421203613e+00,1.874471902847290039e+00,1.845385432243347168e+00
5.000000000000000000e+00,5.000000000000000000e+00,5.000000000000000000e+00,5.000000000000000000e+00,5.000000000000000000e+00,5.000000000000000000e+00,5.000000000000000000e+00,5.000000000000000000e+00,5.000000000000000000e+00,5.000000000000000000e+00,5.000000000000000000e+00,5.000000000000000000e+00,5.000000000000000000e+00,5.000000000000000000e+00,5.000000000000000000e+00,5.000000000000000000e+00,5.000000000000000000e+00,5.000000000000000000e+00,5.000000000000000000e+00,5.000000000000000000e+00,5.000000000000000000e+00,5.000000000000000000e+00,5.000000000000000000e+00,5.000000000000000000e+00,5.000000000000000000e+00,5.000000000000000000e+00,5.000000000000000000e+00,5.000000000000000000e+00,5.000000000000000000e+00,5.000000000000000000e+00,5.000000000000000000e+00,2.575018167495727539e+00,2.505751848220825195e+00,2.523626089096069336e+00,2.774577617645263672e+00,5.000000000000000000e+00,5.000000000000000000e+00,5.000000000000000000e+00,5.000000000000000000e+00,4.865156650543212891e+00,4.673950195312500000e+00,4.497204303741455078e+00,4.333338737487792969e+00,4.180994987487792969e+00,4.038999080657958984e+00,3.906331300735473633e+00,3.782101631164550781e+00,3.665530204772949219e+00,3.555929660797119141e+00,3.452693223953247070e+00,3.355281829833984375e+00,3.263216257095336914e+00,3.176068067550659180e+00,3.093453407287597656e+00,3.015027761459350586e+00,2.940480709075927734e+00,2.869530677795410156e+00,2.801923990249633789e+00,2.737429618835449219e+00,2.675837516784667969e+00,2.616955995559692383e+00,2.560610055923461914e+00,2.506639480590820312e+00,2.454896926879882812e+00,2.405247211456298828e+00,2.357566356658935547e+00,2.311738729476928711e+00,2.267658948898315430e+00,2.225228786468505859e+00,2.184357404708862305e+00,2.144960165023803711e+00,2.106958866119384766e+00,2.070280551910400391e+00,2.034857749938964844e+00,2.000626325607299805e+00,1.967527985572814941e+00,1.935506820678710938e+00,1.904511094093322754e+00,1.874492526054382324e+00,1.845405578613281250e+00
5.000000000000000000e+00,5.000000000000000000e+00,5.000000000000000000e+00,5.000000000000000000e+00,5.000000000000000000e+00,5.000000000000000000e+00,5.000000000000000000e+00,5.000000000000000000e+00,5.000000000000000000e+00,5.000000000000000000e+00,5.000000000000000000e+00,5.000000000000000000e+00,5.000000000000000000e+00,5.000000000000000000e+00,5.000000000000000000e+00,5.000000000000000000e+00,5.000000000000000000e+00,5.000000000000000000e+00,5.000000000000000000e+00,5.000000000000000000e+00,5.000000000000000000e+00,5.000000000000000000e+00,5.000000000000000000e+00,5.000000000000000000e+00,5.000000000000000000e+00,5.000000000000000000e+00,5.000000000000000000e+00,5.000000000000000000e+00,5.000000000000000000e+00,5.000000000000000000e+00,5.000000000000000000e+00,2.558909177780151367e+00,2.524933815002441406e+00,2.546160459518432617e+00,2.774118900299072266e+00,5.000000000000000000e+00,5.000000000000000000e+00,5.000000000000000000e+00,5.000000000000000000e+00,4.865296840667724609e+00,4.674079418182373047e+00,4.497323989868164062e+00,4.333449840545654297e+00,4.181098461151123047e+00,4.039095401763916016e+00,3.906421661376953125e+00,3.782186508178710938e+00,3.665609836578369141e+00,3.556004762649536133e+00,3.452763795852661133e+00,3.355348587036132812e+00,3.263279438018798828e+00,3.176127672195434570e+00,3.093510150909423828e+00,3.015081882476806641e+00,2.940531969070434570e+00,2.869579553604125977e+00,2.801970481872558594e+00,2.737473964691162109e+00,2.675879955291748047e+00,2.616996526718139648e+00,2.560648918151855469e+00,2.506676673889160156e+00,2.454932689666748047e+00,2.405281543731689453e+00,2.357599258422851562e+00,2.311770439147949219e+00,2.267689466476440430e+00,2.225258111953735352e+00,2.184385776519775391e+00,2.144987344741821289e+00,2.106985330581665039e+00,2.070306062698364258e+00,2.034882307052612305e+00,2.000650167465209961e+00,1.967550992965698242e+00,1.935528874397277832e+00,1.904532670974731445e+00,1.874513268470764160e+00,1.845425844192504883e+00
5.000000000000000000e+00,5.000000000000000000e+00,5.000000000000000000e+00,5.000000000000000000e+00,5.000000000000000000e+00,5.000000000000000000e+00,5.000000000000000000e+00,5.000000000000000000e+00,5.000000000000000000e+00,5.000000000000000000e+00,5.000000000000000000e+00,5.000000000000000000e+00,5.000000000000000000e+00,5.000000000000000000e+00,5.000000000000000000e+00,5.000000000000000000e+00,5.000000000000000000e+00,5.000000000000000000e+00,5.000000000000000000e+00,5.000000000000000000e+00,5.000000000000000000e+00,5.000000000000000000e+00,5.000000000000000000e+00,5.000000000000000000e+00,5.000000000000000000e+00,5.000000000000000000e+00,5.000000000000000000e+00,5.000000000000000000e+00,5.000000000000000000e+00,5.000000000000000000e+00,5.000000000000000000e+00,2.568448066711425781e+00,2.549857616424560547e+00,2.593667984008789062e+00,2.786700963973999023e+00,5.000000000000000000e+00,5.000000000000000000e+00,5.000000000000000000e+00,5.000000000000000000e+00,4.865436553955078125e+00,4.674208164215087891e+00,4.497443199157714844e+00,4.333560466766357422e+00,4.181201457977294922e+00,4.039191722869873047e+00,3.906511783599853516e+00,3.782270908355712891e+00,3.665689229965209961e+00,3.556079387664794922e+00,3.452834129333496094e+00,3.355415105819702148e+00,3.263341903686523438e+00,3.176187276840209961e+00,3.093566656112670898e+00,3.015135526657104492e+00,2.940582990646362305e+00,2.869628190994262695e+00,2.802016973495483398e+00,2.737518310546875000e+00,2.675922155380249023e+00,2.617037057876586914e+00,2.560687541961669922e+00,2.506713867187500000e+00,2.454968214035034180e+00,2.405315637588500977e+00,2.357632160186767578e+00,2.311802148818969727e+00,2.267719984054565430e+00,2.225287437438964844e+00,2.184413909912109375e+00,2.145014524459838867e+00,2.107011318206787109e+00,2.070331335067749023e+00,2.034906625747680664e+00,2.000673770904541016e+00,1.967573881149291992e+00,1.935551047325134277e+00,1.904554128646850586e+00,1.874534010887145996e+00,1.845445871353149414e+00
5.000000000000000000e+00,5.000000000000000000e+00,5.000000000000000000e+00,5.000000000000000000e+00,5.000000000000000000e+00,5.000000000000000000e+00,5.000000000000000000e+00,5.000000000000000000e+00,5.000000000000000000e+00,5.000000000000000000e+00,5.000000000000000000e+00,5.000000000000000000e+00,5.000000000000000000e+00,5.000000000000000000e+00,5.000000000000000000e+00,5.000000000000000000e+00,5.000000000000000000e+00,5.000000000000000000e+00,5.000000000000000000e+00,5.000000000000000000e+00,5.000000000000000000e+00,5.000000000000000000e+00,5.000000000000000000e+00,5.000000000000000000e+00,5.000000000000000000e+00,5.000000000000000000e+00,5.000000000000000000e+00,5.000000000000000000e+00,5.000000000000000000e+00,5.000000000000000000e+00,5.000000000000000000e+00,2.582349538803100586e+00,2.568306922912597656e+00,2.806437492370605469e+00,5.000000000000000000e+00,5.000000000000000000e+00,5.000000000000000000e+00,5.000000000000000000e+00,5.000000000000000000e+00,4.865574836730957031e+00,4.674337387084960938e+00,4.497562885284423828e+00,4.333671569824218750e+00,4.181304931640625000e+00,4.039288043975830078e+00,3.906601905822753906e+00,3.782355308532714844e+00,3.665768384933471680e+00,3.556154012680053711e+00,3.452904462814331055e+00,3.355481147766113281e+00,3.263404846191406250e+00,3.176246881484985352e+00,3.093623161315917969e+00,3.015189170837402344e+00,2.940634012222290039e+00,2.869676589965820312e+00,2.802063226699829102e+00,2.737562417984008789e+00,2.675964355468750000e+00,2.617077589035034180e+00,2.560726404190063477e+00,2.506750822067260742e+00,2.455003738403320312e+00,2.405349969863891602e+00,2.357664823532104492e+00,2.311833620071411133e+00,2.267750263214111328e+00,2.225316762924194336e+00,2.184442043304443359e+00,2.145041704177856445e+00,2.107037544250488281e+00,2.070356607437133789e+00,2.034931182861328125e+00,2.000697374343872070e+00,1.967596769332885742e+00,1.935573101043701172e+00,1.904575467109680176e+00,1.874554753303527832e+00,1.845466017723083496e+00
5.000000000000000000e+00,5.000000000000000000e+00,5.000000000000000000e+00,5.000000000000000000e+00,5.000000000000000000e+00,5.000000000000000000e+00,5.000000000000000000e+00,5.000000000000000000e+00,5.000000000000000000e+00,5.000000000000000000e+00,5.000000000000000000e+00,5.000000000000000000e+00,5.000000000000000000e+00,5.000000000000000000e+00,5.000000000000000000e+00,5.000000000000000000e+00,5.000000000000000000e+00,5.000000000000000000e+00,5.000000000000000000e+00,5.000000000000000000e+00,5.000000000000000000e+00,5.000000000000000000e+00,5.000000000000000000e+00,5.000000000000000000e+00,5.000000000000000000e+00,5.000000000000000000e+00,5.000000000000000000e+00,5.000000000000000000e+00,5.000000000000000000e+00,5.000000000000000000e+00,5.000000000000000000e+00,2.596403598785400391e+00,2.578414440155029297e+00,2.843393325805664062e+00,5.000000000000000000e+00,5.000000000000000000e+00,5.000000000000000000e+00,5.000000000000000000e+00,5.000000000000000000e+00,4.865713596343994141e+00,4.674465656280517578e+00,4.497682571411132812e+00,4.333782672882080078e+00,4.181408405303955078e+00,4.039384841918945312e+00,3.906692266464233398e+00,3.782440185546875000e+00,3.665848255157470703e+00,3.556228876113891602e+00,3.452975034713745117e+00,3.355547904968261719e+00,3.263468027114868164e+00,3.176306486129760742e+00,3.093679904937744141e+00,3.015243053436279297e+00,2.940685272216796875e+00,2.869725465774536133e+00,2.802109718322753906e+00,2.737606763839721680e+00,2.676007032394409180e+00,2.617118120193481445e+00,2.560765266418457031e+00,2.506788015365600586e+00,2.455039501190185547e+00,2.405384302139282227e+00,2.357697725296020508e+00,2.311865329742431641e+00,2.267780780792236328e+00,2.225346088409423828e+00,2.184470176696777344e+00,2.145068883895874023e+00,2.107064008712768555e+00,2.070382118225097656e+00,2.034955739974975586e+00,2.000721216201782227e+00,1.967619538307189941e+00,1.935595512390136719e+00,1.904596924781799316e+00,1.874575734138488770e+00,1.845486164093017578e+00
5.000000000000000000e+00,5.000000000000000000e+00,5.000000000000000000e+00,5.000000000000000000e+00,5.000000000000000000e+00,5.000000000000000000e+00,5.000000000000000000e+00,5.000000000000000000e+00,5.000000000000000000e+00,5.000000000000000000e+00,5.000000000000000000e+00,5.000000000000000000e+00,5.000000000000000000e+00,5.000000000000000000e+00,5.000000000000000000e+00,5.000000000000000000e+00,5.000000000000000000e+00,5.000000000000000000e+00,5.000000000000000000e+00,5.000000000000000000e+00,5.000000000000000000e+00,5.000000000000000000e+00,5.000000000000000000e+00,5.000000000000000000e+00,5.000000000000000000e+00,5.000000000000000000e+00,5.000000000000000000e+00,5.000000000000000000e+00,5.000000000000000000e+00,5.000000000000000000e+00,5.000000000000000000e+00,2.610695838928222656e+00,2.592702150344848633e+00,2.877658843994140625e+00,5.000000000000000000e+00,5.000000000000000000e+00,5.000000000000000000e+00,5.000000000000000000e+00,5.000000000000000000e+00,4.865852355957031250e+00,4.674593448638916016e+00,4.497802257537841797e+00,4.333893775939941406e+00,4.181511402130126953e+00,4.039481163024902344e+00,3.906782388687133789e+00,3.782524585723876953e+00,3.665927410125732422e+00,3.556303262710571289e+00,3.453045368194580078e+00,3.355614423751831055e+00,3.263530731201171875e+00,3.176366090774536133e+00,3.093736410140991211e+00,3.015296697616577148e+00,2.940736293792724609e+00,2.869774103164672852e+00,2.802156209945678711e+00,2.737651109695434570e+00,2.676049232482910156e+00,2.617158412933349609e+00,2.560803890228271484e+00,2.506825208663940430e+00,2.455075025558471680e+00,2.405418395996093750e+00,2.357730627059936523e+00,2.311896800994873047e+00,2.267811059951782227e+00,2.225375175476074219e+00,2.184498548507690430e+00,2.145096063613891602e+00,2.107090234756469727e+00,2.070407390594482422e+00,2.034980058670043945e+00,2.000744819641113281e+00,1.967642426490783691e+00,1.935617566108703613e+00,1.904618263244628906e+00,1.874596476554870605e+00,1.845506191253662109e+00
5.000000000000000000e+00,5.000000000000000000e+00,5.000000000000000000e+00,5.000000000000000000e+00,5.000000000000000000e+00,5.000000000000000000e+00,5.000000000000000000e+00,5.000000000000000000e+00,5.000000000000000000e+00,5.000000000000000000e+00,5.000000000000000000e+00,5.000000000000000000e+00,5.000000000000000000e+00,5.000000000000000000e+00,5.000000000000000000e+00,5.000000000000000000e+00,5.000000000000000000e+00,5.000000000000000000e+00,5.000000000000000000e+00,5.000000000000000000e+00,5.000000000000000000e+00,5.000000000000000000e+00,5.000000000000000000e+00,5.000000000000000000e+00,5.000000000000000000e+00,5.000000000000000000e+00,5.000000000000000000e+00,5.000000000000000000e+00,5.000000000000000000e+00,5.000000000000000000e+00,5.000000000000000000e+00,2.626262187957763672e+00,2.608247041702270508e+00,5.000000000000000000e+00,5.000000000000000000e+00,5.000000000000000000e+00,5.000000000000000000e+00,5.000000000000000000e+00,5.000000000000000000e+00,4.865991115570068359e+00,4.674721717834472656e+00,4.497920036315917969e+00,4.334004878997802734e+00,4.181614875793457031e+00,4.039577484130859375e+00,3.906872510910034180e+00,3.782608985900878906e+00,3.666006565093994141e+00,3.556377887725830078e+00,3.453115701675415039e+00,3.355680942535400391e+00,3.263593673706054688e+00,3.176425695419311523e+00,3.093792915344238281e+00,3.015350341796875000e+00,2.940787315368652344e+00,2.869822740554809570e+00,2.802202463150024414e+00,2.737695217132568359e+00,2.676091432571411133e+00,2.617198944091796875e+00,2.560842514038085938e+00,2.506862163543701172e+00,2.455110549926757812e+00,2.405452489852905273e+00,2.357763528823852539e+00,2.311928272247314453e+00,2.267841339111328125e+00,2.225404500961303711e+00,2.184526681900024414e+00,2.145123243331909180e+00,2.107116222381591797e+00,2.070432662963867188e+00,2.035004615783691406e+00,2.000768423080444336e+00,1.967665314674377441e+00,1.935639739036560059e+00,1.904639720916748047e+00,1.874617218971252441e+00,1.845526337623596191e+00
5.000000000000000000e+00,5.000000000000000000e+00,5.000000000000000000e+00,5.000000000000000000e+00,5.000000000000000000e+00,5.000000000000000000e+00,5.000000000000000000e+00,5.000000000000000000e+00,5.000000000000000000e+00,5.000000000000000000e+00,5.000000000000000000e+00,5.000000000000000000e+00,5.000000000000000000e+00,5.000000000000000000e+00,5.000000000000000000e+00,5.000000000000000000e+00,5.000000000000000000e+00,5.000000000000000000e+00,5.000000000000000000e+00,5.000000000000000000e+00,5.000000000000000000e+00,5.000000000000000000e+00,5.000000000000000000e+00,5.000000000000000000e+00,5.000000000000000000e+00,5.000000000000000000e+00,5.000000000000000000e+00,5.000000000000000000e+00,5.000000000000000000e+00,5.000000000000000000e+00,5.000000000000000000e+00,2.643265724182128906e+00,2.624871015548706055e+00,5.000000000000000000e+00,5.000000000000000000e+00,5.000000000000000000e+00,5.000000000000000000e+00,5.000000000000000000e+00,5.000000000000000000e+00,4.866129398345947266e+00,4.674849510192871094e+00,4.498038291931152344e+00,4.334114551544189453e+00,4.181718349456787109e+00,4.039674282073974609e+00,3.906962871551513672e+00,3.782693624496459961e+00,3.666086196899414062e+00,3.556452989578247070e+00,3.453186511993408203e+00,3.355747699737548828e+00,3.263656854629516602e+00,3.176485538482666016e+00,3.093849658966064453e+00,3.015404224395751953e+00,2.940838575363159180e+00,2.869871616363525391e+00,2.802248954772949219e+00,2.737739801406860352e+00,2.676133871078491211e+00,2.617239475250244141e+00,2.560881614685058594e+00,2.506899595260620117e+00,2.455146312713623047e+00,2.405486822128295898e+00,2.357796430587768555e+00,2.311959981918334961e+00,2.267871856689453125e+00,2.225433826446533203e+00,2.184554815292358398e+00,2.145150661468505859e+00,2.107142686843872070e+00,2.070457935333251953e+00,2.035029172897338867e+00,2.000792026519775391e+00,1.967688322067260742e+00,1.935661792755126953e+00,1.904661297798156738e+00,1.874637961387634277e+00,1.845546603202819824e+00
5.000000000000000000e+00,5.000000000000000000e+00,5.000000000000000000e+00,5.000000000000000000e+00,5.000000000000000000e+00,5.000000000000000000e+00,5.000000000000000000e+00,5.000000000000000000e+00,5.000000000000000000e+00,5.000000000000000000e+00,5.000000000000000000e+00,5.000000000000000000e+00,5.000000000000000000e+00,5.000000000000000000e+00,5.000000000000000000e+00,5.000000000000000000e+00,5.000000000000000000e+00,5.000000000000000000e+00,5.000000000000000000e+00,5.000000000000000000e+00,5.000000000000000000e+00,5.000000000000000000e+00,5.000000000000000000e+00,5.000000000000000000e+00,5.000000000000000000e+00,5.000000000000000000e+00,5.000000000000000000e+00,5.000000000000000000e+00,5.000000000000000000e+00,5.000000000000000000e+00,5.000000000000000000e+00,2.660743236541748047e+00,2.646088361740112305e+00,5.000000000000000000e+00,5.000000000000000000e+00,5.000000000000000000e+00,5.000000000000000000e+00,5.000000000000000000e+00,5.000000000000000000e+00,4.866268157958984375e+00,4.674977302551269531e+00,4.498157024383544922e+00,4.334224700927734375e+00,4.181820869445800781e+00,4.039770603179931641e+00,3.907052755355834961e+00,3.782778263092041016e+00,3.666165590286254883e+00,3.556527614593505859e+00,3.453256845474243164e+00,3.355814218521118164e+00,3.263719797134399414e+00,3.176545143127441406e+00,3.093906164169311523e+00,3.015457868576049805e+00,2.940889596939086914e+00,2.869920253753662109e+00,2.802295446395874023e+00,2.737783908843994141e+00,2.676176309585571289e+00,2.617280006408691406e+00,2.560920238494873047e+00,2.506936550140380859e+00,2.455181837081909180e+00,2.405520915985107422e+00,2.357829093933105469e+00,2.311991691589355469e+00,2.267902374267578125e+00,2.225463151931762695e+00,2.184583187103271484e+00,2.145177841186523438e+00,2.107168912887573242e+00,2.070483446121215820e+00,2.035053491592407227e+00,2.000815868377685547e+00,1.967711210250854492e+00,1.935683965682983398e+00,1.904682755470275879e+00,1.874658703804016113e+00,1.845566749572753906e+00
4.875014781951904297e+00,4.873803615570068359e+00,4.872592926025390625e+00,4.871383190155029297e+00,4.870173931121826172e+00,4.868965148925781250e+00,4.867756843566894531e+00,4.866549491882324219e+00,4.865342140197753906e+00,4.864135742187500000e+00,4.862930297851562500e+00,4.861725330352783203e+00,4.860520839691162109e+00,4.859316825866699219e+00,4.858113288879394531e+00,4.856910228729248047e+00,4.855708122253417969e+00,4.854506492614746094e+00,4.853305816650390625e+00,4.852105617523193359e+00,4.850905895233154297e+00,4.849706649780273438e+00,4.848507881164550781e+00,4.847309589385986328e+00,4.846112251281738281e+00,4.844915390014648438e+00,4.843719482421875000e+00,4.842523574829101562e+00,4.841328620910644531e+00,4.840134143829345703e+00,4.838940143585205078e+00,2.684703350067138672e+00,2.668906211853027344e+00,4.835361957550048828e+00,4.834170341491699219e+00,4.832979679107666016e+00,4.831789016723632812e+00,4.830599308013916016e+00,4.829410076141357422e+00,4.828221321105957031e+00,4.675105094909667969e+00,4.498275279998779297e+00,4.334334850311279297e+00,4.181923389434814453e+00,4.039866924285888672e+00,3.907142877578735352e+00,3.782862663269042969e+00,3.666244745254516602e+00,3.556602239608764648e+00,3.453327178955078125e+00,3.355880498886108398e+00,3.263782501220703125e+00,3.176604509353637695e+00,3.093962669372558594e+00,3.015511512756347656e+00,2.940940618515014648e+00,2.869968891143798828e+00,2.802341699600219727e+00,2.737828254699707031e+00,2.676218509674072266e+00,2.617320299148559570e+00,2.560958862304687500e+00,2.506973743438720703e+00,2.455217599868774414e+00,2.405555009841918945e+00,2.357861995697021484e+00,2.312023162841796875e+00,2.267932653427124023e+00,2.225492238998413086e+00,2.184611320495605469e+00,2.145204782485961914e+00,2.107195138931274414e+00,2.070508718490600586e+00,2.035078048706054688e+00,2.000839471817016602e+00,1.967734098434448242e+00,1.935706019401550293e+00,1.904704213142395020e+00,1.874679446220397949e+00,1.845586776733398438e+00
3.777799129486083984e+00,3.777072191238403320e+00,3.776344776153564453e+00,3.775618076324462891e+00,3.774891376495361328e+00,3.774165391921997070e+00,3.773439168930053711e+00,3.772713661193847656e+00,3.771988391876220703e+00,3.771262884140014648e+00,3.770538330078125000e+00,3.769813537597656250e+00,3.769089460372924805e+00,3.768365144729614258e+00,3.767641544342041016e+00,3.766918420791625977e+00,3.766195058822631836e+00,3.765472173690795898e+00,3.764749288558959961e+00,3.764027118682861328e+00,3.763304948806762695e+00,3.762583255767822266e+00,3.761862039566040039e+00,3.761140584945678711e+00,3.760419607162475586e+00,3.759698867797851562e+00,3.758978605270385742e+00,3.758258104324340820e+00,3.757538557052612305e+00,3.756818771362304688e+00,2.977401018142700195e+00,2.653945446014404297e+00,2.626733064651489258e+00,3.753943443298339844e+00,3.753225088119506836e+00,3.752507209777832031e+00,3.751789331436157227e+00,3.751072168350219727e+00,3.750355243682861328e+00,3.749638080596923828e+00,3.748921632766723633e+00,3.748205184936523438e+00,3.747489452362060547e+00,3.746773481369018555e+00,3.746058225631713867e+00,3.745342731475830078e+00,3.744627952575683594e+00,3.666324615478515625e+00,3.556677341461181641e+00,3.453397989273071289e+00,3.355947256088256836e+00,3.263845682144165039e+00,3.176664352416992188e+00,3.094019412994384766e+00,3.015565395355224609e+00,2.940991878509521484e+00,2.870017528533935547e+00,2.802388191223144531e+00,2.737872600555419922e+00,2.676260948181152344e+00,2.617361068725585938e+00,2.560997724533081055e+00,2.507010936737060547e+00,2.455253362655639648e+00,2.405589342117309570e+00,2.357894897460937500e+00,2.312054872512817383e+00,2.267963171005249023e+00,2.225521564483642578e+00,2.184639453887939453e+00,2.145232200622558594e+00,2.107221364974975586e+00,2.070533990859985352e+00,2.035102605819702148e+00,2.000863075256347656e+00,1.967756867408752441e+00,1.935728311538696289e+00,1.904725551605224609e+00,1.874700307846069336e+00,1.845606923103332520e+00
3.083743572235107422e+00,3.083259105682373047e+00,3.082774400711059570e+00,3.082290172576904297e+00,3.081805944442749023e+00,3.081321716308593750e+00,3.080837965011596680e+00,3.080353975296020508e+00,3.079870700836181641e+00,3.079386949539184570e+00,3.078903913497924805e+00,3.078420877456665039e+00,3.077937602996826172e+00,3.077454805374145508e+00,3.076972007751464844e+00,3.076489686965942383e+00,3.076007127761840820e+00,3.075525045394897461e+00,3.075042724609375000e+00,3.074560880661010742e+00,3.074079275131225586e+00,3.073597431182861328e+00,3.073116064071655273e+00,3.072634458541870117e+00,3.072153568267822266e+00,3.071672201156616211e+00,3.071191549301147461e+00,3.070710897445678711e+00,3.070230245590209961e+00,3.069749832153320312e+00,3.069269418716430664e+00,2.593183279037475586e+00,2.570323228836059570e+00,2.577818155288696289e+00,3.067349910736083984e+00,3.066870212554931641e+00,3.066390991210937500e+00,3.065911769866943359e+00,3.065432786941528320e+00,3.064953804016113281e+00,3.064475059509277344e+00,3.063996315002441406e+00,3.063517808914184570e+00,3.063039779663085938e+00,3.062561273574829102e+00,3.062083482742309570e+00,3.061605453491210938e+00,3.061127901077270508e+00,3.060650110244750977e+00,3.060172796249389648e+00,3.059695482254028320e+00,3.059218168258666992e+00,3.058741331100463867e+00,3.058264255523681641e+00,3.015619039535522461e+00,2.941042900085449219e+00,2.870066165924072266e+00,2.802434682846069336e+00,2.737916946411132812e+00,2.676303148269653320e+00,2.617401361465454102e+00,2.561036586761474609e+00,2.507048130035400391e+00,2.455288887023925781e+00,2.405623435974121094e+00,2.357927799224853516e+00,2.312086343765258789e+00,2.267993450164794922e+00,2.225550889968872070e+00,2.184667587280273438e+00,2.145259380340576172e+00,2.107247591018676758e+00,2.070559263229370117e+00,2.035126924514770508e+00,2.000886678695678711e+00,1.967779755592346191e+00,1.935750484466552734e+00,1.904747009277343750e+00,1.874721050262451172e+00,1.845626950263977051e+00
2.605130195617675781e+00,2.604784250259399414e+00,2.604438543319702148e+00,2.604092597961425781e+00,2.603747129440307617e+00,2.603401422500610352e+00,2.603056192398071289e+00,2.602710962295532227e+00,2.602365493774414062e+00,2.602020502090454102e+00,2.601675271987915039e+00,2.601330280303955078e+00,2.600985288619995117e+00,2.600640535354614258e+00,2.600295782089233398e+00,2.599951267242431641e+00,2.599606752395629883e+00,2.599262237548828125e+00,2.598917961120605469e+00,2.598573446273803711e+00,2.598229408264160156e+00,2.597885370254516602e+00,2.597541332244873047e+00,2.597197532653808594e+00,2.596853733062744141e+00,2.596509933471679688e+00,2.596166372299194336e+00,2.595822811126708984e+00,2.595479249954223633e+00,2.595135927200317383e+00,2.594792842864990234e+00,2.594449520111083984e+00,2.594106674194335938e+00,2.593763589859008789e+00,2.593420743942260742e+00,2.593077659606933594e+00,2.592735052108764648e+00,2.592392444610595703e+00,2.592050075531005859e+00,2.591707706451416016e+00,2.591365098953247070e+00,2.591022968292236328e+00,2.590680599212646484e+00,2.590338706970214844e+00,2.589996576309204102e+00,2.589654684066772461e+00,2.589313030242919922e+00,2.588971138000488281e+00,2.588629722595214844e+00,2.588288068771362305e+00,2.587946653366088867e+00,2.587605237960815430e+00,2.587264060974121094e+00,2.586922645568847656e+00,2.586581707000732422e+00,2.586240768432617188e+00,2.585899829864501953e+00,2.585559129714965820e+00,2.585218191146850586e+00,2.584877729415893555e+00,2.584537029266357422e+00,2.561075210571289062e+00,2.507085084915161133e+00,2.455324411392211914e+00,2.405657768249511719e+00,2.357960462570190430e+00,2.312117815017700195e+00,2.268023967742919922e+00,2.225580215454101562e+00,2.184695959091186523e+00,2.145286560058593750e+00,2.107273817062377930e+00,2.070584535598754883e+00,2.035151481628417969e+00,2.000910282135009766e+00,1.967802643775939941e+00,1.935772538185119629e+00,1.904768347740173340e+00,1.874741792678833008e+00,1.845647096633911133e+00
2.255158185958862305e+00,2.254897356033325195e+00,2.254636764526367188e+00,2.254375934600830078e+00,2.254115343093872070e+00,2.253854990005493164e+00,2.253594398498535156e+00,2.253334045410156250e+00,2.253073692321777344e+00,2.252813339233398438e+00,2.252553224563598633e+00,2.252292871475219727e+00,2.252032756805419922e+00,2.251772880554199219e+00,2.251512765884399414e+00,2.251252889633178711e+00,2.250993013381958008e+00,2.250733137130737305e+00,2.250473499298095703e+00,2.250213623046875000e+00,2.249954223632812500e+00,2.249694585800170898e+00,2.249434947967529297e+00,2.249176502227783203e+00,2.248918533325195312e+00,2.248660802841186523e+00,2.248403072357177734e+00,2.248145341873168945e+00,2.247887849807739258e+00,2.247630119323730469e+00,2.247372865676879883e+00,2.247115373611450195e+00,2.246857881546020508e+00,2.246600627899169922e+00,2.246343374252319336e+00,2.246086359024047852e+00,2.245829105377197266e+00,2.245572090148925781e+00,2.245314836502075195e+00,2.245058059692382812e+00,2.244801044464111328e+00,2.244544267654418945e+00,2.244287490844726562e+00,2.244030714035034180e+00,2.243774175643920898e+00,2.243517398834228516e+00,2.243260860443115234e+00,2.243004322052001953e+00,2.242748022079467773e+00,2.242491483688354492e+00,2.242235422134399414e+00,2.241979122161865234e+00,2.241722822189331055e+00,2.241466760635375977e+00,2.241210699081420898e+00,2.240954637527465820e+00,2.240698575973510742e+00,2.240442752838134766e+00,2.240186929702758789e+00,2.239931106567382812e+00,2.239675521850585938e+00,2.239419698715209961e+00,2.239164113998413086e+00,2.238908529281616211e+00,2.238653182983398438e+00,2.238397598266601562e+00,2.238142251968383789e+00,2.237886905670166016e+00,2.225609540939331055e+00,2.184724092483520508e+00,2.145313739776611328e+00,2.107300043106079102e+00,2.070610046386718750e+00,2.035176038742065430e+00,2.000934123992919922e+00,1.967825651168823242e+00,1.935794711112976074e+00,1.904790043830871582e+00,1.874762535095214844e+00,1.845667362213134766e+00
1.988149166107177734e+00,1.987946629524230957e+00,1.987744092941284180e+00,1.987541317939758301e+00,1.987338781356811523e+00,1.987136363983154297e+00,1.986933827400207520e+00,1.986731410026550293e+00,1.986528873443603516e+00,1.986326575279235840e+00,1.986124396324157715e+00,1.985921978950500488e+00,1.985719799995422363e+00,1.985517740249633789e+00,1.985315442085266113e+00,1.985113501548767090e+00,1.984911441802978516e+00,1.984709382057189941e+00,1.984507441520690918e+00,1.984305262565612793e+00,1.984103441238403320e+00,1.983901739120483398e+00,1.983699798583984375e+00,1.983498096466064453e+00,1.983296394348144531e+00,1.983094573020935059e+00,1.982892990112304688e+00,1.982691287994384766e+00,1.982489824295043945e+00,1.982288360595703125e+00,1.982086658477783203e+00,1.981885313987731934e+00,1.981683969497680664e+00,1.981482505798339844e+00,1.981281280517578125e+00,1.981079816818237305e+00,1.980878710746765137e+00,1.980677485466003418e+00,1.980476260185241699e+00,1.980275154113769531e+00,1.980074167251586914e+00,1.979873061180114746e+00,1.979672074317932129e+00,1.979471206665039062e+00,1.979270100593566895e+00,1.979069352149963379e+00,1.978868365287780762e+00,1.978667616844177246e+00,1.978466987609863281e+00,1.978266119956970215e+00,1.978065490722656250e+00,1.977864980697631836e+00,1.977664232254028320e+00,1.977463722229003906e+00,1.977263092994689941e+00,1.977062702178955078e+00,1.976862430572509766e+00,1.976661801338195801e+00,1.976461529731750488e+00,1.976261377334594727e+00,1.976060986518859863e+00,1.975860834121704102e+00,1.975660443305969238e+00,1.975460410118103027e+00,1.975260376930236816e+00,1.975060224533081055e+00,1.974860191345214844e+00,1.974660277366638184e+00,1.974460244178771973e+00,1.974260449409484863e+00,1.974060654640197754e+00,1.973860621452331543e+00,1.973660945892333984e+00,1.973461031913757324e+00,1.973261475563049316e+00,1.967848539352416992e+00,1.935816764831542969e+00,1.904811382293701172e+00,1.874783277511596680e+00,1.845687508583068848e+00
1.777674198150634766e+00,1.777512192726135254e+00,1.777350068092346191e+00,1.777188181877136230e+00,1.777026057243347168e+00,1.776864290237426758e+00,1.776702404022216797e+00,1.776540398597717285e+00,1.776378631591796875e+00,1.776216983795166016e+00,1.776054978370666504e+00,1.775893330574035645e+00,1.775731563568115234e+00,1.775569915771484375e+00,1.775408267974853516e+00,1.775246620178222656e+00,1.775084972381591797e+00,1.774923563003540039e+00,1.774761915206909180e+00,1.774600386619567871e+00,1.774438977241516113e+00,1.774277448654174805e+00,1.774116039276123047e+00,1.773954629898071289e+00,1.773793220520019531e+00,1.773632049560546875e+00,1.773470640182495117e+00,1.773309350013732910e+00,1.773148179054260254e+00,1.772986888885498047e+00,1.772825717926025391e+00,1.772664427757263184e+00,1.772503376007080078e+00,1.772342324256896973e+00,1.772181153297424316e+00,1.772020220756530762e+00,1.771859288215637207e+00,1.771698117256164551e+00,1.771537303924560547e+00,1.771376371383666992e+00,1.771215319633483887e+00,1.771054625511169434e+00,1.770893573760986328e+00,1.770732879638671875e+00,1.770572185516357422e+00,1.770411252975463867e+00,1.770250678062438965e+00,1.770089983940124512e+00,1.769929170608520508e+00,1.769768714904785156e+00,1.769607901573181152e+00,1.769447445869445801e+00,1.769286990165710449e+00,1.769126296043395996e+00,1.768965840339660645e+00,1.768805503845214844e+00,1.768644928932189941e+00,1.768484592437744141e+00,1.768324136734008789e+00,1.768163800239562988e+00,1.768003582954406738e+00,1.767843246459960938e+00,1.767683029174804688e+00,1.767522811889648438e+00,1.767362594604492188e+00,1.767202377319335938e+00,1.767042398452758789e+00,1.766882181167602539e+00,1.766722083091735840e+00,1.766561985015869141e+00,1.766402006149291992e+00,1.766242027282714844e+00,1.766082048416137695e+00,1.765922069549560547e+00,1.765762329101562500e+00,1.765602350234985352e+00,1.765442609786987305e+00,1.765282630920410156e+00,1.765122890472412109e+00,1.764963269233703613e+00
1.607496738433837891e+00,1.607364296913146973e+00,1.607231855392456055e+00,1.607099294662475586e+00,1.606966853141784668e+00,1.606834530830383301e+00,1.606701970100402832e+00,1.606569766998291016e+00,1.606437206268310547e+00,1.606305003166198730e+00,1.606172680854797363e+00,1.606040358543395996e+00,1.605908155441284180e+00,1.605775952339172363e+00,1.605643630027770996e+00,1.605511546134948730e+00,1.605379343032836914e+00,1.605247139930725098e+00,1.605115056037902832e+00,1.604982852935791016e+00,1.604850769042968750e+00,1.604718804359436035e+00,1.604586601257324219e+00,1.604454636573791504e+00,1.604322791099548340e+00,1.604190707206726074e+00,1.604058742523193359e+00,1.603926658630371094e+00,1.603794813156127930e+00,1.603662967681884766e+00,1.603531002998352051e+00,1.603399276733398438e+00,1.603267431259155273e+00,1.603135585784912109e+00,1.603003859519958496e+00,1.602872014045715332e+00,1.602740287780761719e+00,1.602608680725097656e+00,1.602476835250854492e+00,1.602345228195190430e+00,1.602213621139526367e+00,1.602081894874572754e+00,1.601950287818908691e+00,1.601818799972534180e+00,1.601687192916870117e+00,1.601555705070495605e+00,1.601423978805541992e+00,1.601292610168457031e+00,1.601161122322082520e+00,1.601029634475708008e+00,1.600898265838623047e+00,1.600766897201538086e+00,1.600635409355163574e+00,1.600504040718078613e+00,1.600372552871704102e+00,1.600241303443908691e+00,1.600110054016113281e+00,1.599978685379028320e+00,1.599847435951232910e+00,1.599716186523437500e+00,1.599584937095642090e+00,1.599453806877136230e+00,1.599322557449340820e+00,1.599191427230834961e+00,1.599060297012329102e+00,1.598929166793823242e+00,1.598798036575317383e+00,1.598667025566101074e+00,1.598535895347595215e+00,1.598404884338378906e+00,1.598273992538452148e+00,1.598142862319946289e+00,1.598011970520019531e+00,1.597880959510803223e+00,1.597750067710876465e+00,1.597619295120239258e+00,1.597488284111022949e+00,1.597357511520385742e+00,1.597226619720458984e+00,1.597095727920532227e+00
1.467054963111877441e+00,1.466944694519042969e+00,1.466834306716918945e+00,1.466724038124084473e+00,1.466613650321960449e+00,1.466503381729125977e+00,1.466393113136291504e+00,1.466282725334167480e+00,1.466172575950622559e+00,1.466062426567077637e+00,1.465952038764953613e+00,1.465841889381408691e+00,1.465731620788574219e+00,1.465621590614318848e+00,1.465511441230773926e+00,1.465401291847229004e+00,1.465291142463684082e+00,1.465181112289428711e+00,1.465070962905883789e+00,1.464960932731628418e+00,1.464850902557373047e+00,1.464740872383117676e+00,1.464630842208862305e+00,1.464520812034606934e+00,1.464410781860351562e+00,1.464300870895385742e+00,1.464190840721130371e+00,1.464081048965454102e+00,1.463971138000488281e+00,1.463861107826232910e+00,1.463751316070556641e+00,1.463641405105590820e+00,1.463531494140625000e+00,1.463421702384948730e+00,1.463311910629272461e+00,1.463202118873596191e+00,1.463092327117919922e+00,1.462982535362243652e+00,1.462872862815856934e+00,1.462763190269470215e+00,1.462653398513793945e+00,1.462543725967407227e+00,1.462433934211730957e+00,1.462324261665344238e+00,1.462214708328247070e+00,1.462105035781860352e+00,1.461995363235473633e+00,1.461885809898376465e+00,1.461776137351989746e+00,1.461666703224182129e+00,1.461557030677795410e+00,1.461447596549987793e+00,1.461338043212890625e+00,1.461228489875793457e+00,1.461119055747985840e+00,1.461009621620178223e+00,1.460900068283081055e+00,1.460790753364562988e+00,1.460681200027465820e+00,1.460571885108947754e+00,1.460462450981140137e+00,1.460353016853332520e+00,1.460243701934814453e+00,1.460134387016296387e+00,1.460025072097778320e+00,1.459915757179260254e+00,1.459806561470031738e+00,1.459697127342224121e+00,1.459587931632995605e+00,1.459478616714477539e+00,1.459369421005249023e+00,1.459260344505310059e+00,1.459151029586791992e+00,1.459041833877563477e+00,1.458932757377624512e+00,1.458823561668395996e+00,1.458714485168457031e+00,1.458605289459228516e+00,1.458496212959289551e+00,1.458387255668640137e+00
1.349181413650512695e+00,1.349088072776794434e+00,1.348994731903076172e+00,1.348901391029357910e+00,1.348808169364929199e+00,1.348714828491210938e+00,1.348621487617492676e+00,1.348528265953063965e+00,1.348434925079345703e+00,1.348341822624206543e+00,1.348248600959777832e+00,1.348155260086059570e+00,1.348062157630920410e+00,1.347969055175781250e+00,1.347875714302062988e+00,1.347782611846923828e+00,1.347689509391784668e+00,1.347596287727355957e+00,1.347503304481506348e+00,1.347410082817077637e+00,1.347317099571228027e+00,1.347223997116088867e+00,1.347130894660949707e+00,1.347037911415100098e+00,1.346944808959960938e+00,1.346851706504821777e+00,1.346758723258972168e+00,1.346665740013122559e+00,1.346572756767272949e+00,1.346479773521423340e+00,1.346386790275573730e+00,1.346293807029724121e+00,1.346200942993164062e+00,1.346107959747314453e+00,1.346015095710754395e+00,1.345922112464904785e+00,1.345829248428344727e+00,1.345736384391784668e+00,1.345643520355224609e+00,1.345550656318664551e+00,1.345457911491394043e+00,1.345364928245544434e+00,1.345272183418273926e+00,1.345179438591003418e+00,1.345086574554443359e+00,1.344993829727172852e+00,1.344900965690612793e+00,1.344808340072631836e+00,1.344715595245361328e+00,1.344622850418090820e+00,1.344530105590820312e+00,1.344437479972839355e+00,1.344344735145568848e+00,1.344252109527587891e+00,1.344159364700317383e+00,1.344066739082336426e+00,1.343974113464355469e+00,1.343881487846374512e+00,1.343788862228393555e+00,1.343696355819702148e+00,1.343603730201721191e+00,1.343511104583740234e+00,1.343418478965759277e+00,1.343325972557067871e+00,1.343233466148376465e+00,1.343140959739685059e+00,1.343048453330993652e+00,1.342955946922302246e+00,1.342863440513610840e+00,1.342771053314208984e+00,1.342678546905517578e+00,1.342586040496826172e+00,1.342493653297424316e+00,1.342401146888732910e+00,1.342308878898620605e+00,1.342216491699218750e+00,1.342123985290527344e+00,1.342031717300415039e+00,1.341939330101013184e+00,1.341846942901611328e+00
1.248840689659118652e+00,1.248760819435119629e+00,1.248680710792541504e+00,1.248600840568542480e+00,1.248520851135253906e+00,1.248440980911254883e+00,1.248361110687255859e+00,1.248281121253967285e+00,1.248201251029968262e+00,1.248121380805969238e+00,1.248041391372680664e+00,1.247961521148681641e+00,1.247881650924682617e+00,1.247801899909973145e+00,1.247722029685974121e+00,1.247642159461975098e+00,1.247562408447265625e+00,1.247482538223266602e+00,1.247402667999267578e+00,1.247322916984558105e+00,1.247243165969848633e+00,1.247163414955139160e+00,1.247083663940429688e+00,1.247003912925720215e+00,1.246924161911010742e+00,1.246844410896301270e+00,1.246764659881591797e+00,1.246685028076171875e+00,1.246605277061462402e+00,1.246525526046752930e+00,1.246445894241333008e+00,1.246366262435913086e+00,1.246286630630493164e+00,1.246206998825073242e+00,1.246127247810363770e+00,1.246047735214233398e+00,1.245968103408813477e+00,1.245888471603393555e+00,1.245808839797973633e+00,1.245729327201843262e+00,1.245649695396423340e+00,1.245570182800292969e+00,1.245490550994873047e+00,1.245411038398742676e+00,1.245331525802612305e+00,1.245251893997192383e+00,1.245172500610351562e+00,1.245092988014221191e+00,1.245013475418090820e+00,1.244933962821960449e+00,1.244854450225830078e+00,1.244775056838989258e+00,1.244695544242858887e+00,1.244616150856018066e+00,1.244536757469177246e+00,1.244457364082336426e+00,1.244377851486206055e+00,1.244298458099365234e+00,1.244219064712524414e+00,1.244139671325683594e+00,1.244060277938842773e+00,1.243980884552001953e+00,1.243901610374450684e+00,1.243822336196899414e+00,1.243742942810058594e+00,1.243663549423217773e+00,1.243584275245666504e+00,1.243505001068115234e+00,1.243425726890563965e+00,1.243346333503723145e+00,1.243267178535461426e+00,1.243187904357910156e+00,1.243108630180358887e+00,1.243029356002807617e+00,1.242950201034545898e+00,1.242870926856994629e+00,1.242791771888732910e+00,1.242712497711181641e+00,1.242633342742919922e+00,1.242554187774658203e+00
1.162391781806945801e+00,1.162322521209716797e+00,1.162253379821777344e+00,1.162184000015258789e+00,1.162114739418029785e+00,1.162045598030090332e+00,1.161976218223571777e+00,1.161907076835632324e+00,1.161837816238403320e+00,1.161768555641174316e+00,1.161699414253234863e+00,1.161630153656005859e+00,1.161561012268066406e+00,1.161491870880126953e+00,1.161422610282897949e+00,1.161353468894958496e+00,1.161284327507019043e+00,1.161215066909790039e+00,1.161146044731140137e+00,1.161076784133911133e+00,1.161007761955261230e+00,1.160938620567321777e+00,1.160869479179382324e+00,1.160800337791442871e+00,1.160731315612792969e+00,1.160662174224853516e+00,1.160593152046203613e+00,1.160524010658264160e+00,1.160454988479614258e+00,1.160385966300964355e+00,1.160316824913024902e+00,1.160247802734375000e+00,1.160178780555725098e+00,1.160109758377075195e+00,1.160040736198425293e+00,1.159971714019775391e+00,1.159902691841125488e+00,1.159833788871765137e+00,1.159764766693115234e+00,1.159695744514465332e+00,1.159626841545104980e+00,1.159557819366455078e+00,1.159488916397094727e+00,1.159420013427734375e+00,1.159350991249084473e+00,1.159282088279724121e+00,1.159213185310363770e+00,1.159144282341003418e+00,1.159075379371643066e+00,1.159006476402282715e+00,1.158937573432922363e+00,1.158868789672851562e+00,1.158799886703491211e+00,1.158730983734130859e+00,1.158662080764770508e+00,1.158593297004699707e+00,1.158524513244628906e+00,1.158455610275268555e+00,1.158386826515197754e+00,1.158318042755126953e+00,1.158249258995056152e+00,1.158180475234985352e+00,1.158111691474914551e+00,1.158042907714843750e+00,1.157974123954772949e+00,1.157905340194702148e+00,1.157836675643920898e+00,1.157767891883850098e+00,1.157699108123779297e+00,1.157630443572998047e+00,1.157561779022216797e+00,1.157492995262145996e+00,1.157424330711364746e+00,1.157355546951293945e+00,1.157286882400512695e+00,1.157218217849731445e+00,1.157149553298950195e+00,1.157080888748168945e+00,1.157012343406677246e+00,1.156943559646606445e+00
1.087136626243591309e+00,1.087076067924499512e+00,1.087015509605407715e+00,1.086954832077026367e+00,1.086894273757934570e+00,1.086833715438842773e+00,1.086773157119750977e+00,1.086712598800659180e+00,1.086652040481567383e+00,1.086591482162475586e+00,1.086530923843383789e+00,1.086470365524291992e+00,1.086409807205200195e+00,1.086349368095397949e+00,1.086288809776306152e+00,1.086228251457214355e+00,1.086167812347412109e+00,1.086107373237609863e+00,1.086046814918518066e+00,1.085986375808715820e+00,1.085925936698913574e+00,1.085865378379821777e+00,1.085804939270019531e+00,1.085744380950927734e+00,1.085684061050415039e+00,1.085623621940612793e+00,1.085563063621520996e+00,1.085502743721008301e+00,1.085442304611206055e+00,1.085381865501403809e+00,1.085321426391601562e+00,1.085260987281799316e+00,1.085200667381286621e+00,1.085140347480773926e+00,1.085079908370971680e+00,1.085019588470458984e+00,1.084959149360656738e+00,1.084898829460144043e+00,1.084838509559631348e+00,1.084778189659118652e+00,1.084717750549316406e+00,1.084657430648803711e+00,1.084596991539001465e+00,1.084536790847778320e+00,1.084476470947265625e+00,1.084416151046752930e+00,1.084355831146240234e+00,1.084295511245727539e+00,1.084235191345214844e+00,1.084174990653991699e+00,1.084114670753479004e+00,1.084054470062255859e+00,1.083994150161743164e+00,1.083933830261230469e+00,1.083873629570007324e+00,1.083813428878784180e+00,1.083753108978271484e+00,1.083692908287048340e+00,1.083632707595825195e+00,1.083572506904602051e+00,1.083512306213378906e+00,1.083452105522155762e+00,1.083391904830932617e+00,1.083331704139709473e+00,1.083271503448486328e+00,1.083211421966552734e+00,1.083151221275329590e+00,1.083091020584106445e+00,1.083030939102172852e+00,1.082970738410949707e+00,1.082910537719726562e+00,1.082850456237792969e+00,1.082790255546569824e+00,1.082730174064636230e+00,1.082670092582702637e+00,1.082610011100769043e+00,1.082549929618835449e+00,1.082489728927612305e+00,1.082429647445678711e+00,1.082369685173034668e+00
1.021033287048339844e+00,1.020979762077331543e+00,1.020926356315612793e+00,1.020872950553894043e+00,1.020819425582885742e+00,1.020766019821166992e+00,1.020712614059448242e+00,1.020659208297729492e+00,1.020605683326721191e+00,1.020552277565002441e+00,1.020498991012573242e+00,1.020445466041564941e+00,1.020392179489135742e+00,1.020338773727416992e+00,1.020285367965698242e+00,1.020231962203979492e+00,1.020178675651550293e+00,1.020125269889831543e+00,1.020071864128112793e+00,1.020018458366394043e+00,1.019965171813964844e+00,1.019911885261535645e+00,1.019858479499816895e+00,1.019805192947387695e+00,1.019751787185668945e+00,1.019698500633239746e+00,1.019645214080810547e+00,1.019591808319091797e+00,1.019538521766662598e+00,1.019485235214233398e+00,1.019431948661804199e+00,1.019378662109375000e+00,1.019325375556945801e+00,1.019272089004516602e+00,1.019218802452087402e+00,1.019165515899658203e+00,1.019112229347229004e+00,1.019059062004089355e+00,1.019005775451660156e+00,1.018952488899230957e+00,1.018899321556091309e+00,1.018846035003662109e+00,1.018792867660522461e+00,1.018739581108093262e+00,1.018686413764953613e+00,1.018633127212524414e+00,1.018579959869384766e+00,1.018526792526245117e+00,1.018473625183105469e+00,1.018420338630676270e+00,1.018367171287536621e+00,1.018314003944396973e+00,1.018260836601257324e+00,1.018207669258117676e+00,1.018154501914978027e+00,1.018101334571838379e+00,1.018048167228698730e+00,1.017994999885559082e+00,1.017941832542419434e+00,1.017888784408569336e+00,1.017835617065429688e+00,1.017782449722290039e+00,1.017729401588439941e+00,1.017676234245300293e+00,1.017623186111450195e+00,1.017570018768310547e+00,1.017516970634460449e+00,1.017463922500610352e+00,1.017410755157470703e+00,1.017357707023620605e+00,1.017304658889770508e+00,1.017251491546630859e+00,1.017198443412780762e+00,1.017145395278930664e+00,1.017092347145080566e+00,1.017039299011230469e+00,1.016986250877380371e+00,1.016933202743530273e+00,1.016880273818969727e+00,1.016827225685119629e+00
9.625079631805419922e-01,9.624604582786560059e-01,9.624130129814147949e-01,9.623655080795288086e-01,9.623178839683532715e-01,9.622704386711120605e-01,9.622229933738708496e-01,9.621755480766296387e-01,9.621281027793884277e-01,9.620806574821472168e-01,9.620330929756164551e-01,9.619856476783752441e-01,9.619382023811340332e-01,9.618907570838928223e-01,9.618433713912963867e-01,9.617958068847656250e-01,9.617484211921691895e-01,9.617009758949279785e-01,9.616535902023315430e-01,9.616062045097351074e-01,9.615588188171386719e-01,9.615113139152526855e-01,9.614639282226562500e-01,9.614165425300598145e-01,9.613691568374633789e-01,9.613217711448669434e-01,9.612742662429809570e-01,9.612269401550292969e-01,9.611795544624328613e-01,9.611322283744812012e-01,9.610848426818847656e-01,9.610373973846435547e-01,9.609900712966918945e-01,9.609427452087402344e-01,9.608954191207885742e-01,9.608480930328369141e-01,9.608007669448852539e-01,9.607533216476440430e-01,9.607059955596923828e-01,9.606586694717407227e-01,9.606114029884338379e-01,9.605640769004821777e-01,9.605166912078857422e-01,9.604694247245788574e-01,9.604220986366271973e-01,9.603748321533203125e-01,9.603275656700134277e-01,9.602802991867065430e-01,9.602329134941101074e-01,9.601856470108032227e-01,9.601383805274963379e-01,9.600911736488342285e-01,9.600439071655273438e-01,9.599965214729309082e-01,9.599493145942687988e-01,9.599020481109619141e-01,9.598548412322998047e-01,9.598076343536376953e-01,9.597603082656860352e-01,9.597130417823791504e-01,9.596658349037170410e-01,9.596186280250549316e-01,9.595714807510375977e-01,9.595242738723754883e-01,9.594769477844238281e-01,9.594297409057617188e-01,9.593825936317443848e-01,9.593353867530822754e-01,9.592882394790649414e-01,9.592409729957580566e-01,9.591937661170959473e-01,9.591466188430786133e-01,9.590994715690612793e-01,9.590523242950439453e-01,9.590051770210266113e-01,9.589579105377197266e-01,9.589107632637023926e-01,9.588636755943298340e-01,9.588165283203125000e-01,9.587693810462951660e-01
9.103282094001770020e-01,9.102857112884521484e-01,9.102432727813720703e-01,9.102007150650024414e-01,9.101582169532775879e-01,9.101157784461975098e-01,9.100732803344726562e-01,9.100308418273925781e-01,9.099882841110229492e-01,9.099458456039428711e-01,9.099034070968627930e-01,9.098609685897827148e-01,9.098185300827026367e-01,9.097760915756225586e-01,9.097335934638977051e-01,9.096911549568176270e-01,9.096487760543823242e-01,9.096063375473022461e-01,9.095639586448669434e-01,9.095214009284973145e-01,9.094790220260620117e-01,9.094366431236267090e-01,9.093942046165466309e-01,9.093518257141113281e-01,9.093094468116760254e-01,9.092669486999511719e-01,9.092246294021606445e-01,9.091822504997253418e-01,9.091398715972900391e-01,9.090974926948547363e-01,9.090550541877746582e-01,9.090126752853393555e-01,9.089702963829040527e-01,9.089279770851135254e-01,9.088855981826782227e-01,9.088431596755981445e-01,9.088008403778076172e-01,9.087585210800170898e-01,9.087162017822265625e-01,9.086738228797912598e-01,9.086315035820007324e-01,9.085891246795654297e-01,9.085468053817749023e-01,9.085044860839843750e-01,9.084621667861938477e-01,9.084198474884033203e-01,9.083774685859680176e-01,9.083352088928222656e-01,9.082928895950317383e-01,9.082506299018859863e-01,9.082083106040954590e-01,9.081660509109497070e-01,9.081236720085144043e-01,9.080814123153686523e-01,9.080391526222229004e-01,9.079968929290771484e-01,9.079546332359313965e-01,9.079122543334960938e-01,9.078699946403503418e-01,9.078277349472045898e-01,9.077855348587036133e-01,9.077432751655578613e-01,9.077009558677673340e-01,9.076586961746215820e-01,9.076164960861206055e-01,9.075742363929748535e-01,9.075320363044738770e-01,9.074898362159729004e-01,9.074475169181823730e-01,9.074053168296813965e-01,9.073631167411804199e-01,9.073209166526794434e-01,9.072787165641784668e-01,9.072363972663879395e-01,9.071941971778869629e-01,9.071520566940307617e-01,9.071098566055297852e-01,9.070676565170288086e-01,9.070255160331726074e-01,9.069832563400268555e-01
8.635150790214538574e-01,8.634768724441528320e-01,8.634386062622070312e-01,8.634003400802612305e-01,8.633621335029602051e-01,8.633239269256591797e-01,8.632857203483581543e-01,8.632474541664123535e-01,8.632092475891113281e-01,8.631710410118103027e-01,8.631328940391540527e-01,8.630946874618530273e-01,8.630564212799072266e-01,8.630182147026062012e-01,8.629800677299499512e-01,8.629418611526489258e-01,8.629037141799926758e-01,8.628655672073364258e-01,8.628273010253906250e-01,8.627891540527343750e-01,8.627509474754333496e-01,8.627128005027770996e-01,8.626746535301208496e-01,8.626364469528198242e-01,8.625982999801635742e-01,8.625601530075073242e-01,8.625220060348510742e-01,8.624838590621948242e-01,8.624457716941833496e-01,8.624075651168823242e-01,8.623694181442260742e-01,8.623312711715698242e-01,8.622931838035583496e-01,8.622550964355468750e-01,8.622168898582458496e-01,8.621787428855895996e-01,8.621406555175781250e-01,8.621025681495666504e-01,8.620644807815551758e-01,8.620263934135437012e-01,8.619881868362426758e-01,8.619500994682312012e-01,8.619120121002197266e-01,8.618739247322082520e-01,8.618358969688415527e-01,8.617976903915405273e-01,8.617596626281738281e-01,8.617215752601623535e-01,8.616834878921508789e-01,8.616454601287841797e-01,8.616073131561279297e-01,8.615692853927612305e-01,8.615311980247497559e-01,8.614931702613830566e-01,8.614551424980163574e-01,8.614171147346496582e-01,8.613789677619934082e-01,8.613409399986267090e-01,8.613029122352600098e-01,8.612648844718933105e-01,8.612268567085266113e-01,8.611887693405151367e-01,8.611507415771484375e-01,8.611127138137817383e-01,8.610746860504150391e-01,8.610367178916931152e-01,8.609986901283264160e-01,8.609606027603149414e-01,8.609226346015930176e-01,8.608846068382263184e-01,8.608466386795043945e-01,8.608086705207824707e-01,8.607705831527709961e-01,8.607326149940490723e-01,8.606946468353271484e-01,8.606566786766052246e-01,8.606187105178833008e-01,8.605806231498718262e-01,8.605426549911499023e-01,8.605047464370727539e-01
8.212811350822448730e-01,8.212465047836303711e-01,8.212119936943054199e-01,8.211774230003356934e-01,8.211428523063659668e-01,8.211082816123962402e-01,8.210736513137817383e-01,8.210390806198120117e-01,8.210045099258422852e-01,8.209699988365173340e-01,8.209354281425476074e-01,8.209007978439331055e-01,8.208662867546081543e-01,8.208317160606384277e-01,8.207972049713134766e-01,8.207626342773437500e-01,8.207281231880187988e-01,8.206934928894042969e-01,8.206589818000793457e-01,8.206244707107543945e-01,8.205899596214294434e-01,8.205554485321044922e-01,8.205208778381347656e-01,8.204863667488098145e-01,8.204518556594848633e-01,8.204173445701599121e-01,8.203828334808349609e-01,8.203482627868652344e-01,8.203137516975402832e-01,8.202793002128601074e-01,8.202447891235351562e-01,8.202102780342102051e-01,8.201758265495300293e-01,8.201412558555603027e-01,8.201068043708801270e-01,8.200722932815551758e-01,8.200378417968750000e-01,8.200033903121948242e-01,8.199688196182250977e-01,8.199343681335449219e-01,8.198999166488647461e-01,8.198654651641845703e-01,8.198309540748596191e-01,8.197965025901794434e-01,8.197619915008544922e-01,8.197275400161743164e-01,8.196930885314941406e-01,8.196586966514587402e-01,8.196242451667785645e-01,8.195897340774536133e-01,8.195552825927734375e-01,8.195208907127380371e-01,8.194864392280578613e-01,8.194519877433776855e-01,8.194175362586975098e-01,8.193830847740173340e-01,8.193486928939819336e-01,8.193142414093017578e-01,8.192798495292663574e-01,8.192454576492309570e-01,8.192109465599060059e-01,8.191765546798706055e-01,8.191421627998352051e-01,8.191077709197998047e-01,8.190733790397644043e-01,8.190389275550842285e-01,8.190045356750488281e-01,8.189701437950134277e-01,8.189357519149780273e-01,8.189014196395874023e-01,8.188670277595520020e-01,8.188325762748718262e-01,8.187981843948364258e-01,8.187638521194458008e-01,8.187294602394104004e-01,8.186951279640197754e-01,8.186606764793395996e-01,8.186263442039489746e-01,8.185919523239135742e-01,8.185576200485229492e-01
7.829858660697937012e-01,7.829543948173522949e-01,7.829229831695556641e-01,7.828915715217590332e-01,7.828601002693176270e-01,7.828286886215209961e-01,7.827972769737243652e-01,7.827658653259277344e-01,7.827344536781311035e-01,7.827030420303344727e-01,7.826715707778930664e-01,7.826401591300964355e-01,7.826087474822998047e-01,7.825773954391479492e-01,7.825459837913513184e-01,7.825145125389099121e-01,7.824831604957580566e-01,7.824517488479614258e-01,7.824203968048095703e-01,7.823889851570129395e-01,7.823576331138610840e-01,7.823261618614196777e-01,7.822948098182678223e-01,7.822633981704711914e-01,7.822320461273193359e-01,7.822006940841674805e-01,7.821692824363708496e-01,7.821378707885742188e-01,7.821065187454223633e-01,7.820751667022705078e-01,7.820438146591186523e-01,7.820124030113220215e-01,7.819810509681701660e-01,7.819496989250183105e-01,7.819184064865112305e-01,7.818870544433593750e-01,7.818557024002075195e-01,7.818242907524108887e-01,7.817929387092590332e-01,7.817616462707519531e-01,7.817302942276000977e-01,7.816990017890930176e-01,7.816675901412963867e-01,7.816362977027893066e-01,7.816049456596374512e-01,7.815736532211303711e-01,7.815423011779785156e-01,7.815110087394714355e-01,7.814796566963195801e-01,7.814483046531677246e-01,7.814170122146606445e-01,7.813857197761535645e-01,7.813544273376464844e-01,7.813230752944946289e-01,7.812917828559875488e-01,7.812604904174804688e-01,7.812291979789733887e-01,7.811979055404663086e-01,7.811665534973144531e-01,7.811352610588073730e-01,7.811040282249450684e-01,7.810727357864379883e-01,7.810414433479309082e-01,7.810102105140686035e-01,7.809788584709167480e-01,7.809475660324096680e-01,7.809163331985473633e-01,7.808850407600402832e-01,7.808538079261779785e-01,7.808225154876708984e-01,7.807912230491638184e-01,7.807599902153015137e-01,7.807287573814392090e-01,7.806975245475769043e-01,7.806662321090698242e-01,7.806349396705627441e-01,7.806037068367004395e-01,7.805724740028381348e-01,7.805412411689758301e-01,7.805100083351135254e-01
7.481027841567993164e-01,7.480741143226623535e-01,7.480453848838806152e-01,7.480166554450988770e-01,7.479879856109619141e-01,7.479593157768249512e-01,7.479306459426879883e-01,7.479019761085510254e-01,7.478731870651245117e-01,7.478445172309875488e-01,7.478158473968505859e-01,7.477872371673583984e-01,7.477585673332214355e-01,7.477298974990844727e-01,7.477011680603027344e-01,7.476724982261657715e-01,7.476438283920288086e-01,7.476152181625366211e-01,7.475865483283996582e-01,7.475578188896179199e-01,7.475292086601257324e-01,7.475005388259887695e-01,7.474719285964965820e-01,7.474432587623596191e-01,7.474146485328674316e-01,7.473859190940856934e-01,7.473573088645935059e-01,7.473286390304565430e-01,7.473000288009643555e-01,7.472714185714721680e-01,7.472427487373352051e-01,7.472140789031982422e-01,7.471854686737060547e-01,7.471568584442138672e-01,7.471282482147216797e-01,7.470995783805847168e-01,7.470709681510925293e-01,7.470423579216003418e-01,7.470137476921081543e-01,7.469851374626159668e-01,7.469565272331237793e-01,7.469278573989868164e-01,7.468993067741394043e-01,7.468706965446472168e-01,7.468420863151550293e-01,7.468134760856628418e-01,7.467848658561706543e-01,7.467562556266784668e-01,7.467277050018310547e-01,7.466990947723388672e-01,7.466704845428466797e-01,7.466419339179992676e-01,7.466133236885070801e-01,7.465847134590148926e-01,7.465561628341674805e-01,7.465275526046752930e-01,7.464990019798278809e-01,7.464703917503356934e-01,7.464418411254882812e-01,7.464132905006408691e-01,7.463846802711486816e-01,7.463561296463012695e-01,7.463275194168090820e-01,7.462989687919616699e-01,7.462704181671142578e-01,7.462418675422668457e-01,7.462133169174194336e-01,7.461848258972167969e-01,7.461562156677246094e-01,7.461276650428771973e-01,7.460991144180297852e-01,7.460705637931823730e-01,7.460420727729797363e-01,7.460134625434875488e-01,7.459849119186401367e-01,7.459564208984375000e-01,7.459278702735900879e-01,7.458993792533874512e-01,7.458708286285400391e-01,7.458422780036926270e-01
7.161952853202819824e-01,7.161689996719360352e-01,7.161426544189453125e-01,7.161163687705993652e-01,7.160900831222534180e-01,7.160637974739074707e-01,7.160375118255615234e-01,7.160111665725708008e-01,7.159848809242248535e-01,7.159586548805236816e-01,7.159323692321777344e-01,7.159060835838317871e-01,7.158797383308410645e-01,7.158534526824951172e-01,7.158272266387939453e-01,7.158009409904479980e-01,7.157747149467468262e-01,7.157484292984008789e-01,7.157220840454101562e-01,7.156958580017089844e-01,7.156695723533630371e-01,7.156433463096618652e-01,7.156170606613159180e-01,7.155907750129699707e-01,7.155645489692687988e-01,7.155382633209228516e-01,7.155120372772216797e-01,7.154858112335205078e-01,7.154595851898193359e-01,7.154332399368286133e-01,7.154070138931274414e-01,7.153807878494262695e-01,7.153545618057250977e-01,7.153283357620239258e-01,7.153020501136779785e-01,7.152758240699768066e-01,7.152495980262756348e-01,7.152233719825744629e-01,7.151971459388732910e-01,7.151709198951721191e-01,7.151446342468261719e-01,7.151184082031250000e-01,7.150922417640686035e-01,7.150660157203674316e-01,7.150397896766662598e-01,7.150135636329650879e-01,7.149873375892639160e-01,7.149611115455627441e-01,7.149349451065063477e-01,7.149087190628051758e-01,7.148824930191040039e-01,7.148562669754028320e-01,7.148301005363464355e-01,7.148038744926452637e-01,7.147777080535888672e-01,7.147514820098876953e-01,7.147252559661865234e-01,7.146990895271301270e-01,7.146729230880737305e-01,7.146466970443725586e-01,7.146205306053161621e-01,7.145943045616149902e-01,7.145681381225585938e-01,7.145419716835021973e-01,7.145158052444458008e-01,7.144896388053894043e-01,7.144634723663330078e-01,7.144372463226318359e-01,7.144110798835754395e-01,7.143849134445190430e-01,7.143587470054626465e-01,7.143325805664062500e-01,7.143063545227050781e-01,7.142801880836486816e-01,7.142540812492370605e-01,7.142279148101806641e-01,7.142017483711242676e-01,7.141755223274230957e-01,7.141494154930114746e-01,7.141232490539550781e-01
