5.000000000000000000e+00,5.000000000000000000e+00,5.000000000000000000e+00,5.000000000000000000e+00,5.000000000000000000e+00,5.000000000000000000e+00,5.000000000000000000e+00,5.000000000000000000e+00,5.000000000000000000e+00,5.000000000000000000e+00,5.000000000000000000e+00,5.000000000000000000e+00,5.000000000000000000e+00,5.000000000000000000e+00,5.000000000000000000e+00,1.803431034088134766e+00,1.787975788116455078e+00,1.792636513710021973e+00,1.811890602111816406e+00,1.810032963752746582e+00,1.806300878524780273e+00,1.811591744422912598e+00,1.823610067367553711e+00,1.842453122138977051e+00,1.864488124847412109e+00,1.896372795104980469e+00,1.930030465126037598e+00,2.028354406356811523e+00,2.076726675033569336e+00,5.000000000000000000e+00,5.000000000000000000e+00,5.000000000000000000e+00,5.000000000000000000e+00,5.000000000000000000e+00,5.000000000000000000e+00,5.000000000000000000e+00,5.000000000000000000e+00,5.000000000000000000e+00,5.000000000000000000e+00,5.000000000000000000e+00,5.000000000000000000e+00,5.000000000000000000e+00,5.000000000000000000e+00,4.173829078674316406e+00,4.032343387603759766e+00,3.900135278701782227e+00,3.776321411132812500e+00,3.660126924514770508e+00,3.550869226455688477e+00,3.447945356369018555e+00,3.350820064544677734e+00,3.259016752243041992e+00,3.172109603881835938e+00,3.089716911315917969e+00,3.011496305465698242e+00,2.937138319015502930e+00,2.866363763809204102e+00,2.798919916152954102e+00,2.734576940536499023e+00,2.673125743865966797e+00,2.614375829696655273e+00,2.558152437210083008e+00,2.504296541213989258e+00,2.452661752700805664e+00,2.403112888336181641e+00,2.355526447296142578e+00,2.309787988662719727e+00,2.265792131423950195e+00,2.223440885543823242e+00,2.182643651962280273e+00,2.143316745758056641e+00,2.105381965637207031e+00,2.068766593933105469e+00,2.033403158187866211e+00,1.999228239059448242e+00,1.966182947158813477e+00,1.934212565422058105e+00,1.903265118598937988e+00,1.873292446136474609e+00,1.844249010086059570e+00
5.000000000000000000e+00,5.000000000000000000e+00,5.000000000000000000e+00,5.000000000000000000e+00,5.000000000000000000e+00,5.000000000000000000e+00,5.000000000000000000e+00,5.000000000000000000e+00,5.000000000000000000e+00,5.000000000000000000e+00,5.000000000000000000e+00,5.000000000000000000e+00,5.000000000000000000e+00,5.000000000000000000e+00,5.000000000000000000e+00,1.812328100204467773e+00,1.789228916168212891e+00,1.793437719345092773e+00,1.808748602867126465e+00,1.820113658905029297e+00,1.810747623443603516e+00,1.824303150177001953e+00,1.828969001770019531e+00,1.836673378944396973e+00,1.866905808448791504e+00,1.896086454391479492e+00,1.928906202316284180e+00,2.027087926864624023e+00,2.092731237411499023e+00,5.000000000000000000e+00,5.000000000000000000e+00,5.000000000000000000e+00,5.000000000000000000e+00,5.000000000000000000e+00,5.000000000000000000e+00,5.000000000000000000e+00,5.000000000000000000e+00,5.000000000000000000e+00,5.000000000000000000e+00,5.000000000000000000e+00,5.000000000000000000e+00,5.000000000000000000e+00,4.325714111328125000e+00,4.173931121826171875e+00,4.032438278198242188e+00,3.900224208831787109e+00,3.776404619216918945e+00,3.660205125808715820e+00,3.550942897796630859e+00,3.448014736175537109e+00,3.350885629653930664e+00,3.259078741073608398e+00,3.172168254852294922e+00,3.089772701263427734e+00,3.011549234390258789e+00,2.937188863754272461e+00,2.866411924362182617e+00,2.798965692520141602e+00,2.734620571136474609e+00,2.673167467117309570e+00,2.614415645599365234e+00,2.558190822601318359e+00,2.504333257675170898e+00,2.452696800231933594e+00,2.403146505355834961e+00,2.355558872222900391e+00,2.309819221496582031e+00,2.265821933746337891e+00,2.223469734191894531e+00,2.182671546936035156e+00,2.143343687057495117e+00,2.105407953262329102e+00,2.068791389465332031e+00,2.033427238464355469e+00,1.999251604080200195e+00,1.966205596923828125e+00,1.934234499931335449e+00,1.903286218643188477e+00,1.873312950134277344e+00,1.844268918037414551e+00
5.000000000000000000e+00,5.000000000000000000e+00,5.000000000000000000e+00,5.000000000000000000e+00,5.000000000000000000e+00,5.000000000000000000e+00,5.000000000000000000e+00,5.000000000000000000e+00,5.000000000000000000e+00,5.000000000000000000e+00,5.000000000000000000e+00,5.000000000000000000e+00,5.000000000000000000e+00,5.000000000000000000e+00,5.000000000000000000e+00,1.816820859909057617e+00,1.790483593940734863e+00,1.794239640235900879e+00,1.805237412452697754e+00,1.827458977699279785e+00,1.817009925842285156e+00,1.821612477302551270e+00,1.827051639556884766e+00,1.839412093162536621e+00,1.859609842300415039e+00,1.888693571090698242e+00,1.936584830284118652e+00,2.035155296325683594e+00,2.103003263473510742e+00,5.000000000000000000e+00,5.000000000000000000e+00,5.000000000000000000e+00,5.000000000000000000e+00,5.000000000000000000e+00,5.000000000000000000e+00,5.000000000000000000e+00,5.000000000000000000e+00,5.000000000000000000e+00,5.000000000000000000e+00,5.000000000000000000e+00,5.000000000000000000e+00,4.489071369171142578e+00,4.325823783874511719e+00,4.174033164978027344e+00,4.032533645629882812e+00,3.900313615798950195e+00,3.776488304138183594e+00,3.660283803939819336e+00,3.551016807556152344e+00,3.448084592819213867e+00,3.350951433181762695e+00,3.259141206741333008e+00,3.172227382659912109e+00,3.089828729629516602e+00,3.011602640151977539e+00,2.937239408493041992e+00,2.866460084915161133e+00,2.799011707305908203e+00,2.734664440155029297e+00,2.673209428787231445e+00,2.614455699920654297e+00,2.558229207992553711e+00,2.504370212554931641e+00,2.452732086181640625e+00,2.403180599212646484e+00,2.355591535568237305e+00,2.309850454330444336e+00,2.265852212905883789e+00,2.223498821258544922e+00,2.182699441909790039e+00,2.143370628356933594e+00,2.105433940887451172e+00,2.068816661834716797e+00,2.033451318740844727e+00,1.999274849891662598e+00,1.966228365898132324e+00,1.934256315231323242e+00,1.903307676315307617e+00,1.873333454132080078e+00,1.844288945198059082e+00
5.000000000000000000e+00,5.000000000000000000e+00,5.000000000000000000e+00,5.000000000000000000e+00,5.000000000000000000e+00,5.000000000000000000e+00,5.000000000000000000e+00,5.000000000000000000e+00,5.000000000000000000e+00,5.000000000000000000e+00,5.000000000000000000e+00,5.000000000000000000e+00,5.000000000000000000e+00,5.000000000000000000e+00,5.000000000000000000e+00,5.000000000000000000e+00,1.792041778564453125e+00,1.793496608734130859e+00,1.802456855773925781e+00,1.834668636322021484e+00,1.821540236473083496e+00,1.818870663642883301e+00,1.824880123138427734e+00,1.839050889015197754e+00,1.857755064964294434e+00,1.884692907333374023e+00,1.936101198196411133e+00,2.088616609573364258e+00,2.121011495590209961e+00,5.000000000000000000e+00,5.000000000000000000e+00,5.000000000000000000e+00,5.000000000000000000e+00,5.000000000000000000e+00,5.000000000000000000e+00,5.000000000000000000e+00,5.000000000000000000e+00,5.000000000000000000e+00,5.000000000000000000e+00,5.000000000000000000e+00,4.665250301361083984e+00,4.489189147949218750e+00,4.325933456420898438e+00,4.174135208129882812e+00,4.032628536224365234e+00,3.900402307510375977e+00,3.776571750640869141e+00,3.660362005233764648e+00,3.551090478897094727e+00,3.448153972625732422e+00,3.351017236709594727e+00,3.259203195571899414e+00,3.172286272048950195e+00,3.089884519577026367e+00,3.011655569076538086e+00,2.937289714813232422e+00,2.866508007049560547e+00,2.799057483673095703e+00,2.734708070755004883e+00,2.673251152038574219e+00,2.614495754241943359e+00,2.558267354965209961e+00,2.504406690597534180e+00,2.452767133712768555e+00,2.403214216232299805e+00,2.355623960494995117e+00,2.309881687164306641e+00,2.265882253646850586e+00,2.223527669906616211e+00,2.182727336883544922e+00,2.143397331237792969e+00,2.105459690093994141e+00,2.068841695785522461e+00,2.033475399017333984e+00,1.999298214912414551e+00,1.966251015663146973e+00,1.934278130531311035e+00,1.903328776359558105e+00,1.873353958129882812e+00,1.844308853149414062e+00
5.000000000000000000e+00,5.000000000000000000e+00,5.000000000000000000e+00,5.000000000000000000e+00,5.000000000000000000e+00,5.000000000000000000e+00,5.000000000000000000e+00,5.000000000000000000e+00,5.000000000000000000e+00,5.000000000000000000e+00,5.000000000000000000e+00,5.000000000000000000e+00,5.000000000000000000e+00,5.000000000000000000e+00,5.000000000000000000e+00,5.000000000000000000e+00,1.795507431030273438e+00,1.795904874801635742e+00,1.806441426277160645e+00,1.841082692146301270e+00,1.827943086624145508e+00,1.821998715400695801e+00,1.827636599540710449e+00,1.840192794799804688e+00,1.859451770782470703e+00,1.885838508605957031e+00,1.925683617591857910e+00,2.089604616165161133e+00,2.156020164489746094e+00,5.000000000000000000e+00,5.000000000000000000e+00,5.000000000000000000e+00,5.000000000000000000e+00,5.000000000000000000e+00,5.000000000000000000e+00,5.000000000000000000e+00,5.000000000000000000e+00,5.000000000000000000e+00,5.000000000000000000e+00,4.855823040008544922e+00,4.665377616882324219e+00,4.489306926727294922e+00,4.326042652130126953e+00,4.174236774444580078e+00,4.032723903656005859e+00,3.900491237640380859e+00,3.776654958724975586e+00,3.660440206527709961e+00,3.551164150238037109e+00,3.448223590850830078e+00,3.351082801818847656e+00,3.259265184402465820e+00,3.172344923019409180e+00,3.089940309524536133e+00,3.011708498001098633e+00,2.937340259552001953e+00,2.866556167602539062e+00,2.799103260040283203e+00,2.734751939773559570e+00,2.673292875289916992e+00,2.614535570144653320e+00,2.558305740356445312e+00,2.504443407058715820e+00,2.452802419662475586e+00,2.403248071670532227e+00,2.355656385421752930e+00,2.309912919998168945e+00,2.265912055969238281e+00,2.223556518554687500e+00,2.182755231857299805e+00,2.143424272537231445e+00,2.105485677719116211e+00,2.068866491317749023e+00,2.033499479293823242e+00,1.999321579933166504e+00,1.966273546218872070e+00,1.934300065040588379e+00,1.903349876403808594e+00,1.873374462127685547e+00,1.844328761100769043e+00
5.000000000000000000e+00,5.000000000000000000e+00,5.000000000000000000e+00,5.000000000000000000e+00,5.000000000000000000e+00,5.000000000000000000e+00,5.000000000000000000e+00,5.000000000000000000e+00,5.000000000000000000e+00,5.000000000000000000e+00,5.000000000000000000e+00,5.000000000000000000e+00,5.000000000000000000e+00,5.000000000000000000e+00,5.000000000000000000e+00,5.000000000000000000e+00,1.799213647842407227e+00,1.798319816589355469e+00,1.813565135002136230e+00,1.836416244506835938e+00,1.820914506912231445e+00,1.814928412437438965e+00,1.820895791053771973e+00,1.838727951049804688e+00,1.861580967903137207e+00,1.888123273849487305e+00,1.927037000656127930e+00,2.091139793395996094e+00,5.000000000000000000e+00,5.000000000000000000e+00,5.000000000000000000e+00,5.000000000000000000e+00,5.000000000000000000e+00,5.000000000000000000e+00,5.000000000000000000e+00,5.000000000000000000e+00,5.000000000000000000e+00,5.000000000000000000e+00,5.000000000000000000e+00,4.855961322784423828e+00,4.665504932403564453e+00,4.489425182342529297e+00,4.326152324676513672e+00,4.174338817596435547e+00,4.032818794250488281e+00,3.900580644607543945e+00,3.776738882064819336e+00,3.660518884658813477e+00,3.551238298416137695e+00,3.448293209075927734e+00,3.351148605346679688e+00,3.259327650070190430e+00,3.172404050827026367e+00,3.089996337890625000e+00,3.011761665344238281e+00,2.937390804290771484e+00,2.866604328155517578e+00,2.799149274826049805e+00,2.734795808792114258e+00,2.673334836959838867e+00,2.614575862884521484e+00,2.558344125747680664e+00,2.504480123519897461e+00,2.452837705612182617e+00,2.403281927108764648e+00,2.355689048767089844e+00,2.309944152832031250e+00,2.265942335128784180e+00,2.223585605621337891e+00,2.182783126831054688e+00,2.143451213836669922e+00,2.105511426925659180e+00,2.068891525268554688e+00,2.033523797988891602e+00,1.999345064163208008e+00,1.966296195983886719e+00,1.934322118759155273e+00,1.903371095657348633e+00,1.873395204544067383e+00,1.844348549842834473e+00
5.000000000000000000e+00,5.000000000000000000e+00,5.000000000000000000e+00,5.000000000000000000e+00,5.000000000000000000e+00,5.000000000000000000e+00,5.000000000000000000e+00,5.000000000000000000e+00,5.000000000000000000e+00,5.000000000000000000e+00,5.000000000000000000e+00,5.000000000000000000e+00,5.000000000000000000e+00,5.000000000000000000e+00,5.000000000000000000e+00,5.000000000000000000e+00,1.802285313606262207e+00,1.801492094993591309e+00,1.820744991302490234e+00,1.827171683311462402e+00,1.815362215042114258e+00,1.809961557388305664e+00,1.814427733421325684e+00,1.831565737724304199e+00,1.861423611640930176e+00,1.883448600769042969e+00,1.918570756912231445e+00,2.093844652175903320e+00,5.000000000000000000e+00,5.000000000000000000e+00,5.000000000000000000e+00,5.000000000000000000e+00,5.000000000000000000e+00,5.000000000000000000e+00,5.000000000000000000e+00,5.000000000000000000e+00,5.000000000000000000e+00,5.000000000000000000e+00,5.000000000000000000e+00,4.856099128723144531e+00,4.665632724761962891e+00,4.489542961120605469e+00,4.326261997222900391e+00,4.174440860748291016e+00,4.032914161682128906e+00,3.900669336318969727e+00,3.776822090148925781e+00,3.660597085952758789e+00,3.551311969757080078e+00,3.448362827301025391e+00,3.351214170455932617e+00,3.259389638900756836e+00,3.172462940216064453e+00,3.090052127838134766e+00,3.011814832687377930e+00,2.937441349029541016e+00,2.866652250289916992e+00,2.799195051193237305e+00,2.734839439392089844e+00,2.673376560211181641e+00,2.614615678787231445e+00,2.558382272720336914e+00,2.504516839981079102e+00,2.452872753143310547e+00,2.403315544128417969e+00,2.355721235275268555e+00,2.309975385665893555e+00,2.265972375869750977e+00,2.223614454269409180e+00,2.182811021804809570e+00,2.143477916717529297e+00,2.105537414550781250e+00,2.068916559219360352e+00,2.033548116683959961e+00,1.999368429183959961e+00,1.966318726539611816e+00,1.934343934059143066e+00,1.903392314910888672e+00,1.873415708541870117e+00,1.844368457794189453e+00
5.000000000000000000e+00,5.000000000000000000e+00,5.000000000000000000e+00,5.000000000000000000e+00,5.000000000000000000e+00,5.000000000000000000e+00,5.000000000000000000e+00,5.000000000000000000e+00,5.000000000000000000e+00,5.000000000000000000e+00,5.000000000000000000e+00,5.000000000000000000e+00,5.000000000000000000e+00,5.000000000000000000e+00,5.000000000000000000e+00,5.000000000000000000e+00,1.790853500366210938e+00,1.778634309768676758e+00,1.807817578315734863e+00,1.827072501182556152e+00,1.813668012619018555e+00,1.816337347030639648e+00,1.823064088821411133e+00,1.828082680702209473e+00,1.849781632423400879e+00,1.875118851661682129e+00,1.907910823822021484e+00,2.111956119537353516e+00,5.000000000000000000e+00,5.000000000000000000e+00,5.000000000000000000e+00,5.000000000000000000e+00,5.000000000000000000e+00,5.000000000000000000e+00,5.000000000000000000e+00,5.000000000000000000e+00,5.000000000000000000e+00,5.000000000000000000e+00,5.000000000000000000e+00,4.856236934661865234e+00,4.665759563446044922e+00,4.489660739898681641e+00,4.326371192932128906e+00,4.174542903900146484e+00,4.033009052276611328e+00,3.900758266448974609e+00,3.776905298233032227e+00,3.660675525665283203e+00,3.551385641098022461e+00,3.448432207107543945e+00,3.351279973983764648e+00,3.259451627731323242e+00,3.172521591186523438e+00,3.090107917785644531e+00,3.011867761611938477e+00,2.937491655349731445e+00,2.866700410842895508e+00,2.799240827560424805e+00,2.734883069992065430e+00,2.673418521881103516e+00,2.614655733108520508e+00,2.558420658111572266e+00,2.504553556442260742e+00,2.452908039093017578e+00,2.403349399566650391e+00,2.355753660202026367e+00,2.310006618499755859e+00,2.266002178192138672e+00,2.223643302917480469e+00,2.182838678359985352e+00,2.143504619598388672e+00,2.105563163757324219e+00,2.068941593170166016e+00,2.033572196960449219e+00,1.999391794204711914e+00,1.966341376304626465e+00,1.934365749359130859e+00,1.903413414955139160e+00,1.873436093330383301e+00,1.844388365745544434e+00
5.000000000000000000e+00,5.000000000000000000e+00,5.000000000000000000e+00,5.000000000000000000e+00,5.000000000000000000e+00,5.000000000000000000e+00,5.000000000000000000e+00,5.000000000000000000e+00,5.000000000000000000e+00,5.000000000000000000e+00,5.000000000000000000e+00,5.000000000000000000e+00,5.000000000000000000e+00,5.000000000000000000e+00,5.000000000000000000e+00,5.000000000000000000e+00,1.773834705352783203e+00,1.763761997222900391e+00,1.779903769493103027e+00,1.830696821212768555e+00,1.817590475082397461e+00,1.820334792137145996e+00,1.823386549949645996e+00,1.838337779045104980e+00,1.854552268981933594e+00,1.883184671401977539e+00,1.927553296089172363e+00,2.130384206771850586e+00,5.000000000000000000e+00,5.000000000000000000e+00,5.000000000000000000e+00,5.000000000000000000e+00,5.000000000000000000e+00,5.000000000000000000e+00,5.000000000000000000e+00,5.000000000000000000e+00,5.000000000000000000e+00,5.000000000000000000e+00,5.000000000000000000e+00,4.856375217437744141e+00,4.665887355804443359e+00,4.489778995513916016e+00,4.326480865478515625e+00,4.174644947052001953e+00,4.033104419708251953e+00,3.900847673416137695e+00,3.776989221572875977e+00,3.660754203796386719e+00,3.551459789276123047e+00,3.448502063751220703e+00,3.351345777511596680e+00,3.259514093399047852e+00,3.172580718994140625e+00,3.090163946151733398e+00,3.011920928955078125e+00,2.937542438507080078e+00,2.866748571395874023e+00,2.799286842346191406e+00,2.734926939010620117e+00,2.673460483551025391e+00,2.614695787429809570e+00,2.558459043502807617e+00,2.504590272903442383e+00,2.452943325042724609e+00,2.403383255004882812e+00,2.355786323547363281e+00,2.310037851333618164e+00,2.266032457351684570e+00,2.223672151565551758e+00,2.182866573333740234e+00,2.143531560897827148e+00,2.105589389801025391e+00,2.068966627120971680e+00,2.033596515655517578e+00,1.999415159225463867e+00,1.966364145278930664e+00,1.934387683868408203e+00,1.903434753417968750e+00,1.873456716537475586e+00,1.844408392906188965e+00
5.000000000000000000e+00,5.000000000000000000e+00,5.000000000000000000e+00,5.000000000000000000e+00,5.000000000000000000e+00,5.000000000000000000e+00,5.000000000000000000e+00,5.000000000000000000e+00,5.000000000000000000e+00,5.000000000000000000e+00,5.000000000000000000e+00,5.000000000000000000e+00,5.000000000000000000e+00,5.000000000000000000e+00,5.000000000000000000e+00,5.000000000000000000e+00,5.000000000000000000e+00,1.753013014793395996e+00,1.759932518005371094e+00,1.804046750068664551e+00,1.816342949867248535e+00,1.820075273513793945e+00,1.826398849487304688e+00,1.841401100158691406e+00,1.854212999343872070e+00,1.885291576385498047e+00,1.917261719703674316e+00,2.148949146270751953e+00,5.000000000000000000e+00,5.000000000000000000e+00,5.000000000000000000e+00,5.000000000000000000e+00,5.000000000000000000e+00,5.000000000000000000e+00,5.000000000000000000e+00,5.000000000000000000e+00,5.000000000000000000e+00,5.000000000000000000e+00,5.000000000000000000e+00,4.856513023376464844e+00,4.666014194488525391e+00,4.489896774291992188e+00,4.326590538024902344e+00,4.174746513366699219e+00,4.033199310302734375e+00,3.900936603546142578e+00,3.777072429656982422e+00,3.660832405090332031e+00,3.551533460617065430e+00,3.448571443557739258e+00,3.351411342620849609e+00,3.259576082229614258e+00,3.172639608383178711e+00,3.090219736099243164e+00,3.011973857879638672e+00,2.937592744827270508e+00,2.866796493530273438e+00,2.799332618713378906e+00,2.734970808029174805e+00,2.673502206802368164e+00,2.614735603332519531e+00,2.558497190475463867e+00,2.504626989364624023e+00,2.452978372573852539e+00,2.403417110443115234e+00,2.355818748474121094e+00,2.310069084167480469e+00,2.266062259674072266e+00,2.223701000213623047e+00,2.182894468307495117e+00,2.143558502197265625e+00,2.105615139007568359e+00,2.068991661071777344e+00,2.033620595932006836e+00,1.999438524246215820e+00,1.966386675834655762e+00,1.934409499168395996e+00,1.903455972671508789e+00,1.873477220535278320e+00,1.844428300857543945e+00
5.000000000000000000e+00,5.000000000000000000e+00,5.000000000000000000e+00,5.000000000000000000e+00,5.000000000000000000e+00,5.000000000000000000e+00,5.000000000000000000e+00,5.000000000000000000e+00,5.000000000000000000e+00,5.000000000000000000e+00,5.000000000000000000e+00,5.000000000000000000e+00,5.000000000000000000e+00,5.000000000000000000e+00,5.000000000000000000e+00,5.000000000000000000e+00,5.000000000000000000e+00,1.737875103950500488e+00,1.734772324562072754e+00,1.783332347869873047e+00,1.811331033706665039e+00,1.817936301231384277e+00,1.832997322082519531e+00,1.850387215614318848e+00,1.864826083183288574e+00,1.893718957901000977e+00,1.923036456108093262e+00,1.990113139152526855e+00,5.000000000000000000e+00,5.000000000000000000e+00,5.000000000000000000e+00,5.000000000000000000e+00,5.000000000000000000e+00,5.000000000000000000e+00,5.000000000000000000e+00,5.000000000000000000e+00,5.000000000000000000e+00,5.000000000000000000e+00,5.000000000000000000e+00,4.856650829315185547e+00,4.666141986846923828e+00,4.490014553070068359e+00,4.326699733734130859e+00,4.174848556518554688e+00,4.033294677734375000e+00,3.901025295257568359e+00,3.777155876159667969e+00,3.660910606384277344e+00,3.551607131958007812e+00,3.448641061782836914e+00,3.351476907730102539e+00,3.259638309478759766e+00,3.172698259353637695e+00,3.090275526046752930e+00,3.012027025222778320e+00,2.937643051147460938e+00,2.866844654083251953e+00,2.799378395080566406e+00,2.735014438629150391e+00,2.673543930053710938e+00,2.614775657653808594e+00,2.558535337448120117e+00,2.504663705825805664e+00,2.453013658523559570e+00,2.403450727462768555e+00,2.355851173400878906e+00,2.310100078582763672e+00,2.266092061996459961e+00,2.223729848861694336e+00,2.182922363281250000e+00,2.143585443496704102e+00,2.105641126632690430e+00,2.069016695022583008e+00,2.033644676208496094e+00,1.999461889266967773e+00,1.966409325599670410e+00,1.934431433677673340e+00,1.903477072715759277e+00,1.873497605323791504e+00,1.844448089599609375e+00
5.000000000000000000e+00,5.000000000000000000e+00,5.000000000000000000e+00,5.000000000000000000e+00,5.000000000000000000e+00,5.000000000000000000e+00,5.000000000000000000e+00,5.000000000000000000e+00,5.000000000000000000e+00,5.000000000000000000e+00,5.000000000000000000e+00,5.000000000000000000e+00,5.000000000000000000e+00,5.000000000000000000e+00,5.000000000000000000e+00,5.000000000000000000e+00,5.000000000000000000e+00,1.724933266639709473e+00,1.716242671012878418e+00,1.746694207191467285e+00,1.803186416625976562e+00,1.813725352287292480e+00,1.832184433937072754e+00,1.866994738578796387e+00,1.874912977218627930e+00,1.912956118583679199e+00,1.924301624298095703e+00,1.967883944511413574e+00,5.000000000000000000e+00,5.000000000000000000e+00,5.000000000000000000e+00,5.000000000000000000e+00,5.000000000000000000e+00,5.000000000000000000e+00,5.000000000000000000e+00,5.000000000000000000e+00,5.000000000000000000e+00,5.000000000000000000e+00,5.000000000000000000e+00,4.856789112091064453e+00,4.666269302368164062e+00,4.490132808685302734e+00,4.326809406280517578e+00,4.174950599670410156e+00,4.033390045166015625e+00,3.901114702224731445e+00,3.777239561080932617e+00,3.660989284515380859e+00,3.551681041717529297e+00,3.448710918426513672e+00,3.351542949676513672e+00,3.259700536727905273e+00,3.172757387161254883e+00,3.090331554412841797e+00,3.012080192565917969e+00,2.937693834304809570e+00,2.866892814636230469e+00,2.799424409866333008e+00,2.735058307647705078e+00,2.673585891723632812e+00,2.614815711975097656e+00,2.558573961257934570e+00,2.504700422286987305e+00,2.453048944473266602e+00,2.403484582901000977e+00,2.355883598327636719e+00,2.310131311416625977e+00,2.266122341156005859e+00,2.223758935928344727e+00,2.182950258255004883e+00,2.143612384796142578e+00,2.105667114257812500e+00,2.069041728973388672e+00,2.033668994903564453e+00,1.999485492706298828e+00,1.966431856155395508e+00,1.934453487396240234e+00,1.903498291969299316e+00,1.873518347740173340e+00,1.844467997550964355e+00
5.000000000000000000e+00,5.000000000000000000e+00,5.000000000000000000e+00,5.000000000000000000e+00,5.000000000000000000e+00,5.000000000000000000e+00,5.000000000000000000e+00,5.000000000000000000e+00,5.000000000000000000e+00,5.000000000000000000e+00,5.000000000000000000e+00,5.000000000000000000e+00,5.000000000000000000e+00,5.000000000000000000e+00,5.000000000000000000e+00,5.000000000000000000e+00,5.000000000000000000e+00,1.725496411323547363e+00,1.714306235313415527e+00,1.797112226486206055e+00,1.791641831398010254e+00,1.801922202110290527e+00,1.818514823913574219e+00,1.873000621795654297e+00,1.915329337120056152e+00,1.895264863967895508e+00,1.901390314102172852e+00,1.908445477485656738e+00,5.000000000000000000e+00,5.000000000000000000e+00,5.000000000000000000e+00,5.000000000000000000e+00,5.000000000000000000e+00,5.000000000000000000e+00,5.000000000000000000e+00,5.000000000000000000e+00,5.000000000000000000e+00,5.000000000000000000e+00,5.000000000000000000e+00,4.856926918029785156e+00,4.666396617889404297e+00,4.490250587463378906e+00,4.326919078826904297e+00,4.175052642822265625e+00,4.033484935760498047e+00,3.901203632354736328e+00,3.777323007583618164e+00,3.661067724227905273e+00,3.551754713058471680e+00,3.448780298233032227e+00,3.351608514785766602e+00,3.259762763977050781e+00,3.172816276550292969e+00,3.090387344360351562e+00,3.012133121490478516e+00,2.937744140625000000e+00,2.866940975189208984e+00,2.799470186233520508e+00,2.735102176666259766e+00,2.673627614974975586e+00,2.614855766296386719e+00,2.558612108230590820e+00,2.504737138748168945e+00,2.453083992004394531e+00,2.403518199920654297e+00,2.355916023254394531e+00,2.310162544250488281e+00,2.266152381896972656e+00,2.223787784576416016e+00,2.182978153228759766e+00,2.143639087677001953e+00,2.105693101882934570e+00,2.069066762924194336e+00,2.033693313598632812e+00,1.999508857727050781e+00,1.966454505920410156e+00,1.934475302696228027e+00,1.903519511222839355e+00,1.873538851737976074e+00,1.844487905502319336e+00
5.000000000000000000e+00,5.000000000000000000e+00,5.000000000000000000e+00,5.000000000000000000e+00,5.000000000000000000e+00,5.000000000000000000e+00,5.000000000000000000e+00,5.000000000000000000e+00,5.000000000000000000e+00,5.000000000000000000e+00,5.000000000000000000e+00,5.000000000000000000e+00,5.000000000000000000e+00,5.000000000000000000e+00,5.000000000000000000e+00,5.000000000000000000e+00,5.000000000000000000e+00,5.000000000000000000e+00,1.689310789108276367e+00,1.692269563674926758e+00,1.722799897193908691e+00,1.794757246971130371e+00,1.801867008209228516e+00,1.856706261634826660e+00,1.896594524383544922e+00,1.870237469673156738e+00,1.878167748451232910e+00,1.888069510459899902e+00,1.950162887573242188e+00,5.000000000000000000e+00,5.000000000000000000e+00,5.000000000000000000e+00,5.000000000000000000e+00,5.000000000000000000e+00,5.000000000000000000e+00,5.000000000000000000e+00,5.000000000000000000e+00,5.000000000000000000e+00,5.000000000000000000e+00,4.857065200805664062e+00,4.666523933410644531e+00,4.490368843078613281e+00,4.327028751373291016e+00,4.175154685974121094e+00,4.033580303192138672e+00,3.901292562484741211e+00,3.777406215667724609e+00,3.661145925521850586e+00,3.551828384399414062e+00,3.448849678039550781e+00,3.351674318313598633e+00,3.259824752807617188e+00,3.172874927520751953e+00,3.090443134307861328e+00,3.012186288833618164e+00,2.937794685363769531e+00,2.866988897323608398e+00,2.799515962600708008e+00,2.735145807266235352e+00,2.673669338226318359e+00,2.614895582199096680e+00,2.558650255203247070e+00,2.504773616790771484e+00,2.453119039535522461e+00,2.403551816940307617e+00,2.355948448181152344e+00,2.310193538665771484e+00,2.266182422637939453e+00,2.223816633224487305e+00,2.183005809783935547e+00,2.143666028976440430e+00,2.105718851089477539e+00,2.069091796875000000e+00,2.033717393875122070e+00,1.999532222747802734e+00,1.966477036476135254e+00,1.934497237205505371e+00,1.903540611267089844e+00,1.873559355735778809e+00,1.844507813453674316e+00
5.000000000000000000e+00,5.000000000000000000e+00,5.000000000000000000e+00,5.000000000000000000e+00,5.000000000000000000e+00,5.000000000000000000e+00,5.000000000000000000e+00,5.000000000000000000e+00,5.000000000000000000e+00,5.000000000000000000e+00,5.000000000000000000e+00,5.000000000000000000e+00,5.000000000000000000e+00,5.000000000000000000e+00,5.000000000000000000e+00,5.000000000000000000e+00,5.000000000000000000e+00,1.718235611915588379e+00,1.674389481544494629e+00,1.667884588241577148e+00,1.686746716499328613e+00,1.792616009712219238e+00,1.799460053443908691e+00,1.844257712364196777e+00,1.889426946640014648e+00,1.868666291236877441e+00,1.868692517280578613e+00,1.878201961517333984e+00,1.925678491592407227e+00,5.000000000000000000e+00,5.000000000000000000e+00,5.000000000000000000e+00,5.000000000000000000e+00,5.000000000000000000e+00,5.000000000000000000e+00,5.000000000000000000e+00,5.000000000000000000e+00,5.000000000000000000e+00,5.000000000000000000e+00,4.857203006744384766e+00,4.666651248931884766e+00,4.490486621856689453e+00,4.327137947082519531e+00,4.175256252288818359e+00,4.033675193786621094e+00,3.901381492614746094e+00,3.777489662170410156e+00,3.661224365234375000e+00,3.551902055740356445e+00,3.448919296264648438e+00,3.351739883422851562e+00,3.259886741638183594e+00,3.172933816909790039e+00,3.090498924255371094e+00,3.012239217758178711e+00,2.937844991683959961e+00,2.867036819458007812e+00,2.799561738967895508e+00,2.735189437866210938e+00,2.673711061477661133e+00,2.614935636520385742e+00,2.558688640594482422e+00,2.504810094833374023e+00,2.453154087066650391e+00,2.403585672378540039e+00,2.355980873107910156e+00,2.310224771499633789e+00,2.266212224960327148e+00,2.223845481872558594e+00,2.183033704757690430e+00,2.143692731857299805e+00,2.105744838714599609e+00,2.069116830825805664e+00,2.033741474151611328e+00,1.999555468559265137e+00,1.966499686241149902e+00,1.934519052505493164e+00,1.903561830520629883e+00,1.873579859733581543e+00,1.844527602195739746e+00
5.000000000000000000e+00,5.000000000000000000e+00,5.000000000000000000e+00,5.000000000000000000e+00,5.000000000000000000e+00,5.000000000000000000e+00,5.000000000000000000e+00,5.000000000000000000e+00,5.000000000000000000e+00,5.000000000000000000e+00,5.000000000000000000e+00,5.000000000000000000e+00,5.000000000000000000e+00,5.000000000000000000e+00,5.000000000000000000e+00,5.000000000000000000e+00,5.000000000000000000e+00,1.705110430717468262e+00,1.661833763122558594e+00,1.647926688194274902e+00,1.786250591278076172e+00,1.792426347732543945e+00,1.798644542694091797e+00,1.842633605003356934e+00,1.888313293457031250e+00,1.866322398185729980e+00,1.861770153045654297e+00,1.871523857116699219e+00,1.908023476600646973e+00,5.000000000000000000e+00,5.000000000000000000e+00,5.000000000000000000e+00,5.000000000000000000e+00,5.000000000000000000e+00,5.000000000000000000e+00,5.000000000000000000e+00,5.000000000000000000e+00,5.000000000000000000e+00,5.000000000000000000e+00,4.857341289520263672e+00,4.666779041290283203e+00,4.490604400634765625e+00,4.327247619628906250e+00,4.175358772277832031e+00,4.033770561218261719e+00,3.901470899581909180e+00,3.777573347091674805e+00,3.661303043365478516e+00,3.551976203918457031e+00,3.448989152908325195e+00,3.351805686950683594e+00,3.259949207305908203e+00,3.172992944717407227e+00,3.090555191040039062e+00,3.012292385101318359e+00,2.937895774841308594e+00,2.867085218429565430e+00,2.799607753753662109e+00,2.735233306884765625e+00,2.673753023147583008e+00,2.614975690841674805e+00,2.558727025985717773e+00,2.504847049713134766e+00,2.453189373016357422e+00,2.403619527816772461e+00,2.356013298034667969e+00,2.310256242752075195e+00,2.266242504119873047e+00,2.223874568939208984e+00,2.183061838150024414e+00,2.143719911575317383e+00,2.105770826339721680e+00,2.069141864776611328e+00,2.033765792846679688e+00,1.999578833580017090e+00,1.966522455215454102e+00,1.934540867805480957e+00,1.903583168983459473e+00,1.873600363731384277e+00,1.844547748565673828e+00
5.000000000000000000e+00,5.000000000000000000e+00,5.000000000000000000e+00,5.000000000000000000e+00,5.000000000000000000e+00,5.000000000000000000e+00,5.000000000000000000e+00,5.000000000000000000e+00,5.000000000000000000e+00,5.000000000000000000e+00,5.000000000000000000e+00,5.000000000000000000e+00,5.000000000000000000e+00,5.000000000000000000e+00,5.000000000000000000e+00,5.000000000000000000e+00,5.000000000000000000e+00,5.000000000000000000e+00,1.670988678932189941e+00,1.794280171394348145e+00,1.787033557891845703e+00,1.792597889900207520e+00,1.799414396286010742e+00,1.844639182090759277e+00,1.886955738067626953e+00,1.863551378250122070e+00,1.852589726448059082e+00,1.864893078804016113e+00,1.890689015388488770e+00,5.000000000000000000e+00,5.000000000000000000e+00,5.000000000000000000e+00,5.000000000000000000e+00,5.000000000000000000e+00,5.000000000000000000e+00,5.000000000000000000e+00,5.000000000000000000e+00,5.000000000000000000e+00,5.000000000000000000e+00,4.857479095458984375e+00,4.666906356811523438e+00,4.490722656250000000e+00,4.327357292175292969e+00,4.175460815429687500e+00,4.033865928649902344e+00,3.901559829711914062e+00,3.777656793594360352e+00,3.661381244659423828e+00,3.552049875259399414e+00,3.449058532714843750e+00,3.351871490478515625e+00,3.260011196136474609e+00,3.173051834106445312e+00,3.090610980987548828e+00,3.012345552444458008e+00,2.937946081161499023e+00,2.867133140563964844e+00,2.799653530120849609e+00,2.735277175903320312e+00,2.673794746398925781e+00,2.615015506744384766e+00,2.558764934539794922e+00,2.504883527755737305e+00,2.453224658966064453e+00,2.403653383255004883e+00,2.356045722961425781e+00,2.310287237167358398e+00,2.266272544860839844e+00,2.223903417587280273e+00,2.183089494705200195e+00,2.143746614456176758e+00,2.105796813964843750e+00,2.069166898727416992e+00,2.033789873123168945e+00,1.999602198600769043e+00,1.966545104980468750e+00,1.934562802314758301e+00,1.903604388236999512e+00,1.873620867729187012e+00,1.844567537307739258e+00
5.000000000000000000e+00,5.000000000000000000e+00,5.000000000000000000e+00,5.000000000000000000e+00,5.000000000000000000e+00,5.000000000000000000e+00,5.000000000000000000e+00,5.000000000000000000e+00,5.000000000000000000e+00,5.000000000000000000e+00,5.000000000000000000e+00,5.000000000000000000e+00,5.000000000000000000e+00,5.000000000000000000e+00,5.000000000000000000e+00,5.000000000000000000e+00,5.000000000000000000e+00,5.000000000000000000e+00,1.653436183929443359e+00,1.801642179489135742e+00,1.788189888000488281e+00,1.792803049087524414e+00,1.801827192306518555e+00,1.845298528671264648e+00,1.889276981353759766e+00,1.860743165016174316e+00,1.843499064445495605e+00,1.855735898017883301e+00,1.874261140823364258e+00,5.000000000000000000e+00,5.000000000000000000e+00,5.000000000000000000e+00,5.000000000000000000e+00,5.000000000000000000e+00,5.000000000000000000e+00,5.000000000000000000e+00,5.000000000000000000e+00,5.000000000000000000e+00,5.000000000000000000e+00,4.857616901397705078e+00,4.667033672332763672e+00,4.490840435028076172e+00,4.327466487884521484e+00,4.175562381744384766e+00,4.033960819244384766e+00,3.901648759841918945e+00,3.777740240097045898e+00,3.661459445953369141e+00,3.552123546600341797e+00,3.449128150939941406e+00,3.351937055587768555e+00,3.260073423385620117e+00,3.173110485076904297e+00,3.090666770935058594e+00,3.012398481369018555e+00,2.937996625900268555e+00,2.867181301116943359e+00,2.799699306488037109e+00,2.735320806503295898e+00,2.673836708068847656e+00,2.615055322647094727e+00,2.558803319931030273e+00,2.504920244216918945e+00,2.453259706497192383e+00,2.403687000274658203e+00,2.356078147888183594e+00,2.310318470001220703e+00,2.266302585601806641e+00,2.223932266235351562e+00,2.183117389678955078e+00,2.143773555755615234e+00,2.105822563171386719e+00,2.069191932678222656e+00,2.033814191818237305e+00,1.999625563621520996e+00,1.966567635536193848e+00,1.934584617614746094e+00,1.903625488281250000e+00,1.873641371726989746e+00,1.844587445259094238e+00
5.000000000000000000e+00,5.000000000000000000e+00,5.000000000000000000e+00,5.000000000000000000e+00,5.000000000000000000e+00,5.000000000000000000e+00,5.000000000000000000e+00,5.000000000000000000e+00,5.000000000000000000e+00,5.000000000000000000e+00,5.000000000000000000e+00,5.000000000000000000e+00,5.000000000000000000e+00,5.000000000000000000e+00,5.000000000000000000e+00,5.000000000000000000e+00,5.000000000000000000e+00,5.000000000000000000e+00,5.000000000000000000e+00,1.809064865112304688e+00,1.789347410202026367e+00,1.793966531753540039e+00,1.804246425628662109e+00,1.845364570617675781e+00,1.895092725753784180e+00,1.857119441032409668e+00,1.836516976356506348e+00,1.847639083862304688e+00,1.860051393508911133e+00,5.000000000000000000e+00,5.000000000000000000e+00,5.000000000000000000e+00,5.000000000000000000e+00,5.000000000000000000e+00,5.000000000000000000e+00,5.000000000000000000e+00,5.000000000000000000e+00,5.000000000000000000e+00,5.000000000000000000e+00,4.857755184173583984e+00,4.667160987854003906e+00,4.490958690643310547e+00,4.327576160430908203e+00,4.175664424896240234e+00,4.034056186676025391e+00,3.901738166809082031e+00,3.777823925018310547e+00,3.661538362503051758e+00,3.552197694778442383e+00,3.449198007583618164e+00,3.352003097534179688e+00,3.260135650634765625e+00,3.173169612884521484e+00,3.090722799301147461e+00,3.012451648712158203e+00,2.938047170639038086e+00,2.867229461669921875e+00,2.799745321273803711e+00,2.735364437103271484e+00,2.673878431320190430e+00,2.615095615386962891e+00,2.558841705322265625e+00,2.504957199096679688e+00,2.453295230865478516e+00,2.403721094131469727e+00,2.356110811233520508e+00,2.310349941253662109e+00,2.266332626342773438e+00,2.223961353302001953e+00,2.183145284652709961e+00,2.143800497055053711e+00,2.105848789215087891e+00,2.069217205047607422e+00,2.033838510513305664e+00,1.999649167060852051e+00,1.966590285301208496e+00,1.934606671333312988e+00,1.903646707534790039e+00,1.873662114143371582e+00,1.844607353210449219e+00
5.000000000000000000e+00,5.000000000000000000e+00,5.000000000000000000e+00,5.000000000000000000e+00,5.000000000000000000e+00,5.000000000000000000e+00,5.000000000000000000e+00,5.000000000000000000e+00,5.000000000000000000e+00,5.000000000000000000e+00,5.000000000000000000e+00,5.000000000000000000e+00,5.000000000000000000e+00,5.000000000000000000e+00,5.000000000000000000e+00,5.000000000000000000e+00,5.000000000000000000e+00,5.000000000000000000e+00,5.000000000000000000e+00,1.817482590675354004e+00,1.788410067558288574e+00,1.793350338935852051e+00,1.805328965187072754e+00,1.845756292343139648e+00,1.904577612876892090e+00,1.851528763771057129e+00,1.833272457122802734e+00,1.838153123855590820e+00,1.852113246917724609e+00,5.000000000000000000e+00,5.000000000000000000e+00,5.000000000000000000e+00,5.000000000000000000e+00,5.000000000000000000e+00,5.000000000000000000e+00,5.000000000000000000e+00,5.000000000000000000e+00,5.000000000000000000e+00,5.000000000000000000e+00,4.857893466949462891e+00,4.667288780212402344e+00,4.491076469421386719e+00,4.327685832977294922e+00,4.175766944885253906e+00,4.034151554107666016e+00,3.901827096939086914e+00,3.777907371520996094e+00,3.661616563796997070e+00,3.552271366119384766e+00,3.449267387390136719e+00,3.352068662643432617e+00,3.260197877883911133e+00,3.173228502273559570e+00,3.090778589248657227e+00,3.012504816055297852e+00,2.938097715377807617e+00,2.867277383804321289e+00,2.799791097640991211e+00,2.735408067703247070e+00,2.673920154571533203e+00,2.615135431289672852e+00,2.558879852294921875e+00,2.504993677139282227e+00,2.453330278396606445e+00,2.403754711151123047e+00,2.356143236160278320e+00,2.310380935668945312e+00,2.266362667083740234e+00,2.223990201950073242e+00,2.183173179626464844e+00,2.143827438354492188e+00,2.105874538421630859e+00,2.069242238998413086e+00,2.033862590789794922e+00,1.999672532081604004e+00,1.966612815856933594e+00,1.934628605842590332e+00,1.903667807579040527e+00,1.873682618141174316e+00,1.844627261161804199e+00
5.000000000000000000e+00,5.000000000000000000e+00,5.000000000000000000e+00,5.000000000000000000e+00,5.000000000000000000e+00,5.000000000000000000e+00,5.000000000000000000e+00,5.000000000000000000e+00,5.000000000000000000e+00,5.000000000000000000e+00,5.000000000000000000e+00,5.000000000000000000e+00,5.000000000000000000e+00,5.000000000000000000e+00,5.000000000000000000e+00,5.000000000000000000e+00,5.000000000000000000e+00,5.000000000000000000e+00,5.000000000000000000e+00,1.826762437820434570e+00,1.789677739143371582e+00,1.792327404022216797e+00,1.806880831718444824e+00,1.845944285392761230e+00,5.000000000000000000e+00,1.845971584320068359e+00,1.830039381980895996e+00,1.826385617256164551e+00,1.843487858772277832e+00,5.000000000000000000e+00,5.000000000000000000e+00,5.000000000000000000e+00,5.000000000000000000e+00,5.000000000000000000e+00,5.000000000000000000e+00,5.000000000000000000e+00,5.000000000000000000e+00,5.000000000000000000e+00,5.000000000000000000e+00,4.858031272888183594e+00,4.667416095733642578e+00,4.491194248199462891e+00,4.327795505523681641e+00,4.175868511199951172e+00,4.034246444702148438e+00,3.901916027069091797e+00,3.777990579605102539e+00,3.661695003509521484e+00,3.552345037460327148e+00,3.449337005615234375e+00,3.352134227752685547e+00,3.260259866714477539e+00,3.173287391662597656e+00,3.090834379196166992e+00,3.012557744979858398e+00,2.938148021697998047e+00,2.867325544357299805e+00,2.799836635589599609e+00,2.735451936721801758e+00,2.673961877822875977e+00,2.615175485610961914e+00,2.558918237686157227e+00,2.505030393600463867e+00,2.453365325927734375e+00,2.403788566589355469e+00,2.356175661087036133e+00,2.310412168502807617e+00,2.266392707824707031e+00,2.224019050598144531e+00,2.183201074600219727e+00,2.143854141235351562e+00,2.105900526046752930e+00,2.069267034530639648e+00,2.033886671066284180e+00,1.999695897102355957e+00,1.966635465621948242e+00,1.934650421142578125e+00,1.903689026832580566e+00,1.873703122138977051e+00,1.844647049903869629e+00
5.000000000000000000e+00,5.000000000000000000e+00,5.000000000000000000e+00,5.000000000000000000e+00,5.000000000000000000e+00,5.000000000000000000e+00,5.000000000000000000e+00,5.000000000000000000e+00,5.000000000000000000e+00,5.000000000000000000e+00,5.000000000000000000e+00,5.000000000000000000e+00,5.000000000000000000e+00,5.000000000000000000e+00,5.000000000000000000e+00,5.000000000000000000e+00,5.000000000000000000e+00,5.000000000000000000e+00,5.000000000000000000e+00,1.843886494636535645e+00,1.791406035423278809e+00,1.791305780410766602e+00,1.808435320854187012e+00,1.844339728355407715e+00,5.000000000000000000e+00,1.842009663581848145e+00,1.826546072959899902e+00,1.816112041473388672e+00,1.833424448966979980e+00,5.000000000000000000e+00,5.000000000000000000e+00,5.000000000000000000e+00,5.000000000000000000e+00,5.000000000000000000e+00,5.000000000000000000e+00,5.000000000000000000e+00,5.000000000000000000e+00,5.000000000000000000e+00,5.000000000000000000e+00,4.858169555664062500e+00,4.667543411254882812e+00,4.491312503814697266e+00,4.327905178070068359e+00,4.175970554351806641e+00,4.034341812133789062e+00,3.902005195617675781e+00,3.778074502944946289e+00,3.661773681640625000e+00,3.552419185638427734e+00,3.449406862258911133e+00,3.352200269699096680e+00,3.260322332382202148e+00,3.173346519470214844e+00,3.090890407562255859e+00,3.012611150741577148e+00,2.938198804855346680e+00,2.867373466491699219e+00,2.799882650375366211e+00,2.735495805740356445e+00,2.674003839492797852e+00,2.615215539932250977e+00,2.558956623077392578e+00,2.505067348480224609e+00,2.453400850296020508e+00,2.403822422027587891e+00,2.356208324432373047e+00,2.310443639755249023e+00,2.266422748565673828e+00,2.224048137664794922e+00,2.183228969573974609e+00,2.143881082534790039e+00,2.105926513671875000e+00,2.069292306900024414e+00,2.033910989761352539e+00,1.999719262123107910e+00,1.966658234596252441e+00,1.934672355651855469e+00,1.903710365295410156e+00,1.873723626136779785e+00,1.844667196273803711e+00
5.000000000000000000e+00,5.000000000000000000e+00,5.000000000000000000e+00,5.000000000000000000e+00,5.000000000000000000e+00,5.000000000000000000e+00,5.000000000000000000e+00,5.000000000000000000e+00,5.000000000000000000e+00,5.000000000000000000e+00,5.000000000000000000e+00,5.000000000000000000e+00,5.000000000000000000e+00,5.000000000000000000e+00,5.000000000000000000e+00,5.000000000000000000e+00,5.000000000000000000e+00,5.000000000000000000e+00,5.000000000000000000e+00,1.853630781173706055e+00,1.795791983604431152e+00,1.791252732276916504e+00,1.809341430664062500e+00,1.842737793922424316e+00,5.000000000000000000e+00,1.870024085044860840e+00,1.825212121009826660e+00,1.813044786453247070e+00,1.829049348831176758e+00,5.000000000000000000e+00,5.000000000000000000e+00,5.000000000000000000e+00,5.000000000000000000e+00,5.000000000000000000e+00,5.000000000000000000e+00,5.000000000000000000e+00,5.000000000000000000e+00,5.000000000000000000e+00,5.000000000000000000e+00,4.858307361602783203e+00,4.667670726776123047e+00,4.491430759429931641e+00,4.328014373779296875e+00,4.176072597503662109e+00,4.034437179565429688e+00,3.902094364166259766e+00,3.778157949447631836e+00,3.661851882934570312e+00,3.552492856979370117e+00,3.449476242065429688e+00,3.352265834808349609e+00,3.260384321212768555e+00,3.173405170440673828e+00,3.090946197509765625e+00,3.012664079666137695e+00,2.938248872756958008e+00,2.867421627044677734e+00,2.799928426742553711e+00,2.735539436340332031e+00,2.674045562744140625e+00,2.615255594253540039e+00,2.558995008468627930e+00,2.505103826522827148e+00,2.453435897827148438e+00,2.403856277465820312e+00,2.356240749359130859e+00,2.310474634170532227e+00,2.266452789306640625e+00,2.224076986312866211e+00,2.183256864547729492e+00,2.143908023834228516e+00,2.105952501296997070e+00,2.069317340850830078e+00,2.033935308456420898e+00,1.999742627143859863e+00,1.966680884361267090e+00,1.934694170951843262e+00,1.903731584548950195e+00,1.873744130134582520e+00,1.844686985015869141e+00
5.000000000000000000e+00,5.000000000000000000e+00,5.000000000000000000e+00,5.000000000000000000e+00,5.000000000000000000e+00,5.000000000000000000e+00,5.000000000000000000e+00,5.000000000000000000e+00,5.000000000000000000e+00,5.000000000000000000e+00,5.000000000000000000e+00,5.000000000000000000e+00,5.000000000000000000e+00,5.000000000000000000e+00,5.000000000000000000e+00,5.000000000000000000e+00,5.000000000000000000e+00,5.000000000000000000e+00,5.000000000000000000e+00,5.000000000000000000e+00,1.805042386054992676e+00,1.793654084205627441e+00,1.808533310890197754e+00,1.841138839721679688e+00,5.000000000000000000e+00,1.856969833374023438e+00,1.830661296844482422e+00,1.821965336799621582e+00,1.836918354034423828e+00,5.000000000000000000e+00,5.000000000000000000e+00,5.000000000000000000e+00,5.000000000000000000e+00,5.000000000000000000e+00,5.000000000000000000e+00,5.000000000000000000e+00,5.000000000000000000e+00,5.000000000000000000e+00,5.000000000000000000e+00,4.858445644378662109e+00,4.667798519134521484e+00,4.491548538208007812e+00,4.328124046325683594e+00,4.176174640655517578e+00,4.034532546997070312e+00,3.902183294296264648e+00,3.778241157531738281e+00,3.661930322647094727e+00,3.552566528320312500e+00,3.449545860290527344e+00,3.352331638336181641e+00,3.260446548461914062e+00,3.173464059829711914e+00,3.091001987457275391e+00,3.012716770172119141e+00,2.938299417495727539e+00,2.867469549179077148e+00,2.799974203109741211e+00,2.735583305358886719e+00,2.674087285995483398e+00,2.615295410156250000e+00,2.559033155441284180e+00,2.505140542984008789e+00,2.453471183776855469e+00,2.403889894485473633e+00,2.356273174285888672e+00,2.310505867004394531e+00,2.266482830047607422e+00,2.224106073379516602e+00,2.183284759521484375e+00,2.143934965133666992e+00,2.105978488922119141e+00,2.069342374801635742e+00,2.033959388732910156e+00,1.999765992164611816e+00,1.966703414916992188e+00,1.934715986251831055e+00,1.903752684593200684e+00,1.873764634132385254e+00,1.844706892967224121e+00
5.000000000000000000e+00,5.000000000000000000e+00,5.000000000000000000e+00,5.000000000000000000e+00,5.000000000000000000e+00,5.000000000000000000e+00,5.000000000000000000e+00,5.000000000000000000e+00,5.000000000000000000e+00,5.000000000000000000e+00,5.000000000000000000e+00,5.000000000000000000e+00,5.000000000000000000e+00,5.000000000000000000e+00,5.000000000000000000e+00,5.000000000000000000e+00,5.000000000000000000e+00,5.000000000000000000e+00,1.920112729072570801e+00,1.856703639030456543e+00,1.813890337944030762e+00,1.799078702926635742e+00,1.819614171981811523e+00,5.000000000000000000e+00,5.000000000000000000e+00,1.853503227233886719e+00,1.838891625404357910e+00,1.835332989692687988e+00,1.849562406539916992e+00,5.000000000000000000e+00,5.000000000000000000e+00,5.000000000000000000e+00,5.000000000000000000e+00,5.000000000000000000e+00,5.000000000000000000e+00,5.000000000000000000e+00,5.000000000000000000e+00,5.000000000000000000e+00,5.000000000000000000e+00,4.858583927154541016e+00,4.667925834655761719e+00,4.491666793823242188e+00,4.328233718872070312e+00,4.176276683807373047e+00,4.034627914428710938e+00,3.902272701263427734e+00,3.778325080871582031e+00,3.662009000778198242e+00,3.552640676498413086e+00,3.449615716934204102e+00,3.352397441864013672e+00,3.260509014129638672e+00,3.173523187637329102e+00,3.091058015823364258e+00,3.012770175933837891e+00,2.938350200653076172e+00,2.867517948150634766e+00,2.800020217895507812e+00,2.735627174377441406e+00,2.674129247665405273e+00,2.615335702896118164e+00,2.559071540832519531e+00,2.505177497863769531e+00,2.453506469726562500e+00,2.403923749923706055e+00,2.356305837631225586e+00,2.310537338256835938e+00,2.266512870788574219e+00,2.224134922027587891e+00,2.183312654495239258e+00,2.143961906433105469e+00,2.106004476547241211e+00,2.069367408752441406e+00,2.033983707427978516e+00,1.999789595603942871e+00,1.966726064682006836e+00,1.934738159179687500e+00,1.903773903846740723e+00,1.873785376548767090e+00,1.844726800918579102e+00
5.000000000000000000e+00,5.000000000000000000e+00,5.000000000000000000e+00,5.000000000000000000e+00,5.000000000000000000e+00,5.000000000000000000e+00,5.000000000000000000e+00,5.000000000000000000e+00,5.000000000000000000e+00,5.000000000000000000e+00,5.000000000000000000e+00,5.000000000000000000e+00,5.000000000000000000e+00,5.000000000000000000e+00,5.000000000000000000e+00,5.000000000000000000e+00,5.000000000000000000e+00,5.000000000000000000e+00,1.891062617301940918e+00,1.856212735176086426e+00,1.827495813369750977e+00,1.811347961425781250e+00,1.841426968574523926e+00,5.000000000000000000e+00,5.000000000000000000e+00,1.863182663917541504e+00,1.845645785331726074e+00,1.849684596061706543e+00,1.884862303733825684e+00,5.000000000000000000e+00,5.000000000000000000e+00,5.000000000000000000e+00,5.000000000000000000e+00,5.000000000000000000e+00,5.000000000000000000e+00,5.000000000000000000e+00,5.000000000000000000e+00,5.000000000000000000e+00,5.000000000000000000e+00,4.858721733093261719e+00,4.668053150177001953e+00,4.491784572601318359e+00,4.328343391418457031e+00,4.176378726959228516e+00,4.034722805023193359e+00,3.902361631393432617e+00,3.778408527374267578e+00,3.662087440490722656e+00,3.552714347839355469e+00,3.449685096740722656e+00,3.352463245391845703e+00,3.260571002960205078e+00,3.173581838607788086e+00,3.091113805770874023e+00,3.012823104858398438e+00,2.938400506973266602e+00,2.867565870285034180e+00,2.800065994262695312e+00,2.735670804977416992e+00,2.674171209335327148e+00,2.615375518798828125e+00,2.559109926223754883e+00,2.505213975906372070e+00,2.453541517257690430e+00,2.403957605361938477e+00,2.356338262557983398e+00,2.310568332672119141e+00,2.266542911529541016e+00,2.224164009094238281e+00,2.183340549468994141e+00,2.143988609313964844e+00,2.106030225753784180e+00,2.069392442703247070e+00,2.034007787704467773e+00,1.999812960624694824e+00,1.966748595237731934e+00,1.934759974479675293e+00,1.903795123100280762e+00,1.873805880546569824e+00,1.844746708869934082e+00
5.000000000000000000e+00,5.000000000000000000e+00,5.000000000000000000e+00,5.000000000000000000e+00,5.000000000000000000e+00,5.000000000000000000e+00,5.000000000000000000e+00,5.000000000000000000e+00,5.000000000000000000e+00,5.000000000000000000e+00,5.000000000000000000e+00,5.000000000000000000e+00,5.000000000000000000e+00,5.000000000000000000e+00,5.000000000000000000e+00,5.000000000000000000e+00,5.000000000000000000e+00,1.991745591163635254e+00,1.910598993301391602e+00,1.881895422935485840e+00,1.865875482559204102e+00,1.872640252113342285e+00,5.000000000000000000e+00,5.000000000000000000e+00,5.000000000000000000e+00,1.866271853446960449e+00,1.858120918273925781e+00,1.864262104034423828e+00,5.000000000000000000e+00,5.000000000000000000e+00,5.000000000000000000e+00,5.000000000000000000e+00,5.000000000000000000e+00,5.000000000000000000e+00,5.000000000000000000e+00,5.000000000000000000e+00,5.000000000000000000e+00,5.000000000000000000e+00,5.000000000000000000e+00,4.858860015869140625e+00,4.668180942535400391e+00,4.491902828216552734e+00,4.328453063964843750e+00,4.176480770111083984e+00,4.034818172454833984e+00,3.902450561523437500e+00,3.778491735458374023e+00,3.662165641784667969e+00,3.552788257598876953e+00,3.449754714965820312e+00,3.352528810501098633e+00,3.260632991790771484e+00,3.173640727996826172e+00,3.091169595718383789e+00,3.012876272201538086e+00,2.938451051712036133e+00,2.867614030838012695e+00,2.800111770629882812e+00,2.735714673995971680e+00,2.674212932586669922e+00,2.615415573120117188e+00,2.559148073196411133e+00,2.505250692367553711e+00,2.453576803207397461e+00,2.403991460800170898e+00,2.356370687484741211e+00,2.310599565505981445e+00,2.266572952270507812e+00,2.224192857742309570e+00,2.183368444442749023e+00,2.144015550613403320e+00,2.106056213378906250e+00,2.069417476654052734e+00,2.034031867980957031e+00,1.999836325645446777e+00,1.966771245002746582e+00,1.934781908988952637e+00,1.903816223144531250e+00,1.873826384544372559e+00,1.844766497611999512e+00
5.000000000000000000e+00,5.000000000000000000e+00,5.000000000000000000e+00,5.000000000000000000e+00,5.000000000000000000e+00,5.000000000000000000e+00,5.000000000000000000e+00,5.000000000000000000e+00,5.000000000000000000e+00,5.000000000000000000e+00,5.000000000000000000e+00,5.000000000000000000e+00,5.000000000000000000e+00,5.000000000000000000e+00,5.000000000000000000e+00,5.000000000000000000e+00,5.000000000000000000e+00,1.968134760856628418e+00,1.933044075965881348e+00,1.918831110000610352e+00,1.936485767364501953e+00,5.000000000000000000e+00,5.000000000000000000e+00,5.000000000000000000e+00,5.000000000000000000e+00,1.864588618278503418e+00,1.859693288803100586e+00,1.866824388504028320e+00,5.000000000000000000e+00,5.000000000000000000e+00,5.000000000000000000e+00,5.000000000000000000e+00,5.000000000000000000e+00,5.000000000000000000e+00,5.000000000000000000e+00,5.000000000000000000e+00,5.000000000000000000e+00,5.000000000000000000e+00,5.000000000000000000e+00,4.858996391296386719e+00,4.668308258056640625e+00,4.492020606994628906e+00,4.328562736511230469e+00,4.176582813262939453e+00,4.034913063049316406e+00,3.902539491653442383e+00,3.778575181961059570e+00,3.662244081497192383e+00,3.552861928939819336e+00,3.449824094772338867e+00,3.352594137191772461e+00,3.260694980621337891e+00,3.173699378967285156e+00,3.091225385665893555e+00,3.012929201126098633e+00,2.938501358032226562e+00,2.867661952972412109e+00,2.800157785415649414e+00,2.735758304595947266e+00,2.674254655838012695e+00,2.615455627441406250e+00,2.559186458587646484e+00,2.505287408828735352e+00,2.453611850738525391e+00,2.404025077819824219e+00,2.356403112411499023e+00,2.310630798339843750e+00,2.266602993011474609e+00,2.224221706390380859e+00,2.183396339416503906e+00,2.144042491912841797e+00,2.106082201004028320e+00,2.069442510604858398e+00,2.034056186676025391e+00,1.999859690666198730e+00,1.966793775558471680e+00,1.934803724288940430e+00,1.903837442398071289e+00,1.873846888542175293e+00,1.844786405563354492e+00
5.000000000000000000e+00,5.000000000000000000e+00,5.000000000000000000e+00,5.000000000000000000e+00,5.000000000000000000e+00,5.000000000000000000e+00,5.000000000000000000e+00,5.000000000000000000e+00,5.000000000000000000e+00,5.000000000000000000e+00,5.000000000000000000e+00,5.000000000000000000e+00,5.000000000000000000e+00,5.000000000000000000e+00,5.000000000000000000e+00,5.000000000000000000e+00,5.000000000000000000e+00,1.992253303527832031e+00,1.958681344985961914e+00,1.949014067649841309e+00,5.000000000000000000e+00,5.000000000000000000e+00,5.000000000000000000e+00,5.000000000000000000e+00,5.000000000000000000e+00,1.863472580909729004e+00,1.860582590103149414e+00,1.868443965911865234e+00,5.000000000000000000e+00,5.000000000000000000e+00,5.000000000000000000e+00,5.000000000000000000e+00,5.000000000000000000e+00,5.000000000000000000e+00,5.000000000000000000e+00,5.000000000000000000e+00,5.000000000000000000e+00,5.000000000000000000e+00,5.000000000000000000e+00,4.859135150909423828e+00,4.668434143066406250e+00,4.492138862609863281e+00,4.328672409057617188e+00,4.176684856414794922e+00,4.035008430480957031e+00,3.902628898620605469e+00,3.778659105300903320e+00,3.662322759628295898e+00,3.552936077117919922e+00,3.449893712997436523e+00,3.352660179138183594e+00,3.260757446289062500e+00,3.173758506774902344e+00,3.091281414031982422e+00,3.012982606887817383e+00,2.938552141189575195e+00,2.867710351943969727e+00,2.800203800201416016e+00,2.735802173614501953e+00,2.674296617507934570e+00,2.615495681762695312e+00,2.559224843978881836e+00,2.505324363708496094e+00,2.453647375106811523e+00,2.404059171676635742e+00,2.356435537338256836e+00,2.310662269592285156e+00,2.266633272171020508e+00,2.224250793457031250e+00,2.183424234390258789e+00,2.144069433212280273e+00,2.106108188629150391e+00,2.069467544555664062e+00,2.034080505371093750e+00,1.999883055686950684e+00,1.966816663742065430e+00,1.934825539588928223e+00,1.903858780860900879e+00,1.873867392539978027e+00,1.844806551933288574e+00
5.000000000000000000e+00,5.000000000000000000e+00,5.000000000000000000e+00,5.000000000000000000e+00,5.000000000000000000e+00,5.000000000000000000e+00,5.000000000000000000e+00,5.000000000000000000e+00,5.000000000000000000e+00,5.000000000000000000e+00,5.000000000000000000e+00,5.000000000000000000e+00,5.000000000000000000e+00,5.000000000000000000e+00,5.000000000000000000e+00,5.000000000000000000e+00,2.079668998718261719e+00,2.019465446472167969e+00,1.989806652069091797e+00,2.018689393997192383e+00,5.000000000000000000e+00,5.000000000000000000e+00,5.000000000000000000e+00,5.000000000000000000e+00,5.000000000000000000e+00,1.862833380699157715e+00,1.861472964286804199e+00,1.870066165924072266e+00,5.000000000000000000e+00,5.000000000000000000e+00,5.000000000000000000e+00,5.000000000000000000e+00,5.000000000000000000e+00,5.000000000000000000e+00,5.000000000000000000e+00,5.000000000000000000e+00,5.000000000000000000e+00,5.000000000000000000e+00,5.000000000000000000e+00,4.859274387359619141e+00,4.668562412261962891e+00,4.492257118225097656e+00,4.328782081604003906e+00,4.176786899566650391e+00,4.035103797912597656e+00,3.902717828750610352e+00,3.778742551803588867e+00,3.662401199340820312e+00,3.553009510040283203e+00,3.449963331222534180e+00,3.352725982666015625e+00,3.260819435119628906e+00,3.173817396163940430e+00,3.091337203979492188e+00,3.013035535812377930e+00,2.938602447509765625e+00,2.867758274078369141e+00,2.800249576568603516e+00,2.735846042633056641e+00,2.674338340759277344e+00,2.615535736083984375e+00,2.559262990951538086e+00,2.505360841751098633e+00,2.453682422637939453e+00,2.404092788696289062e+00,2.356467962265014648e+00,2.310693264007568359e+00,2.266663074493408203e+00,2.224279642105102539e+00,2.183452129364013672e+00,2.144096136093139648e+00,2.106134176254272461e+00,2.069492578506469727e+00,2.034104585647583008e+00,1.999906420707702637e+00,1.966839194297790527e+00,1.934847474098205566e+00,1.903880000114440918e+00,1.873887896537780762e+00,1.844826340675354004e+00
5.000000000000000000e+00,5.000000000000000000e+00,5.000000000000000000e+00,5.000000000000000000e+00,5.000000000000000000e+00,5.000000000000000000e+00,5.000000000000000000e+00,5.000000000000000000e+00,5.000000000000000000e+00,5.000000000000000000e+00,5.000000000000000000e+00,5.000000000000000000e+00,5.000000000000000000e+00,5.000000000000000000e+00,5.000000000000000000e+00,5.000000000000000000e+00,2.089815378189086914e+00,2.048874855041503906e+00,2.035394191741943359e+00,5.000000000000000000e+00,5.000000000000000000e+00,5.000000000000000000e+00,5.000000000000000000e+00,5.000000000000000000e+00,5.000000000000000000e+00,1.862848520278930664e+00,1.862379550933837891e+00,1.871476054191589355e+00,5.000000000000000000e+00,5.000000000000000000e+00,5.000000000000000000e+00,5.000000000000000000e+00,5.000000000000000000e+00,5.000000000000000000e+00,5.000000000000000000e+00,5.000000000000000000e+00,5.000000000000000000e+00,5.000000000000000000e+00,5.000000000000000000e+00,4.859413146972656250e+00,4.668690681457519531e+00,4.492373943328857422e+00,4.328891277313232422e+00,4.176888942718505859e+00,4.035199165344238281e+00,3.902806758880615234e+00,3.778825759887695312e+00,3.662479162216186523e+00,3.553083181381225586e+00,3.450032949447631836e+00,3.352791547775268555e+00,3.260881662368774414e+00,3.173876285552978516e+00,3.091393232345581055e+00,3.013088464736938477e+00,2.938652992248535156e+00,2.867806434631347656e+00,2.800295352935791016e+00,2.735889673233032227e+00,2.674380302429199219e+00,2.615575551986694336e+00,2.559301376342773438e+00,2.505397558212280273e+00,2.453717708587646484e+00,2.404126644134521484e+00,2.356500387191772461e+00,2.310724496841430664e+00,2.266693115234375000e+00,2.224308490753173828e+00,2.183480024337768555e+00,2.144123077392578125e+00,2.106159925460815430e+00,2.069517612457275391e+00,2.034128665924072266e+00,1.999929785728454590e+00,1.966861844062805176e+00,1.934869289398193359e+00,1.903901100158691406e+00,1.873908400535583496e+00,1.844846248626708984e+00
5.000000000000000000e+00,5.000000000000000000e+00,5.000000000000000000e+00,5.000000000000000000e+00,5.000000000000000000e+00,5.000000000000000000e+00,5.000000000000000000e+00,5.000000000000000000e+00,5.000000000000000000e+00,5.000000000000000000e+00,5.000000000000000000e+00,5.000000000000000000e+00,5.000000000000000000e+00,5.000000000000000000e+00,5.000000000000000000e+00,5.000000000000000000e+00,2.123961210250854492e+00,2.106176853179931641e+00,5.000000000000000000e+00,5.000000000000000000e+00,5.000000000000000000e+00,5.000000000000000000e+00,5.000000000000000000e+00,5.000000000000000000e+00,5.000000000000000000e+00,1.865036129951477051e+00,1.864204525947570801e+00,1.877798557281494141e+00,5.000000000000000000e+00,5.000000000000000000e+00,5.000000000000000000e+00,5.000000000000000000e+00,5.000000000000000000e+00,5.000000000000000000e+00,5.000000000000000000e+00,5.000000000000000000e+00,5.000000000000000000e+00,5.000000000000000000e+00,5.000000000000000000e+00,4.859552383422851562e+00,4.668818950653076172e+00,4.492492675781250000e+00,4.328999996185302734e+00,4.176990985870361328e+00,4.035294532775878906e+00,3.902896165847778320e+00,3.778909444808959961e+00,3.662558078765869141e+00,3.553157329559326172e+00,3.450102806091308594e+00,3.352857589721679688e+00,3.260944128036499023e+00,3.173935413360595703e+00,3.091449260711669922e+00,3.013141870498657227e+00,2.938703775405883789e+00,2.867854595184326172e+00,2.800341367721557617e+00,2.735933542251586914e+00,2.674422264099121094e+00,2.615615844726562500e+00,2.559339761734008789e+00,2.505434513092041016e+00,2.453752994537353516e+00,2.404160499572753906e+00,2.356533050537109375e+00,2.310755968093872070e+00,2.266723394393920898e+00,2.224337577819824219e+00,2.183507919311523438e+00,2.144150018692016602e+00,2.106186151504516602e+00,2.069542884826660156e+00,2.034152984619140625e+00,1.999953389167785645e+00,1.966884374618530273e+00,1.934891462326049805e+00,1.903922319412231445e+00,1.873929142951965332e+00,1.844866156578063965e+00
5.000000000000000000e+00,5.000000000000000000e+00,5.000000000000000000e+00,5.000000000000000000e+00,5.000000000000000000e+00,5.000000000000000000e+00,5.000000000000000000e+00,5.000000000000000000e+00,5.000000000000000000e+00,5.000000000000000000e+00,5.000000000000000000e+00,5.000000000000000000e+00,5.000000000000000000e+00,5.000000000000000000e+00,5.000000000000000000e+00,5.000000000000000000e+00,2.128603935241699219e+00,2.126970767974853516e+00,5.000000000000000000e+00,5.000000000000000000e+00,5.000000000000000000e+00,5.000000000000000000e+00,5.000000000000000000e+00,5.000000000000000000e+00,5.000000000000000000e+00,1.867007851600646973e+00,1.866032838821411133e+00,1.898472309112548828e+00,5.000000000000000000e+00,5.000000000000000000e+00,5.000000000000000000e+00,5.000000000000000000e+00,5.000000000000000000e+00,5.000000000000000000e+00,5.000000000000000000e+00,5.000000000000000000e+00,5.000000000000000000e+00,5.000000000000000000e+00,5.000000000000000000e+00,4.859691143035888672e+00,4.668947219848632812e+00,4.492611408233642578e+00,4.329110145568847656e+00,4.177093505859375000e+00,4.035389900207519531e+00,3.902985095977783203e+00,3.778992891311645508e+00,3.662636280059814453e+00,3.553231239318847656e+00,3.450172185897827148e+00,3.352923154830932617e+00,3.261006116867065430e+00,3.173994302749633789e+00,3.091505050659179688e+00,3.013194799423217773e+00,2.938754081726074219e+00,2.867902755737304688e+00,2.800387144088745117e+00,2.735977411270141602e+00,2.674463987350463867e+00,2.615655660629272461e+00,2.559378147125244141e+00,2.505470991134643555e+00,2.453788042068481445e+00,2.404194355010986328e+00,2.356565475463867188e+00,2.310786962509155273e+00,2.266753435134887695e+00,2.224366426467895508e+00,2.183535814285278320e+00,2.144176959991455078e+00,2.106211900711059570e+00,2.069567918777465820e+00,2.034177303314208984e+00,1.999976754188537598e+00,1.966907024383544922e+00,1.934913277626037598e+00,1.903943538665771484e+00,1.873949646949768066e+00,1.844886064529418945e+00
4.874068737030029297e+00,4.872871398925781250e+00,4.871674537658691406e+00,4.870478153228759766e+00,4.869282245635986328e+00,4.868087291717529297e+00,4.866892814636230469e+00,4.865698814392089844e+00,4.864505290985107422e+00,4.863312721252441406e+00,4.862120628356933594e+00,4.860928535461425781e+00,4.859737873077392578e+00,4.858547210693359375e+00,4.857357501983642578e+00,4.856168270111083984e+00,2.131201028823852539e+00,2.138069868087768555e+00,4.852603912353515625e+00,4.851417064666748047e+00,4.850230693817138672e+00,4.849044799804687500e+00,4.847859382629394531e+00,4.846674919128417969e+00,4.845490932464599609e+00,1.868958711624145508e+00,1.867864847183227539e+00,4.841941833496093750e+00,4.840760231018066406e+00,4.839579105377197266e+00,4.838398456573486328e+00,4.837218284606933594e+00,4.836039066314697266e+00,4.834860324859619141e+00,4.833681583404541016e+00,4.832504272460937500e+00,4.831326961517333984e+00,4.830150127410888672e+00,4.828974246978759766e+00,4.827798843383789062e+00,4.669075489044189453e+00,4.492730140686035156e+00,4.329220294952392578e+00,4.177194118499755859e+00,4.035484790802001953e+00,3.903074026107788086e+00,3.779076337814331055e+00,3.662714719772338867e+00,3.553304910659790039e+00,3.450241804122924805e+00,3.352988958358764648e+00,3.261068344116210938e+00,3.174053192138671875e+00,3.091560840606689453e+00,3.013247966766357422e+00,2.938804626464843750e+00,2.867950677871704102e+00,2.800432920455932617e+00,2.736021041870117188e+00,2.674505710601806641e+00,2.615695714950561523e+00,2.559416294097900391e+00,2.505507707595825195e+00,2.453823328018188477e+00,2.404227972030639648e+00,2.356597900390625000e+00,2.310818195343017578e+00,2.266783475875854492e+00,2.224395513534545898e+00,2.183563709259033203e+00,2.144203901290893555e+00,2.106237888336181641e+00,2.069592952728271484e+00,2.034201383590698242e+00,2.000000000000000000e+00,1.966929674148559570e+00,1.934935092926025391e+00,1.903964638710021973e+00,1.873970150947570801e+00,1.844905853271484375e+00
3.777078866958618164e+00,3.776359558105468750e+00,3.775640726089477539e+00,3.774921894073486328e+00,3.774204015731811523e+00,3.773485660552978516e+00,3.772767782211303711e+00,3.772050142288208008e+00,3.771332979202270508e+00,3.770616292953491211e+00,3.769899606704711914e+00,3.769182920455932617e+00,3.768466711044311523e+00,3.767751216888427734e+00,3.767035484313964844e+00,3.766319990158081055e+00,2.131055831909179688e+00,2.146449089050292969e+00,3.764175891876220703e+00,3.763461351394653320e+00,3.762747287750244141e+00,3.762033700942993164e+00,3.761320114135742188e+00,3.760607242584228516e+00,3.759894371032714844e+00,1.870913863182067871e+00,1.869700431823730469e+00,3.757757425308227539e+00,3.757045507431030273e+00,3.756333827972412109e+00,3.755622386932373047e+00,3.754911184310913086e+00,3.754200935363769531e+00,3.753490209579467773e+00,3.752779960632324219e+00,3.752069950103759766e+00,3.751360654830932617e+00,3.750651121139526367e+00,3.749941825866699219e+00,3.749233007431030273e+00,3.748524188995361328e+00,3.747816324234008789e+00,3.747108221054077148e+00,3.746400356292724609e+00,3.745692729949951172e+00,3.744985342025756836e+00,3.744278669357299805e+00,3.662793397903442383e+00,3.553379058837890625e+00,3.450311660766601562e+00,3.353055000305175781e+00,3.261130809783935547e+00,3.174112319946289062e+00,3.091617107391357422e+00,3.013301134109497070e+00,2.938855171203613281e+00,2.867999076843261719e+00,2.800478935241699219e+00,2.736065149307250977e+00,2.674547672271728516e+00,2.615735769271850586e+00,2.559454679489135742e+00,2.505544662475585938e+00,2.453858613967895508e+00,2.404262065887451172e+00,2.356630563735961914e+00,2.310849666595458984e+00,2.266813516616821289e+00,2.224424362182617188e+00,2.183591604232788086e+00,2.144230842590332031e+00,2.106263875961303711e+00,2.069617986679077148e+00,2.034225702285766602e+00,2.000023365020751953e+00,1.966952443122863770e+00,1.934957027435302734e+00,1.903986096382141113e+00,1.873990654945373535e+00,1.844925999641418457e+00
3.083161830902099609e+00,3.082682847976684570e+00,3.082203626632690430e+00,3.081724882125854492e+00,3.081245899200439453e+00,3.080767631530761719e+00,3.080289125442504883e+00,3.079810619354248047e+00,3.079332351684570312e+00,3.078854322433471680e+00,3.078376770019531250e+00,3.077898979187011719e+00,3.077421426773071289e+00,3.076943874359130859e+00,3.076466798782348633e+00,3.075989484786987305e+00,2.132503747940063477e+00,2.143557548522949219e+00,3.074558973312377930e+00,3.074082612991333008e+00,3.073606014251708984e+00,3.073129892349243164e+00,3.072653770446777344e+00,3.072177648544311523e+00,3.071702003479003906e+00,1.882130146026611328e+00,1.891506552696228027e+00,3.070275306701660156e+00,3.069800376892089844e+00,3.069325208663940430e+00,3.068850278854370117e+00,3.068375587463378906e+00,3.067900896072387695e+00,3.067426443099975586e+00,3.066952228546142578e+00,3.066478013992309570e+00,3.066003799438476562e+00,3.065530061721801758e+00,3.065056562423706055e+00,3.064582824707031250e+00,3.064109325408935547e+00,3.063636064529418945e+00,3.063163042068481445e+00,3.062690019607543945e+00,3.062216997146606445e+00,3.061744213104248047e+00,3.061271667480468750e+00,3.060799360275268555e+00,3.060327053070068359e+00,3.059854984283447266e+00,3.059382915496826172e+00,3.058910846710205078e+00,3.058439493179321289e+00,3.057967901229858398e+00,3.013354301452636719e+00,2.938905715942382812e+00,2.868046998977661133e+00,2.800524711608886719e+00,2.736108779907226562e+00,2.674589633941650391e+00,2.615775823593139648e+00,2.559493064880371094e+00,2.505581378936767578e+00,2.453893899917602539e+00,2.404295682907104492e+00,2.356662988662719727e+00,2.310880899429321289e+00,2.266843557357788086e+00,2.224453449249267578e+00,2.183619499206542969e+00,2.144257545471191406e+00,2.106289863586425781e+00,2.069643020629882812e+00,2.034249782562255859e+00,2.000046730041503906e+00,1.966975092887878418e+00,1.934978842735290527e+00,1.904007196426391602e+00,1.874011158943176270e+00,1.844945907592773438e+00
2.604642629623413086e+00,2.604300498962402344e+00,2.603958606719970703e+00,2.603616714477539062e+00,2.603275060653686523e+00,2.602933406829833984e+00,2.602591991424560547e+00,2.602250337600708008e+00,2.601908922195434570e+00,2.601567745208740234e+00,2.601226329803466797e+00,2.600885391235351562e+00,2.600544452667236328e+00,2.600203514099121094e+00,2.599862575531005859e+00,2.599521875381469727e+00,2.599181175231933594e+00,2.598840713500976562e+00,2.598500013351440430e+00,2.598159551620483398e+00,2.597819566726684570e+00,2.597479343414306641e+00,2.597139120101928711e+00,2.596798896789550781e+00,1.933555841445922852e+00,1.860491275787353516e+00,1.862153768539428711e+00,2.595439672470092773e+00,2.595100164413452148e+00,2.594760656356811523e+00,2.594421386718750000e+00,2.594081878662109375e+00,2.593742609024047852e+00,2.593403339385986328e+00,2.593064546585083008e+00,2.592725515365600586e+00,2.592386722564697266e+00,2.592047691345214844e+00,2.591708898544311523e+00,2.591370582580566406e+00,2.591032028198242188e+00,2.590693473815917969e+00,2.590355157852172852e+00,2.590017080307006836e+00,2.589678764343261719e+00,2.589340686798095703e+00,2.589002609252929688e+00,2.588664531707763672e+00,2.588326930999755859e+00,2.587989091873168945e+00,2.587651491165161133e+00,2.587313890457153320e+00,2.586976528167724609e+00,2.586639165878295898e+00,2.586301803588867188e+00,2.585964679718017578e+00,2.585627555847167969e+00,2.585290670394897461e+00,2.584953546524047852e+00,2.584616661071777344e+00,2.584280014038085938e+00,2.559531211853027344e+00,2.505617856979370117e+00,2.453928947448730469e+00,2.404329538345336914e+00,2.356695413589477539e+00,2.310911893844604492e+00,2.266873598098754883e+00,2.224482297897338867e+00,2.183647394180297852e+00,2.144284486770629883e+00,2.106315851211547852e+00,2.069668054580688477e+00,2.034274101257324219e+00,2.000070095062255859e+00,1.966997623443603516e+00,1.935000777244567871e+00,1.904028415679931641e+00,1.874031782150268555e+00,1.844965815544128418e+00
2.254755496978759766e+00,2.254497051239013672e+00,2.254238605499267578e+00,2.253980159759521484e+00,2.253721714019775391e+00,2.253463268280029297e+00,2.253205060958862305e+00,2.252947092056274414e+00,2.252688884735107422e+00,2.252430677413940430e+00,2.252172708511352539e+00,2.251914501190185547e+00,2.251656770706176758e+00,2.251398801803588867e+00,2.251141071319580078e+00,2.250883340835571289e+00,2.250625610351562500e+00,2.250368118286132812e+00,2.250110387802124023e+00,2.249852895736694336e+00,2.249595403671264648e+00,2.249338150024414062e+00,2.249080896377563477e+00,2.248823642730712891e+00,1.913367271423339844e+00,1.834925889968872070e+00,1.812852978706359863e+00,2.247804164886474609e+00,2.247549295425415039e+00,2.247294664382934570e+00,2.247040033340454102e+00,2.246785640716552734e+00,2.246531009674072266e+00,2.246276617050170898e+00,2.246022224426269531e+00,2.245768070220947266e+00,2.245513677597045898e+00,2.245259523391723633e+00,2.245005369186401367e+00,2.244751214981079102e+00,2.244497299194335938e+00,2.244243144989013672e+00,2.243989229202270508e+00,2.243735313415527344e+00,2.243481636047363281e+00,2.243227958679199219e+00,2.242974281311035156e+00,2.242720603942871094e+00,2.242466926574707031e+00,2.242213487625122070e+00,2.241960048675537109e+00,2.241706609725952148e+00,2.241453409194946289e+00,2.241199970245361328e+00,2.240946769714355469e+00,2.240693569183349609e+00,2.240440607070922852e+00,2.240187406539916992e+00,2.239934444427490234e+00,2.239681482315063477e+00,2.239428758621215820e+00,2.239175796508789062e+00,2.238923072814941406e+00,2.238670349121093750e+00,2.238417625427246094e+00,2.238165140151977539e+00,2.237912416458129883e+00,2.237659931182861328e+00,2.224511384963989258e+00,2.183675289154052734e+00,2.144311428070068359e+00,2.106341838836669922e+00,2.069693088531494141e+00,2.034298419952392578e+00,2.000093698501586914e+00,1.967020273208618164e+00,1.935022830963134766e+00,1.904049634933471680e+00,1.874052405357360840e+00,1.844985604286193848e+00
1.987838506698608398e+00,1.987637400627136230e+00,1.987436532974243164e+00,1.987235784530639648e+00,1.987034678459167480e+00,1.986834049224853516e+00,1.986633062362670898e+00,1.986432433128356934e+00,1.986231684684753418e+00,1.986031055450439453e+00,1.985830545425415039e+00,1.985629796981811523e+00,1.985429406166076660e+00,1.985228776931762695e+00,1.985028386116027832e+00,1.984828114509582520e+00,1.984627604484558105e+00,1.984427332878112793e+00,1.984226942062377930e+00,1.984026789665222168e+00,1.983826637268066406e+00,1.983626365661621094e+00,1.983426332473754883e+00,1.983226060867309570e+00,1.983026146888732910e+00,1.809302568435668945e+00,1.761816978454589844e+00,1.778676986694335938e+00,1.832429647445678711e+00,1.982026576995849609e+00,1.981826782226562500e+00,1.981626868247985840e+00,1.981427311897277832e+00,1.981227397918701172e+00,1.981027841567993164e+00,1.980828404426574707e+00,1.980628728866577148e+00,1.980429291725158691e+00,1.980229616165161133e+00,1.980030298233032227e+00,1.979830980300903320e+00,1.979631423950195312e+00,1.979432225227355957e+00,1.979232788085937500e+00,1.979033589363098145e+00,1.978834509849548340e+00,1.978635191917419434e+00,1.978436231613159180e+00,1.978237032890319824e+00,1.978038072586059570e+00,1.977839112281799316e+00,1.977640032768249512e+00,1.977441191673278809e+00,1.977242112159729004e+00,1.977043390274047852e+00,1.976844668388366699e+00,1.976645827293395996e+00,1.976447105407714844e+00,1.976248264312744141e+00,1.976049780845642090e+00,1.975851058959960938e+00,1.975652575492858887e+00,1.975454092025756836e+00,1.975255489349365234e+00,1.975057125091552734e+00,1.974858641624450684e+00,1.974660277366638184e+00,1.974462032318115234e+00,1.974263668060302734e+00,1.974065542221069336e+00,1.973867177963256836e+00,1.973669052124023438e+00,1.973471045494079590e+00,1.973272800445556641e+00,1.973074913024902344e+00,1.967042803764343262e+00,1.935044765472412109e+00,1.904070734977722168e+00,1.874072909355163574e+00,1.845005512237548828e+00
1.777427315711975098e+00,1.777266502380371094e+00,1.777105927467346191e+00,1.776945114135742188e+00,1.776784658432006836e+00,1.776624083518981934e+00,1.776463508605957031e+00,1.776303052902221680e+00,1.776142477989196777e+00,1.775982141494750977e+00,1.775821566581726074e+00,1.775661230087280273e+00,1.775500893592834473e+00,1.775340437889099121e+00,1.775180220603942871e+00,1.775019884109497070e+00,1.774859666824340820e+00,1.774699568748474121e+00,1.774539232254028320e+00,1.774379134178161621e+00,1.774218916893005371e+00,1.774058818817138672e+00,1.773898839950561523e+00,1.773738741874694824e+00,1.773578763008117676e+00,1.773418664932250977e+00,1.773258805274963379e+00,1.773098945617675781e+00,1.772938847541809082e+00,1.772779107093811035e+00,1.772619128227233887e+00,1.772459387779235840e+00,1.772299647331237793e+00,1.772139787673950195e+00,1.771980166435241699e+00,1.771820306777954102e+00,1.771660685539245605e+00,1.771501183509826660e+00,1.771341443061828613e+00,1.771181941032409668e+00,1.771022200584411621e+00,1.770862817764282227e+00,1.770703315734863281e+00,1.770543813705444336e+00,1.770384430885314941e+00,1.770224809646606445e+00,1.770065546035766602e+00,1.769906282424926758e+00,1.769746780395507812e+00,1.769587635993957520e+00,1.769428253173828125e+00,1.769268989562988281e+00,1.769109845161437988e+00,1.768950581550598145e+00,1.768791556358337402e+00,1.768632292747497559e+00,1.768473267555236816e+00,1.768314242362976074e+00,1.768155097961425781e+00,1.767996191978454590e+00,1.767837047576904297e+00,1.767678141593933105e+00,1.767519116401672363e+00,1.767360329627990723e+00,1.767201542854309082e+00,1.767042517662048340e+00,1.766883850097656250e+00,1.766724944114685059e+00,1.766566276550292969e+00,1.766407608985900879e+00,1.766248822212219238e+00,1.766090154647827148e+00,1.765931367874145508e+00,1.765772938728332520e+00,1.765614390373229980e+00,1.765455722808837891e+00,1.765297293663024902e+00,1.765138626098632812e+00,1.764980316162109375e+00,1.764821887016296387e+00
1.607295989990234375e+00,1.607164740562438965e+00,1.607033371925354004e+00,1.606901884078979492e+00,1.606770634651184082e+00,1.606639266014099121e+00,1.606508016586303711e+00,1.606376767158508301e+00,1.606245517730712891e+00,1.606114268302917480e+00,1.605983018875122070e+00,1.605851888656616211e+00,1.605720639228820801e+00,1.605589509010314941e+00,1.605458498001098633e+00,1.605327248573303223e+00,1.605196237564086914e+00,1.605065107345581055e+00,1.604934215545654297e+00,1.604803204536437988e+00,1.604672193527221680e+00,1.604541182518005371e+00,1.604410171508789062e+00,1.604279279708862305e+00,1.604148507118225098e+00,1.604017496109008789e+00,1.603886723518371582e+00,1.603755712509155273e+00,1.603625059127807617e+00,1.603494286537170410e+00,1.603363394737243652e+00,1.603232741355895996e+00,1.603101849555969238e+00,1.602971196174621582e+00,1.602840542793273926e+00,1.602709889411926270e+00,1.602579236030578613e+00,1.602448582649230957e+00,1.602317929267883301e+00,1.602187514305114746e+00,1.602056860923767090e+00,1.601926326751708984e+00,1.601795673370361328e+00,1.601665258407592773e+00,1.601534843444824219e+00,1.601404309272766113e+00,1.601273894309997559e+00,1.601143479347229004e+00,1.601013064384460449e+00,1.600882768630981445e+00,1.600752353668212891e+00,1.600622057914733887e+00,1.600491642951965332e+00,1.600361466407775879e+00,1.600231289863586426e+00,1.600100874900817871e+00,1.599970698356628418e+00,1.599840402603149414e+00,1.599710345268249512e+00,1.599580168724060059e+00,1.599449992179870605e+00,1.599319934844970703e+00,1.599189758300781250e+00,1.599059700965881348e+00,1.598929762840270996e+00,1.598799586296081543e+00,1.598669648170471191e+00,1.598539590835571289e+00,1.598409652709960938e+00,1.598279595375061035e+00,1.598149776458740234e+00,1.598019957542419434e+00,1.597889900207519531e+00,1.597760081291198730e+00,1.597630143165588379e+00,1.597500443458557129e+00,1.597370743751525879e+00,1.597240805625915527e+00,1.597111105918884277e+00,1.596981287002563477e+00
1.466888904571533203e+00,1.466779470443725586e+00,1.466670036315917969e+00,1.466560602188110352e+00,1.466451287269592285e+00,1.466341853141784668e+00,1.466232538223266602e+00,1.466123104095458984e+00,1.466013789176940918e+00,1.465904593467712402e+00,1.465795159339904785e+00,1.465685963630676270e+00,1.465576648712158203e+00,1.465467453002929688e+00,1.465358138084411621e+00,1.465248942375183105e+00,1.465139746665954590e+00,1.465030550956726074e+00,1.464921355247497559e+00,1.464812159538269043e+00,1.464703083038330078e+00,1.464594006538391113e+00,1.464484810829162598e+00,1.464375853538513184e+00,1.464266657829284668e+00,1.464157700538635254e+00,1.464048624038696289e+00,1.463939547538757324e+00,1.463830590248107910e+00,1.463721513748168945e+00,1.463612675666809082e+00,1.463503718376159668e+00,1.463394641876220703e+00,1.463285803794860840e+00,1.463176846504211426e+00,1.463068008422851562e+00,1.462959170341491699e+00,1.462850213050842285e+00,1.462741494178771973e+00,1.462632536888122559e+00,1.462523818016052246e+00,1.462415099143981934e+00,1.462306261062622070e+00,1.462197542190551758e+00,1.462088704109191895e+00,1.461979985237121582e+00,1.461871385574340820e+00,1.461762547492980957e+00,1.461653947830200195e+00,1.461545228958129883e+00,1.461436629295349121e+00,1.461328029632568359e+00,1.461219310760498047e+00,1.461110830307006836e+00,1.461002111434936523e+00,1.460893630981445312e+00,1.460785150527954102e+00,1.460676550865173340e+00,1.460568070411682129e+00,1.460459470748901367e+00,1.460350990295410156e+00,1.460242629051208496e+00,1.460134029388427734e+00,1.460025668144226074e+00,1.459917187690734863e+00,1.459808826446533203e+00,1.459700465202331543e+00,1.459591984748840332e+00,1.459483742713928223e+00,1.459375262260437012e+00,1.459267020225524902e+00,1.459158778190612793e+00,1.459050416946411133e+00,1.458942174911499023e+00,1.458833813667297363e+00,1.458725571632385254e+00,1.458617329597473145e+00,1.458509206771850586e+00,1.458400964736938477e+00,1.458292722702026367e+00
1.349041819572448730e+00,1.348949313163757324e+00,1.348856687545776367e+00,1.348764181137084961e+00,1.348671555519104004e+00,1.348579168319702148e+00,1.348486661911010742e+00,1.348394155502319336e+00,1.348301649093627930e+00,1.348209142684936523e+00,1.348116755485534668e+00,1.348024368286132812e+00,1.347931861877441406e+00,1.347839474678039551e+00,1.347747087478637695e+00,1.347654700279235840e+00,1.347562193870544434e+00,1.347469925880432129e+00,1.347377657890319824e+00,1.347285270690917969e+00,1.347193002700805664e+00,1.347100615501403809e+00,1.347008347511291504e+00,1.346916079521179199e+00,1.346823811531066895e+00,1.346731543540954590e+00,1.346639275550842285e+00,1.346547007560729980e+00,1.346454858779907227e+00,1.346362590789794922e+00,1.346270442008972168e+00,1.346178174018859863e+00,1.346086025238037109e+00,1.345993876457214355e+00,1.345901727676391602e+00,1.345809578895568848e+00,1.345717430114746094e+00,1.345625400543212891e+00,1.345533251762390137e+00,1.345441102981567383e+00,1.345349073410034180e+00,1.345257043838500977e+00,1.345165014266967773e+00,1.345072984695434570e+00,1.344980955123901367e+00,1.344888925552368164e+00,1.344796895980834961e+00,1.344704985618591309e+00,1.344612956047058105e+00,1.344520926475524902e+00,1.344429016113281250e+00,1.344337105751037598e+00,1.344245195388793945e+00,1.344153285026550293e+00,1.344061374664306641e+00,1.343969464302062988e+00,1.343877553939819336e+00,1.343785762786865234e+00,1.343693971633911133e+00,1.343602061271667480e+00,1.343510270118713379e+00,1.343418359756469727e+00,1.343326687812805176e+00,1.343234896659851074e+00,1.343143105506896973e+00,1.343051314353942871e+00,1.342959523200988770e+00,1.342867851257324219e+00,1.342776179313659668e+00,1.342684388160705566e+00,1.342592716217041016e+00,1.342501044273376465e+00,1.342409372329711914e+00,1.342317700386047363e+00,1.342226028442382812e+00,1.342134475708007812e+00,1.342042803764343262e+00,1.341951251029968262e+00,1.341859579086303711e+00,1.341768026351928711e+00
1.248721957206726074e+00,1.248642563819885254e+00,1.248563289642333984e+00,1.248484015464782715e+00,1.248404741287231445e+00,1.248325467109680176e+00,1.248246192932128906e+00,1.248166918754577637e+00,1.248087763786315918e+00,1.248008489608764648e+00,1.247929215431213379e+00,1.247850060462951660e+00,1.247770786285400391e+00,1.247691631317138672e+00,1.247612476348876953e+00,1.247533321380615234e+00,1.247454047203063965e+00,1.247375011444091797e+00,1.247295737266540527e+00,1.247216701507568359e+00,1.247137665748596191e+00,1.247058391571044922e+00,1.246979355812072754e+00,1.246900200843811035e+00,1.246821165084838867e+00,1.246742129325866699e+00,1.246663093566894531e+00,1.246584057807922363e+00,1.246504902839660645e+00,1.246425986289978027e+00,1.246346950531005859e+00,1.246267914772033691e+00,1.246188879013061523e+00,1.246109843254089355e+00,1.246030926704406738e+00,1.245952010154724121e+00,1.245872974395751953e+00,1.245794057846069336e+00,1.245715022087097168e+00,1.245636224746704102e+00,1.245557308197021484e+00,1.245478391647338867e+00,1.245399475097656250e+00,1.245320558547973633e+00,1.245241641998291016e+00,1.245162844657897949e+00,1.245083928108215332e+00,1.245005130767822266e+00,1.244926214218139648e+00,1.244847416877746582e+00,1.244768619537353516e+00,1.244689822196960449e+00,1.244611024856567383e+00,1.244532227516174316e+00,1.244453430175781250e+00,1.244374752044677734e+00,1.244295835494995117e+00,1.244217157363891602e+00,1.244138360023498535e+00,1.244059681892395020e+00,1.243981003761291504e+00,1.243902206420898438e+00,1.243823528289794922e+00,1.243744850158691406e+00,1.243666172027587891e+00,1.243587493896484375e+00,1.243508815765380859e+00,1.243430256843566895e+00,1.243351578712463379e+00,1.243272900581359863e+00,1.243194341659545898e+00,1.243115663528442383e+00,1.243037104606628418e+00,1.242958426475524902e+00,1.242879986763000488e+00,1.242801427841186523e+00,1.242722749710083008e+00,1.242644309997558594e+00,1.242565631866455078e+00,1.242487192153930664e+00
1.162289619445800781e+00,1.162220835685729980e+00,1.162152171134948730e+00,1.162083506584167480e+00,1.162014842033386230e+00,1.161946177482604980e+00,1.161877393722534180e+00,1.161808848381042480e+00,1.161740064620971680e+00,1.161671519279479980e+00,1.161602854728698730e+00,1.161534190177917480e+00,1.161465644836425781e+00,1.161396980285644531e+00,1.161328434944152832e+00,1.161259770393371582e+00,1.161191225051879883e+00,1.161122560501098633e+00,1.161054015159606934e+00,1.160985469818115234e+00,1.160916924476623535e+00,1.160848379135131836e+00,1.160779833793640137e+00,1.160711288452148438e+00,1.160642743110656738e+00,1.160574197769165039e+00,1.160505652427673340e+00,1.160437226295471191e+00,1.160368680953979492e+00,1.160300254821777344e+00,1.160231709480285645e+00,1.160163283348083496e+00,1.160094857215881348e+00,1.160026311874389648e+00,1.159957885742187500e+00,1.159889459609985352e+00,1.159821033477783203e+00,1.159752607345581055e+00,1.159684181213378906e+00,1.159615755081176758e+00,1.159547328948974609e+00,1.159479022026062012e+00,1.159410595893859863e+00,1.159342288970947266e+00,1.159273862838745117e+00,1.159205436706542969e+00,1.159137129783630371e+00,1.159068822860717773e+00,1.159000515937805176e+00,1.158932209014892578e+00,1.158863782882690430e+00,1.158795595169067383e+00,1.158727288246154785e+00,1.158658981323242188e+00,1.158590674400329590e+00,1.158522367477416992e+00,1.158454060554504395e+00,1.158385872840881348e+00,1.158317565917968750e+00,1.158249378204345703e+00,1.158181071281433105e+00,1.158112883567810059e+00,1.158044695854187012e+00,1.157976508140563965e+00,1.157908320426940918e+00,1.157840013504028320e+00,1.157771944999694824e+00,1.157703757286071777e+00,1.157635569572448730e+00,1.157567381858825684e+00,1.157499194145202637e+00,1.157431125640869141e+00,1.157362937927246094e+00,1.157294869422912598e+00,1.157226681709289551e+00,1.157158613204956055e+00,1.157090425491333008e+00,1.157022476196289062e+00,1.156954288482666016e+00,1.156886219978332520e+00
1.087047815322875977e+00,1.086987733840942383e+00,1.086927652359008789e+00,1.086867451667785645e+00,1.086807489395141602e+00,1.086747288703918457e+00,1.086687326431274414e+00,1.086627244949340820e+00,1.086567163467407227e+00,1.086507081985473633e+00,1.086447000503540039e+00,1.086387038230895996e+00,1.086327075958251953e+00,1.086266994476318359e+00,1.086206912994384766e+00,1.086146950721740723e+00,1.086086988449096680e+00,1.086027026176452637e+00,1.085966944694519043e+00,1.085906982421875000e+00,1.085847020149230957e+00,1.085787057876586914e+00,1.085727095603942871e+00,1.085667133331298828e+00,1.085607171058654785e+00,1.085547208786010742e+00,1.085487246513366699e+00,1.085427403450012207e+00,1.085367441177368164e+00,1.085307478904724121e+00,1.085247516632080078e+00,1.085187673568725586e+00,1.085127711296081543e+00,1.085067868232727051e+00,1.085008025169372559e+00,1.084948062896728516e+00,1.084888219833374023e+00,1.084828376770019531e+00,1.084768533706665039e+00,1.084708690643310547e+00,1.084648728370666504e+00,1.084589004516601562e+00,1.084529161453247070e+00,1.084469318389892578e+00,1.084409475326538086e+00,1.084349632263183594e+00,1.084289908409118652e+00,1.084230065345764160e+00,1.084170222282409668e+00,1.084110498428344727e+00,1.084050655364990234e+00,1.083990931510925293e+00,1.083931207656860352e+00,1.083871364593505859e+00,1.083811640739440918e+00,1.083751916885375977e+00,1.083692193031311035e+00,1.083632469177246094e+00,1.083572745323181152e+00,1.083513021469116211e+00,1.083453297615051270e+00,1.083393573760986328e+00,1.083333849906921387e+00,1.083274126052856445e+00,1.083214521408081055e+00,1.083154797554016113e+00,1.083095192909240723e+00,1.083035469055175781e+00,1.082975864410400391e+00,1.082916140556335449e+00,1.082856535911560059e+00,1.082796931266784668e+00,1.082737207412719727e+00,1.082677602767944336e+00,1.082617998123168945e+00,1.082558393478393555e+00,1.082498788833618164e+00,1.082439064979553223e+00,1.082379579544067383e+00,1.082319974899291992e+00
1.020955443382263184e+00,1.020902395248413086e+00,1.020849347114562988e+00,1.020796418190002441e+00,1.020743370056152344e+00,1.020690321922302246e+00,1.020637392997741699e+00,1.020584344863891602e+00,1.020531415939331055e+00,1.020478487014770508e+00,1.020425438880920410e+00,1.020372509956359863e+00,1.020319581031799316e+00,1.020266652107238770e+00,1.020213723182678223e+00,1.020160675048828125e+00,1.020107746124267578e+00,1.020054817199707031e+00,1.020001888275146484e+00,1.019949078559875488e+00,1.019896030426025391e+00,1.019843220710754395e+00,1.019790291786193848e+00,1.019737362861633301e+00,1.019684553146362305e+00,1.019631624221801758e+00,1.019578695297241211e+00,1.019525885581970215e+00,1.019472956657409668e+00,1.019420146942138672e+00,1.019367218017578125e+00,1.019314408302307129e+00,1.019261598587036133e+00,1.019208669662475586e+00,1.019155859947204590e+00,1.019103050231933594e+00,1.019050240516662598e+00,1.018997430801391602e+00,1.018944621086120605e+00,1.018891811370849609e+00,1.018839001655578613e+00,1.018786191940307617e+00,1.018733382225036621e+00,1.018680572509765625e+00,1.018627762794494629e+00,1.018575072288513184e+00,1.018522262573242188e+00,1.018469452857971191e+00,1.018416762351989746e+00,1.018363952636718750e+00,1.018311262130737305e+00,1.018258571624755859e+00,1.018205761909484863e+00,1.018153071403503418e+00,1.018100261688232422e+00,1.018047571182250977e+00,1.017994880676269531e+00,1.017942190170288086e+00,1.017889499664306641e+00,1.017836689949035645e+00,1.017783999443054199e+00,1.017731428146362305e+00,1.017678618431091309e+00,1.017626047134399414e+00,1.017573356628417969e+00,1.017520666122436523e+00,1.017467975616455078e+00,1.017415285110473633e+00,1.017362713813781738e+00,1.017310023307800293e+00,1.017257452011108398e+00,1.017204761505126953e+00,1.017152070999145508e+00,1.017099499702453613e+00,1.017046928405761719e+00,1.016994237899780273e+00,1.016941666603088379e+00,1.016889095306396484e+00,1.016836524009704590e+00,1.016783833503723145e+00
