5.000000000000000000e+00,5.000000000000000000e+00,5.000000000000000000e+00,5.000000000000000000e+00,5.000000000000000000e+00,5.000000000000000000e+00,5.000000000000000000e+00,5.000000000000000000e+00,5.000000000000000000e+00,5.000000000000000000e+00,5.000000000000000000e+00,5.000000000000000000e+00,5.000000000000000000e+00,5.000000000000000000e+00,5.000000000000000000e+00,5.000000000000000000e+00,5.000000000000000000e+00,5.000000000000000000e+00,5.000000000000000000e+00,5.000000000000000000e+00,5.000000000000000000e+00,5.000000000000000000e+00,5.000000000000000000e+00,5.000000000000000000e+00,5.000000000000000000e+00,5.000000000000000000e+00,5.000000000000000000e+00,5.000000000000000000e+00,5.000000000000000000e+00,5.000000000000000000e+00,5.000000000000000000e+00,5.000000000000000000e+00,5.000000000000000000e+00,5.000000000000000000e+00,5.000000000000000000e+00,5.000000000000000000e+00,5.000000000000000000e+00,5.000000000000000000e+00,5.000000000000000000e+00,4.851742744445800781e+00,4.661639690399169922e+00,4.485871791839599609e+00,4.322876930236816406e+00,4.171311855316162109e+00,4.030014991760253906e+00,3.897977352142333984e+00,3.774316310882568359e+00,3.658260822296142578e+00,3.549129486083984375e+00,3.446320533752441406e+00,3.349300146102905273e+00,3.257592678070068359e+00,3.170773506164550781e+00,3.088461875915527344e+00,3.010315895080566406e+00,2.936026811599731445e+00,2.865315914154052734e+00,2.797930955886840820e+00,2.733642578125000000e+00,2.672242403030395508e+00,2.613539695739746094e+00,2.557360649108886719e+00,2.503545761108398438e+00,2.451949119567871094e+00,2.402436494827270508e+00,2.354883909225463867e+00,2.309177160263061523e+00,2.265210866928100586e+00,2.222887516021728516e+00,2.182116985321044922e+00,2.142814874649047852e+00,2.104903459548950195e+00,2.068310022354125977e+00,2.032967329025268555e+00,1.998812198638916016e+00,1.965785980224609375e+00,1.933833003044128418e+00,1.902902483940124512e+00,1.872945666313171387e+00,1.843917369842529297e+00
5.000000000000000000e+00,5.000000000000000000e+00,5.000000000000000000e+00,5.000000000000000000e+00,5.000000000000000000e+00,5.000000000000000000e+00,5.000000000000000000e+00,5.000000000000000000e+00,5.000000000000000000e+00,5.000000000000000000e+00,5.000000000000000000e+00,5.000000000000000000e+00,5.000000000000000000e+00,5.000000000000000000e+00,5.000000000000000000e+00,5.000000000000000000e+00,5.000000000000000000e+00,5.000000000000000000e+00,5.000000000000000000e+00,5.000000000000000000e+00,5.000000000000000000e+00,5.000000000000000000e+00,5.000000000000000000e+00,5.000000000000000000e+00,5.000000000000000000e+00,5.000000000000000000e+00,5.000000000000000000e+00,5.000000000000000000e+00,5.000000000000000000e+00,5.000000000000000000e+00,5.000000000000000000e+00,5.000000000000000000e+00,5.000000000000000000e+00,5.000000000000000000e+00,5.000000000000000000e+00,5.000000000000000000e+00,5.000000000000000000e+00,5.000000000000000000e+00,5.000000000000000000e+00,4.851882457733154297e+00,4.661767959594726562e+00,4.485991001129150391e+00,4.322988033294677734e+00,4.171415328979492188e+00,4.030111312866210938e+00,3.898067474365234375e+00,3.774400949478149414e+00,3.658340215682983398e+00,3.549204349517822266e+00,3.446391105651855469e+00,3.349366664886474609e+00,3.257655620574951172e+00,3.170833110809326172e+00,3.088518619537353516e+00,3.010369777679443359e+00,2.936078071594238281e+00,2.865364551544189453e+00,2.797977447509765625e+00,2.733686923980712891e+00,2.672284603118896484e+00,2.613580226898193359e+00,2.557399272918701172e+00,2.503582954406738281e+00,2.451984882354736328e+00,2.402470827102661133e+00,2.354916810989379883e+00,2.309208869934082031e+00,2.265241384506225586e+00,2.222916841506958008e+00,2.182145118713378906e+00,2.142842054367065430e+00,2.104929685592651367e+00,2.068335294723510742e+00,2.032991886138916016e+00,1.998835921287536621e+00,1.965808749198913574e+00,1.933855295181274414e+00,1.902923941612243652e+00,1.872966289520263672e+00,1.843937635421752930e+00
5.000000000000000000e+00,5.000000000000000000e+00,5.000000000000000000e+00,5.000000000000000000e+00,5.000000000000000000e+00,5.000000000000000000e+00,5.000000000000000000e+00,5.000000000000000000e+00,5.000000000000000000e+00,5.000000000000000000e+00,5.000000000000000000e+00,5.000000000000000000e+00,5.000000000000000000e+00,5.000000000000000000e+00,5.000000000000000000e+00,5.000000000000000000e+00,5.000000000000000000e+00,5.000000000000000000e+00,5.000000000000000000e+00,5.000000000000000000e+00,5.000000000000000000e+00,5.000000000000000000e+00,5.000000000000000000e+00,5.000000000000000000e+00,5.000000000000000000e+00,5.000000000000000000e+00,5.000000000000000000e+00,5.000000000000000000e+00,5.000000000000000000e+00,5.000000000000000000e+00,5.000000000000000000e+00,5.000000000000000000e+00,5.000000000000000000e+00,5.000000000000000000e+00,5.000000000000000000e+00,5.000000000000000000e+00,5.000000000000000000e+00,5.000000000000000000e+00,5.000000000000000000e+00,4.852022171020507812e+00,4.661896705627441406e+00,4.486110210418701172e+00,4.323098659515380859e+00,4.171518325805664062e+00,4.030207633972167969e+00,3.898157119750976562e+00,3.774485349655151367e+00,3.658419609069824219e+00,3.549278974533081055e+00,3.446461439132690430e+00,3.349432945251464844e+00,3.257718563079833984e+00,3.170892715454101562e+00,3.088575124740600586e+00,3.010423421859741211e+00,2.936129093170166016e+00,2.865413188934326172e+00,2.798023700714111328e+00,2.733731269836425781e+00,2.672327041625976562e+00,2.613620519638061523e+00,2.557437896728515625e+00,2.503620147705078125e+00,2.452020645141601562e+00,2.402504920959472656e+00,2.354949712753295898e+00,2.309240341186523438e+00,2.265271663665771484e+00,2.222946166992187500e+00,2.182173252105712891e+00,2.142869234085083008e+00,2.104955911636352539e+00,2.068360567092895508e+00,2.033016443252563477e+00,1.998859524726867676e+00,1.965831756591796875e+00,1.933877348899841309e+00,1.902945280075073242e+00,1.872987270355224609e+00,1.843957662582397461e+00
5.000000000000000000e+00,5.000000000000000000e+00,5.000000000000000000e+00,5.000000000000000000e+00,5.000000000000000000e+00,5.000000000000000000e+00,5.000000000000000000e+00,5.000000000000000000e+00,5.000000000000000000e+00,5.000000000000000000e+00,5.000000000000000000e+00,5.000000000000000000e+00,5.000000000000000000e+00,5.000000000000000000e+00,5.000000000000000000e+00,5.000000000000000000e+00,5.000000000000000000e+00,5.000000000000000000e+00,5.000000000000000000e+00,5.000000000000000000e+00,5.000000000000000000e+00,5.000000000000000000e+00,5.000000000000000000e+00,5.000000000000000000e+00,5.000000000000000000e+00,5.000000000000000000e+00,5.000000000000000000e+00,5.000000000000000000e+00,5.000000000000000000e+00,5.000000000000000000e+00,5.000000000000000000e+00,5.000000000000000000e+00,5.000000000000000000e+00,5.000000000000000000e+00,5.000000000000000000e+00,5.000000000000000000e+00,5.000000000000000000e+00,5.000000000000000000e+00,5.000000000000000000e+00,4.852161407470703125e+00,4.662025928497314453e+00,4.486229896545410156e+00,4.323209285736083984e+00,4.171621799468994141e+00,4.030303955078125000e+00,3.898247241973876953e+00,3.774569988250732422e+00,3.658499002456665039e+00,3.549353599548339844e+00,3.446532011032104492e+00,3.349499464035034180e+00,3.257781505584716797e+00,3.170952320098876953e+00,3.088631629943847656e+00,3.010477066040039062e+00,2.936179876327514648e+00,2.865461826324462891e+00,2.798070192337036133e+00,2.733775615692138672e+00,2.672369241714477539e+00,2.613661050796508789e+00,2.557476758956909180e+00,2.503657102584838867e+00,2.452056169509887695e+00,2.402539253234863281e+00,2.354982614517211914e+00,2.309271812438964844e+00,2.265302181243896484e+00,2.222975492477416992e+00,2.182201623916625977e+00,2.142896413803100586e+00,2.104982137680053711e+00,2.068386077880859375e+00,2.033040761947631836e+00,1.998883366584777832e+00,1.965854644775390625e+00,1.933899641036987305e+00,1.902966856956481934e+00,1.873007893562316895e+00,1.843977928161621094e+00
5.000000000000000000e+00,5.000000000000000000e+00,5.000000000000000000e+00,5.000000000000000000e+00,5.000000000000000000e+00,5.000000000000000000e+00,5.000000000000000000e+00,5.000000000000000000e+00,5.000000000000000000e+00,5.000000000000000000e+00,5.000000000000000000e+00,5.000000000000000000e+00,5.000000000000000000e+00,5.000000000000000000e+00,5.000000000000000000e+00,5.000000000000000000e+00,5.000000000000000000e+00,5.000000000000000000e+00,5.000000000000000000e+00,5.000000000000000000e+00,5.000000000000000000e+00,5.000000000000000000e+00,5.000000000000000000e+00,5.000000000000000000e+00,5.000000000000000000e+00,5.000000000000000000e+00,5.000000000000000000e+00,5.000000000000000000e+00,5.000000000000000000e+00,5.000000000000000000e+00,5.000000000000000000e+00,5.000000000000000000e+00,5.000000000000000000e+00,5.000000000000000000e+00,5.000000000000000000e+00,5.000000000000000000e+00,5.000000000000000000e+00,5.000000000000000000e+00,5.000000000000000000e+00,4.852301120758056641e+00,4.662154674530029297e+00,4.486348628997802734e+00,4.323320388793945312e+00,4.171724796295166016e+00,4.030400276184082031e+00,3.898337364196777344e+00,3.774654388427734375e+00,3.658578395843505859e+00,3.549428462982177734e+00,3.446602106094360352e+00,3.349565982818603516e+00,3.257844448089599609e+00,3.171012163162231445e+00,3.088688373565673828e+00,3.010530948638916016e+00,2.936231136322021484e+00,2.865510463714599609e+00,2.798116683959960938e+00,2.733819723129272461e+00,2.672411680221557617e+00,2.613701581954956055e+00,2.557515621185302734e+00,2.503694295883178711e+00,2.452091932296752930e+00,2.402573347091674805e+00,2.355015277862548828e+00,2.309303522109985352e+00,2.265332698822021484e+00,2.223004817962646484e+00,2.182229757308959961e+00,2.142923593521118164e+00,2.105008363723754883e+00,2.068411350250244141e+00,2.033065319061279297e+00,1.998906970024108887e+00,1.965877652168273926e+00,1.933921694755554199e+00,1.902988195419311523e+00,1.873028874397277832e+00,1.843997955322265625e+00
5.000000000000000000e+00,5.000000000000000000e+00,5.000000000000000000e+00,5.000000000000000000e+00,5.000000000000000000e+00,5.000000000000000000e+00,5.000000000000000000e+00,5.000000000000000000e+00,5.000000000000000000e+00,5.000000000000000000e+00,5.000000000000000000e+00,5.000000000000000000e+00,5.000000000000000000e+00,5.000000000000000000e+00,5.000000000000000000e+00,5.000000000000000000e+00,5.000000000000000000e+00,5.000000000000000000e+00,5.000000000000000000e+00,5.000000000000000000e+00,5.000000000000000000e+00,5.000000000000000000e+00,5.000000000000000000e+00,5.000000000000000000e+00,5.000000000000000000e+00,5.000000000000000000e+00,5.000000000000000000e+00,5.000000000000000000e+00,5.000000000000000000e+00,5.000000000000000000e+00,5.000000000000000000e+00,5.000000000000000000e+00,5.000000000000000000e+00,5.000000000000000000e+00,5.000000000000000000e+00,5.000000000000000000e+00,5.000000000000000000e+00,5.000000000000000000e+00,5.000000000000000000e+00,4.852440834045410156e+00,4.662283420562744141e+00,4.486468315124511719e+00,4.323431015014648438e+00,4.171827793121337891e+00,4.030496597290039062e+00,3.898427486419677734e+00,3.774738788604736328e+00,3.658657789230346680e+00,3.549503087997436523e+00,3.446672439575195312e+00,3.349632501602172852e+00,3.257907390594482422e+00,3.171071767807006836e+00,3.088744878768920898e+00,3.010584354400634766e+00,2.936282157897949219e+00,2.865559339523315430e+00,2.798163175582885742e+00,2.733864068984985352e+00,2.672454118728637695e+00,2.613741874694824219e+00,2.557554244995117188e+00,2.503731489181518555e+00,2.452127456665039062e+00,2.402607679367065430e+00,2.355048179626464844e+00,2.309335231781005859e+00,2.265362977981567383e+00,2.223034143447875977e+00,2.182258129119873047e+00,2.142950773239135742e+00,2.105034589767456055e+00,2.068436622619628906e+00,2.033089876174926758e+00,1.998930811882019043e+00,1.965900421142578125e+00,1.933943867683410645e+00,1.903009772300720215e+00,1.873049497604370117e+00,1.844018220901489258e+00
5.000000000000000000e+00,5.000000000000000000e+00,5.000000000000000000e+00,5.000000000000000000e+00,5.000000000000000000e+00,5.000000000000000000e+00,5.000000000000000000e+00,5.000000000000000000e+00,5.000000000000000000e+00,5.000000000000000000e+00,5.000000000000000000e+00,5.000000000000000000e+00,5.000000000000000000e+00,5.000000000000000000e+00,5.000000000000000000e+00,5.000000000000000000e+00,5.000000000000000000e+00,5.000000000000000000e+00,5.000000000000000000e+00,5.000000000000000000e+00,5.000000000000000000e+00,5.000000000000000000e+00,5.000000000000000000e+00,5.000000000000000000e+00,5.000000000000000000e+00,4.310541629791259766e+00,5.000000000000000000e+00,5.000000000000000000e+00,5.000000000000000000e+00,5.000000000000000000e+00,5.000000000000000000e+00,5.000000000000000000e+00,5.000000000000000000e+00,5.000000000000000000e+00,5.000000000000000000e+00,5.000000000000000000e+00,5.000000000000000000e+00,5.000000000000000000e+00,5.000000000000000000e+00,4.852580070495605469e+00,4.662412166595458984e+00,4.486587524414062500e+00,4.323542118072509766e+00,4.171930789947509766e+00,4.030592918395996094e+00,3.898517608642578125e+00,3.774823427200317383e+00,3.658737182617187500e+00,3.549577474594116211e+00,3.446743011474609375e+00,3.349699020385742188e+00,3.257970333099365234e+00,3.171131372451782227e+00,3.088801383972167969e+00,3.010638236999511719e+00,2.936333417892456055e+00,2.865607976913452148e+00,2.798209428787231445e+00,2.733908414840698242e+00,2.672496318817138672e+00,2.613782405853271484e+00,2.557593107223510742e+00,2.503768682479858398e+00,2.452163219451904297e+00,2.402641773223876953e+00,2.355081081390380859e+00,2.309366703033447266e+00,2.265393495559692383e+00,2.223063468933105469e+00,2.182286262512207031e+00,2.142977952957153320e+00,2.105060815811157227e+00,2.068462133407592773e+00,2.033114433288574219e+00,1.998954296112060547e+00,1.965923190116882324e+00,1.933966159820556641e+00,1.903031110763549805e+00,1.873070478439331055e+00,1.844038367271423340e+00
5.000000000000000000e+00,5.000000000000000000e+00,5.000000000000000000e+00,5.000000000000000000e+00,5.000000000000000000e+00,5.000000000000000000e+00,5.000000000000000000e+00,5.000000000000000000e+00,5.000000000000000000e+00,5.000000000000000000e+00,5.000000000000000000e+00,5.000000000000000000e+00,5.000000000000000000e+00,5.000000000000000000e+00,5.000000000000000000e+00,5.000000000000000000e+00,5.000000000000000000e+00,5.000000000000000000e+00,5.000000000000000000e+00,5.000000000000000000e+00,5.000000000000000000e+00,5.000000000000000000e+00,5.000000000000000000e+00,5.000000000000000000e+00,4.407368659973144531e+00,4.305775642395019531e+00,4.419420242309570312e+00,5.000000000000000000e+00,5.000000000000000000e+00,5.000000000000000000e+00,5.000000000000000000e+00,5.000000000000000000e+00,5.000000000000000000e+00,5.000000000000000000e+00,5.000000000000000000e+00,5.000000000000000000e+00,5.000000000000000000e+00,5.000000000000000000e+00,5.000000000000000000e+00,4.852719783782958984e+00,4.662540912628173828e+00,4.486707210540771484e+00,4.323652744293212891e+00,4.172034263610839844e+00,4.030689239501953125e+00,3.898607730865478516e+00,3.774907827377319336e+00,3.658816576004028320e+00,3.549652099609375000e+00,3.446813344955444336e+00,3.349765539169311523e+00,3.258033275604248047e+00,3.171190977096557617e+00,3.088857650756835938e+00,3.010691881179809570e+00,2.936384439468383789e+00,2.865656614303588867e+00,2.798255920410156250e+00,2.733952760696411133e+00,2.672538518905639648e+00,2.613822937011718750e+00,2.557631969451904297e+00,2.503805875778198242e+00,2.452198743820190430e+00,2.402675867080688477e+00,2.355113983154296875e+00,2.309398412704467773e+00,2.265424013137817383e+00,2.223092794418334961e+00,2.182314395904541016e+00,2.143005371093750000e+00,2.105087280273437500e+00,2.068487405776977539e+00,2.033138990402221680e+00,1.998978137969970703e+00,1.965946316719055176e+00,1.933988213539123535e+00,1.903052806854248047e+00,1.873091220855712891e+00,1.844058632850646973e+00
5.000000000000000000e+00,5.000000000000000000e+00,5.000000000000000000e+00,5.000000000000000000e+00,5.000000000000000000e+00,5.000000000000000000e+00,5.000000000000000000e+00,5.000000000000000000e+00,5.000000000000000000e+00,5.000000000000000000e+00,5.000000000000000000e+00,5.000000000000000000e+00,5.000000000000000000e+00,5.000000000000000000e+00,5.000000000000000000e+00,5.000000000000000000e+00,5.000000000000000000e+00,5.000000000000000000e+00,5.000000000000000000e+00,5.000000000000000000e+00,5.000000000000000000e+00,5.000000000000000000e+00,5.000000000000000000e+00,5.000000000000000000e+00,5.000000000000000000e+00,4.331459522247314453e+00,5.000000000000000000e+00,5.000000000000000000e+00,5.000000000000000000e+00,5.000000000000000000e+00,5.000000000000000000e+00,5.000000000000000000e+00,5.000000000000000000e+00,5.000000000000000000e+00,5.000000000000000000e+00,5.000000000000000000e+00,5.000000000000000000e+00,5.000000000000000000e+00,5.000000000000000000e+00,4.852859020233154297e+00,4.662670135498046875e+00,4.486826419830322266e+00,4.323763370513916016e+00,4.172137260437011719e+00,4.030785560607910156e+00,3.898697853088378906e+00,3.774992465972900391e+00,3.658895492553710938e+00,3.549726963043212891e+00,3.446883916854858398e+00,3.349832057952880859e+00,3.258096218109130859e+00,3.171250581741333008e+00,3.088914394378662109e+00,3.010745763778686523e+00,2.936435699462890625e+00,2.865705251693725586e+00,2.798302412033081055e+00,2.733996868133544922e+00,2.672580957412719727e+00,2.613863468170166016e+00,2.557670831680297852e+00,2.503843069076538086e+00,2.452234268188476562e+00,2.402710199356079102e+00,2.355146884918212891e+00,2.309430122375488281e+00,2.265454292297363281e+00,2.223122119903564453e+00,2.182342767715454102e+00,2.143032550811767578e+00,2.105113506317138672e+00,2.068512916564941406e+00,2.033163547515869141e+00,1.999001741409301758e+00,1.965969085693359375e+00,1.934010505676269531e+00,1.903074145317077637e+00,1.873112082481384277e+00,1.844078660011291504e+00
5.000000000000000000e+00,5.000000000000000000e+00,5.000000000000000000e+00,5.000000000000000000e+00,5.000000000000000000e+00,5.000000000000000000e+00,5.000000000000000000e+00,5.000000000000000000e+00,5.000000000000000000e+00,5.000000000000000000e+00,5.000000000000000000e+00,5.000000000000000000e+00,5.000000000000000000e+00,5.000000000000000000e+00,5.000000000000000000e+00,5.000000000000000000e+00,5.000000000000000000e+00,5.000000000000000000e+00,5.000000000000000000e+00,5.000000000000000000e+00,5.000000000000000000e+00,5.000000000000000000e+00,5.000000000000000000e+00,4.365732192993164062e+00,4.330372333526611328e+00,4.395100116729736328e+00,4.368835926055908203e+00,4.423418045043945312e+00,5.000000000000000000e+00,5.000000000000000000e+00,5.000000000000000000e+00,5.000000000000000000e+00,5.000000000000000000e+00,5.000000000000000000e+00,5.000000000000000000e+00,5.000000000000000000e+00,5.000000000000000000e+00,5.000000000000000000e+00,5.000000000000000000e+00,4.852998733520507812e+00,4.662798881530761719e+00,4.486945629119873047e+00,4.323873996734619141e+00,4.172240734100341797e+00,4.030881404876708984e+00,3.898787975311279297e+00,3.775076866149902344e+00,3.658974885940551758e+00,3.549801588058471680e+00,3.446954250335693359e+00,3.349898815155029297e+00,3.258159160614013672e+00,3.171309947967529297e+00,3.088970899581909180e+00,3.010799407958984375e+00,2.936486721038818359e+00,2.865754127502441406e+00,2.798348903656005859e+00,2.734041213989257812e+00,2.672623395919799805e+00,2.613903999328613281e+00,2.557709455490112305e+00,2.503880262374877930e+00,2.452270030975341797e+00,2.402744531631469727e+00,2.355179786682128906e+00,2.309461593627929688e+00,2.265484809875488281e+00,2.223151206970214844e+00,2.182370901107788086e+00,2.143059730529785156e+00,2.105139732360839844e+00,2.068538188934326172e+00,2.033187866210937500e+00,1.999025344848632812e+00,1.965992093086242676e+00,1.934032559394836426e+00,1.903095722198486328e+00,1.873132824897766113e+00,1.844098687171936035e+00
5.000000000000000000e+00,5.000000000000000000e+00,5.000000000000000000e+00,5.000000000000000000e+00,5.000000000000000000e+00,5.000000000000000000e+00,5.000000000000000000e+00,5.000000000000000000e+00,5.000000000000000000e+00,5.000000000000000000e+00,5.000000000000000000e+00,5.000000000000000000e+00,5.000000000000000000e+00,5.000000000000000000e+00,5.000000000000000000e+00,5.000000000000000000e+00,5.000000000000000000e+00,5.000000000000000000e+00,5.000000000000000000e+00,5.000000000000000000e+00,5.000000000000000000e+00,5.000000000000000000e+00,4.318584442138671875e+00,4.313302516937255859e+00,4.300515174865722656e+00,4.311473846435546875e+00,4.329502105712890625e+00,4.387429714202880859e+00,4.428813457489013672e+00,5.000000000000000000e+00,5.000000000000000000e+00,5.000000000000000000e+00,5.000000000000000000e+00,5.000000000000000000e+00,5.000000000000000000e+00,5.000000000000000000e+00,5.000000000000000000e+00,5.000000000000000000e+00,5.000000000000000000e+00,4.853138446807861328e+00,4.662928104400634766e+00,4.487064838409423828e+00,4.323985099792480469e+00,4.172343730926513672e+00,4.030978202819824219e+00,3.898878335952758789e+00,3.775161027908325195e+00,3.659054279327392578e+00,3.549876451492309570e+00,3.447024822235107422e+00,3.349965333938598633e+00,3.258222103118896484e+00,3.171369552612304688e+00,3.089027404785156250e+00,3.010853290557861328e+00,2.936537981033325195e+00,2.865802764892578125e+00,2.798394918441772461e+00,2.734085559844970703e+00,2.672665596008300781e+00,2.613944530487060547e+00,2.557748317718505859e+00,2.503917217254638672e+00,2.452305555343627930e+00,2.402778625488281250e+00,2.355212688446044922e+00,2.309493303298950195e+00,2.265515089035034180e+00,2.223180532455444336e+00,2.182399272918701172e+00,2.143086910247802734e+00,2.105165958404541016e+00,2.068563699722290039e+00,2.033212423324584961e+00,1.999049067497253418e+00,1.966014981269836426e+00,1.934054851531982422e+00,1.903117060661315918e+00,1.873153448104858398e+00,1.844118952751159668e+00
5.000000000000000000e+00,5.000000000000000000e+00,5.000000000000000000e+00,5.000000000000000000e+00,5.000000000000000000e+00,5.000000000000000000e+00,5.000000000000000000e+00,5.000000000000000000e+00,5.000000000000000000e+00,5.000000000000000000e+00,5.000000000000000000e+00,5.000000000000000000e+00,5.000000000000000000e+00,5.000000000000000000e+00,5.000000000000000000e+00,5.000000000000000000e+00,5.000000000000000000e+00,5.000000000000000000e+00,5.000000000000000000e+00,5.000000000000000000e+00,5.000000000000000000e+00,5.000000000000000000e+00,4.355775833129882812e+00,4.326524257659912109e+00,4.289522171020507812e+00,4.294437885284423828e+00,4.321580410003662109e+00,4.389864444732666016e+00,4.453516483306884766e+00,5.000000000000000000e+00,5.000000000000000000e+00,5.000000000000000000e+00,5.000000000000000000e+00,5.000000000000000000e+00,5.000000000000000000e+00,5.000000000000000000e+00,5.000000000000000000e+00,5.000000000000000000e+00,5.000000000000000000e+00,4.853278160095214844e+00,4.663056850433349609e+00,4.487184047698974609e+00,4.324096202850341797e+00,4.172446727752685547e+00,4.031074523925781250e+00,3.898968458175659180e+00,3.775245666503906250e+00,3.659133672714233398e+00,3.549951076507568359e+00,3.447095155715942383e+00,3.350031852722167969e+00,3.258284807205200195e+00,3.171429157257080078e+00,3.089084148406982422e+00,3.010906934738159180e+00,2.936589002609252930e+00,2.865851402282714844e+00,2.798441410064697266e+00,2.734129905700683594e+00,2.672708034515380859e+00,2.613985061645507812e+00,2.557787179946899414e+00,2.503954410552978516e+00,2.452341318130493164e+00,2.402812957763671875e+00,2.355245590209960938e+00,2.309525012969970703e+00,2.265545368194580078e+00,2.223209857940673828e+00,2.182427406311035156e+00,2.143114328384399414e+00,2.105192422866821289e+00,2.068588972091674805e+00,2.033236980438232422e+00,1.999072670936584473e+00,1.966037988662719727e+00,1.934076905250549316e+00,1.903138637542724609e+00,1.873174428939819336e+00,1.844139099121093750e+00
5.000000000000000000e+00,5.000000000000000000e+00,5.000000000000000000e+00,5.000000000000000000e+00,5.000000000000000000e+00,5.000000000000000000e+00,5.000000000000000000e+00,5.000000000000000000e+00,5.000000000000000000e+00,5.000000000000000000e+00,5.000000000000000000e+00,5.000000000000000000e+00,5.000000000000000000e+00,5.000000000000000000e+00,5.000000000000000000e+00,5.000000000000000000e+00,5.000000000000000000e+00,5.000000000000000000e+00,5.000000000000000000e+00,5.000000000000000000e+00,5.000000000000000000e+00,5.000000000000000000e+00,4.374639511108398438e+00,4.353199958801269531e+00,4.289502143859863281e+00,4.288871765136718750e+00,4.318112850189208984e+00,4.426629066467285156e+00,4.465061187744140625e+00,5.000000000000000000e+00,5.000000000000000000e+00,5.000000000000000000e+00,5.000000000000000000e+00,5.000000000000000000e+00,5.000000000000000000e+00,5.000000000000000000e+00,5.000000000000000000e+00,5.000000000000000000e+00,5.000000000000000000e+00,4.853417873382568359e+00,4.663185596466064453e+00,4.487303733825683594e+00,4.324206829071044922e+00,4.172550201416015625e+00,4.031170845031738281e+00,3.899058103561401367e+00,3.775330066680908203e+00,3.659213066101074219e+00,3.550025939941406250e+00,3.447165727615356445e+00,3.350098371505737305e+00,3.258347749710083008e+00,3.171489000320434570e+00,3.089140653610229492e+00,3.010960817337036133e+00,2.936640262603759766e+00,2.865900039672851562e+00,2.798487901687622070e+00,2.734174251556396484e+00,2.672750473022460938e+00,2.614025592803955078e+00,2.557825803756713867e+00,2.503991603851318359e+00,2.452377080917358398e+00,2.402847051620483398e+00,2.355278491973876953e+00,2.309556484222412109e+00,2.265575885772705078e+00,2.223239183425903320e+00,2.182455778121948242e+00,2.143141508102416992e+00,2.105218648910522461e+00,2.068614244461059570e+00,2.033261299133300781e+00,1.999096512794494629e+00,1.966060757637023926e+00,1.934099197387695312e+00,1.903160095214843750e+00,1.873195052146911621e+00,1.844159364700317383e+00
5.000000000000000000e+00,5.000000000000000000e+00,5.000000000000000000e+00,5.000000000000000000e+00,5.000000000000000000e+00,5.000000000000000000e+00,5.000000000000000000e+00,5.000000000000000000e+00,5.000000000000000000e+00,5.000000000000000000e+00,5.000000000000000000e+00,5.000000000000000000e+00,5.000000000000000000e+00,5.000000000000000000e+00,5.000000000000000000e+00,5.000000000000000000e+00,5.000000000000000000e+00,5.000000000000000000e+00,5.000000000000000000e+00,5.000000000000000000e+00,5.000000000000000000e+00,5.000000000000000000e+00,5.000000000000000000e+00,4.357947826385498047e+00,4.281725406646728516e+00,4.296202659606933594e+00,4.312101840972900391e+00,5.000000000000000000e+00,4.474535465240478516e+00,5.000000000000000000e+00,5.000000000000000000e+00,5.000000000000000000e+00,5.000000000000000000e+00,5.000000000000000000e+00,5.000000000000000000e+00,5.000000000000000000e+00,5.000000000000000000e+00,5.000000000000000000e+00,5.000000000000000000e+00,4.853557586669921875e+00,4.663314342498779297e+00,4.487422943115234375e+00,4.324317455291748047e+00,4.172653198242187500e+00,4.031267166137695312e+00,3.899148225784301758e+00,3.775414705276489258e+00,3.659292697906494141e+00,3.550100564956665039e+00,3.447236299514770508e+00,3.350164651870727539e+00,3.258410692214965820e+00,3.171548604965209961e+00,3.089197397232055664e+00,3.011014461517333984e+00,2.936691284179687500e+00,2.865948677062988281e+00,2.798534393310546875e+00,2.734218597412109375e+00,2.672792673110961914e+00,2.614066123962402344e+00,2.557864427566528320e+00,2.504028797149658203e+00,2.452412605285644531e+00,2.402881383895874023e+00,2.355311393737792969e+00,2.309587955474853516e+00,2.265606403350830078e+00,2.223268508911132812e+00,2.182483911514282227e+00,2.143168687820434570e+00,2.105244874954223633e+00,2.068639516830444336e+00,2.033285856246948242e+00,1.999120116233825684e+00,1.966083765029907227e+00,1.934121251106262207e+00,1.903181433677673340e+00,1.873216032981872559e+00,1.844179391860961914e+00
5.000000000000000000e+00,5.000000000000000000e+00,5.000000000000000000e+00,5.000000000000000000e+00,5.000000000000000000e+00,5.000000000000000000e+00,5.000000000000000000e+00,5.000000000000000000e+00,5.000000000000000000e+00,5.000000000000000000e+00,5.000000000000000000e+00,5.000000000000000000e+00,5.000000000000000000e+00,5.000000000000000000e+00,5.000000000000000000e+00,5.000000000000000000e+00,5.000000000000000000e+00,5.000000000000000000e+00,5.000000000000000000e+00,5.000000000000000000e+00,5.000000000000000000e+00,5.000000000000000000e+00,5.000000000000000000e+00,4.367582798004150391e+00,4.290245532989501953e+00,4.282542705535888672e+00,4.315670013427734375e+00,4.398335933685302734e+00,4.485531806945800781e+00,5.000000000000000000e+00,5.000000000000000000e+00,5.000000000000000000e+00,5.000000000000000000e+00,5.000000000000000000e+00,5.000000000000000000e+00,5.000000000000000000e+00,5.000000000000000000e+00,5.000000000000000000e+00,5.000000000000000000e+00,4.853696823120117188e+00,4.663443565368652344e+00,4.487542629241943359e+00,4.324428558349609375e+00,4.172756671905517578e+00,4.031363010406494141e+00,3.899238348007202148e+00,3.775499105453491211e+00,3.659372091293334961e+00,3.550175428390502930e+00,3.447306632995605469e+00,3.350231170654296875e+00,3.258473634719848633e+00,3.171608209609985352e+00,3.089253902435302734e+00,3.011068344116210938e+00,2.936742305755615234e+00,2.865997314453125000e+00,2.798580884933471680e+00,2.734262943267822266e+00,2.672835111618041992e+00,2.614106416702270508e+00,2.557903289794921875e+00,2.504065990447998047e+00,2.452448368072509766e+00,2.402915716171264648e+00,2.355344295501708984e+00,2.309619665145874023e+00,2.265636682510375977e+00,2.223297834396362305e+00,2.182512044906616211e+00,2.143195867538452148e+00,2.105271100997924805e+00,2.068665027618408203e+00,2.033310413360595703e+00,1.999143958091735840e+00,1.966106653213500977e+00,1.934143424034118652e+00,1.903203010559082031e+00,1.873236775398254395e+00,1.844199657440185547e+00
5.000000000000000000e+00,5.000000000000000000e+00,5.000000000000000000e+00,5.000000000000000000e+00,5.000000000000000000e+00,5.000000000000000000e+00,5.000000000000000000e+00,5.000000000000000000e+00,5.000000000000000000e+00,5.000000000000000000e+00,5.000000000000000000e+00,5.000000000000000000e+00,5.000000000000000000e+00,5.000000000000000000e+00,5.000000000000000000e+00,5.000000000000000000e+00,5.000000000000000000e+00,5.000000000000000000e+00,5.000000000000000000e+00,5.000000000000000000e+00,5.000000000000000000e+00,5.000000000000000000e+00,5.000000000000000000e+00,4.330776691436767578e+00,4.293400287628173828e+00,4.285653114318847656e+00,4.320932865142822266e+00,4.362973690032958984e+00,4.469438076019287109e+00,5.000000000000000000e+00,5.000000000000000000e+00,5.000000000000000000e+00,5.000000000000000000e+00,5.000000000000000000e+00,5.000000000000000000e+00,5.000000000000000000e+00,5.000000000000000000e+00,5.000000000000000000e+00,5.000000000000000000e+00,4.853836536407470703e+00,4.663572311401367188e+00,4.487661838531494141e+00,4.324539184570312500e+00,4.172860145568847656e+00,4.031459808349609375e+00,3.899328470230102539e+00,3.775583744049072266e+00,3.659451484680175781e+00,3.550250053405761719e+00,3.447376728057861328e+00,3.350297689437866211e+00,3.258536577224731445e+00,3.171667814254760742e+00,3.089310407638549805e+00,3.011121988296508789e+00,2.936793327331542969e+00,2.866046190261840820e+00,2.798627138137817383e+00,2.734307289123535156e+00,2.672877550125122070e+00,2.614146947860717773e+00,2.557942152023315430e+00,2.504103183746337891e+00,2.452483892440795898e+00,2.402949810028076172e+00,2.355376958847045898e+00,2.309651374816894531e+00,2.265667200088500977e+00,2.223327159881591797e+00,2.182540416717529297e+00,2.143223285675048828e+00,2.105297327041625977e+00,2.068690299987792969e+00,2.033334970474243164e+00,1.999167561531066895e+00,1.966129660606384277e+00,1.934165716171264648e+00,1.903224349021911621e+00,1.873257637023925781e+00,1.844219803810119629e+00
5.000000000000000000e+00,5.000000000000000000e+00,5.000000000000000000e+00,5.000000000000000000e+00,5.000000000000000000e+00,5.000000000000000000e+00,5.000000000000000000e+00,5.000000000000000000e+00,5.000000000000000000e+00,5.000000000000000000e+00,5.000000000000000000e+00,5.000000000000000000e+00,5.000000000000000000e+00,5.000000000000000000e+00,5.000000000000000000e+00,5.000000000000000000e+00,5.000000000000000000e+00,5.000000000000000000e+00,5.000000000000000000e+00,5.000000000000000000e+00,5.000000000000000000e+00,5.000000000000000000e+00,4.299104213714599609e+00,4.264707565307617188e+00,4.253540992736816406e+00,4.347633838653564453e+00,4.284425258636474609e+00,4.325215339660644531e+00,4.454489707946777344e+00,5.000000000000000000e+00,5.000000000000000000e+00,5.000000000000000000e+00,5.000000000000000000e+00,5.000000000000000000e+00,5.000000000000000000e+00,5.000000000000000000e+00,5.000000000000000000e+00,5.000000000000000000e+00,5.000000000000000000e+00,4.853976249694824219e+00,4.663701534271240234e+00,4.487781047821044922e+00,4.324650287628173828e+00,4.172963142395019531e+00,4.031556129455566406e+00,3.899418830871582031e+00,3.775668144226074219e+00,3.659530878067016602e+00,3.550324916839599609e+00,3.447447299957275391e+00,3.350364446640014648e+00,3.258599519729614258e+00,3.171727418899536133e+00,3.089367151260375977e+00,3.011175632476806641e+00,2.936844587326049805e+00,2.866094827651977539e+00,2.798673629760742188e+00,2.734351634979248047e+00,2.672919750213623047e+00,2.614187479019165039e+00,2.557981014251708984e+00,2.504140377044677734e+00,2.452519655227661133e+00,2.402984142303466797e+00,2.355409860610961914e+00,2.309682846069335938e+00,2.265697717666625977e+00,2.223356485366821289e+00,2.182568550109863281e+00,2.143250226974487305e+00,2.105323553085327148e+00,2.068715810775756836e+00,2.033359527587890625e+00,1.999191284179687500e+00,1.966152429580688477e+00,1.934187769889831543e+00,1.903245925903320312e+00,1.873278379440307617e+00,1.844240069389343262e+00
5.000000000000000000e+00,5.000000000000000000e+00,5.000000000000000000e+00,5.000000000000000000e+00,5.000000000000000000e+00,5.000000000000000000e+00,5.000000000000000000e+00,5.000000000000000000e+00,5.000000000000000000e+00,5.000000000000000000e+00,5.000000000000000000e+00,5.000000000000000000e+00,5.000000000000000000e+00,5.000000000000000000e+00,5.000000000000000000e+00,5.000000000000000000e+00,5.000000000000000000e+00,5.000000000000000000e+00,5.000000000000000000e+00,5.000000000000000000e+00,5.000000000000000000e+00,5.000000000000000000e+00,4.246688842773437500e+00,4.242721557617187500e+00,4.233667850494384766e+00,4.341187000274658203e+00,4.266277790069580078e+00,4.311806678771972656e+00,4.439085006713867188e+00,5.000000000000000000e+00,5.000000000000000000e+00,5.000000000000000000e+00,5.000000000000000000e+00,5.000000000000000000e+00,5.000000000000000000e+00,5.000000000000000000e+00,5.000000000000000000e+00,5.000000000000000000e+00,5.000000000000000000e+00,4.854115962982177734e+00,4.663830280303955078e+00,4.487900733947753906e+00,4.324761390686035156e+00,4.173066139221191406e+00,4.031652450561523438e+00,3.899508953094482422e+00,3.775752782821655273e+00,3.659610271453857422e+00,3.550399303436279297e+00,3.447517871856689453e+00,3.350430965423583984e+00,3.258662700653076172e+00,3.171787261962890625e+00,3.089423656463623047e+00,3.011229276657104492e+00,2.936895608901977539e+00,2.866143465042114258e+00,2.798720121383666992e+00,2.734395980834960938e+00,2.672961950302124023e+00,2.614228010177612305e+00,2.558019638061523438e+00,2.504177570343017578e+00,2.452555418014526367e+00,2.403018236160278320e+00,2.355442762374877930e+00,2.309714555740356445e+00,2.265727996826171875e+00,2.223385810852050781e+00,2.182596921920776367e+00,2.143277406692504883e+00,2.105349779129028320e+00,2.068741083145141602e+00,2.033384084701538086e+00,1.999214887619018555e+00,1.966175317764282227e+00,1.934210062026977539e+00,1.903267383575439453e+00,1.873299241065979004e+00,1.844260096549987793e+00
5.000000000000000000e+00,5.000000000000000000e+00,5.000000000000000000e+00,5.000000000000000000e+00,5.000000000000000000e+00,5.000000000000000000e+00,5.000000000000000000e+00,5.000000000000000000e+00,5.000000000000000000e+00,5.000000000000000000e+00,5.000000000000000000e+00,5.000000000000000000e+00,5.000000000000000000e+00,5.000000000000000000e+00,5.000000000000000000e+00,5.000000000000000000e+00,5.000000000000000000e+00,5.000000000000000000e+00,5.000000000000000000e+00,5.000000000000000000e+00,5.000000000000000000e+00,5.000000000000000000e+00,4.181420326232910156e+00,4.227641582489013672e+00,4.220888614654541016e+00,5.000000000000000000e+00,4.257436275482177734e+00,4.306168556213378906e+00,5.000000000000000000e+00,5.000000000000000000e+00,5.000000000000000000e+00,5.000000000000000000e+00,5.000000000000000000e+00,5.000000000000000000e+00,5.000000000000000000e+00,5.000000000000000000e+00,5.000000000000000000e+00,5.000000000000000000e+00,5.000000000000000000e+00,4.854255676269531250e+00,4.663959026336669922e+00,4.488019943237304688e+00,4.324872016906738281e+00,4.173169612884521484e+00,4.031748771667480469e+00,3.899599075317382812e+00,3.775837421417236328e+00,3.659689664840698242e+00,3.550473928451538086e+00,3.447588205337524414e+00,3.350497484207153320e+00,3.258725643157958984e+00,3.171846866607666016e+00,3.089479923248291016e+00,3.011283159255981445e+00,2.936946868896484375e+00,2.866192340850830078e+00,2.798766613006591797e+00,2.734440088272094727e+00,2.673004388809204102e+00,2.614268541336059570e+00,2.558058500289916992e+00,2.504214763641357422e+00,2.452590942382812500e+00,2.403052330017089844e+00,2.355475664138793945e+00,2.309746265411376953e+00,2.265758514404296875e+00,2.223415136337280273e+00,2.182625055313110352e+00,2.143304824829101562e+00,2.105376243591308594e+00,2.068766593933105469e+00,2.033408403396606445e+00,1.999238491058349609e+00,1.966198325157165527e+00,1.934232115745544434e+00,1.903288960456848145e+00,1.873319983482360840e+00,1.844280362129211426e+00
5.000000000000000000e+00,5.000000000000000000e+00,5.000000000000000000e+00,5.000000000000000000e+00,5.000000000000000000e+00,5.000000000000000000e+00,5.000000000000000000e+00,5.000000000000000000e+00,5.000000000000000000e+00,5.000000000000000000e+00,5.000000000000000000e+00,5.000000000000000000e+00,5.000000000000000000e+00,5.000000000000000000e+00,5.000000000000000000e+00,5.000000000000000000e+00,5.000000000000000000e+00,5.000000000000000000e+00,5.000000000000000000e+00,5.000000000000000000e+00,5.000000000000000000e+00,5.000000000000000000e+00,5.000000000000000000e+00,4.209064006805419922e+00,4.208755970001220703e+00,5.000000000000000000e+00,4.246097564697265625e+00,5.000000000000000000e+00,5.000000000000000000e+00,5.000000000000000000e+00,5.000000000000000000e+00,5.000000000000000000e+00,5.000000000000000000e+00,5.000000000000000000e+00,5.000000000000000000e+00,5.000000000000000000e+00,5.000000000000000000e+00,5.000000000000000000e+00,5.000000000000000000e+00,4.854395389556884766e+00,4.664088249206542969e+00,4.488139629364013672e+00,4.324982643127441406e+00,4.173272609710693359e+00,4.031845092773437500e+00,3.899689435958862305e+00,3.775921821594238281e+00,3.659768819808959961e+00,3.550548791885375977e+00,3.447658777236938477e+00,3.350564002990722656e+00,3.258788585662841797e+00,3.171906471252441406e+00,3.089536666870117188e+00,3.011336803436279297e+00,2.936998128890991211e+00,2.866240978240966797e+00,2.798813104629516602e+00,2.734484434127807617e+00,2.673046827316284180e+00,2.614309072494506836e+00,2.558097362518310547e+00,2.504251956939697266e+00,2.452626466751098633e+00,2.403086662292480469e+00,2.355508565902709961e+00,2.309777975082397461e+00,2.265789031982421875e+00,2.223444461822509766e+00,2.182653188705444336e+00,2.143332004547119141e+00,2.105402469635009766e+00,2.068791866302490234e+00,2.033432960510253906e+00,1.999262332916259766e+00,1.966221094131469727e+00,1.934254407882690430e+00,1.903310298919677734e+00,1.873340845108032227e+00,1.844300389289855957e+00
5.000000000000000000e+00,5.000000000000000000e+00,5.000000000000000000e+00,5.000000000000000000e+00,5.000000000000000000e+00,5.000000000000000000e+00,5.000000000000000000e+00,5.000000000000000000e+00,5.000000000000000000e+00,5.000000000000000000e+00,5.000000000000000000e+00,5.000000000000000000e+00,5.000000000000000000e+00,5.000000000000000000e+00,5.000000000000000000e+00,5.000000000000000000e+00,5.000000000000000000e+00,5.000000000000000000e+00,5.000000000000000000e+00,5.000000000000000000e+00,5.000000000000000000e+00,5.000000000000000000e+00,5.000000000000000000e+00,4.196991443634033203e+00,4.191802978515625000e+00,5.000000000000000000e+00,4.233072757720947266e+00,5.000000000000000000e+00,5.000000000000000000e+00,5.000000000000000000e+00,5.000000000000000000e+00,5.000000000000000000e+00,5.000000000000000000e+00,5.000000000000000000e+00,5.000000000000000000e+00,5.000000000000000000e+00,5.000000000000000000e+00,5.000000000000000000e+00,5.000000000000000000e+00,4.854535102844238281e+00,4.664216995239257812e+00,4.488258838653564453e+00,4.325093746185302734e+00,4.173376083374023438e+00,4.031941413879394531e+00,3.899779558181762695e+00,3.776006460189819336e+00,3.659848213195800781e+00,3.550623416900634766e+00,3.447729349136352539e+00,3.350630760192871094e+00,3.258851528167724609e+00,3.171965837478637695e+00,3.089593172073364258e+00,3.011390686035156250e+00,2.937049150466918945e+00,2.866289615631103516e+00,2.798859357833862305e+00,2.734528779983520508e+00,2.673089027404785156e+00,2.614349603652954102e+00,2.558136224746704102e+00,2.504289150238037109e+00,2.452662229537963867e+00,2.403120994567871094e+00,2.355541467666625977e+00,2.309809446334838867e+00,2.265819311141967773e+00,2.223473548889160156e+00,2.182681560516357422e+00,2.143359184265136719e+00,2.105428695678710938e+00,2.068817377090454102e+00,2.033457517623901367e+00,1.999285936355590820e+00,1.966244220733642578e+00,1.934276461601257324e+00,1.903331875801086426e+00,1.873361587524414062e+00,1.844320535659790039e+00
5.000000000000000000e+00,5.000000000000000000e+00,5.000000000000000000e+00,5.000000000000000000e+00,5.000000000000000000e+00,5.000000000000000000e+00,5.000000000000000000e+00,5.000000000000000000e+00,5.000000000000000000e+00,5.000000000000000000e+00,5.000000000000000000e+00,5.000000000000000000e+00,5.000000000000000000e+00,5.000000000000000000e+00,5.000000000000000000e+00,5.000000000000000000e+00,5.000000000000000000e+00,5.000000000000000000e+00,5.000000000000000000e+00,5.000000000000000000e+00,5.000000000000000000e+00,5.000000000000000000e+00,5.000000000000000000e+00,5.000000000000000000e+00,4.202774047851562500e+00,5.000000000000000000e+00,4.247019767761230469e+00,5.000000000000000000e+00,5.000000000000000000e+00,5.000000000000000000e+00,5.000000000000000000e+00,5.000000000000000000e+00,5.000000000000000000e+00,5.000000000000000000e+00,5.000000000000000000e+00,5.000000000000000000e+00,5.000000000000000000e+00,5.000000000000000000e+00,5.000000000000000000e+00,4.854674339294433594e+00,4.664346218109130859e+00,4.488378047943115234e+00,4.325204849243164062e+00,4.173479557037353516e+00,4.032037734985351562e+00,3.899869680404663086e+00,3.776090621948242188e+00,3.659927606582641602e+00,3.550698280334472656e+00,3.447799682617187500e+00,3.350697278976440430e+00,3.258914470672607422e+00,3.172025680541992188e+00,3.089649915695190430e+00,3.011444330215454102e+00,2.937100410461425781e+00,2.866338491439819336e+00,2.798905849456787109e+00,2.734573125839233398e+00,2.673131465911865234e+00,2.614390134811401367e+00,2.558175086975097656e+00,2.504326105117797852e+00,2.452697753906250000e+00,2.403155088424682617e+00,2.355574607849121094e+00,2.309841156005859375e+00,2.265849828720092773e+00,2.223502874374389648e+00,2.182709693908691406e+00,2.143386602401733398e+00,2.105455160140991211e+00,2.068842649459838867e+00,2.033481836318969727e+00,1.999309778213500977e+00,1.966266989707946777e+00,1.934298753738403320e+00,1.903353333473205566e+00,1.873382329940795898e+00,1.844340801239013672e+00
5.000000000000000000e+00,5.000000000000000000e+00,5.000000000000000000e+00,5.000000000000000000e+00,5.000000000000000000e+00,5.000000000000000000e+00,5.000000000000000000e+00,5.000000000000000000e+00,5.000000000000000000e+00,5.000000000000000000e+00,5.000000000000000000e+00,5.000000000000000000e+00,5.000000000000000000e+00,5.000000000000000000e+00,5.000000000000000000e+00,5.000000000000000000e+00,5.000000000000000000e+00,5.000000000000000000e+00,5.000000000000000000e+00,5.000000000000000000e+00,5.000000000000000000e+00,5.000000000000000000e+00,5.000000000000000000e+00,5.000000000000000000e+00,4.325362682342529297e+00,5.000000000000000000e+00,4.283609867095947266e+00,5.000000000000000000e+00,5.000000000000000000e+00,5.000000000000000000e+00,5.000000000000000000e+00,5.000000000000000000e+00,5.000000000000000000e+00,5.000000000000000000e+00,5.000000000000000000e+00,5.000000000000000000e+00,5.000000000000000000e+00,5.000000000000000000e+00,5.000000000000000000e+00,4.854812622070312500e+00,4.664474964141845703e+00,4.488497734069824219e+00,4.325315475463867188e+00,4.173582553863525391e+00,4.032134056091308594e+00,3.899960041046142578e+00,3.776175260543823242e+00,3.660006999969482422e+00,3.550773143768310547e+00,3.447870254516601562e+00,3.350763797760009766e+00,3.258977174758911133e+00,3.172085285186767578e+00,3.089706420898437500e+00,3.011498212814331055e+00,2.937151432037353516e+00,2.866386890411376953e+00,2.798952102661132812e+00,2.734617471694946289e+00,2.673173904418945312e+00,2.614430665969848633e+00,2.558213710784912109e+00,2.504363298416137695e+00,2.452733516693115234e+00,2.403189420700073242e+00,2.355607509613037109e+00,2.309872865676879883e+00,2.265880107879638672e+00,2.223532199859619141e+00,2.182738065719604492e+00,2.143413782119750977e+00,2.105481386184692383e+00,2.068867921829223633e+00,2.033506393432617188e+00,1.999333381652832031e+00,1.966289997100830078e+00,1.934320926666259766e+00,1.903374910354614258e+00,1.873403191566467285e+00,1.844360828399658203e+00
5.000000000000000000e+00,5.000000000000000000e+00,5.000000000000000000e+00,5.000000000000000000e+00,5.000000000000000000e+00,5.000000000000000000e+00,5.000000000000000000e+00,5.000000000000000000e+00,5.000000000000000000e+00,5.000000000000000000e+00,5.000000000000000000e+00,5.000000000000000000e+00,5.000000000000000000e+00,5.000000000000000000e+00,5.000000000000000000e+00,5.000000000000000000e+00,5.000000000000000000e+00,5.000000000000000000e+00,5.000000000000000000e+00,5.000000000000000000e+00,5.000000000000000000e+00,5.000000000000000000e+00,5.000000000000000000e+00,5.000000000000000000e+00,4.412594795227050781e+00,5.000000000000000000e+00,4.301245212554931641e+00,5.000000000000000000e+00,5.000000000000000000e+00,5.000000000000000000e+00,5.000000000000000000e+00,5.000000000000000000e+00,5.000000000000000000e+00,5.000000000000000000e+00,5.000000000000000000e+00,5.000000000000000000e+00,5.000000000000000000e+00,5.000000000000000000e+00,5.000000000000000000e+00,4.854950428009033203e+00,4.664602279663085938e+00,4.488616943359375000e+00,4.325426578521728516e+00,4.173685550689697266e+00,4.032230854034423828e+00,3.900049686431884766e+00,3.776259660720825195e+00,3.660086393356323242e+00,3.550847768783569336e+00,3.447940826416015625e+00,3.350830316543579102e+00,3.259040117263793945e+00,3.172144889831542969e+00,3.089763164520263672e+00,3.011552095413208008e+00,2.937202692031860352e+00,2.866435527801513672e+00,2.798998594284057617e+00,2.734661817550659180e+00,2.673216342926025391e+00,2.614471197128295898e+00,2.558252334594726562e+00,2.504400491714477539e+00,2.452769279479980469e+00,2.403223752975463867e+00,2.355640411376953125e+00,2.309904336929321289e+00,2.265910625457763672e+00,2.223561525344848633e+00,2.182766199111938477e+00,2.143440961837768555e+00,2.105507612228393555e+00,2.068893194198608398e+00,2.033530950546264648e+00,1.999357104301452637e+00,1.966312885284423828e+00,1.934343218803405762e+00,1.903396248817443848e+00,1.873423933982849121e+00,1.844381093978881836e+00
5.000000000000000000e+00,5.000000000000000000e+00,5.000000000000000000e+00,5.000000000000000000e+00,5.000000000000000000e+00,5.000000000000000000e+00,5.000000000000000000e+00,5.000000000000000000e+00,5.000000000000000000e+00,5.000000000000000000e+00,5.000000000000000000e+00,5.000000000000000000e+00,5.000000000000000000e+00,5.000000000000000000e+00,5.000000000000000000e+00,5.000000000000000000e+00,5.000000000000000000e+00,5.000000000000000000e+00,5.000000000000000000e+00,5.000000000000000000e+00,5.000000000000000000e+00,5.000000000000000000e+00,5.000000000000000000e+00,5.000000000000000000e+00,5.000000000000000000e+00,5.000000000000000000e+00,4.317810535430908203e+00,5.000000000000000000e+00,5.000000000000000000e+00,5.000000000000000000e+00,5.000000000000000000e+00,5.000000000000000000e+00,5.000000000000000000e+00,5.000000000000000000e+00,5.000000000000000000e+00,5.000000000000000000e+00,5.000000000000000000e+00,5.000000000000000000e+00,5.000000000000000000e+00,4.855088710784912109e+00,4.664730072021484375e+00,4.488735198974609375e+00,4.325537204742431641e+00,4.173789024353027344e+00,4.032327175140380859e+00,3.900139808654785156e+00,3.776344299316406250e+00,3.660166025161743164e+00,3.550922632217407227e+00,3.448011159896850586e+00,3.350896596908569336e+00,3.259103059768676758e+00,3.172204494476318359e+00,3.089819669723510742e+00,3.011605739593505859e+00,2.937253475189208984e+00,2.866484403610229492e+00,2.799045085906982422e+00,2.734706163406372070e+00,2.673258781433105469e+00,2.614511728286743164e+00,2.558291196823120117e+00,2.504437685012817383e+00,2.452804803848266602e+00,2.403257846832275391e+00,2.355673313140869141e+00,2.309935808181762695e+00,2.265941143035888672e+00,2.223590850830078125e+00,2.182794570922851562e+00,2.143468141555786133e+00,2.105533838272094727e+00,2.068918704986572266e+00,2.033555507659912109e+00,1.999380707740783691e+00,1.966335892677307129e+00,1.934365272521972656e+00,1.903417587280273438e+00,1.873444795608520508e+00,1.844401240348815918e+00
5.000000000000000000e+00,5.000000000000000000e+00,5.000000000000000000e+00,5.000000000000000000e+00,5.000000000000000000e+00,5.000000000000000000e+00,5.000000000000000000e+00,5.000000000000000000e+00,5.000000000000000000e+00,5.000000000000000000e+00,5.000000000000000000e+00,5.000000000000000000e+00,5.000000000000000000e+00,5.000000000000000000e+00,5.000000000000000000e+00,5.000000000000000000e+00,5.000000000000000000e+00,5.000000000000000000e+00,5.000000000000000000e+00,5.000000000000000000e+00,5.000000000000000000e+00,5.000000000000000000e+00,5.000000000000000000e+00,5.000000000000000000e+00,4.602362155914306641e+00,5.000000000000000000e+00,4.344799041748046875e+00,5.000000000000000000e+00,5.000000000000000000e+00,5.000000000000000000e+00,5.000000000000000000e+00,5.000000000000000000e+00,5.000000000000000000e+00,5.000000000000000000e+00,5.000000000000000000e+00,5.000000000000000000e+00,5.000000000000000000e+00,5.000000000000000000e+00,5.000000000000000000e+00,4.855227470397949219e+00,4.664857864379882812e+00,4.488853454589843750e+00,4.325647830963134766e+00,4.173892498016357422e+00,4.032423496246337891e+00,3.900230169296264648e+00,3.776428937911987305e+00,3.660245418548583984e+00,3.550997495651245117e+00,3.448081731796264648e+00,3.350963354110717773e+00,3.259166240692138672e+00,3.172264337539672852e+00,3.089876413345336914e+00,3.011659622192382812e+00,2.937304735183715820e+00,2.866533041000366211e+00,2.799091577529907227e+00,2.734750509262084961e+00,2.673300981521606445e+00,2.614552021026611328e+00,2.558330059051513672e+00,2.504474878311157227e+00,2.452840566635131836e+00,2.403292179107666016e+00,2.355706214904785156e+00,2.309967517852783203e+00,2.265971422195434570e+00,2.223620176315307617e+00,2.182822704315185547e+00,2.143495559692382812e+00,2.105560064315795898e+00,2.068943977355957031e+00,2.033580064773559570e+00,1.999404549598693848e+00,1.966358780860900879e+00,1.934387326240539551e+00,1.903439283370971680e+00,1.873465538024902344e+00,1.844421505928039551e+00
5.000000000000000000e+00,5.000000000000000000e+00,5.000000000000000000e+00,5.000000000000000000e+00,5.000000000000000000e+00,5.000000000000000000e+00,5.000000000000000000e+00,5.000000000000000000e+00,5.000000000000000000e+00,5.000000000000000000e+00,5.000000000000000000e+00,5.000000000000000000e+00,5.000000000000000000e+00,5.000000000000000000e+00,5.000000000000000000e+00,5.000000000000000000e+00,5.000000000000000000e+00,5.000000000000000000e+00,5.000000000000000000e+00,5.000000000000000000e+00,5.000000000000000000e+00,5.000000000000000000e+00,5.000000000000000000e+00,5.000000000000000000e+00,5.000000000000000000e+00,5.000000000000000000e+00,4.405601024627685547e+00,5.000000000000000000e+00,5.000000000000000000e+00,5.000000000000000000e+00,5.000000000000000000e+00,5.000000000000000000e+00,5.000000000000000000e+00,5.000000000000000000e+00,5.000000000000000000e+00,5.000000000000000000e+00,5.000000000000000000e+00,5.000000000000000000e+00,5.000000000000000000e+00,4.855365753173828125e+00,4.664985656738281250e+00,4.488972187042236328e+00,4.325757503509521484e+00,4.173995494842529297e+00,4.032519817352294922e+00,3.900320291519165039e+00,3.776513576507568359e+00,3.660324811935424805e+00,3.551072120666503906e+00,3.448151826858520508e+00,3.351029872894287109e+00,3.259229183197021484e+00,3.172323942184448242e+00,3.089932918548583984e+00,3.011713027954101562e+00,2.937355995178222656e+00,2.866581916809082031e+00,2.799138069152832031e+00,2.734794855117797852e+00,2.673343420028686523e+00,2.614592790603637695e+00,2.558368921279907227e+00,2.504512071609497070e+00,2.452876329421997070e+00,2.403326511383056641e+00,2.355738878250122070e+00,2.309999227523803711e+00,2.266001939773559570e+00,2.223649501800537109e+00,2.182851076126098633e+00,2.143522500991821289e+00,2.105586290359497070e+00,2.068969488143920898e+00,2.033604621887207031e+00,1.999428153038024902e+00,1.966381788253784180e+00,1.934409618377685547e+00,1.903460621833801270e+00,1.873486518859863281e+00,1.844441533088684082e+00
4.871275901794433594e+00,4.870054721832275391e+00,4.868834018707275391e+00,4.867613792419433594e+00,4.866394996643066406e+00,4.865175724029541016e+00,4.863957881927490234e+00,4.862740039825439453e+00,4.861523628234863281e+00,4.860307216644287109e+00,4.859091281890869141e+00,4.857876300811767578e+00,4.856661796569824219e+00,4.855447769165039062e+00,4.854234695434570312e+00,4.853022098541259766e+00,4.851809978485107422e+00,4.850598812103271484e+00,4.849388122558593750e+00,4.848177433013916016e+00,4.846968173980712891e+00,4.845758914947509766e+00,4.844550609588623047e+00,4.843342781066894531e+00,4.842135429382324219e+00,4.249623775482177734e+00,4.324580669403076172e+00,4.838517189025878906e+00,4.837312698364257812e+00,4.836108207702636719e+00,4.834904670715332031e+00,4.833701610565185547e+00,4.832499504089355469e+00,4.831297397613525391e+00,4.830096244812011719e+00,4.828895568847656250e+00,4.827695369720458984e+00,4.826496124267578125e+00,4.825296878814697266e+00,4.824099063873291016e+00,4.665113449096679688e+00,4.489090442657470703e+00,4.325867176055908203e+00,4.174097537994384766e+00,4.032616138458251953e+00,3.900410652160644531e+00,3.776597976684570312e+00,3.660404205322265625e+00,3.551146984100341797e+00,3.448222398757934570e+00,3.351096391677856445e+00,3.259292125701904297e+00,3.172383546829223633e+00,3.089989662170410156e+00,3.011766910552978516e+00,2.937407016754150391e+00,2.866630554199218750e+00,2.799184560775756836e+00,2.734839200973510742e+00,2.673385620117187500e+00,2.614633321762084961e+00,2.558407545089721680e+00,2.504549264907836914e+00,2.452911853790283203e+00,2.403360605239868164e+00,2.355771780014038086e+00,2.310030937194824219e+00,2.266032457351684570e+00,2.223678827285766602e+00,2.182879209518432617e+00,2.143549919128417969e+00,2.105612754821777344e+00,2.068994760513305664e+00,2.033629179000854492e+00,1.999451994895935059e+00,1.966404557228088379e+00,1.934431672096252441e+00,1.903482198715209961e+00,1.873507142066955566e+00,1.844461798667907715e+00
3.776103258132934570e+00,3.775369644165039062e+00,3.774636030197143555e+00,3.773902416229248047e+00,3.773169517517089844e+00,3.772437095642089844e+00,3.771704673767089844e+00,3.770972251892089844e+00,3.770240545272827148e+00,3.769509077072143555e+00,3.768777847290039062e+00,3.768046617507934570e+00,3.767315864562988281e+00,3.766585588455200195e+00,3.765855550765991211e+00,3.765125274658203125e+00,3.764395713806152344e+00,3.763666629791259766e+00,3.762937307357788086e+00,3.762208700180053711e+00,3.761480331420898438e+00,3.760752201080322266e+00,3.760024070739746094e+00,3.759296417236328125e+00,3.758569240570068359e+00,3.757842302322387695e+00,3.757115364074707031e+00,3.756388902664184570e+00,3.755662679672241211e+00,3.754936933517456055e+00,3.754210948944091797e+00,3.753485679626464844e+00,3.752760648727416992e+00,3.752036094665527344e+00,3.751311063766479492e+00,3.750586986541748047e+00,3.749863147735595703e+00,3.749139547348022461e+00,3.748415708541870117e+00,3.747692823410034180e+00,3.746969938278198242e+00,3.746247529983520508e+00,3.745524883270263672e+00,3.744802951812744141e+00,3.744081497192382812e+00,3.743360042572021484e+00,3.742638587951660156e+00,3.660483837127685547e+00,3.551221370697021484e+00,3.448292970657348633e+00,3.351163148880004883e+00,3.259355068206787109e+00,3.172443389892578125e+00,3.090045928955078125e+00,3.011820554733276367e+00,2.937458276748657227e+00,2.866679191589355469e+00,2.799231052398681641e+00,2.734883546829223633e+00,2.673428058624267578e+00,2.614673852920532227e+00,2.558446407318115234e+00,2.504586458206176758e+00,2.452947616577148438e+00,2.403394699096679688e+00,2.355804681777954102e+00,2.310062408447265625e+00,2.266062974929809570e+00,2.223708152770996094e+00,2.182907342910766602e+00,2.143577098846435547e+00,2.105638980865478516e+00,2.069020271301269531e+00,2.033653736114501953e+00,1.999475598335266113e+00,1.966427445411682129e+00,1.934454083442687988e+00,1.903503537178039551e+00,1.873528122901916504e+00,1.844481945037841797e+00
3.082980155944824219e+00,3.082490921020507812e+00,3.082001924514770508e+00,3.081513166427612305e+00,3.081024169921875000e+00,3.080535650253295898e+00,3.080047369003295898e+00,3.079559087753295898e+00,3.079070806503295898e+00,3.078583002090454102e+00,3.078095197677612305e+00,3.077607631683349609e+00,3.077119827270507812e+00,3.076632738113403320e+00,3.076145410537719727e+00,3.075658559799194336e+00,3.075171470642089844e+00,3.074684858322143555e+00,3.074198246002197266e+00,3.073712110519409180e+00,3.073225498199462891e+00,3.072739601135253906e+00,3.072253704071044922e+00,3.071767807006835938e+00,3.071282148361206055e+00,3.070796728134155273e+00,3.070311307907104492e+00,3.069826126098632812e+00,3.069340944290161133e+00,3.068856239318847656e+00,3.068371534347534180e+00,3.067887067794799805e+00,3.067402362823486328e+00,3.066918134689331055e+00,3.066434144973754883e+00,3.065950393676757812e+00,3.065466403961181641e+00,3.064982891082763672e+00,3.064499378204345703e+00,3.064015865325927734e+00,3.063532829284667969e+00,3.063049793243408203e+00,3.062566995620727539e+00,3.062083959579467773e+00,3.061601400375366211e+00,3.061119079589843750e+00,3.060636997222900391e+00,3.060154676437377930e+00,3.059672594070434570e+00,3.059190988540649414e+00,3.058709383010864258e+00,3.058227539062500000e+00,3.057746171951293945e+00,3.057265043258666992e+00,3.011874437332153320e+00,2.937509536743164062e+00,2.866728067398071289e+00,2.799277544021606445e+00,2.734927654266357422e+00,2.673470497131347656e+00,2.614714384078979492e+00,2.558485269546508789e+00,2.504623889923095703e+00,2.452983379364013672e+00,2.403429031372070312e+00,2.355837583541870117e+00,2.310094118118286133e+00,2.266093254089355469e+00,2.223737478256225586e+00,2.182935714721679688e+00,2.143604278564453125e+00,2.105665206909179688e+00,2.069045543670654297e+00,2.033678054809570312e+00,1.999499201774597168e+00,1.966450452804565430e+00,1.934476137161254883e+00,1.903525233268737793e+00,1.873548865318298340e+00,1.844502210617065430e+00
2.604846954345703125e+00,2.604497671127319336e+00,2.604148387908935547e+00,2.603799581527709961e+00,2.603450536727905273e+00,2.603101730346679688e+00,2.602752923965454102e+00,2.602404117584228516e+00,2.602055788040161133e+00,2.601707220077514648e+00,2.601358652114868164e+00,2.601010560989379883e+00,2.600662231445312500e+00,2.600314378738403320e+00,2.599966049194335938e+00,2.599618196487426758e+00,2.599270582199096680e+00,2.598922729492187500e+00,2.598574876785278320e+00,2.598227500915527344e+00,2.597880125045776367e+00,2.597532510757446289e+00,2.597185373306274414e+00,2.596838235855102539e+00,2.596491098403930664e+00,2.596143960952758789e+00,2.595797061920166016e+00,2.595450401306152344e+00,2.595103740692138672e+00,2.594756841659545898e+00,2.594410419464111328e+00,2.594063997268676758e+00,2.593717813491821289e+00,2.593371391296386719e+00,2.593025207519531250e+00,2.592679262161254883e+00,2.592333316802978516e+00,2.591987371444702148e+00,2.591641664505004883e+00,2.591295957565307617e+00,2.590950250625610352e+00,2.590604782104492188e+00,2.590259313583374023e+00,2.589914083480834961e+00,2.589568853378295898e+00,2.589223623275756836e+00,2.588878631591796875e+00,2.588533639907836914e+00,2.588188886642456055e+00,2.587843894958496094e+00,2.587499380111694336e+00,2.587154626846313477e+00,2.586810111999511719e+00,2.586465835571289062e+00,2.586121559143066406e+00,2.585777282714843750e+00,2.585433006286621094e+00,2.585088968276977539e+00,2.584745168685913086e+00,2.584401369094848633e+00,2.584057331085205078e+00,2.558524131774902344e+00,2.504661083221435547e+00,2.453018903732299805e+00,2.403463363647460938e+00,2.355870485305786133e+00,2.310125827789306641e+00,2.266123771667480469e+00,2.223766565322875977e+00,2.182963848114013672e+00,2.143631696701049805e+00,2.105691671371459961e+00,2.069071054458618164e+00,2.033702611923217773e+00,1.999523043632507324e+00,1.966473221778869629e+00,1.934498429298400879e+00,1.903546571731567383e+00,1.873569726943969727e+00,1.844522237777709961e+00
2.255085706710815430e+00,2.254825115203857422e+00,2.254564285278320312e+00,2.254303455352783203e+00,2.254042863845825195e+00,2.253782272338867188e+00,2.253521680831909180e+00,2.253261089324951172e+00,2.253000736236572266e+00,2.252740621566772461e+00,2.252480030059814453e+00,2.252219915390014648e+00,2.251959800720214844e+00,2.251699686050415039e+00,2.251439571380615234e+00,2.251179695129394531e+00,2.250919580459594727e+00,2.250659704208374023e+00,2.250399827957153320e+00,2.250140190124511719e+00,2.249880552291870117e+00,2.249620914459228516e+00,2.249361276626586914e+00,2.249101877212524414e+00,2.248841524124145508e+00,2.248581409454345703e+00,2.248321056365966797e+00,2.248060941696166992e+00,2.247800827026367188e+00,2.247540712356567383e+00,2.247280836105346680e+00,2.247020721435546875e+00,2.246760845184326172e+00,2.246501207351684570e+00,2.246241331100463867e+00,2.245981693267822266e+00,2.245722055435180664e+00,2.245462417602539062e+00,2.245202779769897461e+00,2.244943380355834961e+00,2.244683980941772461e+00,2.244424819946289062e+00,2.244165420532226562e+00,2.243906259536743164e+00,2.243647098541259766e+00,2.243387937545776367e+00,2.243128776550292969e+00,2.242869853973388672e+00,2.242610931396484375e+00,2.242352247238159180e+00,2.242093324661254883e+00,2.241834640502929688e+00,2.241575956344604492e+00,2.241317272186279297e+00,2.241058588027954102e+00,2.240800142288208008e+00,2.240541696548461914e+00,2.240283489227294922e+00,2.240025043487548828e+00,2.239766836166381836e+00,2.239508628845214844e+00,2.239250421524047852e+00,2.238992452621459961e+00,2.238734245300292969e+00,2.238476514816284180e+00,2.238218545913696289e+00,2.237960577011108398e+00,2.237702846527099609e+00,2.223795890808105469e+00,2.182992219924926758e+00,2.143658876419067383e+00,2.105717897415161133e+00,2.069096326828002930e+00,2.033727169036865234e+00,1.999546527862548828e+00,1.966496348381042480e+00,1.934520483016967773e+00,1.903568148612976074e+00,1.873590469360351562e+00,1.844542384147644043e+00
1.988093376159667969e+00,1.987890720367431641e+00,1.987687945365905762e+00,1.987485289573669434e+00,1.987282752990722656e+00,1.987080097198486328e+00,1.986877560615539551e+00,1.986675143241882324e+00,1.986472725868225098e+00,1.986270189285278320e+00,1.986068010330200195e+00,1.985865592956542969e+00,1.985663414001464844e+00,1.985461115837097168e+00,1.985258817672729492e+00,1.985056877136230469e+00,1.984854698181152344e+00,1.984652519226074219e+00,1.984450578689575195e+00,1.984248518943786621e+00,1.984046459197998047e+00,1.983844757080078125e+00,1.983642816543579102e+00,1.983440876007080078e+00,1.983239173889160156e+00,1.983037352561950684e+00,1.982835888862609863e+00,1.982634067535400391e+00,1.982432365417480469e+00,1.982230901718139648e+00,1.982029318809509277e+00,1.981827735900878906e+00,1.981626391410827637e+00,1.981424927711486816e+00,1.981223464012145996e+00,1.981022238731384277e+00,1.980820894241333008e+00,1.980619549751281738e+00,1.980418443679809570e+00,1.980217218399047852e+00,1.980016231536865234e+00,1.979815125465393066e+00,1.979613900184631348e+00,1.979413032531738281e+00,1.979212045669555664e+00,1.979011058807373047e+00,1.978810310363769531e+00,1.978609323501586914e+00,1.978408455848693848e+00,1.978207826614379883e+00,1.978006958961486816e+00,1.977806210517883301e+00,1.977605700492858887e+00,1.977405071258544922e+00,1.977204680442810059e+00,1.977004051208496094e+00,1.976803421974182129e+00,1.976603150367736816e+00,1.976402640342712402e+00,1.976202249526977539e+00,1.976002097129821777e+00,1.975801706314086914e+00,1.975601315498352051e+00,1.975401282310485840e+00,1.975201129913330078e+00,1.975001096725463867e+00,1.974800944328308105e+00,1.974600791931152344e+00,1.974400997161865234e+00,1.974200963973999023e+00,1.974000930786132812e+00,1.973801255226135254e+00,1.973601341247558594e+00,1.973401427268981934e+00,1.973201870918273926e+00,1.966519117355346680e+00,1.934542775154113770e+00,1.903589606285095215e+00,1.873611211776733398e+00,1.844562649726867676e+00
1.777629733085632324e+00,1.777467608451843262e+00,1.777305603027343750e+00,1.777143597602844238e+00,1.776981472969055176e+00,1.776819586753845215e+00,1.776657581329345703e+00,1.776495814323425293e+00,1.776333928108215332e+00,1.776172041893005371e+00,1.776010274887084961e+00,1.775848388671875000e+00,1.775686621665954590e+00,1.775524973869323730e+00,1.775363206863403320e+00,1.775201439857482910e+00,1.775039911270141602e+00,1.774878263473510742e+00,1.774716615676879883e+00,1.774555206298828125e+00,1.774393558502197266e+00,1.774232268333435059e+00,1.774070739746093750e+00,1.773909211158752441e+00,1.773747920989990234e+00,1.773586392402648926e+00,1.773424983024597168e+00,1.773263812065124512e+00,1.773102521896362305e+00,1.772941112518310547e+00,1.772780060768127441e+00,1.772618770599365234e+00,1.772457480430603027e+00,1.772296547889709473e+00,1.772135257720947266e+00,1.771974325180053711e+00,1.771813154220581055e+00,1.771652102470397949e+00,1.771491289138793945e+00,1.771330237388610840e+00,1.771169185638427734e+00,1.771008372306823730e+00,1.770847439765930176e+00,1.770686507225036621e+00,1.770525813102722168e+00,1.770364999771118164e+00,1.770204305648803711e+00,1.770043492317199707e+00,1.769882678985595703e+00,1.769722223281860352e+00,1.769561409950256348e+00,1.769400715827941895e+00,1.769240260124206543e+00,1.769079685211181641e+00,1.768919110298156738e+00,1.768758654594421387e+00,1.768598198890686035e+00,1.768437623977661133e+00,1.768277287483215332e+00,1.768116831779479980e+00,1.767956614494323730e+00,1.767796277999877930e+00,1.767635941505432129e+00,1.767475724220275879e+00,1.767315387725830078e+00,1.767155170440673828e+00,1.766995072364807129e+00,1.766834855079650879e+00,1.766674637794494629e+00,1.766514658927917480e+00,1.766354560852050781e+00,1.766194462776184082e+00,1.766034603118896484e+00,1.765874505043029785e+00,1.765714764595031738e+00,1.765554785728454590e+00,1.765394806861877441e+00,1.765235066413879395e+00,1.765075206756591797e+00,1.764915347099304199e+00
1.607460618019104004e+00,1.607328057289123535e+00,1.607195615768432617e+00,1.607063055038452148e+00,1.606930494308471680e+00,1.606798171997070312e+00,1.606665730476379395e+00,1.606533288955688477e+00,1.606400966644287109e+00,1.606268525123596191e+00,1.606136083602905273e+00,1.606003880500793457e+00,1.605871558189392090e+00,1.605739235877990723e+00,1.605607032775878906e+00,1.605474829673767090e+00,1.605342626571655273e+00,1.605210423469543457e+00,1.605078220367431641e+00,1.604946136474609375e+00,1.604813933372497559e+00,1.604681849479675293e+00,1.604549765586853027e+00,1.604417681694030762e+00,1.604285597801208496e+00,1.604153633117675781e+00,1.604021668434143066e+00,1.603889822959899902e+00,1.603757739067077637e+00,1.603625774383544922e+00,1.603493928909301758e+00,1.603361964225769043e+00,1.603230118751525879e+00,1.603098392486572266e+00,1.602966427803039551e+00,1.602834582328796387e+00,1.602702975273132324e+00,1.602571129798889160e+00,1.602439403533935547e+00,1.602307677268981934e+00,1.602175951004028320e+00,1.602044463157653809e+00,1.601912736892700195e+00,1.601781010627746582e+00,1.601649522781372070e+00,1.601517915725708008e+00,1.601386308670043945e+00,1.601254820823669434e+00,1.601123213768005371e+00,1.600991725921630859e+00,1.600860357284545898e+00,1.600728869438171387e+00,1.600597381591796875e+00,1.600466012954711914e+00,1.600334644317626953e+00,1.600203275680541992e+00,1.600071907043457031e+00,1.599940538406372070e+00,1.599809288978576660e+00,1.599677920341491699e+00,1.599546670913696289e+00,1.599415540695190430e+00,1.599284291267395020e+00,1.599153041839599609e+00,1.599021911621093750e+00,1.598890662193298340e+00,1.598759531974792480e+00,1.598628520965576172e+00,1.598497390747070312e+00,1.598366379737854004e+00,1.598235249519348145e+00,1.598104238510131836e+00,1.597973346710205078e+00,1.597842335700988770e+00,1.597711324691772461e+00,1.597580432891845703e+00,1.597449421882629395e+00,1.597318530082702637e+00,1.597187757492065430e+00,1.597056865692138672e+00
1.467025160789489746e+00,1.466914653778076172e+00,1.466804265975952148e+00,1.466693997383117676e+00,1.466583609580993652e+00,1.466473221778869629e+00,1.466362953186035156e+00,1.466252684593200684e+00,1.466142416000366211e+00,1.466032147407531738e+00,1.465921878814697266e+00,1.465811729431152344e+00,1.465701460838317871e+00,1.465591192245483398e+00,1.465481162071228027e+00,1.465370893478393555e+00,1.465260744094848633e+00,1.465150713920593262e+00,1.465040445327758789e+00,1.464930415153503418e+00,1.464820384979248047e+00,1.464710235595703125e+00,1.464600324630737305e+00,1.464490175247192383e+00,1.464380145072937012e+00,1.464270234107971191e+00,1.464160203933715820e+00,1.464050173759460449e+00,1.463940382003784180e+00,1.463830351829528809e+00,1.463720440864562988e+00,1.463610529899597168e+00,1.463500618934631348e+00,1.463390707969665527e+00,1.463281035423278809e+00,1.463171124458312988e+00,1.463061332702636719e+00,1.462951540946960449e+00,1.462841749191284180e+00,1.462732076644897461e+00,1.462622284889221191e+00,1.462512493133544922e+00,1.462402820587158203e+00,1.462293028831481934e+00,1.462183356285095215e+00,1.462073802947998047e+00,1.461964130401611328e+00,1.461854338645935059e+00,1.461744904518127441e+00,1.461635231971740723e+00,1.461525678634643555e+00,1.461416125297546387e+00,1.461306452751159668e+00,1.461197018623352051e+00,1.461087465286254883e+00,1.460977911949157715e+00,1.460868597030639648e+00,1.460759043693542480e+00,1.460649490356445312e+00,1.460540175437927246e+00,1.460430741310119629e+00,1.460321426391601562e+00,1.460211992263793945e+00,1.460102558135986328e+00,1.459993243217468262e+00,1.459883928298950195e+00,1.459774494171142578e+00,1.459665298461914062e+00,1.459555983543395996e+00,1.459446668624877930e+00,1.459337472915649414e+00,1.459228157997131348e+00,1.459118962287902832e+00,1.459009766578674316e+00,1.458900570869445801e+00,1.458791494369506836e+00,1.458682298660278320e+00,1.458573102951049805e+00,1.458464026451110840e+00,1.458354830741882324e+00
1.349156141281127930e+00,1.349062919616699219e+00,1.348969459533691406e+00,1.348876237869262695e+00,1.348782896995544434e+00,1.348689556121826172e+00,1.348596215248107910e+00,1.348502993583679199e+00,1.348409652709960938e+00,1.348316431045532227e+00,1.348223090171813965e+00,1.348129868507385254e+00,1.348036646842956543e+00,1.347943425178527832e+00,1.347850203514099121e+00,1.347757101058959961e+00,1.347663879394531250e+00,1.347570776939392090e+00,1.347477555274963379e+00,1.347384452819824219e+00,1.347291469573974609e+00,1.347198247909545898e+00,1.347105145454406738e+00,1.347012162208557129e+00,1.346919059753417969e+00,1.346825957298278809e+00,1.346732974052429199e+00,1.346639871597290039e+00,1.346546769142150879e+00,1.346453905105590820e+00,1.346360802650451660e+00,1.346267938613891602e+00,1.346174955368041992e+00,1.346081972122192383e+00,1.345989108085632324e+00,1.345896124839782715e+00,1.345803141593933105e+00,1.345710277557373047e+00,1.345617413520812988e+00,1.345524430274963379e+00,1.345431685447692871e+00,1.345338821411132812e+00,1.345245957374572754e+00,1.345153093338012695e+00,1.345060229301452637e+00,1.344967484474182129e+00,1.344874739646911621e+00,1.344781875610351562e+00,1.344689249992370605e+00,1.344596385955810547e+00,1.344503641128540039e+00,1.344411015510559082e+00,1.344318270683288574e+00,1.344225525856018066e+00,1.344132900238037109e+00,1.344040155410766602e+00,1.343947529792785645e+00,1.343854904174804688e+00,1.343762159347534180e+00,1.343669652938842773e+00,1.343577027320861816e+00,1.343484401702880859e+00,1.343391776084899902e+00,1.343299269676208496e+00,1.343206644058227539e+00,1.343114137649536133e+00,1.343021631240844727e+00,1.342929005622863770e+00,1.342836618423461914e+00,1.342743992805480957e+00,1.342651605606079102e+00,1.342559099197387695e+00,1.342466592788696289e+00,1.342374205589294434e+00,1.342281818389892578e+00,1.342189311981201172e+00,1.342096924781799316e+00,1.342004537582397461e+00,1.341912150382995605e+00,1.341819763183593750e+00
1.248819231986999512e+00,1.248739361763000488e+00,1.248659253120422363e+00,1.248579263687133789e+00,1.248499393463134766e+00,1.248419404029846191e+00,1.248339414596557617e+00,1.248259544372558594e+00,1.248179554939270020e+00,1.248099684715270996e+00,1.248019814491271973e+00,1.247939825057983398e+00,1.247860074043273926e+00,1.247780084609985352e+00,1.247700214385986328e+00,1.247620463371276855e+00,1.247540593147277832e+00,1.247460722923278809e+00,1.247380971908569336e+00,1.247301101684570312e+00,1.247221231460571289e+00,1.247141480445861816e+00,1.247061729431152344e+00,1.246981978416442871e+00,1.246902227401733398e+00,1.246822357177734375e+00,1.246742725372314453e+00,1.246662974357604980e+00,1.246583223342895508e+00,1.246503591537475586e+00,1.246423840522766113e+00,1.246344089508056641e+00,1.246264457702636719e+00,1.246184706687927246e+00,1.246105074882507324e+00,1.246025443077087402e+00,1.245945811271667480e+00,1.245866179466247559e+00,1.245786547660827637e+00,1.245706915855407715e+00,1.245627403259277344e+00,1.245547771453857422e+00,1.245468139648437500e+00,1.245388627052307129e+00,1.245309114456176758e+00,1.245229482650756836e+00,1.245149970054626465e+00,1.245070457458496094e+00,1.244990944862365723e+00,1.244911432266235352e+00,1.244831919670104980e+00,1.244752526283264160e+00,1.244673013687133789e+00,1.244593501091003418e+00,1.244514107704162598e+00,1.244434595108032227e+00,1.244355082511901855e+00,1.244275808334350586e+00,1.244196295738220215e+00,1.244116902351379395e+00,1.244037508964538574e+00,1.243958115577697754e+00,1.243878841400146484e+00,1.243799448013305664e+00,1.243720054626464844e+00,1.243640780448913574e+00,1.243561387062072754e+00,1.243481993675231934e+00,1.243402719497680664e+00,1.243323445320129395e+00,1.243244051933288574e+00,1.243164896965026855e+00,1.243085622787475586e+00,1.243006229400634766e+00,1.242927074432373047e+00,1.242847800254821777e+00,1.242768645286560059e+00,1.242689371109008789e+00,1.242610096931457520e+00,1.242530941963195801e+00
1.162373423576354980e+00,1.162304043769836426e+00,1.162234783172607422e+00,1.162165522575378418e+00,1.162096261978149414e+00,1.162027001380920410e+00,1.161957621574401855e+00,1.161888480186462402e+00,1.161819219589233398e+00,1.161749958992004395e+00,1.161680698394775391e+00,1.161611437797546387e+00,1.161542296409606934e+00,1.161473155021667480e+00,1.161403894424438477e+00,1.161334633827209473e+00,1.161265492439270020e+00,1.161196351051330566e+00,1.161127209663391113e+00,1.161058068275451660e+00,1.160988807678222656e+00,1.160919785499572754e+00,1.160850644111633301e+00,1.160781383514404297e+00,1.160712361335754395e+00,1.160643219947814941e+00,1.160574078559875488e+00,1.160505056381225586e+00,1.160435914993286133e+00,1.160366892814636230e+00,1.160297870635986328e+00,1.160228729248046875e+00,1.160159707069396973e+00,1.160090684890747070e+00,1.160021543502807617e+00,1.159952640533447266e+00,1.159883618354797363e+00,1.159814596176147461e+00,1.159745573997497559e+00,1.159676551818847656e+00,1.159607529640197754e+00,1.159538626670837402e+00,1.159469604492187500e+00,1.159400701522827148e+00,1.159331679344177246e+00,1.159262776374816895e+00,1.159193873405456543e+00,1.159124970436096191e+00,1.159055948257446289e+00,1.158987164497375488e+00,1.158918142318725586e+00,1.158849239349365234e+00,1.158780455589294434e+00,1.158711552619934082e+00,1.158642649650573730e+00,1.158573746681213379e+00,1.158504962921142578e+00,1.158436059951782227e+00,1.158367276191711426e+00,1.158298373222351074e+00,1.158229708671569824e+00,1.158160805702209473e+00,1.158092021942138672e+00,1.158023238182067871e+00,1.157954454421997070e+00,1.157885670661926270e+00,1.157816886901855469e+00,1.157748103141784668e+00,1.157679319381713867e+00,1.157610654830932617e+00,1.157541871070861816e+00,1.157473206520080566e+00,1.157404422760009766e+00,1.157335638999938965e+00,1.157266974449157715e+00,1.157198309898376465e+00,1.157129645347595215e+00,1.157060980796813965e+00,1.156992316246032715e+00,1.156923532485961914e+00
1.087120652198791504e+00,1.087059974670410156e+00,1.086999416351318359e+00,1.086938738822937012e+00,1.086878180503845215e+00,1.086817622184753418e+00,1.086756944656372070e+00,1.086696386337280273e+00,1.086635828018188477e+00,1.086575269699096680e+00,1.086514711380004883e+00,1.086454153060913086e+00,1.086393594741821289e+00,1.086333036422729492e+00,1.086272478103637695e+00,1.086211919784545898e+00,1.086151480674743652e+00,1.086090922355651855e+00,1.086030364036560059e+00,1.085969924926757812e+00,1.085909485816955566e+00,1.085848927497863770e+00,1.085788488388061523e+00,1.085728049278259277e+00,1.085667610168457031e+00,1.085607051849365234e+00,1.085546612739562988e+00,1.085486173629760742e+00,1.085425734519958496e+00,1.085365295410156250e+00,1.085304856300354004e+00,1.085244417190551758e+00,1.085183978080749512e+00,1.085123658180236816e+00,1.085063219070434570e+00,1.085002779960632324e+00,1.084942460060119629e+00,1.084882140159606934e+00,1.084821701049804688e+00,1.084761381149291992e+00,1.084700942039489746e+00,1.084640622138977051e+00,1.084580302238464355e+00,1.084519863128662109e+00,1.084459662437438965e+00,1.084399223327636719e+00,1.084338903427124023e+00,1.084278702735900879e+00,1.084218382835388184e+00,1.084158062934875488e+00,1.084097743034362793e+00,1.084037423133850098e+00,1.083977222442626953e+00,1.083916902542114258e+00,1.083856701850891113e+00,1.083796381950378418e+00,1.083736181259155273e+00,1.083675861358642578e+00,1.083615660667419434e+00,1.083555459976196289e+00,1.083495140075683594e+00,1.083435058593750000e+00,1.083374738693237305e+00,1.083314538002014160e+00,1.083254337310791016e+00,1.083194136619567871e+00,1.083134055137634277e+00,1.083073854446411133e+00,1.083013653755187988e+00,1.082953453063964844e+00,1.082893371582031250e+00,1.082833170890808105e+00,1.082773089408874512e+00,1.082712888717651367e+00,1.082652688026428223e+00,1.082592606544494629e+00,1.082532525062561035e+00,1.082472443580627441e+00,1.082412242889404297e+00,1.082352161407470703e+00
1.021019220352172852e+00,1.020965695381164551e+00,1.020912170410156250e+00,1.020858764648437500e+00,1.020805358886718750e+00,1.020751953125000000e+00,1.020698428153991699e+00,1.020645022392272949e+00,1.020591616630554199e+00,1.020538091659545898e+00,1.020484685897827148e+00,1.020431280136108398e+00,1.020377874374389648e+00,1.020324468612670898e+00,1.020271062850952148e+00,1.020217657089233398e+00,1.020164251327514648e+00,1.020110845565795898e+00,1.020057439804077148e+00,1.020004153251647949e+00,1.019950747489929199e+00,1.019897341728210449e+00,1.019844055175781250e+00,1.019790649414062500e+00,1.019737362861633301e+00,1.019684076309204102e+00,1.019630670547485352e+00,1.019577264785766602e+00,1.019523978233337402e+00,1.019470691680908203e+00,1.019417405128479004e+00,1.019364118576049805e+00,1.019310832023620605e+00,1.019257545471191406e+00,1.019204258918762207e+00,1.019150853157043457e+00,1.019097685813903809e+00,1.019044399261474609e+00,1.018991112709045410e+00,1.018937826156616211e+00,1.018884539604187012e+00,1.018831253051757812e+00,1.018778085708618164e+00,1.018724799156188965e+00,1.018671631813049316e+00,1.018618345260620117e+00,1.018565177917480469e+00,1.018512010574340820e+00,1.018458724021911621e+00,1.018405556678771973e+00,1.018352389335632324e+00,1.018299102783203125e+00,1.018245935440063477e+00,1.018192768096923828e+00,1.018139600753784180e+00,1.018086314201354980e+00,1.018033266067504883e+00,1.017980098724365234e+00,1.017926931381225586e+00,1.017873764038085938e+00,1.017820596694946289e+00,1.017767548561096191e+00,1.017714381217956543e+00,1.017661213874816895e+00,1.017608165740966797e+00,1.017554998397827148e+00,1.017501831054687500e+00,1.017448782920837402e+00,1.017395615577697754e+00,1.017342567443847656e+00,1.017289519309997559e+00,1.017236351966857910e+00,1.017183303833007812e+00,1.017130255699157715e+00,1.017077088356018066e+00,1.017024159431457520e+00,1.016970992088317871e+00,1.016917943954467773e+00,1.016865015029907227e+00,1.016811847686767578e+00
9.624955654144287109e-01,9.624480009078979492e-01,9.624004960060119629e-01,9.623529911041259766e-01,9.623054265975952148e-01,9.622579813003540039e-01,9.622105360031127930e-01,9.621629714965820312e-01,9.621155261993408203e-01,9.620680212974548340e-01,9.620205163955688477e-01,9.619730710983276367e-01,9.619256258010864258e-01,9.618781208992004395e-01,9.618306756019592285e-01,9.617832303047180176e-01,9.617357254028320312e-01,9.616883397102355957e-01,9.616408944129943848e-01,9.615933895111083984e-01,9.615460038185119629e-01,9.614986181259155273e-01,9.614511132240295410e-01,9.614037275314331055e-01,9.613563418388366699e-01,9.613088965415954590e-01,9.612615108489990234e-01,9.612141251564025879e-01,9.611667990684509277e-01,9.611193537712097168e-01,9.610719680786132812e-01,9.610246419906616211e-01,9.609771966934204102e-01,9.609298706054687500e-01,9.608825445175170898e-01,9.608350992202758789e-01,9.607877731323242188e-01,9.607404470443725586e-01,9.606930017471313477e-01,9.606457352638244629e-01,9.605984091758728027e-01,9.605510234832763672e-01,9.605036973953247070e-01,9.604564309120178223e-01,9.604090452194213867e-01,9.603617787361145020e-01,9.603145122528076172e-01,9.602671265602111816e-01,9.602198600769042969e-01,9.601725935935974121e-01,9.601252079010009766e-01,9.600779414176940918e-01,9.600307345390319824e-01,9.599834680557250977e-01,9.599361419677734375e-01,9.598888754844665527e-01,9.598416686058044434e-01,9.597943425178527832e-01,9.597471356391906738e-01,9.596998691558837891e-01,9.596526026725769043e-01,9.596053957939147949e-01,9.595581889152526855e-01,9.595108628273010254e-01,9.594636559486389160e-01,9.594165086746215820e-01,9.593691825866699219e-01,9.593220353126525879e-01,9.592748284339904785e-01,9.592275619506835938e-01,9.591804146766662598e-01,9.591332674026489258e-01,9.590860009193420410e-01,9.590388536453247070e-01,9.589917063713073730e-01,9.589444398880004883e-01,9.588972926139831543e-01,9.588501453399658203e-01,9.588029384613037109e-01,9.587557911872863770e-01
9.103171229362487793e-01,9.102746844291687012e-01,9.102321267127990723e-01,9.101896286010742188e-01,9.101471900939941406e-01,9.101046323776245117e-01,9.100621342658996582e-01,9.100196957588195801e-01,9.099771380424499512e-01,9.099346995353698730e-01,9.098922610282897949e-01,9.098497033119201660e-01,9.098073244094848633e-01,9.097648859024047852e-01,9.097223281860351562e-01,9.096799492835998535e-01,9.096375107765197754e-01,9.095950126647949219e-01,9.095525741577148438e-01,9.095101952552795410e-01,9.094677567481994629e-01,9.094252586364746094e-01,9.093828797340393066e-01,9.093405008316040039e-01,9.092980027198791504e-01,9.092556238174438477e-01,9.092132449150085449e-01,9.091708064079284668e-01,9.091284275054931641e-01,9.090860486030578613e-01,9.090436100959777832e-01,9.090012311935424805e-01,9.089589118957519531e-01,9.089164137840270996e-01,9.088740944862365723e-01,9.088317751884460449e-01,9.087893366813659668e-01,9.087470173835754395e-01,9.087046384811401367e-01,9.086622595787048340e-01,9.086198806762695312e-01,9.085776209831237793e-01,9.085351824760437012e-01,9.084928631782531738e-01,9.084505438804626465e-01,9.084081649780273438e-01,9.083658456802368164e-01,9.083235859870910645e-01,9.082812666893005371e-01,9.082388877868652344e-01,9.081966280937194824e-01,9.081543684005737305e-01,9.081119894981384277e-01,9.080697298049926758e-01,9.080274701118469238e-01,9.079850912094116211e-01,9.079428315162658691e-01,9.079005718231201172e-01,9.078581929206848145e-01,9.078159928321838379e-01,9.077737331390380859e-01,9.077313542366027832e-01,9.076891541481018066e-01,9.076468944549560547e-01,9.076045751571655273e-01,9.075623750686645508e-01,9.075201749801635742e-01,9.074778556823730469e-01,9.074356555938720703e-01,9.073933959007263184e-01,9.073511362075805664e-01,9.073089361190795898e-01,9.072667360305786133e-01,9.072245359420776367e-01,9.071822762489318848e-01,9.071400761604309082e-01,9.070978760719299316e-01,9.070556163787841797e-01,9.070134162902832031e-01,9.069712758064270020e-01
8.635051250457763672e-01,8.634669184684753418e-01,8.634287118911743164e-01,8.633903861045837402e-01,8.633521795272827148e-01,8.633139729499816895e-01,8.632757067680358887e-01,8.632375001907348633e-01,8.631992936134338379e-01,8.631610274314880371e-01,8.631228208541870117e-01,8.630846738815307617e-01,8.630463480949401855e-01,8.630082011222839355e-01,8.629700541496276855e-01,8.629318475723266602e-01,8.628935813903808594e-01,8.628554344177246094e-01,8.628172874450683594e-01,8.627790212631225586e-01,8.627408742904663086e-01,8.627027273178100586e-01,8.626644611358642578e-01,8.626263141632080078e-01,8.625881671905517578e-01,8.625499606132507324e-01,8.625118136405944824e-01,8.624736666679382324e-01,8.624354600906372070e-01,8.623973727226257324e-01,8.623592257499694824e-01,8.623210191726684570e-01,8.622828722000122070e-01,8.622447848320007324e-01,8.622065782546997070e-01,8.621684908866882324e-01,8.621304035186767578e-01,8.620921969413757324e-01,8.620541095733642578e-01,8.620160222053527832e-01,8.619778156280517578e-01,8.619397282600402832e-01,8.619016408920288086e-01,8.618636131286621094e-01,8.618254065513610840e-01,8.617873787879943848e-01,8.617492914199829102e-01,8.617111444473266602e-01,8.616730570793151855e-01,8.616350293159484863e-01,8.615968823432922363e-01,8.615587949752807617e-01,8.615207672119140625e-01,8.614826202392578125e-01,8.614445924758911133e-01,8.614065647125244141e-01,8.613684177398681641e-01,8.613303899765014648e-01,8.612923622131347656e-01,8.612542748451232910e-01,8.612162470817565918e-01,8.611782193183898926e-01,8.611401319503784180e-01,8.611021041870117188e-01,8.610640764236450195e-01,8.610259890556335449e-01,8.609880208969116211e-01,8.609499931335449219e-01,8.609120249748229980e-01,8.608739376068115234e-01,8.608359694480895996e-01,8.607980012893676758e-01,8.607599139213562012e-01,8.607219457626342773e-01,8.606839776039123535e-01,8.606458902359008789e-01,8.606079220771789551e-01,8.605699539184570312e-01,8.605319261550903320e-01,8.604939579963684082e-01
8.212722539901733398e-01,8.212376236915588379e-01,8.212030529975891113e-01,8.211684823036193848e-01,8.211338520050048828e-01,8.210992813110351562e-01,8.210647106170654297e-01,8.210300803184509277e-01,8.209955096244812012e-01,8.209609985351562500e-01,8.209264278411865234e-01,8.208917975425720215e-01,8.208572864532470703e-01,8.208227157592773438e-01,8.207881450653076172e-01,8.207535743713378906e-01,8.207190632820129395e-01,8.206844329833984375e-01,8.206499218940734863e-01,8.206154108047485352e-01,8.205808401107788086e-01,8.205462694168090820e-01,8.205118179321289062e-01,8.204771876335144043e-01,8.204426765441894531e-01,8.204081654548645020e-01,8.203735947608947754e-01,8.203391432762145996e-01,8.203046321868896484e-01,8.202700614929199219e-01,8.202355504035949707e-01,8.202010989189147949e-01,8.201665282249450684e-01,8.201320171356201172e-01,8.200975656509399414e-01,8.200630545616149902e-01,8.200285434722900391e-01,8.199940919876098633e-01,8.199595808982849121e-01,8.199250698089599609e-01,8.198906183242797852e-01,8.198561668395996094e-01,8.198215961456298828e-01,8.197871446609497070e-01,8.197526931762695312e-01,8.197181820869445801e-01,8.196837306022644043e-01,8.196492791175842285e-01,8.196147680282592773e-01,8.195803761482238770e-01,8.195459246635437012e-01,8.195114135742187500e-01,8.194769620895385742e-01,8.194425702095031738e-01,8.194080591201782227e-01,8.193736672401428223e-01,8.193392157554626465e-01,8.193047642707824707e-01,8.192703127861022949e-01,8.192359209060668945e-01,8.192014694213867188e-01,8.191670775413513184e-01,8.191326856613159180e-01,8.190982937812805176e-01,8.190637826919555664e-01,8.190293908119201660e-01,8.189949989318847656e-01,8.189605474472045898e-01,8.189261555671691895e-01,8.188918232917785645e-01,8.188573718070983887e-01,8.188229799270629883e-01,8.187886476516723633e-01,8.187541961669921875e-01,8.187198042869567871e-01,8.186854720115661621e-01,8.186510205268859863e-01,8.186166882514953613e-01,8.185822963714599609e-01,8.185479044914245605e-01
7.829778194427490234e-01,7.829464077949523926e-01,7.829148769378662109e-01,7.828834652900695801e-01,7.828520536422729492e-01,7.828206419944763184e-01,7.827891707420349121e-01,7.827577590942382812e-01,7.827263474464416504e-01,7.826948761940002441e-01,7.826634645462036133e-01,7.826320528984069824e-01,7.826005816459655762e-01,7.825692296028137207e-01,7.825378179550170898e-01,7.825063467025756836e-01,7.824749350547790527e-01,7.824435830116271973e-01,7.824121117591857910e-01,7.823807597160339355e-01,7.823493480682373047e-01,7.823179364204406738e-01,7.822865247726440430e-01,7.822551727294921875e-01,7.822237610816955566e-01,7.821923494338989258e-01,7.821609973907470703e-01,7.821295857429504395e-01,7.820982336997985840e-01,7.820668816566467285e-01,7.820355296134948730e-01,7.820041179656982422e-01,7.819727659225463867e-01,7.819414138793945312e-01,7.819100022315979004e-01,7.818786501884460449e-01,7.818472981452941895e-01,7.818158864974975586e-01,7.817845940589904785e-01,7.817532420158386230e-01,7.817218303680419922e-01,7.816905379295349121e-01,7.816591858863830566e-01,7.816278338432312012e-01,7.815964818000793457e-01,7.815651893615722656e-01,7.815337777137756348e-01,7.815024852752685547e-01,7.814711928367614746e-01,7.814398407936096191e-01,7.814084887504577637e-01,7.813771963119506836e-01,7.813458442687988281e-01,7.813145518302917480e-01,7.812832593917846680e-01,7.812519073486328125e-01,7.812206149101257324e-01,7.811893224716186523e-01,7.811580300331115723e-01,7.811266779899597168e-01,7.810954451560974121e-01,7.810641527175903320e-01,7.810328006744384766e-01,7.810015678405761719e-01,7.809702754020690918e-01,7.809389233589172363e-01,7.809076905250549316e-01,7.808763980865478516e-01,7.808451056480407715e-01,7.808138132095336914e-01,7.807825803756713867e-01,7.807512879371643066e-01,7.807199954986572266e-01,7.806887626647949219e-01,7.806574702262878418e-01,7.806262373924255371e-01,7.805950045585632324e-01,7.805637121200561523e-01,7.805324792861938477e-01,7.805012464523315430e-01
7.480955123901367188e-01,7.480667829513549805e-01,7.480380535125732422e-01,7.480093836784362793e-01,7.479806542396545410e-01,7.479519844055175781e-01,7.479233145713806152e-01,7.478945255279541016e-01,7.478658556938171387e-01,7.478371858596801758e-01,7.478084564208984375e-01,7.477797865867614746e-01,7.477511763572692871e-01,7.477224469184875488e-01,7.476937770843505859e-01,7.476651072502136230e-01,7.476363778114318848e-01,7.476077079772949219e-01,7.475790977478027344e-01,7.475503683090209961e-01,7.475217580795288086e-01,7.474930882453918457e-01,7.474643588066101074e-01,7.474357485771179199e-01,7.474070787429809570e-01,7.473784685134887695e-01,7.473497986793518066e-01,7.473211288452148438e-01,7.472925186157226562e-01,7.472638487815856934e-01,7.472351789474487305e-01,7.472065687179565430e-01,7.471778988838195801e-01,7.471492886543273926e-01,7.471206784248352051e-01,7.470920085906982422e-01,7.470633983612060547e-01,7.470347881317138672e-01,7.470061182975769043e-01,7.469775080680847168e-01,7.469488978385925293e-01,7.469202280044555664e-01,7.468916177749633789e-01,7.468630671501159668e-01,7.468343973159790039e-01,7.468057870864868164e-01,7.467771768569946289e-01,7.467485666275024414e-01,7.467199563980102539e-01,7.466914057731628418e-01,7.466627955436706543e-01,7.466341853141784668e-01,7.466055750846862793e-01,7.465770244598388672e-01,7.465483546257019043e-01,7.465198040008544922e-01,7.464912533760070801e-01,7.464625835418701172e-01,7.464340329170227051e-01,7.464054822921752930e-01,7.463768720626831055e-01,7.463483214378356934e-01,7.463197708129882812e-01,7.462911605834960938e-01,7.462626099586486816e-01,7.462340593338012695e-01,7.462054491043090820e-01,7.461768984794616699e-01,7.461483478546142578e-01,7.461197376251220703e-01,7.460912466049194336e-01,7.460626959800720215e-01,7.460340857505798340e-01,7.460055351257324219e-01,7.459770441055297852e-01,7.459484338760375977e-01,7.459199428558349609e-01,7.458913922309875488e-01,7.458629012107849121e-01,7.458342909812927246e-01
