5.000000000000000000e+00,5.000000000000000000e+00,5.000000000000000000e+00,5.000000000000000000e+00,5.000000000000000000e+00,5.000000000000000000e+00,5.000000000000000000e+00,5.000000000000000000e+00,5.000000000000000000e+00,5.000000000000000000e+00,5.000000000000000000e+00,5.000000000000000000e+00,5.000000000000000000e+00,5.000000000000000000e+00,5.000000000000000000e+00,5.000000000000000000e+00,5.000000000000000000e+00,5.000000000000000000e+00,5.000000000000000000e+00,5.000000000000000000e+00,5.000000000000000000e+00,5.000000000000000000e+00,5.000000000000000000e+00,5.000000000000000000e+00,5.000000000000000000e+00,5.000000000000000000e+00,5.000000000000000000e+00,5.000000000000000000e+00,5.000000000000000000e+00,5.000000000000000000e+00,5.000000000000000000e+00,5.000000000000000000e+00,5.000000000000000000e+00,5.000000000000000000e+00,5.000000000000000000e+00,5.000000000000000000e+00,5.000000000000000000e+00,1.791163682937622070e+00,1.796484231948852539e+00,1.739816308021545410e+00,1.683089017868041992e+00,1.656093478202819824e+00,1.652838468551635742e+00,1.649596452713012695e+00,1.659406781196594238e+00,1.799483656883239746e+00,1.799378871917724609e+00,1.817276597023010254e+00,3.664553880691528320e+00,3.554201364517211914e+00,3.450300693511962891e+00,1.875789165496826172e+00,1.802575469017028809e+00,1.811180114746093750e+00,3.089084625244140625e+00,3.010296821594238281e+00,2.935428142547607422e+00,2.864193201065063477e+00,2.796333312988281250e+00,2.731615066528320312e+00,2.669824361801147461e+00,2.610767602920532227e+00,2.554266691207885742e+00,2.500159502029418945e+00,2.448297262191772461e+00,2.398542881011962891e+00,2.350770473480224609e+00,2.304863691329956055e+00,2.260715961456298828e+00,2.218227148056030273e+00,2.177306175231933594e+00,2.137867689132690430e+00,2.099832534790039062e+00,2.063127279281616211e+00,2.027682781219482422e+00,1.993435978889465332e+00,1.960326552391052246e+00,1.928299069404602051e+00,1.897301197052001953e+00,1.867284417152404785e+00
5.000000000000000000e+00,5.000000000000000000e+00,5.000000000000000000e+00,5.000000000000000000e+00,5.000000000000000000e+00,5.000000000000000000e+00,5.000000000000000000e+00,5.000000000000000000e+00,5.000000000000000000e+00,5.000000000000000000e+00,5.000000000000000000e+00,5.000000000000000000e+00,5.000000000000000000e+00,5.000000000000000000e+00,5.000000000000000000e+00,5.000000000000000000e+00,5.000000000000000000e+00,5.000000000000000000e+00,5.000000000000000000e+00,5.000000000000000000e+00,5.000000000000000000e+00,5.000000000000000000e+00,5.000000000000000000e+00,5.000000000000000000e+00,5.000000000000000000e+00,5.000000000000000000e+00,5.000000000000000000e+00,5.000000000000000000e+00,5.000000000000000000e+00,5.000000000000000000e+00,5.000000000000000000e+00,5.000000000000000000e+00,5.000000000000000000e+00,5.000000000000000000e+00,5.000000000000000000e+00,5.000000000000000000e+00,5.000000000000000000e+00,1.784955024719238281e+00,1.794482350349426270e+00,1.746859669685363770e+00,1.682284832000732422e+00,1.648279786109924316e+00,1.643953561782836914e+00,1.640746235847473145e+00,1.640757918357849121e+00,1.693285822868347168e+00,1.798662066459655762e+00,1.821682333946228027e+00,3.664634704589843750e+00,3.554276943206787109e+00,3.450371980667114258e+00,3.352369070053100586e+00,1.780181765556335449e+00,1.789144992828369141e+00,3.089141845703125000e+00,3.010351419448852539e+00,2.935479640960693359e+00,2.864242315292358398e+00,2.796380281448364258e+00,2.731659650802612305e+00,2.669867277145385742e+00,2.610808372497558594e+00,2.554305791854858398e+00,2.500196933746337891e+00,2.448333263397216797e+00,2.398577213287353516e+00,2.350803613662719727e+00,2.304895639419555664e+00,2.260746479034423828e+00,2.218256711959838867e+00,2.177334547042846680e+00,2.137895345687866211e+00,2.099858999252319336e+00,2.063152790069580078e+00,2.027707576751708984e+00,1.993459701538085938e+00,1.960349678993225098e+00,1.928321480751037598e+00,1.897322893142700195e+00,1.867305159568786621e+00
5.000000000000000000e+00,5.000000000000000000e+00,5.000000000000000000e+00,5.000000000000000000e+00,5.000000000000000000e+00,5.000000000000000000e+00,5.000000000000000000e+00,5.000000000000000000e+00,5.000000000000000000e+00,5.000000000000000000e+00,5.000000000000000000e+00,5.000000000000000000e+00,5.000000000000000000e+00,5.000000000000000000e+00,5.000000000000000000e+00,5.000000000000000000e+00,5.000000000000000000e+00,5.000000000000000000e+00,5.000000000000000000e+00,5.000000000000000000e+00,5.000000000000000000e+00,5.000000000000000000e+00,5.000000000000000000e+00,5.000000000000000000e+00,5.000000000000000000e+00,5.000000000000000000e+00,5.000000000000000000e+00,5.000000000000000000e+00,5.000000000000000000e+00,5.000000000000000000e+00,5.000000000000000000e+00,5.000000000000000000e+00,5.000000000000000000e+00,5.000000000000000000e+00,5.000000000000000000e+00,5.000000000000000000e+00,5.000000000000000000e+00,1.794175624847412109e+00,1.797239065170288086e+00,1.755381584167480469e+00,1.688088178634643555e+00,1.649798154830932617e+00,1.636417508125305176e+00,1.631990313529968262e+00,1.628829479217529297e+00,1.672023773193359375e+00,1.797753691673278809e+00,1.821244835853576660e+00,3.664715051651000977e+00,3.554352998733520508e+00,3.450443267822265625e+00,3.352436780929565430e+00,3.259843826293945312e+00,1.747848033905029297e+00,1.756939888000488281e+00,3.010405540466308594e+00,2.935531616210937500e+00,2.864291429519653320e+00,2.796427249908447266e+00,2.731704473495483398e+00,2.669909954071044922e+00,2.610849142074584961e+00,2.554344892501831055e+00,2.500234603881835938e+00,2.448369264602661133e+00,2.398612022399902344e+00,2.350836753845214844e+00,2.304927587509155273e+00,2.260776996612548828e+00,2.218286275863647461e+00,2.177363157272338867e+00,2.137922763824462891e+00,2.099885463714599609e+00,2.063178062438964844e+00,2.027732133865356445e+00,1.993483543395996094e+00,1.960372686386108398e+00,1.928343534469604492e+00,1.897344589233398438e+00,1.867326140403747559e+00
5.000000000000000000e+00,5.000000000000000000e+00,5.000000000000000000e+00,5.000000000000000000e+00,5.000000000000000000e+00,5.000000000000000000e+00,5.000000000000000000e+00,5.000000000000000000e+00,5.000000000000000000e+00,5.000000000000000000e+00,5.000000000000000000e+00,5.000000000000000000e+00,5.000000000000000000e+00,5.000000000000000000e+00,5.000000000000000000e+00,5.000000000000000000e+00,5.000000000000000000e+00,5.000000000000000000e+00,5.000000000000000000e+00,5.000000000000000000e+00,5.000000000000000000e+00,5.000000000000000000e+00,5.000000000000000000e+00,5.000000000000000000e+00,5.000000000000000000e+00,5.000000000000000000e+00,5.000000000000000000e+00,5.000000000000000000e+00,5.000000000000000000e+00,5.000000000000000000e+00,5.000000000000000000e+00,5.000000000000000000e+00,5.000000000000000000e+00,5.000000000000000000e+00,5.000000000000000000e+00,5.000000000000000000e+00,5.000000000000000000e+00,1.787473559379577637e+00,1.791621446609497070e+00,5.000000000000000000e+00,1.699512362480163574e+00,1.655774950981140137e+00,1.629235267639160156e+00,1.624724745750427246e+00,1.620239019393920898e+00,1.650944471359252930e+00,1.801501154899597168e+00,1.832005739212036133e+00,3.664795637130737305e+00,3.554428577423095703e+00,3.450514793395996094e+00,3.352504014968872070e+00,3.259907722473144531e+00,3.172288656234741211e+00,1.811925292015075684e+00,1.734254837036132812e+00,2.935583353042602539e+00,2.864340543746948242e+00,2.796474218368530273e+00,2.731749296188354492e+00,2.669952630996704102e+00,2.610890150070190430e+00,2.554383993148803711e+00,2.500272035598754883e+00,2.448405265808105469e+00,2.398646354675292969e+00,2.350869894027709961e+00,2.304959297180175781e+00,2.260807752609252930e+00,2.218315839767456055e+00,2.177391529083251953e+00,2.137949943542480469e+00,2.099911928176879883e+00,2.063203573226928711e+00,2.027756929397583008e+00,1.993507504463195801e+00,1.960395812988281250e+00,1.928365945816040039e+00,1.897366046905517578e+00,1.867347121238708496e+00
5.000000000000000000e+00,5.000000000000000000e+00,5.000000000000000000e+00,5.000000000000000000e+00,5.000000000000000000e+00,5.000000000000000000e+00,5.000000000000000000e+00,5.000000000000000000e+00,5.000000000000000000e+00,5.000000000000000000e+00,5.000000000000000000e+00,5.000000000000000000e+00,5.000000000000000000e+00,5.000000000000000000e+00,5.000000000000000000e+00,5.000000000000000000e+00,5.000000000000000000e+00,5.000000000000000000e+00,5.000000000000000000e+00,5.000000000000000000e+00,5.000000000000000000e+00,5.000000000000000000e+00,5.000000000000000000e+00,5.000000000000000000e+00,5.000000000000000000e+00,5.000000000000000000e+00,5.000000000000000000e+00,5.000000000000000000e+00,5.000000000000000000e+00,5.000000000000000000e+00,5.000000000000000000e+00,5.000000000000000000e+00,5.000000000000000000e+00,5.000000000000000000e+00,5.000000000000000000e+00,5.000000000000000000e+00,5.000000000000000000e+00,1.770530581474304199e+00,1.768862962722778320e+00,5.000000000000000000e+00,1.715310454368591309e+00,1.661795496940612793e+00,1.622344374656677246e+00,1.615575671195983887e+00,1.610602259635925293e+00,1.630535006523132324e+00,1.807087421417236328e+00,1.845465898513793945e+00,3.664876461029052734e+00,3.554504394531250000e+00,3.450586318969726562e+00,3.352571249008178711e+00,3.259971380233764648e+00,3.172349214553833008e+00,1.831193447113037109e+00,1.767748236656188965e+00,2.935634851455688477e+00,2.864389896392822266e+00,2.796520948410034180e+00,2.731794118881225586e+00,2.669995307922363281e+00,2.610930919647216797e+00,2.554423332214355469e+00,2.500309467315673828e+00,2.448441267013549805e+00,2.398680925369262695e+00,2.350903034210205078e+00,2.304991245269775391e+00,2.260838508605957031e+00,2.218345403671264648e+00,2.177419900894165039e+00,2.137977600097656250e+00,2.099938392639160156e+00,2.063229322433471680e+00,2.027781486511230469e+00,1.993531227111816406e+00,1.960418701171875000e+00,1.928388357162475586e+00,1.897387623786926270e+00,1.867367982864379883e+00
5.000000000000000000e+00,5.000000000000000000e+00,5.000000000000000000e+00,5.000000000000000000e+00,5.000000000000000000e+00,5.000000000000000000e+00,5.000000000000000000e+00,5.000000000000000000e+00,5.000000000000000000e+00,5.000000000000000000e+00,5.000000000000000000e+00,5.000000000000000000e+00,5.000000000000000000e+00,5.000000000000000000e+00,5.000000000000000000e+00,5.000000000000000000e+00,5.000000000000000000e+00,5.000000000000000000e+00,5.000000000000000000e+00,5.000000000000000000e+00,5.000000000000000000e+00,5.000000000000000000e+00,5.000000000000000000e+00,5.000000000000000000e+00,5.000000000000000000e+00,5.000000000000000000e+00,5.000000000000000000e+00,5.000000000000000000e+00,5.000000000000000000e+00,5.000000000000000000e+00,5.000000000000000000e+00,5.000000000000000000e+00,5.000000000000000000e+00,5.000000000000000000e+00,5.000000000000000000e+00,5.000000000000000000e+00,1.824337363243103027e+00,1.760961890220642090e+00,5.000000000000000000e+00,5.000000000000000000e+00,1.729376316070556641e+00,1.668387174606323242e+00,1.629463672637939453e+00,1.605305075645446777e+00,1.599800348281860352e+00,1.610911965370178223e+00,1.815529704093933105e+00,1.861599445343017578e+00,3.664956808090209961e+00,3.554580450057983398e+00,3.450657606124877930e+00,3.352638959884643555e+00,3.260035037994384766e+00,3.172409534454345703e+00,3.089370727539062500e+00,3.010568618774414062e+00,2.935686826705932617e+00,2.864439010620117188e+00,2.796568155288696289e+00,2.731838703155517578e+00,2.670038223266601562e+00,2.610971927642822266e+00,2.554462432861328125e+00,2.500346899032592773e+00,2.448477268218994141e+00,2.398715496063232422e+00,2.350936174392700195e+00,2.305023193359375000e+00,2.260869026184082031e+00,2.218374967575073242e+00,2.177448511123657227e+00,2.138005018234252930e+00,2.099964857101440430e+00,2.063254833221435547e+00,2.027806282043457031e+00,1.993555188179016113e+00,1.960441827774047852e+00,1.928410530090332031e+00,1.897409319877624512e+00,1.867388963699340820e+00
5.000000000000000000e+00,5.000000000000000000e+00,5.000000000000000000e+00,5.000000000000000000e+00,5.000000000000000000e+00,5.000000000000000000e+00,5.000000000000000000e+00,5.000000000000000000e+00,5.000000000000000000e+00,5.000000000000000000e+00,5.000000000000000000e+00,5.000000000000000000e+00,5.000000000000000000e+00,5.000000000000000000e+00,5.000000000000000000e+00,5.000000000000000000e+00,5.000000000000000000e+00,5.000000000000000000e+00,5.000000000000000000e+00,5.000000000000000000e+00,5.000000000000000000e+00,5.000000000000000000e+00,5.000000000000000000e+00,5.000000000000000000e+00,5.000000000000000000e+00,5.000000000000000000e+00,5.000000000000000000e+00,5.000000000000000000e+00,5.000000000000000000e+00,5.000000000000000000e+00,5.000000000000000000e+00,5.000000000000000000e+00,5.000000000000000000e+00,5.000000000000000000e+00,5.000000000000000000e+00,5.000000000000000000e+00,1.831374645233154297e+00,1.752204537391662598e+00,5.000000000000000000e+00,5.000000000000000000e+00,4.876450061798095703e+00,1.683514595031738281e+00,1.636262893676757812e+00,1.600971937179565430e+00,1.589142322540283203e+00,1.591755747795104980e+00,1.627633690834045410e+00,1.882575511932373047e+00,3.665037393569946289e+00,3.554656028747558594e+00,3.450728893280029297e+00,3.352706432342529297e+00,3.260098934173583984e+00,3.172469854354858398e+00,3.089428186416625977e+00,3.010622978210449219e+00,2.935738325119018555e+00,2.864488363265991211e+00,2.796614885330200195e+00,2.731883525848388672e+00,2.670080900192260742e+00,2.611012935638427734e+00,2.554501533508300781e+00,2.500384569168090820e+00,2.448513031005859375e+00,2.398750066757202148e+00,2.350969314575195312e+00,2.305054903030395508e+00,2.260899782180786133e+00,2.218404293060302734e+00,2.177476882934570312e+00,2.138032197952270508e+00,2.099991321563720703e+00,2.063280344009399414e+00,2.027830839157104492e+00,1.993579030036926270e+00,1.960464954376220703e+00,1.928432941436767578e+00,1.897430777549743652e+00,1.867409944534301758e+00
5.000000000000000000e+00,5.000000000000000000e+00,5.000000000000000000e+00,5.000000000000000000e+00,5.000000000000000000e+00,5.000000000000000000e+00,5.000000000000000000e+00,5.000000000000000000e+00,5.000000000000000000e+00,5.000000000000000000e+00,5.000000000000000000e+00,5.000000000000000000e+00,5.000000000000000000e+00,5.000000000000000000e+00,5.000000000000000000e+00,5.000000000000000000e+00,5.000000000000000000e+00,5.000000000000000000e+00,5.000000000000000000e+00,5.000000000000000000e+00,5.000000000000000000e+00,5.000000000000000000e+00,5.000000000000000000e+00,5.000000000000000000e+00,5.000000000000000000e+00,5.000000000000000000e+00,5.000000000000000000e+00,5.000000000000000000e+00,5.000000000000000000e+00,5.000000000000000000e+00,5.000000000000000000e+00,5.000000000000000000e+00,5.000000000000000000e+00,5.000000000000000000e+00,5.000000000000000000e+00,5.000000000000000000e+00,1.828929305076599121e+00,1.744498491287231445e+00,5.000000000000000000e+00,5.000000000000000000e+00,4.876593112945556641e+00,1.696169137954711914e+00,1.643119096755981445e+00,1.602761983871459961e+00,1.584694027900695801e+00,1.573876738548278809e+00,1.605810046195983887e+00,3.782579660415649414e+00,3.665118217468261719e+00,3.554731845855712891e+00,3.450800657272338867e+00,3.352773666381835938e+00,3.260162591934204102e+00,3.172529935836791992e+00,3.089485406875610352e+00,3.010677576065063477e+00,2.935790061950683594e+00,2.864537715911865234e+00,2.796661615371704102e+00,2.731928348541259766e+00,2.670123577117919922e+00,2.611053705215454102e+00,2.554540872573852539e+00,2.500422000885009766e+00,2.448549270629882812e+00,2.398784399032592773e+00,2.351002454757690430e+00,2.305086851119995117e+00,2.260930538177490234e+00,2.218433856964111328e+00,2.177505254745483398e+00,2.138059854507446289e+00,2.100017786026000977e+00,2.063305854797363281e+00,2.027855396270751953e+00,1.993602752685546875e+00,1.960487842559814453e+00,1.928455233573913574e+00,1.897452473640441895e+00,1.867430686950683594e+00
5.000000000000000000e+00,5.000000000000000000e+00,5.000000000000000000e+00,5.000000000000000000e+00,5.000000000000000000e+00,5.000000000000000000e+00,5.000000000000000000e+00,5.000000000000000000e+00,5.000000000000000000e+00,5.000000000000000000e+00,5.000000000000000000e+00,5.000000000000000000e+00,5.000000000000000000e+00,5.000000000000000000e+00,5.000000000000000000e+00,5.000000000000000000e+00,5.000000000000000000e+00,5.000000000000000000e+00,5.000000000000000000e+00,5.000000000000000000e+00,5.000000000000000000e+00,5.000000000000000000e+00,5.000000000000000000e+00,5.000000000000000000e+00,5.000000000000000000e+00,5.000000000000000000e+00,5.000000000000000000e+00,5.000000000000000000e+00,5.000000000000000000e+00,5.000000000000000000e+00,5.000000000000000000e+00,5.000000000000000000e+00,5.000000000000000000e+00,5.000000000000000000e+00,5.000000000000000000e+00,5.000000000000000000e+00,1.793021798133850098e+00,5.000000000000000000e+00,5.000000000000000000e+00,5.000000000000000000e+00,4.876735210418701172e+00,4.683229923248291016e+00,1.656075835227966309e+00,1.610438346862792969e+00,1.580288887023925781e+00,1.567696690559387207e+00,1.589887499809265137e+00,3.782665491104125977e+00,3.665198564529418945e+00,3.554807901382446289e+00,3.450871944427490234e+00,3.352841377258300781e+00,3.260226249694824219e+00,3.172590732574462891e+00,3.089542627334594727e+00,3.010731935501098633e+00,2.935841560363769531e+00,2.864586830139160156e+00,2.796708822250366211e+00,2.731972932815551758e+00,2.670166492462158203e+00,2.611094474792480469e+00,2.554579973220825195e+00,2.500459432601928711e+00,2.448585033416748047e+00,2.398818969726562500e+00,2.351035594940185547e+00,2.305118799209594727e+00,2.260961055755615234e+00,2.218463420867919922e+00,2.177533864974975586e+00,2.138087272644042969e+00,2.100044250488281250e+00,2.063331365585327148e+00,2.027880191802978516e+00,1.993626713752746582e+00,1.960510969161987305e+00,1.928477406501770020e+00,1.897474169731140137e+00,1.867451667785644531e+00
5.000000000000000000e+00,5.000000000000000000e+00,5.000000000000000000e+00,5.000000000000000000e+00,5.000000000000000000e+00,5.000000000000000000e+00,5.000000000000000000e+00,5.000000000000000000e+00,5.000000000000000000e+00,5.000000000000000000e+00,5.000000000000000000e+00,5.000000000000000000e+00,5.000000000000000000e+00,5.000000000000000000e+00,5.000000000000000000e+00,5.000000000000000000e+00,5.000000000000000000e+00,5.000000000000000000e+00,5.000000000000000000e+00,5.000000000000000000e+00,5.000000000000000000e+00,5.000000000000000000e+00,5.000000000000000000e+00,5.000000000000000000e+00,5.000000000000000000e+00,5.000000000000000000e+00,5.000000000000000000e+00,5.000000000000000000e+00,5.000000000000000000e+00,5.000000000000000000e+00,5.000000000000000000e+00,5.000000000000000000e+00,5.000000000000000000e+00,5.000000000000000000e+00,5.000000000000000000e+00,5.000000000000000000e+00,5.000000000000000000e+00,5.000000000000000000e+00,5.000000000000000000e+00,5.000000000000000000e+00,4.876878261566162109e+00,4.683361053466796875e+00,1.664043188095092773e+00,1.618635177612304688e+00,1.581506848335266113e+00,1.566797256469726562e+00,1.583565235137939453e+00,3.782751560211181641e+00,3.665279150009155273e+00,3.554883480072021484e+00,3.450943231582641602e+00,3.352908611297607422e+00,3.260290384292602539e+00,3.172650814056396484e+00,3.089600086212158203e+00,3.010786294937133789e+00,2.935893535614013672e+00,2.864635944366455078e+00,2.796755790710449219e+00,2.732017755508422852e+00,2.670209407806396484e+00,2.611135721206665039e+00,2.554619073867797852e+00,2.500497102737426758e+00,2.448621034622192383e+00,2.398853540420532227e+00,2.351068735122680664e+00,2.305150747299194336e+00,2.260991811752319336e+00,2.218492984771728516e+00,2.177562236785888672e+00,2.138114690780639648e+00,2.100070714950561523e+00,2.063356876373291016e+00,2.027904987335205078e+00,1.993650317192077637e+00,1.960534095764160156e+00,1.928499817848205566e+00,1.897495627403259277e+00,1.867472648620605469e+00
5.000000000000000000e+00,5.000000000000000000e+00,5.000000000000000000e+00,5.000000000000000000e+00,5.000000000000000000e+00,5.000000000000000000e+00,5.000000000000000000e+00,5.000000000000000000e+00,5.000000000000000000e+00,5.000000000000000000e+00,5.000000000000000000e+00,5.000000000000000000e+00,5.000000000000000000e+00,5.000000000000000000e+00,5.000000000000000000e+00,5.000000000000000000e+00,5.000000000000000000e+00,5.000000000000000000e+00,5.000000000000000000e+00,5.000000000000000000e+00,5.000000000000000000e+00,5.000000000000000000e+00,5.000000000000000000e+00,5.000000000000000000e+00,5.000000000000000000e+00,5.000000000000000000e+00,5.000000000000000000e+00,5.000000000000000000e+00,5.000000000000000000e+00,5.000000000000000000e+00,5.000000000000000000e+00,5.000000000000000000e+00,5.000000000000000000e+00,5.000000000000000000e+00,5.000000000000000000e+00,5.000000000000000000e+00,5.000000000000000000e+00,5.000000000000000000e+00,5.000000000000000000e+00,5.000000000000000000e+00,4.877021312713623047e+00,4.683492660522460938e+00,1.899138569831848145e+00,1.621579885482788086e+00,1.586943507194519043e+00,1.571480751037597656e+00,1.590594172477722168e+00,3.782837152481079102e+00,3.665359973907470703e+00,3.554959297180175781e+00,3.451014995574951172e+00,3.352976083755493164e+00,3.260354042053222656e+00,3.172711133956909180e+00,3.089657306671142578e+00,3.010840654373168945e+00,2.935945272445678711e+00,2.864685297012329102e+00,2.796802520751953125e+00,2.732062578201293945e+00,2.670252084732055664e+00,2.611176490783691406e+00,2.554658174514770508e+00,2.500534534454345703e+00,2.448657035827636719e+00,2.398888111114501953e+00,2.351102113723754883e+00,2.305182456970214844e+00,2.261022567749023438e+00,2.218522310256958008e+00,2.177590608596801758e+00,2.138142108917236328e+00,2.100097179412841797e+00,2.063382625579833984e+00,2.027929544448852539e+00,1.993674278259277344e+00,1.960557103157043457e+00,1.928522229194641113e+00,1.897517323493957520e+00,1.867493510246276855e+00
5.000000000000000000e+00,5.000000000000000000e+00,5.000000000000000000e+00,5.000000000000000000e+00,5.000000000000000000e+00,5.000000000000000000e+00,5.000000000000000000e+00,5.000000000000000000e+00,5.000000000000000000e+00,5.000000000000000000e+00,5.000000000000000000e+00,5.000000000000000000e+00,5.000000000000000000e+00,5.000000000000000000e+00,5.000000000000000000e+00,5.000000000000000000e+00,5.000000000000000000e+00,5.000000000000000000e+00,5.000000000000000000e+00,5.000000000000000000e+00,5.000000000000000000e+00,5.000000000000000000e+00,5.000000000000000000e+00,5.000000000000000000e+00,5.000000000000000000e+00,5.000000000000000000e+00,5.000000000000000000e+00,5.000000000000000000e+00,5.000000000000000000e+00,5.000000000000000000e+00,5.000000000000000000e+00,5.000000000000000000e+00,5.000000000000000000e+00,5.000000000000000000e+00,5.000000000000000000e+00,5.000000000000000000e+00,5.000000000000000000e+00,5.000000000000000000e+00,5.000000000000000000e+00,5.000000000000000000e+00,4.877163410186767578e+00,4.683624267578125000e+00,1.901801705360412598e+00,1.617557525634765625e+00,1.594272732734680176e+00,1.581019520759582520e+00,1.601097106933593750e+00,3.782922983169555664e+00,3.665440559387207031e+00,3.555034875869750977e+00,3.451086282730102539e+00,3.353043794631958008e+00,3.260417699813842773e+00,3.172771930694580078e+00,3.089714527130126953e+00,3.010895013809204102e+00,2.935996770858764648e+00,2.864734649658203125e+00,2.796849727630615234e+00,2.732107400894165039e+00,2.670295000076293945e+00,2.611217260360717773e+00,2.554697275161743164e+00,2.500571966171264648e+00,2.448693037033081055e+00,2.398922443389892578e+00,2.351135253906250000e+00,2.305214405059814453e+00,2.261053085327148438e+00,2.218552112579345703e+00,2.177619218826293945e+00,2.138169527053833008e+00,2.100123643875122070e+00,2.063408136367797852e+00,2.027954339981079102e+00,1.993698239326477051e+00,1.960580229759216309e+00,1.928544402122497559e+00,1.897538900375366211e+00,1.867514491081237793e+00
5.000000000000000000e+00,5.000000000000000000e+00,5.000000000000000000e+00,5.000000000000000000e+00,5.000000000000000000e+00,5.000000000000000000e+00,5.000000000000000000e+00,5.000000000000000000e+00,5.000000000000000000e+00,5.000000000000000000e+00,5.000000000000000000e+00,5.000000000000000000e+00,5.000000000000000000e+00,5.000000000000000000e+00,5.000000000000000000e+00,5.000000000000000000e+00,5.000000000000000000e+00,5.000000000000000000e+00,5.000000000000000000e+00,5.000000000000000000e+00,5.000000000000000000e+00,5.000000000000000000e+00,5.000000000000000000e+00,5.000000000000000000e+00,5.000000000000000000e+00,5.000000000000000000e+00,5.000000000000000000e+00,5.000000000000000000e+00,5.000000000000000000e+00,5.000000000000000000e+00,5.000000000000000000e+00,5.000000000000000000e+00,5.000000000000000000e+00,5.000000000000000000e+00,5.000000000000000000e+00,5.000000000000000000e+00,5.000000000000000000e+00,5.000000000000000000e+00,5.000000000000000000e+00,5.000000000000000000e+00,4.877306461334228516e+00,4.683755874633789062e+00,1.677734494209289551e+00,1.616396188735961914e+00,1.600311279296875000e+00,1.590674638748168945e+00,1.618528008460998535e+00,3.783009052276611328e+00,3.665520906448364258e+00,3.555110931396484375e+00,3.451157569885253906e+00,3.353111028671264648e+00,3.260481357574462891e+00,3.172832012176513672e+00,3.089771986007690430e+00,3.010949373245239258e+00,2.936048746109008789e+00,2.864783763885498047e+00,2.796896457672119141e+00,2.732152223587036133e+00,2.670337677001953125e+00,2.611258268356323242e+00,2.554736375808715820e+00,2.500609636306762695e+00,2.448728799819946289e+00,2.398957014083862305e+00,2.351168155670166016e+00,2.305246353149414062e+00,2.261083841323852539e+00,2.218581438064575195e+00,2.177647590637207031e+00,2.138196945190429688e+00,2.100150108337402344e+00,2.063433647155761719e+00,2.027978897094726562e+00,1.993721961975097656e+00,1.960603356361389160e+00,1.928566813468933105e+00,1.897560477256774902e+00,1.867535471916198730e+00
5.000000000000000000e+00,5.000000000000000000e+00,5.000000000000000000e+00,5.000000000000000000e+00,5.000000000000000000e+00,5.000000000000000000e+00,5.000000000000000000e+00,5.000000000000000000e+00,5.000000000000000000e+00,5.000000000000000000e+00,5.000000000000000000e+00,5.000000000000000000e+00,5.000000000000000000e+00,5.000000000000000000e+00,5.000000000000000000e+00,5.000000000000000000e+00,5.000000000000000000e+00,5.000000000000000000e+00,5.000000000000000000e+00,5.000000000000000000e+00,5.000000000000000000e+00,5.000000000000000000e+00,5.000000000000000000e+00,5.000000000000000000e+00,5.000000000000000000e+00,5.000000000000000000e+00,5.000000000000000000e+00,5.000000000000000000e+00,5.000000000000000000e+00,5.000000000000000000e+00,5.000000000000000000e+00,5.000000000000000000e+00,5.000000000000000000e+00,5.000000000000000000e+00,5.000000000000000000e+00,5.000000000000000000e+00,5.000000000000000000e+00,5.000000000000000000e+00,5.000000000000000000e+00,5.000000000000000000e+00,4.877449512481689453e+00,1.982733964920043945e+00,1.667386531829833984e+00,1.620824337005615234e+00,1.606395602226257324e+00,1.600448727607727051e+00,1.642005681991577148e+00,3.783094882965087891e+00,3.665601730346679688e+00,3.555186748504638672e+00,3.451229333877563477e+00,3.353178501129150391e+00,3.260545253753662109e+00,3.172892332077026367e+00,3.089829206466674805e+00,3.011003732681274414e+00,2.936100244522094727e+00,2.864833116531372070e+00,2.796943426132202148e+00,2.732197046279907227e+00,2.670380353927612305e+00,2.611299276351928711e+00,2.554775476455688477e+00,2.500647068023681641e+00,2.448765039443969727e+00,2.398991584777832031e+00,2.351201534271240234e+00,2.305278062820434570e+00,2.261114597320556641e+00,2.218611001968383789e+00,2.177675962448120117e+00,2.138224363327026367e+00,2.100176572799682617e+00,2.063459157943725586e+00,2.028003454208374023e+00,1.993745803833007812e+00,1.960626244544982910e+00,1.928589224815368652e+00,1.897582054138183594e+00,1.867556214332580566e+00
5.000000000000000000e+00,5.000000000000000000e+00,5.000000000000000000e+00,5.000000000000000000e+00,5.000000000000000000e+00,5.000000000000000000e+00,5.000000000000000000e+00,5.000000000000000000e+00,5.000000000000000000e+00,5.000000000000000000e+00,5.000000000000000000e+00,5.000000000000000000e+00,5.000000000000000000e+00,5.000000000000000000e+00,5.000000000000000000e+00,5.000000000000000000e+00,5.000000000000000000e+00,5.000000000000000000e+00,5.000000000000000000e+00,5.000000000000000000e+00,5.000000000000000000e+00,5.000000000000000000e+00,5.000000000000000000e+00,5.000000000000000000e+00,5.000000000000000000e+00,5.000000000000000000e+00,5.000000000000000000e+00,5.000000000000000000e+00,5.000000000000000000e+00,5.000000000000000000e+00,5.000000000000000000e+00,5.000000000000000000e+00,5.000000000000000000e+00,5.000000000000000000e+00,5.000000000000000000e+00,5.000000000000000000e+00,5.000000000000000000e+00,5.000000000000000000e+00,5.000000000000000000e+00,5.000000000000000000e+00,4.877591609954833984e+00,1.999509215354919434e+00,1.657165408134460449e+00,1.625256657600402832e+00,1.611219882965087891e+00,1.606189846992492676e+00,1.651252031326293945e+00,3.783180475234985352e+00,3.665682315826416016e+00,3.555262565612792969e+00,3.451300621032714844e+00,3.353246212005615234e+00,3.260609149932861328e+00,3.172953128814697266e+00,3.089886188507080078e+00,3.011058330535888672e+00,2.936151981353759766e+00,2.864882230758666992e+00,2.796990156173706055e+00,2.732241868972778320e+00,2.670423269271850586e+00,2.611340045928955078e+00,2.554814815521240234e+00,2.500684738159179688e+00,2.448801040649414062e+00,2.399026155471801758e+00,2.351234674453735352e+00,2.305310010910034180e+00,2.261145114898681641e+00,2.218640565872192383e+00,2.177704572677612305e+00,2.138251781463623047e+00,2.100203037261962891e+00,2.063484668731689453e+00,2.028028249740600586e+00,1.993769764900207520e+00,1.960649371147155762e+00,1.928611397743225098e+00,1.897603750228881836e+00,1.867577314376831055e+00
5.000000000000000000e+00,5.000000000000000000e+00,5.000000000000000000e+00,5.000000000000000000e+00,5.000000000000000000e+00,5.000000000000000000e+00,5.000000000000000000e+00,5.000000000000000000e+00,5.000000000000000000e+00,5.000000000000000000e+00,5.000000000000000000e+00,5.000000000000000000e+00,5.000000000000000000e+00,5.000000000000000000e+00,5.000000000000000000e+00,5.000000000000000000e+00,5.000000000000000000e+00,5.000000000000000000e+00,5.000000000000000000e+00,5.000000000000000000e+00,5.000000000000000000e+00,5.000000000000000000e+00,5.000000000000000000e+00,5.000000000000000000e+00,5.000000000000000000e+00,5.000000000000000000e+00,5.000000000000000000e+00,5.000000000000000000e+00,5.000000000000000000e+00,5.000000000000000000e+00,5.000000000000000000e+00,5.000000000000000000e+00,5.000000000000000000e+00,5.000000000000000000e+00,5.000000000000000000e+00,5.000000000000000000e+00,5.000000000000000000e+00,5.000000000000000000e+00,5.000000000000000000e+00,5.000000000000000000e+00,2.081689119338989258e+00,2.008306503295898438e+00,1.682782292366027832e+00,1.628974556922912598e+00,1.610885739326477051e+00,1.605857849121093750e+00,1.646775841712951660e+00,3.783266782760620117e+00,3.665762901306152344e+00,3.555338621139526367e+00,3.451371908187866211e+00,3.353313446044921875e+00,3.260672807693481445e+00,3.173013448715209961e+00,3.089943885803222656e+00,3.011112451553344727e+00,2.936203956604003906e+00,2.864931344985961914e+00,2.797037363052368164e+00,2.732286453247070312e+00,2.670465946197509766e+00,2.611380815505981445e+00,2.554853916168212891e+00,2.500722169876098633e+00,2.448836803436279297e+00,2.399060726165771484e+00,2.351267814636230469e+00,2.305341958999633789e+00,2.261175870895385742e+00,2.218670129776000977e+00,2.177732944488525391e+00,2.138279199600219727e+00,2.100229501724243164e+00,2.063510179519653320e+00,2.028053045272827148e+00,1.993793487548828125e+00,1.960672497749328613e+00,1.928633809089660645e+00,1.897625207901000977e+00,1.867598295211791992e+00
5.000000000000000000e+00,5.000000000000000000e+00,5.000000000000000000e+00,5.000000000000000000e+00,5.000000000000000000e+00,5.000000000000000000e+00,5.000000000000000000e+00,5.000000000000000000e+00,5.000000000000000000e+00,5.000000000000000000e+00,5.000000000000000000e+00,5.000000000000000000e+00,5.000000000000000000e+00,5.000000000000000000e+00,5.000000000000000000e+00,5.000000000000000000e+00,5.000000000000000000e+00,5.000000000000000000e+00,5.000000000000000000e+00,5.000000000000000000e+00,5.000000000000000000e+00,5.000000000000000000e+00,5.000000000000000000e+00,5.000000000000000000e+00,5.000000000000000000e+00,5.000000000000000000e+00,5.000000000000000000e+00,5.000000000000000000e+00,5.000000000000000000e+00,5.000000000000000000e+00,5.000000000000000000e+00,5.000000000000000000e+00,5.000000000000000000e+00,5.000000000000000000e+00,5.000000000000000000e+00,5.000000000000000000e+00,5.000000000000000000e+00,5.000000000000000000e+00,5.000000000000000000e+00,5.000000000000000000e+00,2.061208724975585938e+00,2.025341749191284180e+00,2.016673564910888672e+00,1.632709383964538574e+00,1.612322092056274414e+00,1.605525970458984375e+00,1.642324090003967285e+00,3.783352613449096680e+00,3.665843248367309570e+00,3.555414199829101562e+00,3.451443672180175781e+00,3.353380918502807617e+00,3.260736703872680664e+00,3.173073768615722656e+00,3.090000867843627930e+00,3.011166810989379883e+00,2.936255455017089844e+00,2.864980936050415039e+00,2.797084093093872070e+00,2.732331514358520508e+00,2.670508861541748047e+00,2.611422061920166016e+00,2.554893016815185547e+00,2.500759840011596680e+00,2.448872804641723633e+00,2.399095296859741211e+00,2.351300954818725586e+00,2.305373907089233398e+00,2.261206626892089844e+00,2.218699693679809570e+00,2.177761554718017578e+00,2.138306617736816406e+00,2.100255966186523438e+00,2.063535928726196289e+00,2.028077602386474609e+00,1.993817448616027832e+00,1.960695385932922363e+00,1.928656101226806641e+00,1.897646903991699219e+00,1.867619037628173828e+00
5.000000000000000000e+00,5.000000000000000000e+00,5.000000000000000000e+00,5.000000000000000000e+00,5.000000000000000000e+00,5.000000000000000000e+00,5.000000000000000000e+00,5.000000000000000000e+00,5.000000000000000000e+00,5.000000000000000000e+00,5.000000000000000000e+00,5.000000000000000000e+00,5.000000000000000000e+00,5.000000000000000000e+00,5.000000000000000000e+00,5.000000000000000000e+00,5.000000000000000000e+00,5.000000000000000000e+00,5.000000000000000000e+00,5.000000000000000000e+00,5.000000000000000000e+00,5.000000000000000000e+00,5.000000000000000000e+00,5.000000000000000000e+00,5.000000000000000000e+00,5.000000000000000000e+00,5.000000000000000000e+00,5.000000000000000000e+00,5.000000000000000000e+00,5.000000000000000000e+00,5.000000000000000000e+00,5.000000000000000000e+00,5.000000000000000000e+00,5.000000000000000000e+00,5.000000000000000000e+00,5.000000000000000000e+00,5.000000000000000000e+00,5.000000000000000000e+00,5.000000000000000000e+00,5.000000000000000000e+00,2.070434331893920898e+00,2.048107385635375977e+00,2.039541482925415039e+00,1.636461496353149414e+00,1.614631175994873047e+00,1.605194211006164551e+00,1.637896180152893066e+00,3.783438205718994141e+00,3.665924310684204102e+00,3.555490016937255859e+00,3.451514959335327148e+00,3.353448152542114258e+00,3.260800361633300781e+00,3.173134326934814453e+00,3.090058088302612305e+00,3.011221408843994141e+00,2.936307191848754883e+00,2.865030050277709961e+00,2.797131061553955078e+00,2.732376098632812500e+00,2.670551776885986328e+00,2.611462831497192383e+00,2.554932355880737305e+00,2.500797271728515625e+00,2.448908805847167969e+00,2.399129629135131836e+00,2.351334095001220703e+00,2.305405616760253906e+00,2.261237144470214844e+00,2.218729257583618164e+00,2.177789926528930664e+00,2.138334035873413086e+00,2.100282430648803711e+00,2.063561439514160156e+00,2.028102159500122070e+00,1.993841290473937988e+00,1.960718631744384766e+00,1.928678274154663086e+00,1.897668600082397461e+00,1.867640018463134766e+00
5.000000000000000000e+00,5.000000000000000000e+00,5.000000000000000000e+00,5.000000000000000000e+00,5.000000000000000000e+00,5.000000000000000000e+00,5.000000000000000000e+00,5.000000000000000000e+00,5.000000000000000000e+00,5.000000000000000000e+00,5.000000000000000000e+00,5.000000000000000000e+00,5.000000000000000000e+00,5.000000000000000000e+00,5.000000000000000000e+00,5.000000000000000000e+00,5.000000000000000000e+00,5.000000000000000000e+00,5.000000000000000000e+00,5.000000000000000000e+00,5.000000000000000000e+00,5.000000000000000000e+00,5.000000000000000000e+00,5.000000000000000000e+00,5.000000000000000000e+00,5.000000000000000000e+00,5.000000000000000000e+00,5.000000000000000000e+00,5.000000000000000000e+00,5.000000000000000000e+00,5.000000000000000000e+00,5.000000000000000000e+00,5.000000000000000000e+00,5.000000000000000000e+00,5.000000000000000000e+00,5.000000000000000000e+00,5.000000000000000000e+00,5.000000000000000000e+00,5.000000000000000000e+00,5.000000000000000000e+00,2.082805395126342773e+00,2.071474790573120117e+00,4.505708694458007812e+00,1.640358567237854004e+00,1.618427634239196777e+00,1.605758547782897949e+00,1.633492231369018555e+00,3.783524513244628906e+00,3.666004657745361328e+00,3.555566072463989258e+00,3.451586484909057617e+00,3.353515863418579102e+00,3.260864019393920898e+00,3.173194646835327148e+00,3.090115308761596680e+00,3.011275768280029297e+00,2.936359167098999023e+00,2.865079164505004883e+00,2.797178030014038086e+00,2.732420921325683594e+00,2.670594453811645508e+00,2.611503601074218750e+00,2.554971456527709961e+00,2.500834941864013672e+00,2.448944807052612305e+00,2.399164438247680664e+00,2.351367235183715820e+00,2.305437564849853516e+00,2.261267900466918945e+00,2.218758821487426758e+00,2.177818298339843750e+00,2.138361454010009766e+00,2.100308895111083984e+00,2.063586950302124023e+00,2.028126955032348633e+00,1.993865013122558594e+00,1.960741758346557617e+00,1.928700685501098633e+00,1.897690057754516602e+00,1.867660999298095703e+00
5.000000000000000000e+00,5.000000000000000000e+00,5.000000000000000000e+00,5.000000000000000000e+00,5.000000000000000000e+00,5.000000000000000000e+00,5.000000000000000000e+00,5.000000000000000000e+00,5.000000000000000000e+00,5.000000000000000000e+00,5.000000000000000000e+00,5.000000000000000000e+00,5.000000000000000000e+00,5.000000000000000000e+00,5.000000000000000000e+00,5.000000000000000000e+00,5.000000000000000000e+00,5.000000000000000000e+00,5.000000000000000000e+00,5.000000000000000000e+00,5.000000000000000000e+00,5.000000000000000000e+00,5.000000000000000000e+00,5.000000000000000000e+00,5.000000000000000000e+00,5.000000000000000000e+00,5.000000000000000000e+00,5.000000000000000000e+00,5.000000000000000000e+00,5.000000000000000000e+00,5.000000000000000000e+00,5.000000000000000000e+00,5.000000000000000000e+00,5.000000000000000000e+00,5.000000000000000000e+00,5.000000000000000000e+00,5.000000000000000000e+00,5.000000000000000000e+00,5.000000000000000000e+00,2.148316144943237305e+00,2.105272769927978516e+00,2.096752405166625977e+00,4.505827903747558594e+00,1.644344687461853027e+00,1.622640132904052734e+00,1.609887242317199707e+00,1.630742549896240234e+00,3.783610105514526367e+00,3.666085243225097656e+00,3.555641889572143555e+00,3.451658248901367188e+00,3.353583335876464844e+00,3.260928153991699219e+00,3.173254966735839844e+00,3.090172767639160156e+00,3.011330127716064453e+00,2.936410665512084961e+00,2.865128278732299805e+00,2.797224998474121094e+00,2.732465744018554688e+00,2.670637130737304688e+00,2.611544609069824219e+00,2.555010557174682617e+00,2.500872373580932617e+00,2.448980808258056641e+00,2.399198770523071289e+00,2.351400613784790039e+00,2.305469512939453125e+00,2.261298656463623047e+00,2.218788146972656250e+00,2.177846908569335938e+00,2.138388872146606445e+00,2.100335359573364258e+00,2.063612461090087891e+00,2.028151750564575195e+00,1.993888974189758301e+00,1.960764646530151367e+00,1.928723096847534180e+00,1.897711753845214844e+00,1.867681860923767090e+00
5.000000000000000000e+00,5.000000000000000000e+00,5.000000000000000000e+00,5.000000000000000000e+00,5.000000000000000000e+00,5.000000000000000000e+00,5.000000000000000000e+00,5.000000000000000000e+00,5.000000000000000000e+00,5.000000000000000000e+00,5.000000000000000000e+00,5.000000000000000000e+00,5.000000000000000000e+00,5.000000000000000000e+00,5.000000000000000000e+00,5.000000000000000000e+00,5.000000000000000000e+00,5.000000000000000000e+00,5.000000000000000000e+00,5.000000000000000000e+00,5.000000000000000000e+00,5.000000000000000000e+00,5.000000000000000000e+00,5.000000000000000000e+00,5.000000000000000000e+00,5.000000000000000000e+00,5.000000000000000000e+00,5.000000000000000000e+00,5.000000000000000000e+00,5.000000000000000000e+00,5.000000000000000000e+00,5.000000000000000000e+00,5.000000000000000000e+00,5.000000000000000000e+00,5.000000000000000000e+00,5.000000000000000000e+00,5.000000000000000000e+00,5.000000000000000000e+00,5.000000000000000000e+00,2.162287712097167969e+00,2.131334781646728516e+00,4.684796810150146484e+00,4.505947113037109375e+00,1.649321556091308594e+00,1.627486348152160645e+00,1.616014003753662109e+00,1.628302454948425293e+00,3.783695936203002930e+00,3.666166067123413086e+00,3.555717706680297852e+00,3.451729536056518555e+00,3.353650569915771484e+00,3.260991811752319336e+00,3.173315525054931641e+00,3.090229988098144531e+00,3.011384725570678711e+00,2.936462402343750000e+00,2.865177869796752930e+00,2.797271966934204102e+00,2.732510566711425781e+00,2.670680046081542969e+00,2.611585617065429688e+00,2.555049896240234375e+00,2.500909805297851562e+00,2.449016809463500977e+00,2.399233341217041016e+00,2.351433753967285156e+00,2.305501222610473633e+00,2.261329174041748047e+00,2.218817949295043945e+00,2.177875280380249023e+00,2.138416528701782227e+00,2.100361824035644531e+00,2.063637971878051758e+00,2.028176307678222656e+00,1.993912935256958008e+00,1.960787773132324219e+00,1.928745269775390625e+00,1.897733449935913086e+00,1.867702841758728027e+00
4.872632026672363281e+00,4.871412754058837891e+00,4.870193958282470703e+00,4.868976593017578125e+00,4.867759227752685547e+00,4.866542339324951172e+00,4.865325927734375000e+00,4.864110469818115234e+00,4.862895965576171875e+00,4.861681461334228516e+00,4.860467910766601562e+00,4.859254837036132812e+00,4.858042240142822266e+00,4.856830596923828125e+00,4.855619430541992188e+00,4.854408740997314453e+00,4.853198528289794922e+00,4.851989269256591797e+00,4.850780487060546875e+00,4.849572181701660156e+00,4.848364353179931641e+00,4.847157478332519531e+00,4.845951557159423828e+00,4.844745635986328125e+00,4.843540191650390625e+00,4.842335224151611328e+00,4.841131687164306641e+00,4.839928150177001953e+00,4.838725090026855469e+00,4.837522983551025391e+00,4.836321353912353516e+00,4.835120201110839844e+00,4.833920001983642578e+00,4.832719802856445312e+00,4.831520557403564453e+00,4.830322265625000000e+00,4.829123973846435547e+00,4.827926635742187500e+00,2.274087190628051758e+00,2.182671785354614258e+00,4.824337959289550781e+00,4.684925556182861328e+00,4.506066322326660156e+00,1.656698942184448242e+00,1.632447957992553711e+00,1.618360877037048340e+00,1.625869512557983398e+00,3.783782243728637695e+00,3.666246652603149414e+00,3.555793762207031250e+00,3.451800823211669922e+00,3.353718280792236328e+00,3.261055469512939453e+00,3.173375844955444336e+00,3.090287208557128906e+00,3.011439085006713867e+00,2.936514377593994141e+00,2.865226984024047852e+00,2.797318935394287109e+00,2.732555389404296875e+00,2.670722723007202148e+00,2.611626386642456055e+00,2.555088996887207031e+00,2.500947475433349609e+00,2.449052810668945312e+00,2.399267911911010742e+00,2.351466894149780273e+00,2.305533409118652344e+00,2.261359930038452148e+00,2.218847274780273438e+00,2.177903652191162109e+00,2.138443708419799805e+00,2.100388288497924805e+00,2.063663482666015625e+00,2.028201103210449219e+00,1.993936657905578613e+00,1.960810899734497070e+00,1.928767681121826172e+00,1.897754907608032227e+00,1.867723822593688965e+00
3.777127027511596680e+00,3.776394367218017578e+00,3.775662183761596680e+00,3.774930000305175781e+00,3.774198293685913086e+00,3.773466587066650391e+00,3.772735595703125000e+00,3.772004842758178711e+00,3.771274089813232422e+00,3.770543813705444336e+00,3.769813537597656250e+00,3.769083976745605469e+00,3.768354654312133789e+00,3.767625093460083008e+00,3.766896247863769531e+00,3.766167402267456055e+00,3.765439271926879883e+00,3.764711380004882812e+00,3.763983249664306641e+00,3.763255834579467773e+00,3.762528419494628906e+00,3.761801719665527344e+00,3.761075019836425781e+00,3.760348558425903320e+00,3.759622573852539062e+00,3.758896827697753906e+00,3.758171081542968750e+00,3.757446050643920898e+00,3.756720781326293945e+00,3.755996227264404297e+00,3.755271911621093750e+00,3.754547357559204102e+00,3.753823757171630859e+00,3.753099918365478516e+00,3.752376794815063477e+00,3.751653909683227539e+00,3.750930786132812500e+00,3.750208377838134766e+00,3.749485969543457031e+00,2.167899370193481445e+00,3.748042821884155273e+00,3.747321128845214844e+00,3.746600151062011719e+00,1.677828192710876465e+00,1.637479424476623535e+00,1.618932366371154785e+00,1.623443961143493652e+00,3.742998838424682617e+00,3.666327238082885742e+00,3.555869340896606445e+00,3.451872587203979492e+00,3.353785753250122070e+00,3.261119604110717773e+00,3.173436164855957031e+00,3.090344667434692383e+00,3.011493444442749023e+00,2.936565876007080078e+00,2.865276098251342773e+00,2.797365903854370117e+00,2.732600212097167969e+00,2.670765638351440430e+00,2.611667394638061523e+00,2.555128097534179688e+00,2.500984907150268555e+00,2.449088573455810547e+00,2.399302482604980469e+00,2.351500034332275391e+00,2.305565118789672852e+00,2.261390686035156250e+00,2.218876838684082031e+00,2.177932262420654297e+00,2.138471126556396484e+00,2.100414752960205078e+00,2.063688993453979492e+00,2.028225660324096680e+00,1.993960499763488770e+00,1.960833907127380371e+00,1.928790092468261719e+00,1.897776603698730469e+00,1.867744684219360352e+00
3.083801507949829102e+00,3.083313465118408203e+00,3.082824945449829102e+00,3.082337141036987305e+00,3.081849098205566406e+00,3.081361293792724609e+00,3.080873966217041016e+00,3.080386400222778320e+00,3.079899072647094727e+00,3.079411745071411133e+00,3.078924894332885742e+00,3.078438282012939453e+00,3.077951431274414062e+00,3.077465057373046875e+00,3.076978445053100586e+00,3.076492547988891602e+00,3.076006412506103516e+00,3.075520515441894531e+00,3.075034856796264648e+00,3.074549436569213867e+00,3.074063777923583984e+00,3.073578596115112305e+00,3.073093175888061523e+00,3.072608470916748047e+00,3.072123765945434570e+00,3.071638822555541992e+00,3.071154356002807617e+00,3.070669889450073242e+00,3.070185661315917969e+00,3.069701910018920898e+00,3.069217681884765625e+00,3.068734169006347656e+00,3.068250417709350586e+00,3.067766904830932617e+00,3.067283868789672852e+00,3.066800594329833984e+00,3.066317558288574219e+00,3.065834760665893555e+00,3.065352201461791992e+00,2.148477077484130859e+00,2.184841156005859375e+00,3.063905000686645508e+00,3.063423156738281250e+00,3.062941074371337891e+00,1.642542004585266113e+00,1.621569991111755371e+00,1.624893784523010254e+00,3.061014890670776367e+00,3.060533523559570312e+00,3.060052633285522461e+00,3.059571743011474609e+00,3.059091091156005859e+00,3.058610677719116211e+00,3.058130025863647461e+00,3.057649850845336914e+00,3.011548042297363281e+00,2.936617612838745117e+00,2.865325450897216797e+00,2.797412633895874023e+00,2.732645034790039062e+00,2.670808315277099609e+00,2.611708402633666992e+00,2.555167436599731445e+00,2.501022338867187500e+00,2.449124813079833984e+00,2.399336814880371094e+00,2.351533174514770508e+00,2.305597066879272461e+00,2.261421203613281250e+00,2.218906402587890625e+00,2.177960634231567383e+00,2.138498783111572266e+00,2.100441217422485352e+00,2.063714742660522461e+00,2.028250217437744141e+00,1.993984460830688477e+00,1.960857033729553223e+00,1.928812265396118164e+00,1.897798299789428711e+00,1.867765665054321289e+00
2.605532884597778320e+00,2.605184078216552734e+00,2.604835510253906250e+00,2.604486942291259766e+00,2.604138851165771484e+00,2.603790521621704102e+00,2.603442192077636719e+00,2.603094339370727539e+00,2.602746248245239258e+00,2.602398395538330078e+00,2.602050781250000000e+00,2.601702928543090820e+00,2.601355314254760742e+00,2.601007699966430664e+00,2.600660324096679688e+00,2.600313186645507812e+00,2.599965810775756836e+00,2.599618673324584961e+00,2.599271774291992188e+00,2.598924636840820312e+00,2.598577737808227539e+00,2.598230838775634766e+00,2.597884178161621094e+00,2.597537755966186523e+00,2.597191095352172852e+00,2.596844911575317383e+00,2.596498489379882812e+00,2.596152305603027344e+00,2.595806121826171875e+00,2.595459938049316406e+00,2.595114231109619141e+00,2.594768285751342773e+00,2.594422578811645508e+00,2.594076871871948242e+00,2.593731164932250977e+00,2.593385934829711914e+00,2.593040227890014648e+00,2.592694997787475586e+00,2.592350006103515625e+00,2.122686386108398438e+00,2.158810138702392578e+00,2.591315031051635742e+00,2.590970039367675781e+00,2.590625286102294922e+00,1.658846616744995117e+00,1.638575911521911621e+00,1.637259721755981445e+00,2.589247226715087891e+00,2.588902950286865234e+00,2.588558673858642578e+00,2.588214635848999023e+00,2.587870597839355469e+00,2.587526559829711914e+00,2.587182760238647461e+00,2.586838960647583008e+00,2.586495399475097656e+00,2.586152076721191406e+00,2.585808277130126953e+00,2.585465192794799805e+00,2.585121870040893555e+00,2.584778547286987305e+00,2.584435462951660156e+00,2.555206537246704102e+00,2.501059770584106445e+00,2.449160814285278320e+00,2.399371623992919922e+00,2.351566314697265625e+00,2.305629014968872070e+00,2.261451959609985352e+00,2.218935966491699219e+00,2.177989006042480469e+00,2.138526201248168945e+00,2.100467681884765625e+00,2.063740253448486328e+00,2.028275012969970703e+00,1.994008183479309082e+00,1.960880160331726074e+00,1.928834676742553711e+00,1.897819757461547852e+00,1.867786407470703125e+00
2.255678415298461914e+00,2.255419015884399414e+00,2.255159854888916016e+00,2.254900932312011719e+00,2.254641771316528320e+00,2.254382848739624023e+00,2.254123926162719727e+00,2.253865003585815430e+00,2.253606081008911133e+00,2.253345966339111328e+00,2.253085136413574219e+00,2.252824544906616211e+00,2.252563714981079102e+00,2.252303123474121094e+00,2.252042770385742188e+00,2.251782178878784180e+00,2.251521825790405273e+00,2.251261711120605469e+00,2.251001119613647461e+00,2.250741004943847656e+00,2.250480890274047852e+00,2.250220775604248047e+00,2.249960899353027344e+00,2.249700784683227539e+00,2.249440908432006836e+00,2.249181032180786133e+00,2.248921155929565430e+00,2.248661518096923828e+00,2.248401880264282227e+00,2.248142242431640625e+00,2.247882604598999023e+00,2.247623205184936523e+00,2.247363805770874023e+00,2.247104167938232422e+00,2.246845006942749023e+00,2.246585845947265625e+00,2.246326446533203125e+00,2.246067523956298828e+00,2.245808362960815430e+00,2.094671964645385742e+00,2.245290517807006836e+00,2.245031356811523438e+00,2.244772672653198242e+00,2.244513750076293945e+00,1.663398385047912598e+00,1.632565855979919434e+00,1.618279457092285156e+00,2.243479251861572266e+00,2.243220806121826172e+00,2.242962360382080078e+00,2.242704153060913086e+00,2.242445707321166992e+00,2.242187500000000000e+00,2.241929292678833008e+00,2.241671085357666016e+00,2.241413116455078125e+00,2.241155147552490234e+00,2.240897178649902344e+00,2.240639448165893555e+00,2.240381479263305664e+00,2.240123748779296875e+00,2.239866018295288086e+00,2.239608287811279297e+00,2.239350795745849609e+00,2.239093303680419922e+00,2.238835811614990234e+00,2.238578319549560547e+00,2.238321065902709961e+00,2.238063812255859375e+00,2.218965530395507812e+00,2.178017616271972656e+00,2.138553619384765625e+00,2.100494146347045898e+00,2.063765764236450195e+00,2.028299808502197266e+00,1.994032144546508789e+00,1.960903048515319824e+00,1.928857088088989258e+00,1.897841334342956543e+00,1.867807388305664062e+00
1.988547921180725098e+00,1.988346457481384277e+00,1.988144993782043457e+00,1.987943530082702637e+00,1.987742185592651367e+00,1.987540841102600098e+00,1.987339496612548828e+00,1.987138271331787109e+00,1.986937046051025391e+00,1.986735939979553223e+00,1.986534833908081055e+00,1.986333727836608887e+00,1.986132621765136719e+00,1.985931634902954102e+00,1.985730648040771484e+00,1.985530018806457520e+00,1.985329151153564453e+00,1.985128283500671387e+00,1.984927415847778320e+00,1.984726667404174805e+00,1.984526038169860840e+00,1.984325289726257324e+00,1.984124660491943359e+00,1.983924031257629395e+00,1.983723402023315430e+00,1.983522891998291016e+00,1.983322501182556152e+00,1.983121991157531738e+00,1.982921600341796875e+00,1.982721209526062012e+00,1.982520937919616699e+00,1.982320666313171387e+00,1.982120394706726074e+00,1.981920242309570312e+00,1.981720089912414551e+00,1.981519937515258789e+00,1.981319904327392578e+00,1.981119871139526367e+00,1.980919837951660156e+00,1.980719923973083496e+00,1.980520248413085938e+00,1.980320334434509277e+00,1.980120420455932617e+00,1.979920625686645508e+00,1.668040990829467773e+00,1.618906378746032715e+00,1.596702694892883301e+00,1.587912201881408691e+00,1.978922247886657715e+00,1.978722691535949707e+00,1.978523254394531250e+00,1.978323698043823242e+00,1.978124260902404785e+00,1.977924942970275879e+00,1.977725505828857422e+00,1.977526307106018066e+00,1.977326989173889160e+00,1.977127790451049805e+00,1.976928591728210449e+00,1.976729393005371094e+00,1.976530313491821289e+00,1.976331233978271484e+00,1.976132154464721680e+00,1.975933194160461426e+00,1.975734472274780273e+00,1.975535511970520020e+00,1.975336670875549316e+00,1.975137829780578613e+00,1.974938988685607910e+00,1.974740266799926758e+00,1.974541544914245605e+00,1.974342942237854004e+00,1.974144220352172852e+00,1.973945617675781250e+00,1.973747134208679199e+00,1.973548650741577148e+00,1.960926175117492676e+00,1.928879261016845703e+00,1.897863030433654785e+00,1.867828488349914551e+00
1.777988195419311523e+00,1.777827143669128418e+00,1.777666091918945312e+00,1.777505040168762207e+00,1.777343988418579102e+00,1.777183055877685547e+00,1.777022123336791992e+00,1.776861190795898438e+00,1.776700377464294434e+00,1.776539444923400879e+00,1.776378631591796875e+00,1.776217818260192871e+00,1.776057124137878418e+00,1.775896310806274414e+00,1.775735616683959961e+00,1.775575160980224609e+00,1.775414466857910156e+00,1.775253891944885254e+00,1.775093317031860352e+00,1.774932742118835449e+00,1.774772167205810547e+00,1.774611711502075195e+00,1.774451255798339844e+00,1.774290800094604492e+00,1.774130344390869141e+00,1.773970007896423340e+00,1.773809552192687988e+00,1.773649215698242188e+00,1.773488998413085938e+00,1.773328661918640137e+00,1.773168444633483887e+00,1.773008227348327637e+00,1.772848010063171387e+00,1.772687911987304688e+00,1.772527694702148438e+00,1.772367596626281738e+00,1.772207498550415039e+00,1.772047519683837891e+00,1.771887540817260742e+00,1.771727561950683594e+00,1.771567702293395996e+00,1.771407842636108398e+00,1.771247863769531250e+00,1.771088004112243652e+00,1.770928144454956055e+00,1.599703073501586914e+00,1.568391323089599609e+00,1.557996034622192383e+00,1.554199218750000000e+00,1.545375585556030273e+00,1.769969701766967773e+00,1.769810080528259277e+00,1.769650459289550781e+00,1.769490957260131836e+00,1.769331336021423340e+00,1.769171833992004395e+00,1.769012331962585449e+00,1.768852829933166504e+00,1.768693447113037109e+00,1.768534064292907715e+00,1.768374681472778320e+00,1.768215298652648926e+00,1.768055915832519531e+00,1.767896652221679688e+00,1.767737627029418945e+00,1.767578363418579102e+00,1.767419099807739258e+00,1.767259955406188965e+00,1.767100811004638672e+00,1.766941666603088379e+00,1.766782641410827637e+00,1.766623497009277344e+00,1.766464471817016602e+00,1.766305446624755859e+00,1.766146540641784668e+00,1.765987515449523926e+00,1.765828609466552734e+00,1.765669703483581543e+00,1.765510916709899902e+00,1.765352129936218262e+00
1.607749819755554199e+00,1.607618093490600586e+00,1.607486367225646973e+00,1.607354640960693359e+00,1.607223033905029297e+00,1.607091426849365234e+00,1.606959819793701172e+00,1.606828212738037109e+00,1.606696605682373047e+00,1.606565117835998535e+00,1.606433510780334473e+00,1.606302022933959961e+00,1.606170535087585449e+00,1.606039166450500488e+00,1.605907678604125977e+00,1.605776429176330566e+00,1.605645060539245605e+00,1.605513691902160645e+00,1.605382323265075684e+00,1.605250954627990723e+00,1.605119705200195312e+00,1.604988336563110352e+00,1.604857087135314941e+00,1.604725837707519531e+00,1.604594588279724121e+00,1.604463458061218262e+00,1.604332208633422852e+00,1.604201078414916992e+00,1.604069948196411133e+00,1.603938817977905273e+00,1.603807687759399414e+00,1.603676676750183105e+00,1.603545665740966797e+00,1.603414535522460938e+00,1.603283524513244629e+00,1.603152632713317871e+00,1.603021621704101562e+00,1.602890729904174805e+00,1.602759718894958496e+00,1.602628827095031738e+00,1.602498173713684082e+00,1.602367281913757324e+00,1.602236390113830566e+00,1.602105617523193359e+00,1.601974844932556152e+00,1.601844072341918945e+00,1.554759383201599121e+00,1.526322722434997559e+00,1.523251295089721680e+00,1.513754010200500488e+00,1.529680490493774414e+00,1.601059794425964355e+00,1.600929260253906250e+00,1.600798606872558594e+00,1.600668072700500488e+00,1.600537538528442383e+00,1.600407004356384277e+00,1.600276470184326172e+00,1.600145936012268066e+00,1.600015521049499512e+00,1.599884986877441406e+00,1.599754571914672852e+00,1.599624156951904297e+00,1.599493741989135742e+00,1.599363565444946289e+00,1.599233150482177734e+00,1.599102854728698730e+00,1.598972558975219727e+00,1.598842263221740723e+00,1.598711967468261719e+00,1.598581790924072266e+00,1.598451495170593262e+00,1.598321318626403809e+00,1.598191142082214355e+00,1.598060965538024902e+00,1.597930908203125000e+00,1.597800731658935547e+00,1.597670674324035645e+00,1.597540616989135742e+00,1.597410559654235840e+00
1.467262625694274902e+00,1.467152953147888184e+00,1.467043280601501465e+00,1.466933608055114746e+00,1.466823935508728027e+00,1.466714262962341309e+00,1.466604590415954590e+00,1.466495037078857422e+00,1.466385483741760254e+00,1.466275811195373535e+00,1.466166257858276367e+00,1.466056704521179199e+00,1.465947270393371582e+00,1.465837717056274414e+00,1.465728163719177246e+00,1.465618848800659180e+00,1.465509414672851562e+00,1.465399980545043945e+00,1.465290546417236328e+00,1.465181112289428711e+00,1.465071678161621094e+00,1.464962363243103027e+00,1.464852929115295410e+00,1.464743614196777344e+00,1.464634299278259277e+00,1.464524984359741211e+00,1.464415669441223145e+00,1.464306354522705078e+00,1.464197158813476562e+00,1.464087843894958496e+00,1.463978648185729980e+00,1.463869452476501465e+00,1.463760256767272949e+00,1.463651061058044434e+00,1.463541865348815918e+00,1.463432788848876953e+00,1.463323593139648438e+00,1.463214516639709473e+00,1.463105440139770508e+00,1.462996244430541992e+00,1.462887406349182129e+00,1.462778329849243164e+00,1.462669253349304199e+00,1.462560296058654785e+00,1.462451219558715820e+00,1.462342262268066406e+00,1.462233304977416992e+00,1.462124347686767578e+00,1.462015390396118164e+00,1.461906552314758301e+00,1.461797595024108887e+00,1.461688756942749023e+00,1.461579799652099609e+00,1.461470961570739746e+00,1.461362123489379883e+00,1.461253285408020020e+00,1.461144447326660156e+00,1.461035728454589844e+00,1.460926890373229980e+00,1.460818171501159668e+00,1.460709452629089355e+00,1.460600733757019043e+00,1.460492014884948730e+00,1.460383296012878418e+00,1.460274696350097656e+00,1.460166096687316895e+00,1.460057377815246582e+00,1.459948778152465820e+00,1.459840178489685059e+00,1.459731578826904297e+00,1.459622979164123535e+00,1.459514498710632324e+00,1.459405899047851562e+00,1.459297418594360352e+00,1.459188818931579590e+00,1.459080338478088379e+00,1.458971858024597168e+00,1.458863377571105957e+00,1.458754897117614746e+00,1.458646535873413086e+00
1.349354267120361328e+00,1.349261522293090820e+00,1.349168777465820312e+00,1.349076032638549805e+00,1.348983287811279297e+00,1.348890542984008789e+00,1.348797798156738281e+00,1.348705053329467773e+00,1.348612427711486816e+00,1.348519682884216309e+00,1.348427057266235352e+00,1.348334431648254395e+00,1.348241806030273438e+00,1.348149180412292480e+00,1.348056554794311523e+00,1.347964048385620117e+00,1.347871422767639160e+00,1.347778916358947754e+00,1.347686290740966797e+00,1.347593784332275391e+00,1.347501158714294434e+00,1.347408652305603027e+00,1.347316145896911621e+00,1.347223639488220215e+00,1.347131252288818359e+00,1.347038745880126953e+00,1.346946239471435547e+00,1.346853852272033691e+00,1.346761345863342285e+00,1.346668958663940430e+00,1.346576571464538574e+00,1.346484184265136719e+00,1.346391797065734863e+00,1.346299409866333008e+00,1.346207022666931152e+00,1.346114635467529297e+00,1.346022367477416992e+00,1.345929980278015137e+00,1.345837712287902832e+00,1.345745325088500977e+00,1.345653176307678223e+00,1.345560908317565918e+00,1.345468640327453613e+00,1.345376372337341309e+00,1.345284223556518555e+00,1.345191955566406250e+00,1.345099687576293945e+00,1.345007538795471191e+00,1.344915390014648438e+00,1.344823122024536133e+00,1.344730973243713379e+00,1.344638824462890625e+00,1.344546675682067871e+00,1.344454646110534668e+00,1.344362497329711914e+00,1.344270348548889160e+00,1.344178318977355957e+00,1.344086289405822754e+00,1.343994140625000000e+00,1.343902111053466797e+00,1.343810081481933594e+00,1.343718051910400391e+00,1.343626022338867188e+00,1.343534111976623535e+00,1.343442201614379883e+00,1.343350172042846680e+00,1.343258261680603027e+00,1.343166351318359375e+00,1.343074321746826172e+00,1.342982411384582520e+00,1.342890501022338867e+00,1.342798590660095215e+00,1.342706799507141113e+00,1.342614889144897461e+00,1.342522978782653809e+00,1.342431187629699707e+00,1.342339277267456055e+00,1.342247486114501953e+00,1.342155694961547852e+00,1.342063903808593750e+00
1.248986601829528809e+00,1.248907089233398438e+00,1.248827576637268066e+00,1.248748183250427246e+00,1.248668670654296875e+00,1.248589277267456055e+00,1.248509764671325684e+00,1.248430371284484863e+00,1.248350977897644043e+00,1.248271465301513672e+00,1.248192071914672852e+00,1.248112678527832031e+00,1.248033285140991211e+00,1.247954010963439941e+00,1.247874617576599121e+00,1.247795343399047852e+00,1.247715950012207031e+00,1.247636675834655762e+00,1.247557401657104492e+00,1.247478008270263672e+00,1.247398734092712402e+00,1.247319459915161133e+00,1.247240185737609863e+00,1.247160911560058594e+00,1.247081637382507324e+00,1.247002363204956055e+00,1.246923089027404785e+00,1.246843934059143066e+00,1.246764659881591797e+00,1.246685504913330078e+00,1.246606230735778809e+00,1.246527075767517090e+00,1.246447920799255371e+00,1.246368765830993652e+00,1.246289610862731934e+00,1.246210455894470215e+00,1.246131300926208496e+00,1.246052145957946777e+00,1.245972990989685059e+00,1.245893955230712891e+00,1.245814919471740723e+00,1.245735764503479004e+00,1.245656728744506836e+00,1.245577692985534668e+00,1.245498538017272949e+00,1.245419502258300781e+00,1.245340466499328613e+00,1.245261430740356445e+00,1.245182394981384277e+00,1.245103478431701660e+00,1.245024442672729492e+00,1.244945406913757324e+00,1.244866490364074707e+00,1.244787454605102539e+00,1.244708538055419922e+00,1.244629621505737305e+00,1.244550585746765137e+00,1.244471669197082520e+00,1.244392752647399902e+00,1.244313836097717285e+00,1.244234919548034668e+00,1.244156122207641602e+00,1.244077205657958984e+00,1.243998289108276367e+00,1.243919610977172852e+00,1.243840694427490234e+00,1.243761897087097168e+00,1.243683099746704102e+00,1.243604183197021484e+00,1.243525385856628418e+00,1.243446588516235352e+00,1.243367791175842285e+00,1.243289113044738770e+00,1.243210315704345703e+00,1.243131518363952637e+00,1.243052840232849121e+00,1.242974042892456055e+00,1.242895364761352539e+00,1.242816567420959473e+00,1.242737889289855957e+00
1.162516236305236816e+00,1.162447452545166016e+00,1.162378549575805664e+00,1.162309646606445312e+00,1.162240862846374512e+00,1.162171959877014160e+00,1.162103176116943359e+00,1.162034392356872559e+00,1.161965608596801758e+00,1.161896705627441406e+00,1.161827921867370605e+00,1.161759138107299805e+00,1.161690354347229004e+00,1.161621570587158203e+00,1.161552906036376953e+00,1.161484241485595703e+00,1.161415457725524902e+00,1.161346673965454102e+00,1.161278009414672852e+00,1.161209225654602051e+00,1.161140561103820801e+00,1.161071777343750000e+00,1.161003112792968750e+00,1.160934448242187500e+00,1.160865783691406250e+00,1.160797119140625000e+00,1.160728454589843750e+00,1.160659790039062500e+00,1.160591125488281250e+00,1.160522460937500000e+00,1.160453796386718750e+00,1.160385251045227051e+00,1.160316586494445801e+00,1.160248041152954102e+00,1.160179376602172852e+00,1.160110831260681152e+00,1.160042166709899902e+00,1.159973621368408203e+00,1.159905076026916504e+00,1.159836530685424805e+00,1.159767985343933105e+00,1.159699440002441406e+00,1.159631013870239258e+00,1.159562468528747559e+00,1.159493923187255859e+00,1.159425377845764160e+00,1.159356832504272461e+00,1.159288406372070312e+00,1.159219861030578613e+00,1.159151434898376465e+00,1.159083008766174316e+00,1.159014463424682617e+00,1.158946037292480469e+00,1.158877611160278320e+00,1.158809185028076172e+00,1.158740758895874023e+00,1.158672332763671875e+00,1.158603906631469727e+00,1.158535480499267578e+00,1.158467054367065430e+00,1.158398628234863281e+00,1.158330321311950684e+00,1.158262014389038086e+00,1.158193588256835938e+00,1.158125281333923340e+00,1.158056974411010742e+00,1.157988667488098145e+00,1.157920241355895996e+00,1.157851934432983398e+00,1.157783627510070801e+00,1.157715320587158203e+00,1.157647013664245605e+00,1.157578706741333008e+00,1.157510519027709961e+00,1.157442212104797363e+00,1.157373905181884766e+00,1.157305717468261719e+00,1.157237410545349121e+00,1.157169222831726074e+00,1.157100915908813477e+00
1.087243795394897461e+00,1.087183475494384766e+00,1.087123274803161621e+00,1.087063074111938477e+00,1.087002873420715332e+00,1.086942672729492188e+00,1.086882472038269043e+00,1.086822271347045898e+00,1.086762070655822754e+00,1.086701869964599609e+00,1.086641669273376465e+00,1.086581468582153320e+00,1.086521387100219727e+00,1.086461186408996582e+00,1.086400985717773438e+00,1.086340904235839844e+00,1.086280822753906250e+00,1.086220622062683105e+00,1.086160540580749512e+00,1.086100459098815918e+00,1.086040377616882324e+00,1.085980176925659180e+00,1.085920095443725586e+00,1.085860013961791992e+00,1.085799932479858398e+00,1.085739850997924805e+00,1.085679769515991211e+00,1.085619688034057617e+00,1.085559725761413574e+00,1.085499644279479980e+00,1.085439562797546387e+00,1.085379600524902344e+00,1.085319519042968750e+00,1.085259437561035156e+00,1.085199475288391113e+00,1.085139513015747070e+00,1.085079431533813477e+00,1.085019469261169434e+00,1.084959506988525391e+00,1.084899425506591797e+00,1.084839582443237305e+00,1.084779620170593262e+00,1.084719657897949219e+00,1.084659695625305176e+00,1.084599733352661133e+00,1.084539771080017090e+00,1.084479808807373047e+00,1.084419846534729004e+00,1.084360003471374512e+00,1.084300041198730469e+00,1.084240078926086426e+00,1.084180235862731934e+00,1.084120273590087891e+00,1.084060430526733398e+00,1.084000587463378906e+00,1.083940625190734863e+00,1.083880782127380371e+00,1.083820939064025879e+00,1.083761096000671387e+00,1.083701252937316895e+00,1.083641409873962402e+00,1.083581566810607910e+00,1.083521723747253418e+00,1.083461880683898926e+00,1.083402156829833984e+00,1.083342313766479492e+00,1.083282470703125000e+00,1.083222746849060059e+00,1.083162903785705566e+00,1.083103179931640625e+00,1.083043336868286133e+00,1.082983613014221191e+00,1.082923769950866699e+00,1.082864046096801758e+00,1.082804322242736816e+00,1.082744479179382324e+00,1.082684755325317383e+00,1.082625031471252441e+00,1.082565307617187500e+00,1.082505583763122559e+00
1.021126270294189453e+00,1.021073102951049805e+00,1.021019935607910156e+00,1.020966768264770508e+00,1.020913720130920410e+00,1.020860552787780762e+00,1.020807504653930664e+00,1.020754337310791016e+00,1.020701289176940918e+00,1.020648241043090820e+00,1.020595073699951172e+00,1.020542025566101074e+00,1.020488977432250977e+00,1.020435929298400879e+00,1.020382881164550781e+00,1.020329833030700684e+00,1.020276784896850586e+00,1.020223736763000488e+00,1.020170688629150391e+00,1.020117640495300293e+00,1.020064592361450195e+00,1.020011544227600098e+00,1.019958615303039551e+00,1.019905567169189453e+00,1.019852519035339355e+00,1.019799590110778809e+00,1.019746541976928711e+00,1.019693613052368164e+00,1.019640564918518066e+00,1.019587635993957520e+00,1.019534587860107422e+00,1.019481658935546875e+00,1.019428730010986328e+00,1.019375681877136230e+00,1.019322752952575684e+00,1.019269824028015137e+00,1.019216895103454590e+00,1.019163966178894043e+00,1.019111037254333496e+00,1.019058108329772949e+00,1.019005298614501953e+00,1.018952369689941406e+00,1.018899440765380859e+00,1.018846511840820312e+00,1.018793582916259766e+00,1.018740773200988770e+00,1.018687844276428223e+00,1.018634915351867676e+00,1.018582105636596680e+00,1.018529176712036133e+00,1.018476366996765137e+00,1.018423438072204590e+00,1.018370628356933594e+00,1.018317818641662598e+00,1.018264889717102051e+00,1.018212080001831055e+00,1.018159270286560059e+00,1.018106460571289062e+00,1.018053650856018066e+00,1.018000841140747070e+00,1.017948031425476074e+00,1.017895221710205078e+00,1.017842411994934082e+00,1.017789602279663086e+00,1.017736911773681641e+00,1.017684102058410645e+00,1.017631292343139648e+00,1.017578601837158203e+00,1.017525792121887207e+00,1.017472982406616211e+00,1.017420291900634766e+00,1.017367482185363770e+00,1.017314791679382324e+00,1.017261981964111328e+00,1.017209291458129883e+00,1.017156600952148438e+00,1.017103791236877441e+00,1.017051100730895996e+00,1.016998410224914551e+00,1.016945719718933105e+00
9.625892639160156250e-01,9.625419974327087402e-01,9.624947905540466309e-01,9.624475836753845215e-01,9.624003767967224121e-01,9.623531103134155273e-01,9.623059630393981934e-01,9.622587561607360840e-01,9.622116088867187500e-01,9.621644020080566406e-01,9.621172547340393066e-01,9.620700478553771973e-01,9.620229005813598633e-01,9.619756937026977539e-01,9.619286060333251953e-01,9.618815183639526367e-01,9.618343114852905273e-01,9.617872238159179688e-01,9.617400169372558594e-01,9.616929292678833008e-01,9.616457819938659668e-01,9.615986943244934082e-01,9.615515470504760742e-01,9.615044593811035156e-01,9.614573121070861816e-01,9.614102244377136230e-01,9.613630771636962891e-01,9.613160490989685059e-01,9.612689018249511719e-01,9.612218737602233887e-01,9.611747264862060547e-01,9.611276984214782715e-01,9.610805511474609375e-01,9.610335826873779297e-01,9.609864354133605957e-01,9.609394073486328125e-01,9.608923196792602539e-01,9.608452916145324707e-01,9.607982039451599121e-01,9.607512354850769043e-01,9.607042670249938965e-01,9.606571793556213379e-01,9.606102108955383301e-01,9.605631232261657715e-01,9.605161547660827637e-01,9.604690670967102051e-01,9.604220986366271973e-01,9.603750705718994141e-01,9.603281021118164062e-01,9.602810740470886230e-01,9.602341055870056152e-01,9.601870775222778320e-01,9.601401686668395996e-01,9.600931406021118164e-01,9.600462317466735840e-01,9.599992036819458008e-01,9.599522948265075684e-01,9.599052667617797852e-01,9.598583579063415527e-01,9.598113298416137695e-01,9.597644805908203125e-01,9.597174525260925293e-01,9.596706032752990723e-01,9.596235752105712891e-01,9.595767259597778320e-01,9.595298767089843750e-01,9.594828486442565918e-01,9.594359993934631348e-01,9.593890309333801270e-01,9.593421816825866699e-01,9.592952728271484375e-01,9.592484235763549805e-01,9.592014551162719727e-01,9.591546058654785156e-01,9.591076970100402832e-01,9.590608477592468262e-01,9.590139389038085938e-01,9.589671492576599121e-01,9.589201807975769043e-01,9.588733911514282227e-01
9.103996157646179199e-01,9.103574752807617188e-01,9.103151559829711914e-01,9.102730154991149902e-01,9.102306962013244629e-01,9.101885557174682617e-01,9.101462960243225098e-01,9.101040959358215332e-01,9.100618362426757812e-01,9.100196957588195801e-01,9.099774360656738281e-01,9.099352955818176270e-01,9.098930358886718750e-01,9.098508954048156738e-01,9.098086953163146973e-01,9.097665548324584961e-01,9.097244143486022949e-01,9.096822142601013184e-01,9.096400737762451172e-01,9.095978736877441406e-01,9.095557332038879395e-01,9.095135331153869629e-01,9.094714522361755371e-01,9.094292521476745605e-01,9.093871116638183594e-01,9.093449711799621582e-01,9.093028306961059570e-01,9.092606902122497559e-01,9.092186093330383301e-01,9.091764092445373535e-01,9.091343283653259277e-01,9.090921878814697266e-01,9.090501070022583008e-01,9.090079665184020996e-01,9.089658856391906738e-01,9.089237451553344727e-01,9.088816642761230469e-01,9.088395237922668457e-01,9.087975025177001953e-01,9.087553620338439941e-01,9.087133407592773438e-01,9.086712598800659180e-01,9.086291790008544922e-01,9.085871577262878418e-01,9.085450172424316406e-01,9.085029959678649902e-01,9.084609150886535645e-01,9.084188938140869141e-01,9.083768129348754883e-01,9.083347916603088379e-01,9.082927107810974121e-01,9.082506895065307617e-01,9.082086086273193359e-01,9.081666469573974609e-01,9.081245660781860352e-01,9.080826044082641602e-01,9.080405235290527344e-01,9.079985618591308594e-01,9.079564809799194336e-01,9.079145193099975586e-01,9.078724384307861328e-01,9.078305363655090332e-01,9.077884554862976074e-01,9.077464938163757324e-01,9.077045917510986328e-01,9.076625108718872070e-01,9.076206088066101074e-01,9.075785875320434570e-01,9.075366258621215820e-01,9.074946045875549316e-01,9.074527025222778320e-01,9.074106812477111816e-01,9.073687791824340820e-01,9.073267579078674316e-01,9.072848558425903320e-01,9.072428941726684570e-01,9.072009921073913574e-01,9.071590304374694824e-01,9.071171283721923828e-01,9.070751070976257324e-01
8.635783195495605469e-01,8.635402321815490723e-01,8.635023236274719238e-01,8.634642362594604492e-01,8.634263277053833008e-01,8.633882999420166016e-01,8.633503317832946777e-01,8.633123040199279785e-01,8.632743954658508301e-01,8.632363677024841309e-01,8.631983995437622070e-01,8.631604313850402832e-01,8.631224632263183594e-01,8.630844950675964355e-01,8.630465269088745117e-01,8.630086183547973633e-01,8.629706501960754395e-01,8.629327416419982910e-01,8.628947734832763672e-01,8.628568649291992188e-01,8.628188371658325195e-01,8.627809882164001465e-01,8.627429604530334473e-01,8.627051115036010742e-01,8.626671433448791504e-01,8.626292347908020020e-01,8.625912666320800781e-01,8.625534176826477051e-01,8.625154495239257812e-01,8.624776005744934082e-01,8.624396324157714844e-01,8.624017834663391113e-01,8.623638153076171875e-01,8.623259663581848145e-01,8.622880578041076660e-01,8.622502088546752930e-01,8.622122406959533691e-01,8.621744513511657715e-01,8.621364831924438477e-01,8.620986938476562500e-01,8.620608448982238770e-01,8.620229363441467285e-01,8.619850873947143555e-01,8.619471788406372070e-01,8.619093894958496094e-01,8.618714809417724609e-01,8.618336915969848633e-01,8.617957830429077148e-01,8.617579340934753418e-01,8.617200851440429688e-01,8.616822957992553711e-01,8.616443872451782227e-01,8.616065979003906250e-01,8.615687489509582520e-01,8.615309596061706543e-01,8.614930510520935059e-01,8.614553213119506836e-01,8.614174127578735352e-01,8.613796830177307129e-01,8.613418340682983398e-01,8.613040447235107422e-01,8.612661957740783691e-01,8.612284660339355469e-01,8.611906170845031738e-01,8.611528277397155762e-01,8.611150979995727539e-01,8.610772490501403809e-01,8.610395193099975586e-01,8.610017299652099609e-01,8.609640002250671387e-01,8.609261512756347656e-01,8.608884215354919434e-01,8.608506321907043457e-01,8.608129024505615234e-01,8.607751131057739258e-01,8.607373833656311035e-01,8.606995940208435059e-01,8.606618642807006836e-01,8.606240749359130859e-01,8.605864048004150391e-01
8.213372826576232910e-01,8.213029503822326660e-01,8.212685585021972656e-01,8.212342262268066406e-01,8.211998343467712402e-01,8.211655020713806152e-01,8.211311101913452148e-01,8.210967779159545898e-01,8.210623860359191895e-01,8.210280537605285645e-01,8.209936618804931641e-01,8.209593892097473145e-01,8.209249973297119141e-01,8.208906650543212891e-01,8.208563327789306641e-01,8.208220005035400391e-01,8.207877278327941895e-01,8.207533359527587891e-01,8.207190632820129395e-01,8.206846714019775391e-01,8.206503987312316895e-01,8.206160664558410645e-01,8.205817937850952148e-01,8.205474019050598145e-01,8.205131292343139648e-01,8.204787969589233398e-01,8.204445242881774902e-01,8.204101920127868652e-01,8.203759193420410156e-01,8.203415870666503906e-01,8.203073740005493164e-01,8.202730417251586914e-01,8.202387690544128418e-01,8.202044367790222168e-01,8.201702237129211426e-01,8.201358914375305176e-01,8.201016783714294434e-01,8.200673460960388184e-01,8.200330734252929688e-01,8.199988007545471191e-01,8.199645876884460449e-01,8.199303746223449707e-01,8.198960423469543457e-01,8.198618292808532715e-01,8.198275566101074219e-01,8.197933435440063477e-01,8.197590112686157227e-01,8.197248578071594238e-01,8.196905255317687988e-01,8.196563720703125000e-01,8.196220993995666504e-01,8.195878863334655762e-01,8.195536136627197266e-01,8.195194005966186523e-01,8.194851279258728027e-01,8.194509744644165039e-01,8.194167017936706543e-01,8.193825483322143555e-01,8.193482756614685059e-01,8.193141222000122070e-01,8.192798495292663574e-01,8.192456960678100586e-01,8.192114830017089844e-01,8.191772699356079102e-01,8.191431164741516113e-01,8.191089034080505371e-01,8.190747499465942383e-01,8.190405368804931641e-01,8.190063834190368652e-01,8.189721703529357910e-01,8.189380168914794922e-01,8.189038038253784180e-01,8.188696503639221191e-01,8.188354372978210449e-01,8.188013434410095215e-01,8.187671303749084473e-01,8.187329769134521484e-01,8.186988234519958496e-01,8.186646699905395508e-01,8.186304569244384766e-01
7.830360531806945801e-01,7.830047607421875000e-01,7.829735875129699707e-01,7.829422950744628906e-01,7.829110622406005859e-01,7.828798294067382812e-01,7.828485965728759766e-01,7.828173637390136719e-01,7.827861905097961426e-01,7.827548980712890625e-01,7.827237248420715332e-01,7.826924324035644531e-01,7.826612591743469238e-01,7.826300263404846191e-01,7.825988531112670898e-01,7.825676798820495605e-01,7.825364470481872559e-01,7.825052738189697266e-01,7.824739813804626465e-01,7.824428677558898926e-01,7.824116349220275879e-01,7.823804616928100586e-01,7.823492288589477539e-01,7.823180556297302246e-01,7.822868227958679199e-01,7.822557091712951660e-01,7.822244763374328613e-01,7.821933031082153320e-01,7.821621298789978027e-01,7.821309566497802734e-01,7.820997834205627441e-01,7.820686101913452148e-01,7.820374369621276855e-01,7.820062637329101562e-01,7.819750905036926270e-01,7.819439768791198730e-01,7.819127440452575684e-01,7.818816304206848145e-01,7.818504571914672852e-01,7.818193435668945312e-01,7.817882299423217773e-01,7.817570567131042480e-01,7.817259430885314941e-01,7.816947698593139648e-01,7.816636562347412109e-01,7.816324830055236816e-01,7.816013693809509277e-01,7.815701961517333984e-01,7.815391421318054199e-01,7.815079689025878906e-01,7.814768552780151367e-01,7.814456820487976074e-01,7.814146280288696289e-01,7.813834547996520996e-01,7.813524007797241211e-01,7.813212275505065918e-01,7.812901735305786133e-01,7.812590599060058594e-01,7.812279462814331055e-01,7.811968326568603516e-01,7.811657786369323730e-01,7.811346054077148438e-01,7.811035513877868652e-01,7.810724377632141113e-01,7.810413837432861328e-01,7.810103297233581543e-01,7.809792160987854004e-01,7.809481620788574219e-01,7.809170484542846680e-01,7.808859944343566895e-01,7.808548808097839355e-01,7.808238863945007324e-01,7.807927727699279785e-01,7.807617187500000000e-01,7.807306051254272461e-01,7.806996107101440430e-01,7.806684970855712891e-01,7.806375026702880859e-01,7.806063890457153320e-01,7.805753946304321289e-01
7.481477260589599609e-01,7.481192350387573242e-01,7.480906844139099121e-01,7.480621933937072754e-01,7.480336427688598633e-01,7.480052113533020020e-01,7.479766607284545898e-01,7.479481697082519531e-01,7.479196190834045410e-01,7.478911280632019043e-01,7.478626370429992676e-01,7.478341460227966309e-01,7.478055953979492188e-01,7.477771639823913574e-01,7.477486133575439453e-01,7.477201819419860840e-01,7.476916909217834473e-01,7.476631999015808105e-01,7.476347088813781738e-01,7.476062178611755371e-01,7.475777268409729004e-01,7.475492358207702637e-01,7.475208044052124023e-01,7.474923133850097656e-01,7.474638223648071289e-01,7.474353313446044922e-01,7.474068999290466309e-01,7.473784089088439941e-01,7.473499774932861328e-01,7.473214864730834961e-01,7.472930550575256348e-01,7.472645640373229980e-01,7.472361326217651367e-01,7.472076416015625000e-01,7.471792101860046387e-01,7.471507191658020020e-01,7.471223473548889160e-01,7.470938563346862793e-01,7.470654249191284180e-01,7.470369935035705566e-01,7.470085620880126953e-01,7.469801306724548340e-01,7.469516992568969727e-01,7.469232678413391113e-01,7.468948364257812500e-01,7.468664050102233887e-01,7.468379735946655273e-01,7.468096017837524414e-01,7.467811107635498047e-01,7.467527389526367188e-01,7.467243075370788574e-01,7.466958761215209961e-01,7.466674447059631348e-01,7.466390728950500488e-01,7.466106414794921875e-01,7.465822696685791016e-01,7.465538382530212402e-01,7.465254664421081543e-01,7.464970350265502930e-01,7.464686632156372070e-01,7.464402318000793457e-01,7.464118599891662598e-01,7.463834285736083984e-01,7.463551163673400879e-01,7.463267445564270020e-01,7.462983131408691406e-01,7.462699413299560547e-01,7.462415695190429688e-01,7.462131977081298828e-01,7.461848258972167969e-01,7.461564540863037109e-01,7.461280226707458496e-01,7.460997104644775391e-01,7.460713386535644531e-01,7.460429668426513672e-01,7.460145950317382812e-01,7.459862232208251953e-01,7.459578514099121094e-01,7.459295392036437988e-01,7.459011673927307129e-01
7.162358164787292480e-01,7.162095904350280762e-01,7.161834836006164551e-01,7.161573171615600586e-01,7.161312103271484375e-01,7.161050438880920410e-01,7.160789966583251953e-01,7.160528302192687988e-01,7.160267233848571777e-01,7.160005569458007812e-01,7.159744501113891602e-01,7.159482836723327637e-01,7.159222364425659180e-01,7.158960700035095215e-01,7.158699631690979004e-01,7.158439159393310547e-01,7.158177495002746582e-01,7.157916426658630371e-01,7.157655358314514160e-01,7.157394289970397949e-01,7.157133221626281738e-01,7.156872153282165527e-01,7.156611084938049316e-01,7.156350612640380859e-01,7.156088948249816895e-01,7.155828475952148438e-01,7.155567407608032227e-01,7.155306339263916016e-01,7.155045270919799805e-01,7.154784798622131348e-01,7.154523730278015137e-01,7.154263257980346680e-01,7.154002189636230469e-01,7.153741121292114258e-01,7.153480052947998047e-01,7.153219580650329590e-01,7.152958512306213379e-01,7.152698636054992676e-01,7.152437567710876465e-01,7.152177095413208008e-01,7.151916623115539551e-01,7.151655554771423340e-01,7.151395082473754883e-01,7.151134610176086426e-01,7.150874137878417969e-01,7.150613069534301758e-01,7.150353193283081055e-01,7.150092124938964844e-01,7.149831652641296387e-01,7.149571180343627930e-01,7.149310708045959473e-01,7.149050235748291016e-01,7.148789763450622559e-01,7.148529291152954102e-01,7.148268818855285645e-01,7.148008346557617188e-01,7.147748470306396484e-01,7.147487401962280273e-01,7.147227525711059570e-01,7.146967053413391113e-01,7.146707177162170410e-01,7.146446704864501953e-01,7.146186232566833496e-01,7.145925760269165039e-01,7.145665884017944336e-01,7.145406007766723633e-01,7.145145535469055176e-01,7.144885659217834473e-01,7.144625186920166016e-01,7.144365310668945312e-01,7.144104838371276855e-01,7.143845558166503906e-01,7.143585085868835449e-01,7.143325209617614746e-01,7.143064737319946289e-01,7.142804861068725586e-01,7.142544984817504883e-01,7.142285108566284180e-01,7.142024636268615723e-01,7.141765356063842773e-01
6.869348287582397461e-01,6.869108080863952637e-01,6.868867278099060059e-01,6.868627071380615234e-01,6.868386268615722656e-01,6.868146061897277832e-01,6.867905259132385254e-01,6.867665648460388184e-01,6.867424845695495605e-01,6.867184638977050781e-01,6.866943836212158203e-01,6.866704225540161133e-01,6.866463422775268555e-01,6.866223812103271484e-01,6.865983009338378906e-01,6.865742802619934082e-01,6.865503191947937012e-01,6.865262389183044434e-01,6.865022778511047363e-01,6.864782571792602539e-01,6.864542365074157715e-01,6.864302158355712891e-01,6.864061951637268066e-01,6.863821744918823242e-01,6.863582134246826172e-01,6.863341331481933594e-01,6.863101720809936523e-01,6.862861514091491699e-01,6.862621903419494629e-01,6.862381696701049805e-01,6.862142086029052734e-01,6.861901283264160156e-01,6.861661672592163086e-01,6.861421465873718262e-01,6.861181855201721191e-01,6.860941648483276367e-01,6.860702037811279297e-01,6.860461831092834473e-01,6.860222816467285156e-01,6.859982609748840332e-01,6.859742999076843262e-01,6.859503388404846191e-01,6.859263181686401367e-01,6.859023571014404297e-01,6.858783960342407227e-01,6.858544349670410156e-01,6.858304142951965332e-01,6.858065128326416016e-01,6.857824921607971191e-01,6.857585310935974121e-01,6.857345700263977051e-01,6.857106089591979980e-01,6.856866478919982910e-01,6.856626868247985840e-01,6.856387257575988770e-01,6.856148242950439453e-01,6.855908036231994629e-01,6.855669021606445312e-01,6.855428814888000488e-01,6.855189800262451172e-01,6.854950189590454102e-01,6.854711174964904785e-01,6.854470968246459961e-01,6.854231953620910645e-01,6.853992938995361328e-01,6.853753328323364258e-01,6.853514313697814941e-01,6.853274703025817871e-01,6.853035688400268555e-01,6.852796077728271484e-01,6.852557063102722168e-01,6.852317452430725098e-01,6.852078437805175781e-01,6.851838827133178711e-01,6.851599812507629395e-01,6.851360201835632324e-01,6.851121187210083008e-01,6.850881576538085938e-01,6.850643157958984375e-01,6.850403547286987305e-01
6.599370241165161133e-01,6.599147915840148926e-01,6.598926186561584473e-01,6.598704457283020020e-01,6.598482728004455566e-01,6.598260402679443359e-01,6.598038673400878906e-01,6.597816944122314453e-01,6.597595214843750000e-01,6.597373485565185547e-01,6.597151756286621094e-01,6.596929430961608887e-01,6.596708297729492188e-01,6.596485972404479980e-01,6.596264839172363281e-01,6.596043109893798828e-01,6.595821380615234375e-01,6.595599651336669922e-01,6.595377922058105469e-01,6.595156192779541016e-01,6.594934463500976562e-01,6.594713330268859863e-01,6.594491004943847656e-01,6.594269871711730957e-01,6.594048142433166504e-01,6.593826413154602051e-01,6.593604683876037598e-01,6.593383550643920898e-01,6.593161821365356445e-01,6.592940688133239746e-01,6.592718958854675293e-01,6.592497229576110840e-01,6.592275500297546387e-01,6.592054367065429688e-01,6.591832637786865234e-01,6.591611504554748535e-01,6.591389775276184082e-01,6.591168642044067383e-01,6.590946912765502930e-01,6.590726375579833984e-01,6.590505242347717285e-01,6.590283513069152832e-01,6.590062379837036133e-01,6.589840650558471680e-01,6.589619517326354980e-01,6.589398384094238281e-01,6.589177250862121582e-01,6.588955521583557129e-01,6.588734388351440430e-01,6.588513255119323730e-01,6.588292121887207031e-01,6.588070988655090332e-01,6.587849855422973633e-01,6.587628126144409180e-01,6.587407588958740234e-01,6.587185859680175781e-01,6.586965322494506836e-01,6.586743593215942383e-01,6.586523056030273438e-01,6.586301922798156738e-01,6.586080789566040039e-01,6.585859656333923340e-01,6.585639119148254395e-01,6.585417389869689941e-01,6.585196852684020996e-01,6.584976315498352051e-01,6.584754586219787598e-01,6.584534049034118652e-01,6.584312915802001953e-01,6.584092378616333008e-01,6.583871245384216309e-01,6.583650708198547363e-01,6.583429574966430664e-01,6.583208441734313965e-01,6.582987308502197266e-01,6.582766771316528320e-01,6.582545638084411621e-01,6.582325100898742676e-01,6.582104563713073730e-01,6.581884026527404785e-01
6.349810957908630371e-01,6.349605321884155273e-01,6.349399685859680176e-01,6.349194645881652832e-01,6.348989009857177734e-01,6.348783969879150391e-01,6.348578333854675293e-01,6.348372697830200195e-01,6.348167061805725098e-01,6.347962021827697754e-01,6.347756385803222656e-01,6.347551345825195312e-01,6.347345709800720215e-01,6.347140669822692871e-01,6.346935033798217773e-01,6.346729993820190430e-01,6.346524953842163086e-01,6.346319913864135742e-01,6.346114873886108398e-01,6.345909237861633301e-01,6.345704197883605957e-01,6.345498561859130859e-01,6.345294117927551270e-01,6.345088481903076172e-01,6.344883441925048828e-01,6.344678401947021484e-01,6.344473361968994141e-01,6.344267725944519043e-01,6.344063282012939453e-01,6.343857645988464355e-01,6.343652606010437012e-01,6.343447566032409668e-01,6.343242526054382324e-01,6.343037486076354980e-01,6.342832446098327637e-01,6.342627406120300293e-01,6.342422366142272949e-01,6.342217326164245605e-01,6.342012882232666016e-01,6.341807246208190918e-01,6.341602802276611328e-01,6.341397762298583984e-01,6.341192722320556641e-01,6.340988278388977051e-01,6.340783238410949707e-01,6.340578198432922363e-01,6.340373158454895020e-01,6.340168714523315430e-01,6.339963674545288086e-01,6.339759230613708496e-01,6.339554190635681152e-01,6.339349150657653809e-01,6.339144110679626465e-01,6.338939666748046875e-01,6.338734626770019531e-01,6.338530182838439941e-01,6.338325142860412598e-01,6.338120698928833008e-01,6.337915658950805664e-01,6.337711215019226074e-01,6.337506175041198730e-01,6.337301731109619141e-01,6.337097287178039551e-01,6.336892843246459961e-01,6.336688399314880371e-01,6.336483359336853027e-01,6.336278915405273438e-01,6.336073875427246094e-01,6.335870027542114258e-01,6.335664987564086914e-01,6.335460543632507324e-01,6.335256099700927734e-01,6.335051655769348145e-01,6.334846615791320801e-01,6.334642767906188965e-01,6.334437727928161621e-01,6.334233880043029785e-01,6.334028840065002441e-01,6.333824396133422852e-01,6.333619952201843262e-01
6.118438839912414551e-01,6.118247509002685547e-01,6.118057370185852051e-01,6.117866039276123047e-01,6.117675900459289551e-01,6.117484569549560547e-01,6.117294430732727051e-01,6.117103099822998047e-01,6.116912961006164551e-01,6.116721630096435547e-01,6.116531491279602051e-01,6.116340756416320801e-01,6.116150021553039551e-01,6.115959286689758301e-01,6.115769147872924805e-01,6.115578413009643555e-01,6.115387678146362305e-01,6.115197539329528809e-01,6.115006804466247559e-01,6.114816069602966309e-01,6.114625334739685059e-01,6.114435195922851562e-01,6.114244461059570312e-01,6.114054322242736816e-01,6.113863587379455566e-01,6.113672852516174316e-01,6.113482713699340820e-01,6.113291978836059570e-01,6.113101243972778320e-01,6.112911105155944824e-01,6.112720370292663574e-01,6.112530231475830078e-01,6.112340092658996582e-01,6.112149953842163086e-01,6.111959218978881836e-01,6.111769080162048340e-01,6.111578345298767090e-01,6.111388206481933594e-01,6.111197471618652344e-01,6.111007332801818848e-01,6.110817193984985352e-01,6.110627055168151855e-01,6.110436916351318359e-01,6.110246181488037109e-01,6.110056042671203613e-01,6.109865903854370117e-01,6.109675765037536621e-01,6.109485626220703125e-01,6.109295487403869629e-01,6.109104752540588379e-01,6.108915209770202637e-01,6.108724474906921387e-01,6.108534932136535645e-01,6.108344197273254395e-01,6.108154654502868652e-01,6.107963919639587402e-01,6.107774376869201660e-01,6.107583642005920410e-01,6.107394099235534668e-01,6.107203364372253418e-01,6.107013821601867676e-01,6.106823682785034180e-01,6.106633543968200684e-01,6.106443405151367188e-01,6.106253266334533691e-01,6.106063723564147949e-01,6.105873584747314453e-01,6.105684041976928711e-01,6.105493307113647461e-01,6.105303764343261719e-01,6.105113625526428223e-01,6.104924082756042480e-01,6.104733943939208984e-01,6.104543805122375488e-01,6.104353666305541992e-01,6.104164123535156250e-01,6.103973984718322754e-01,6.103784441947937012e-01,6.103594303131103516e-01,6.103404760360717773e-01
5.903334021568298340e-01,5.903156995773315430e-01,5.902979373931884766e-01,5.902801752090454102e-01,5.902624130249023438e-01,5.902446508407592773e-01,5.902268886566162109e-01,5.902091860771179199e-01,5.901913642883300781e-01,5.901736617088317871e-01,5.901558995246887207e-01,5.901381373405456543e-01,5.901203751564025879e-01,5.901026725769042969e-01,5.900849103927612305e-01,5.900671482086181641e-01,5.900494456291198730e-01,5.900316834449768066e-01,5.900139808654785156e-01,5.899962186813354492e-01,5.899785161018371582e-01,5.899607539176940918e-01,5.899429917335510254e-01,5.899252891540527344e-01,5.899075269699096680e-01,5.898897647857666016e-01,5.898720622062683105e-01,5.898543596267700195e-01,5.898366570472717285e-01,5.898188948631286621e-01,5.898011922836303711e-01,5.897834300994873047e-01,5.897657275199890137e-01,5.897479653358459473e-01,5.897302627563476562e-01,5.897125601768493652e-01,5.896948575973510742e-01,5.896770954132080078e-01,5.896593928337097168e-01,5.896416306495666504e-01,5.896239280700683594e-01,5.896062850952148438e-01,5.895885229110717773e-01,5.895708203315734863e-01,5.895531177520751953e-01,5.895354151725769043e-01,5.895176529884338379e-01,5.895000100135803223e-01,5.894822478294372559e-01,5.894645452499389648e-01,5.894468426704406738e-01,5.894291400909423828e-01,5.894114375114440918e-01,5.893937349319458008e-01,5.893760323524475098e-01,5.893583297729492188e-01,5.893406271934509277e-01,5.893229246139526367e-01,5.893052220344543457e-01,5.892875194549560547e-01,5.892698168754577637e-01,5.892521739006042480e-01,5.892344117164611816e-01,5.892167687416076660e-01,5.891990661621093750e-01,5.891813635826110840e-01,5.891637206077575684e-01,5.891460180282592773e-01,5.891283154487609863e-01,5.891106128692626953e-01,5.890929698944091797e-01,5.890752673149108887e-01,5.890575647354125977e-01,5.890398621559143066e-01,5.890222191810607910e-01,5.890045166015625000e-01,5.889868736267089844e-01,5.889691710472106934e-01,5.889515280723571777e-01,5.889338254928588867e-01
