5.000000000000000000e+00,5.000000000000000000e+00,5.000000000000000000e+00,5.000000000000000000e+00,5.000000000000000000e+00,5.000000000000000000e+00,5.000000000000000000e+00,5.000000000000000000e+00,5.000000000000000000e+00,5.000000000000000000e+00,5.000000000000000000e+00,5.000000000000000000e+00,5.000000000000000000e+00,5.000000000000000000e+00,5.000000000000000000e+00,5.000000000000000000e+00,5.000000000000000000e+00,5.000000000000000000e+00,5.000000000000000000e+00,5.000000000000000000e+00,5.000000000000000000e+00,5.000000000000000000e+00,5.000000000000000000e+00,5.000000000000000000e+00,5.000000000000000000e+00,5.000000000000000000e+00,5.000000000000000000e+00,5.000000000000000000e+00,5.000000000000000000e+00,5.000000000000000000e+00,5.000000000000000000e+00,5.000000000000000000e+00,5.000000000000000000e+00,5.000000000000000000e+00,5.000000000000000000e+00,5.000000000000000000e+00,5.000000000000000000e+00,5.000000000000000000e+00,1.667724132537841797e+00,1.654985904693603516e+00,1.654739737510681152e+00,1.647541284561157227e+00,1.612537622451782227e+00,1.588205099105834961e+00,1.581973910331726074e+00,1.581998109817504883e+00,1.592181682586669922e+00,1.605355978012084961e+00,1.622047781944274902e+00,1.651004672050476074e+00,1.770647644996643066e+00,1.761815667152404785e+00,1.787813901901245117e+00,3.171454668045043945e+00,3.088465690612792969e+00,3.009709119796752930e+00,2.934869766235351562e+00,2.863661527633666992e+00,2.795826911926269531e+00,2.731131553649902344e+00,2.669362783432006836e+00,2.610326290130615234e+00,2.553844451904296875e+00,2.499755144119262695e+00,2.447909593582153320e+00,2.398170709609985352e+00,2.350413084030151367e+00,2.304520606994628906e+00,2.260385751724243164e+00,2.217909574508666992e+00,2.177000045776367188e+00,2.137572765350341797e+00,2.099548101425170898e+00,2.062852621078491211e+00,2.027417659759521484e+00,1.993179798126220703e+00,1.960078835487365723e+00,1.928059458732604980e+00,1.897069454193115234e+00,1.867059707641601562e+00
5.000000000000000000e+00,5.000000000000000000e+00,5.000000000000000000e+00,5.000000000000000000e+00,5.000000000000000000e+00,5.000000000000000000e+00,5.000000000000000000e+00,5.000000000000000000e+00,5.000000000000000000e+00,5.000000000000000000e+00,5.000000000000000000e+00,5.000000000000000000e+00,5.000000000000000000e+00,5.000000000000000000e+00,5.000000000000000000e+00,5.000000000000000000e+00,5.000000000000000000e+00,5.000000000000000000e+00,5.000000000000000000e+00,5.000000000000000000e+00,5.000000000000000000e+00,5.000000000000000000e+00,5.000000000000000000e+00,5.000000000000000000e+00,5.000000000000000000e+00,5.000000000000000000e+00,5.000000000000000000e+00,5.000000000000000000e+00,5.000000000000000000e+00,5.000000000000000000e+00,5.000000000000000000e+00,5.000000000000000000e+00,5.000000000000000000e+00,5.000000000000000000e+00,5.000000000000000000e+00,5.000000000000000000e+00,5.000000000000000000e+00,5.000000000000000000e+00,1.674740314483642578e+00,1.660629153251647949e+00,1.664640784263610840e+00,1.624475479125976562e+00,1.602383971214294434e+00,1.583829283714294434e+00,1.576137065887451172e+00,1.575803518295288086e+00,1.583691835403442383e+00,1.608281850814819336e+00,1.617884159088134766e+00,1.644291520118713379e+00,1.779748558998107910e+00,1.769561171531677246e+00,1.790405631065368652e+00,3.171514987945556641e+00,3.088522911071777344e+00,3.009763479232788086e+00,2.934921026229858398e+00,2.863710641860961914e+00,2.795873641967773438e+00,2.731176376342773438e+00,2.669405460357666016e+00,2.610367059707641602e+00,2.553883552551269531e+00,2.499792575836181641e+00,2.447945594787597656e+00,2.398205280303955078e+00,2.350446224212646484e+00,2.304552316665649414e+00,2.260416269302368164e+00,2.217938899993896484e+00,2.177028656005859375e+00,2.137600183486938477e+00,2.099574327468872070e+00,2.062878131866455078e+00,2.027442455291748047e+00,1.993203401565551758e+00,1.960101962089538574e+00,1.928081631660461426e+00,1.897090911865234375e+00,1.867080807685852051e+00
5.000000000000000000e+00,5.000000000000000000e+00,5.000000000000000000e+00,5.000000000000000000e+00,5.000000000000000000e+00,5.000000000000000000e+00,5.000000000000000000e+00,5.000000000000000000e+00,5.000000000000000000e+00,5.000000000000000000e+00,5.000000000000000000e+00,5.000000000000000000e+00,5.000000000000000000e+00,5.000000000000000000e+00,5.000000000000000000e+00,5.000000000000000000e+00,5.000000000000000000e+00,5.000000000000000000e+00,5.000000000000000000e+00,5.000000000000000000e+00,5.000000000000000000e+00,5.000000000000000000e+00,5.000000000000000000e+00,5.000000000000000000e+00,5.000000000000000000e+00,5.000000000000000000e+00,5.000000000000000000e+00,5.000000000000000000e+00,5.000000000000000000e+00,5.000000000000000000e+00,5.000000000000000000e+00,5.000000000000000000e+00,5.000000000000000000e+00,5.000000000000000000e+00,5.000000000000000000e+00,5.000000000000000000e+00,5.000000000000000000e+00,5.000000000000000000e+00,1.681212306022644043e+00,1.667653203010559082e+00,1.674660921096801758e+00,1.620154142379760742e+00,1.599854588508605957e+00,1.580553889274597168e+00,1.572201251983642578e+00,1.570992708206176758e+00,1.580408215522766113e+00,1.597532033920288086e+00,1.610731720924377441e+00,1.634975910186767578e+00,1.788546919822692871e+00,1.778788924217224121e+00,1.792916417121887207e+00,3.171575307846069336e+00,3.088579893112182617e+00,3.009817838668823242e+00,2.934972524642944336e+00,2.863759517669677734e+00,2.795920372009277344e+00,2.731220960617065430e+00,2.669448137283325195e+00,2.610407829284667969e+00,2.553922414779663086e+00,2.499830007553100586e+00,2.447981357574462891e+00,2.398239612579345703e+00,2.350479364395141602e+00,2.304584026336669922e+00,2.260446786880493164e+00,2.217968463897705078e+00,2.177057027816772461e+00,2.137627601623535156e+00,2.099600791931152344e+00,2.062903404235839844e+00,2.027467012405395508e+00,1.993227362632751465e+00,1.960124850273132324e+00,1.928104043006896973e+00,1.897112369537353516e+00,1.867101550102233887e+00
5.000000000000000000e+00,5.000000000000000000e+00,5.000000000000000000e+00,5.000000000000000000e+00,5.000000000000000000e+00,5.000000000000000000e+00,5.000000000000000000e+00,5.000000000000000000e+00,5.000000000000000000e+00,5.000000000000000000e+00,5.000000000000000000e+00,5.000000000000000000e+00,5.000000000000000000e+00,5.000000000000000000e+00,5.000000000000000000e+00,5.000000000000000000e+00,5.000000000000000000e+00,5.000000000000000000e+00,5.000000000000000000e+00,5.000000000000000000e+00,5.000000000000000000e+00,5.000000000000000000e+00,5.000000000000000000e+00,5.000000000000000000e+00,5.000000000000000000e+00,5.000000000000000000e+00,5.000000000000000000e+00,5.000000000000000000e+00,5.000000000000000000e+00,5.000000000000000000e+00,5.000000000000000000e+00,5.000000000000000000e+00,5.000000000000000000e+00,5.000000000000000000e+00,5.000000000000000000e+00,5.000000000000000000e+00,5.000000000000000000e+00,5.000000000000000000e+00,1.687417268753051758e+00,1.677540540695190430e+00,1.650631308555603027e+00,1.617975592613220215e+00,1.596937537193298340e+00,1.591196656227111816e+00,1.586324334144592285e+00,1.585219025611877441e+00,1.591503143310546875e+00,1.599298000335693359e+00,1.607572793960571289e+00,1.629634022712707520e+00,1.797305703163146973e+00,1.788113355636596680e+00,1.795839071273803711e+00,3.171635389328002930e+00,3.088637113571166992e+00,3.009871959686279297e+00,2.935024261474609375e+00,2.863808631896972656e+00,2.795967340469360352e+00,2.731265783309936523e+00,2.669490814208984375e+00,2.610448598861694336e+00,2.553961515426635742e+00,2.499867200851440430e+00,2.448017358779907227e+00,2.398274183273315430e+00,2.350512504577636719e+00,2.304615736007690430e+00,2.260477304458618164e+00,2.217997789382934570e+00,2.177085399627685547e+00,2.137654781341552734e+00,2.099627256393432617e+00,2.062928915023803711e+00,2.027491569519042969e+00,1.993250966072082520e+00,1.960147976875305176e+00,1.928126215934753418e+00,1.897134065628051758e+00,1.867122292518615723e+00
5.000000000000000000e+00,5.000000000000000000e+00,5.000000000000000000e+00,5.000000000000000000e+00,5.000000000000000000e+00,5.000000000000000000e+00,5.000000000000000000e+00,5.000000000000000000e+00,5.000000000000000000e+00,5.000000000000000000e+00,5.000000000000000000e+00,5.000000000000000000e+00,5.000000000000000000e+00,5.000000000000000000e+00,5.000000000000000000e+00,5.000000000000000000e+00,5.000000000000000000e+00,5.000000000000000000e+00,5.000000000000000000e+00,5.000000000000000000e+00,5.000000000000000000e+00,5.000000000000000000e+00,5.000000000000000000e+00,5.000000000000000000e+00,5.000000000000000000e+00,5.000000000000000000e+00,5.000000000000000000e+00,5.000000000000000000e+00,5.000000000000000000e+00,5.000000000000000000e+00,5.000000000000000000e+00,5.000000000000000000e+00,5.000000000000000000e+00,5.000000000000000000e+00,5.000000000000000000e+00,5.000000000000000000e+00,5.000000000000000000e+00,5.000000000000000000e+00,1.690169453620910645e+00,1.681467056274414062e+00,1.650382518768310547e+00,1.620538830757141113e+00,1.593920588493347168e+00,1.589062690734863281e+00,1.584747672080993652e+00,1.586508154869079590e+00,1.593241333961486816e+00,1.598260879516601562e+00,1.620857477188110352e+00,1.659744143486022949e+00,1.804527163505554199e+00,1.787947773933410645e+00,1.790433883666992188e+00,3.171695470809936523e+00,3.088694334030151367e+00,3.009926319122314453e+00,2.935075759887695312e+00,2.863857746124267578e+00,2.796013832092285156e+00,2.731310367584228516e+00,2.669533491134643555e+00,2.610489368438720703e+00,2.554000616073608398e+00,2.499904632568359375e+00,2.448053121566772461e+00,2.398308753967285156e+00,2.350545406341552734e+00,2.304647684097290039e+00,2.260508060455322266e+00,2.218027114868164062e+00,2.177113771438598633e+00,2.137682199478149414e+00,2.099653720855712891e+00,2.062954425811767578e+00,2.027516126632690430e+00,1.993274927139282227e+00,1.960170865058898926e+00,1.928148508071899414e+00,1.897155523300170898e+00,1.867143273353576660e+00
5.000000000000000000e+00,5.000000000000000000e+00,5.000000000000000000e+00,5.000000000000000000e+00,5.000000000000000000e+00,5.000000000000000000e+00,5.000000000000000000e+00,5.000000000000000000e+00,5.000000000000000000e+00,5.000000000000000000e+00,5.000000000000000000e+00,5.000000000000000000e+00,5.000000000000000000e+00,5.000000000000000000e+00,5.000000000000000000e+00,5.000000000000000000e+00,5.000000000000000000e+00,5.000000000000000000e+00,5.000000000000000000e+00,5.000000000000000000e+00,5.000000000000000000e+00,5.000000000000000000e+00,5.000000000000000000e+00,5.000000000000000000e+00,5.000000000000000000e+00,5.000000000000000000e+00,5.000000000000000000e+00,5.000000000000000000e+00,5.000000000000000000e+00,5.000000000000000000e+00,5.000000000000000000e+00,5.000000000000000000e+00,5.000000000000000000e+00,5.000000000000000000e+00,5.000000000000000000e+00,5.000000000000000000e+00,5.000000000000000000e+00,5.000000000000000000e+00,1.679623842239379883e+00,1.671137928962707520e+00,1.662507772445678711e+00,1.612176299095153809e+00,1.589053034782409668e+00,1.587255239486694336e+00,1.584726095199584961e+00,1.589711785316467285e+00,1.596438646316528320e+00,1.599792838096618652e+00,1.625633239746093750e+00,1.651382565498352051e+00,1.794592142105102539e+00,1.775700092315673828e+00,1.770045638084411621e+00,3.171755790710449219e+00,3.088751077651977539e+00,3.009980440139770508e+00,2.935127496719360352e+00,2.863906860351562500e+00,2.796060800552368164e+00,2.731354713439941406e+00,2.669576168060302734e+00,2.610530376434326172e+00,2.554039716720581055e+00,2.499942302703857422e+00,2.448088884353637695e+00,2.398343086242675781e+00,2.350578546524047852e+00,2.304679393768310547e+00,2.260538578033447266e+00,2.218056678771972656e+00,2.177141904830932617e+00,2.137709617614746094e+00,2.099679946899414062e+00,2.062979936599731445e+00,2.027540683746337891e+00,1.993298649787902832e+00,1.960193991661071777e+00,1.928170680999755859e+00,1.897177219390869141e+00,1.867164015769958496e+00
5.000000000000000000e+00,5.000000000000000000e+00,5.000000000000000000e+00,5.000000000000000000e+00,5.000000000000000000e+00,5.000000000000000000e+00,5.000000000000000000e+00,5.000000000000000000e+00,5.000000000000000000e+00,5.000000000000000000e+00,5.000000000000000000e+00,5.000000000000000000e+00,5.000000000000000000e+00,5.000000000000000000e+00,5.000000000000000000e+00,5.000000000000000000e+00,5.000000000000000000e+00,5.000000000000000000e+00,5.000000000000000000e+00,5.000000000000000000e+00,5.000000000000000000e+00,5.000000000000000000e+00,5.000000000000000000e+00,5.000000000000000000e+00,5.000000000000000000e+00,5.000000000000000000e+00,5.000000000000000000e+00,5.000000000000000000e+00,5.000000000000000000e+00,5.000000000000000000e+00,5.000000000000000000e+00,5.000000000000000000e+00,5.000000000000000000e+00,5.000000000000000000e+00,5.000000000000000000e+00,5.000000000000000000e+00,5.000000000000000000e+00,5.000000000000000000e+00,1.670378088951110840e+00,1.662785649299621582e+00,1.643412590026855469e+00,1.605957031250000000e+00,1.578733205795288086e+00,1.579700708389282227e+00,1.578134894371032715e+00,1.605005264282226562e+00,1.611862301826477051e+00,1.619531512260437012e+00,1.633037447929382324e+00,1.654162526130676270e+00,1.800011873245239258e+00,1.770004868507385254e+00,1.753904104232788086e+00,1.761154770851135254e+00,3.088808298110961914e+00,3.010034561157226562e+00,2.935178995132446289e+00,2.863955974578857422e+00,2.796107530593872070e+00,2.731399536132812500e+00,2.669618606567382812e+00,2.610571146011352539e+00,2.554078817367553711e+00,2.499979734420776367e+00,2.448124885559082031e+00,2.398377418518066406e+00,2.350611686706542969e+00,2.304711341857910156e+00,2.260569095611572266e+00,2.218086242675781250e+00,2.177170276641845703e+00,2.137736797332763672e+00,2.099706411361694336e+00,2.063005447387695312e+00,2.027565240859985352e+00,1.993322253227233887e+00,1.960216879844665527e+00,1.928193092346191406e+00,1.897198677062988281e+00,1.867185115814208984e+00
5.000000000000000000e+00,5.000000000000000000e+00,5.000000000000000000e+00,5.000000000000000000e+00,5.000000000000000000e+00,5.000000000000000000e+00,5.000000000000000000e+00,5.000000000000000000e+00,5.000000000000000000e+00,5.000000000000000000e+00,5.000000000000000000e+00,5.000000000000000000e+00,5.000000000000000000e+00,5.000000000000000000e+00,5.000000000000000000e+00,5.000000000000000000e+00,5.000000000000000000e+00,5.000000000000000000e+00,5.000000000000000000e+00,5.000000000000000000e+00,5.000000000000000000e+00,5.000000000000000000e+00,5.000000000000000000e+00,5.000000000000000000e+00,5.000000000000000000e+00,5.000000000000000000e+00,5.000000000000000000e+00,5.000000000000000000e+00,5.000000000000000000e+00,5.000000000000000000e+00,5.000000000000000000e+00,5.000000000000000000e+00,5.000000000000000000e+00,5.000000000000000000e+00,5.000000000000000000e+00,5.000000000000000000e+00,5.000000000000000000e+00,5.000000000000000000e+00,1.667051196098327637e+00,1.657294988632202148e+00,1.642795562744140625e+00,1.599151968955993652e+00,1.562692523002624512e+00,1.561066269874572754e+00,1.561452627182006836e+00,1.594297885894775391e+00,1.623490810394287109e+00,1.636334419250488281e+00,1.650123119354248047e+00,1.656327962875366211e+00,3.450026035308837891e+00,1.769182085990905762e+00,1.749559760093688965e+00,1.742163300514221191e+00,3.088865518569946289e+00,3.010088920593261719e+00,2.935230731964111328e+00,2.864005088806152344e+00,2.796154499053955078e+00,2.731444120407104492e+00,2.669661521911621094e+00,2.610611677169799805e+00,2.554117918014526367e+00,2.500017166137695312e+00,2.448160886764526367e+00,2.398411750793457031e+00,2.350644588470458984e+00,2.304743051528930664e+00,2.260599851608276367e+00,2.218115568161010742e+00,2.177198648452758789e+00,2.137764215469360352e+00,2.099732875823974609e+00,2.063030958175659180e+00,2.027590036392211914e+00,1.993346214294433594e+00,1.960239768028259277e+00,1.928215265274047852e+00,1.897220253944396973e+00,1.867205858230590820e+00
5.000000000000000000e+00,5.000000000000000000e+00,5.000000000000000000e+00,5.000000000000000000e+00,5.000000000000000000e+00,5.000000000000000000e+00,5.000000000000000000e+00,5.000000000000000000e+00,5.000000000000000000e+00,5.000000000000000000e+00,5.000000000000000000e+00,5.000000000000000000e+00,5.000000000000000000e+00,5.000000000000000000e+00,5.000000000000000000e+00,5.000000000000000000e+00,5.000000000000000000e+00,5.000000000000000000e+00,5.000000000000000000e+00,5.000000000000000000e+00,5.000000000000000000e+00,5.000000000000000000e+00,5.000000000000000000e+00,5.000000000000000000e+00,5.000000000000000000e+00,5.000000000000000000e+00,5.000000000000000000e+00,5.000000000000000000e+00,5.000000000000000000e+00,5.000000000000000000e+00,5.000000000000000000e+00,5.000000000000000000e+00,5.000000000000000000e+00,5.000000000000000000e+00,5.000000000000000000e+00,5.000000000000000000e+00,5.000000000000000000e+00,5.000000000000000000e+00,1.664273142814636230e+00,1.650967478752136230e+00,1.642802238464355469e+00,1.591060996055603027e+00,1.555840611457824707e+00,1.549769997596740723e+00,1.548435091972351074e+00,1.547160506248474121e+00,1.648342251777648926e+00,1.653489470481872559e+00,1.650860786437988281e+00,1.651080250740051270e+00,1.702450156211853027e+00,1.788554668426513672e+00,1.744165658950805664e+00,1.724752426147460938e+00,1.757845401763916016e+00,3.010143041610717773e+00,2.935281991958618164e+00,2.864054203033447266e+00,2.796201229095458984e+00,2.731488943099975586e+00,2.669704198837280273e+00,2.610652446746826172e+00,2.554156780242919922e+00,2.500054597854614258e+00,2.448196649551391602e+00,2.398446321487426758e+00,2.350677728652954102e+00,2.304774761199951172e+00,2.260630369186401367e+00,2.218145132064819336e+00,2.177227258682250977e+00,2.137791633605957031e+00,2.099759101867675781e+00,2.063056468963623047e+00,2.027614593505859375e+00,1.993369936943054199e+00,1.960262894630432129e+00,1.928237438201904297e+00,1.897241711616516113e+00,1.867226839065551758e+00
5.000000000000000000e+00,5.000000000000000000e+00,5.000000000000000000e+00,5.000000000000000000e+00,5.000000000000000000e+00,5.000000000000000000e+00,5.000000000000000000e+00,5.000000000000000000e+00,5.000000000000000000e+00,5.000000000000000000e+00,5.000000000000000000e+00,5.000000000000000000e+00,5.000000000000000000e+00,5.000000000000000000e+00,5.000000000000000000e+00,5.000000000000000000e+00,5.000000000000000000e+00,5.000000000000000000e+00,5.000000000000000000e+00,5.000000000000000000e+00,5.000000000000000000e+00,5.000000000000000000e+00,5.000000000000000000e+00,5.000000000000000000e+00,5.000000000000000000e+00,5.000000000000000000e+00,5.000000000000000000e+00,5.000000000000000000e+00,5.000000000000000000e+00,5.000000000000000000e+00,5.000000000000000000e+00,5.000000000000000000e+00,5.000000000000000000e+00,5.000000000000000000e+00,5.000000000000000000e+00,5.000000000000000000e+00,5.000000000000000000e+00,5.000000000000000000e+00,1.655748009681701660e+00,1.640425324440002441e+00,1.645293354988098145e+00,1.587453722953796387e+00,1.547506093978881836e+00,1.544541835784912109e+00,1.542985320091247559e+00,1.541461348533630371e+00,1.569972634315490723e+00,1.644903659820556641e+00,1.643396735191345215e+00,1.641892790794372559e+00,1.676053762435913086e+00,3.352177381515502930e+00,1.757192015647888184e+00,1.725311756134033203e+00,1.735121250152587891e+00,3.010197401046752930e+00,2.935333728790283203e+00,2.864103078842163086e+00,2.796247959136962891e+00,2.731533527374267578e+00,2.669746875762939453e+00,2.610693454742431641e+00,2.554195880889892578e+00,2.500091791152954102e+00,2.448232650756835938e+00,2.398480653762817383e+00,2.350710868835449219e+00,2.304806470870971680e+00,2.260660886764526367e+00,2.218174457550048828e+00,2.177255630493164062e+00,2.137819051742553711e+00,2.099785566329956055e+00,2.063081741333007812e+00,2.027639150619506836e+00,1.993393778800964355e+00,1.960285782814025879e+00,1.928259849548339844e+00,1.897263169288635254e+00,1.867247581481933594e+00
5.000000000000000000e+00,5.000000000000000000e+00,5.000000000000000000e+00,5.000000000000000000e+00,5.000000000000000000e+00,5.000000000000000000e+00,5.000000000000000000e+00,5.000000000000000000e+00,5.000000000000000000e+00,5.000000000000000000e+00,5.000000000000000000e+00,5.000000000000000000e+00,5.000000000000000000e+00,5.000000000000000000e+00,5.000000000000000000e+00,5.000000000000000000e+00,5.000000000000000000e+00,5.000000000000000000e+00,5.000000000000000000e+00,5.000000000000000000e+00,5.000000000000000000e+00,5.000000000000000000e+00,5.000000000000000000e+00,5.000000000000000000e+00,5.000000000000000000e+00,5.000000000000000000e+00,5.000000000000000000e+00,5.000000000000000000e+00,5.000000000000000000e+00,5.000000000000000000e+00,5.000000000000000000e+00,5.000000000000000000e+00,5.000000000000000000e+00,5.000000000000000000e+00,5.000000000000000000e+00,5.000000000000000000e+00,5.000000000000000000e+00,5.000000000000000000e+00,1.650367617607116699e+00,1.632300734519958496e+00,1.654203772544860840e+00,1.585981249809265137e+00,1.549219489097595215e+00,1.540746212005615234e+00,1.539178371429443359e+00,1.537613511085510254e+00,1.555872917175292969e+00,1.636900305747985840e+00,1.634452581405639648e+00,1.632012128829956055e+00,1.653559923171997070e+00,3.352244853973388672e+00,3.259662628173828125e+00,1.713251948356628418e+00,1.703734874725341797e+00,3.010251760482788086e+00,2.935385227203369141e+00,2.864152193069458008e+00,2.796294689178466797e+00,2.731578350067138672e+00,2.669789552688598633e+00,2.610734224319458008e+00,2.554234981536865234e+00,2.500129222869873047e+00,2.448268413543701172e+00,2.398515224456787109e+00,2.350744009017944336e+00,2.304838418960571289e+00,2.260691404342651367e+00,2.218203783035278320e+00,2.177284002304077148e+00,2.137846469879150391e+00,2.099812030792236328e+00,2.063107252120971680e+00,2.027663707733154297e+00,1.993417501449584961e+00,1.960308909416198730e+00,1.928282022476196289e+00,1.897284865379333496e+00,1.867268443107604980e+00
5.000000000000000000e+00,5.000000000000000000e+00,5.000000000000000000e+00,5.000000000000000000e+00,5.000000000000000000e+00,5.000000000000000000e+00,5.000000000000000000e+00,5.000000000000000000e+00,5.000000000000000000e+00,5.000000000000000000e+00,5.000000000000000000e+00,5.000000000000000000e+00,5.000000000000000000e+00,5.000000000000000000e+00,5.000000000000000000e+00,5.000000000000000000e+00,5.000000000000000000e+00,5.000000000000000000e+00,5.000000000000000000e+00,5.000000000000000000e+00,5.000000000000000000e+00,5.000000000000000000e+00,5.000000000000000000e+00,5.000000000000000000e+00,5.000000000000000000e+00,5.000000000000000000e+00,5.000000000000000000e+00,5.000000000000000000e+00,5.000000000000000000e+00,5.000000000000000000e+00,5.000000000000000000e+00,5.000000000000000000e+00,5.000000000000000000e+00,5.000000000000000000e+00,5.000000000000000000e+00,5.000000000000000000e+00,5.000000000000000000e+00,5.000000000000000000e+00,1.655549764633178711e+00,1.644066095352172852e+00,1.660823464393615723e+00,1.589024186134338379e+00,1.556403160095214844e+00,1.538361668586730957e+00,1.536165833473205566e+00,1.534607052803039551e+00,1.547921299934387207e+00,1.634868264198303223e+00,1.630049228668212891e+00,1.629166483879089355e+00,1.646632313728332520e+00,3.352312088012695312e+00,3.259726285934448242e+00,1.689618587493896484e+00,1.681732535362243652e+00,1.682924032211303711e+00,2.935436964035034180e+00,2.864201545715332031e+00,2.796341419219970703e+00,2.731622695922851562e+00,2.669832229614257812e+00,2.610774993896484375e+00,2.554274082183837891e+00,2.500166654586791992e+00,2.448304176330566406e+00,2.398549795150756836e+00,2.350777149200439453e+00,2.304870128631591797e+00,2.260722160339355469e+00,2.218233346939086914e+00,2.177312135696411133e+00,2.137873649597167969e+00,2.099838256835937500e+00,2.063132762908935547e+00,2.027688264846801758e+00,1.993441224098205566e+00,1.960331916809082031e+00,1.928304314613342285e+00,1.897306323051452637e+00,1.867289423942565918e+00
5.000000000000000000e+00,5.000000000000000000e+00,5.000000000000000000e+00,5.000000000000000000e+00,5.000000000000000000e+00,5.000000000000000000e+00,5.000000000000000000e+00,5.000000000000000000e+00,5.000000000000000000e+00,5.000000000000000000e+00,5.000000000000000000e+00,5.000000000000000000e+00,5.000000000000000000e+00,5.000000000000000000e+00,5.000000000000000000e+00,5.000000000000000000e+00,5.000000000000000000e+00,5.000000000000000000e+00,5.000000000000000000e+00,5.000000000000000000e+00,5.000000000000000000e+00,5.000000000000000000e+00,5.000000000000000000e+00,5.000000000000000000e+00,5.000000000000000000e+00,5.000000000000000000e+00,5.000000000000000000e+00,5.000000000000000000e+00,5.000000000000000000e+00,5.000000000000000000e+00,5.000000000000000000e+00,5.000000000000000000e+00,5.000000000000000000e+00,5.000000000000000000e+00,5.000000000000000000e+00,5.000000000000000000e+00,5.000000000000000000e+00,5.000000000000000000e+00,1.647691845893859863e+00,1.632078170776367188e+00,4.875753879547119141e+00,1.604056596755981445e+00,1.563653707504272461e+00,1.536508917808532715e+00,1.533658742904663086e+00,1.531612277030944824e+00,1.540050506591796875e+00,1.584953784942626953e+00,1.629695415496826172e+00,1.628631114959716797e+00,1.643062472343444824e+00,1.701313495635986328e+00,3.259789943695068359e+00,3.172177314758300781e+00,1.655237674713134766e+00,1.665732502937316895e+00,2.935488462448120117e+00,2.864250659942626953e+00,2.796388387680053711e+00,2.731667518615722656e+00,2.669874668121337891e+00,2.610815763473510742e+00,2.554313182830810547e+00,2.500204086303710938e+00,2.448340177536010742e+00,2.398583889007568359e+00,2.350810050964355469e+00,2.304902076721191406e+00,2.260752677917480469e+00,2.218262910842895508e+00,2.177340507507324219e+00,2.137901067733764648e+00,2.099864721298217773e+00,2.063158273696899414e+00,2.027713060379028320e+00,1.993465065956115723e+00,1.960354804992675781e+00,1.928326487541198730e+00,1.897328019142150879e+00,1.867310166358947754e+00
5.000000000000000000e+00,5.000000000000000000e+00,5.000000000000000000e+00,5.000000000000000000e+00,5.000000000000000000e+00,5.000000000000000000e+00,5.000000000000000000e+00,5.000000000000000000e+00,5.000000000000000000e+00,5.000000000000000000e+00,5.000000000000000000e+00,5.000000000000000000e+00,5.000000000000000000e+00,5.000000000000000000e+00,5.000000000000000000e+00,5.000000000000000000e+00,5.000000000000000000e+00,5.000000000000000000e+00,5.000000000000000000e+00,5.000000000000000000e+00,5.000000000000000000e+00,5.000000000000000000e+00,5.000000000000000000e+00,5.000000000000000000e+00,5.000000000000000000e+00,5.000000000000000000e+00,5.000000000000000000e+00,5.000000000000000000e+00,5.000000000000000000e+00,5.000000000000000000e+00,5.000000000000000000e+00,5.000000000000000000e+00,5.000000000000000000e+00,5.000000000000000000e+00,5.000000000000000000e+00,5.000000000000000000e+00,5.000000000000000000e+00,5.000000000000000000e+00,1.637147068977355957e+00,1.615362048149108887e+00,1.615858316421508789e+00,1.619375944137573242e+00,1.570972204208374023e+00,1.536132454872131348e+00,1.531817317008972168e+00,1.528984427452087402e+00,1.532259345054626465e+00,1.574636697769165039e+00,1.631119370460510254e+00,1.630149006843566895e+00,1.642148733139038086e+00,3.352446794509887695e+00,3.259853601455688477e+00,3.172237634658813477e+00,3.089208126068115234e+00,1.717491149902343750e+00,2.935540199279785156e+00,2.864299774169921875e+00,2.796435117721557617e+00,2.731712102890014648e+00,2.669917345046997070e+00,2.610856533050537109e+00,2.554352283477783203e+00,2.500241518020629883e+00,2.448375940322875977e+00,2.398618459701538086e+00,2.350843191146850586e+00,2.304933786392211914e+00,2.260783433914184570e+00,2.218292236328125000e+00,2.177369117736816406e+00,2.137928247451782227e+00,2.099891185760498047e+00,2.063183784484863281e+00,2.027737617492675781e+00,1.993488788604736328e+00,1.960377931594848633e+00,1.928348660469055176e+00,1.897349476814270020e+00,1.867331147193908691e+00
5.000000000000000000e+00,5.000000000000000000e+00,5.000000000000000000e+00,5.000000000000000000e+00,5.000000000000000000e+00,5.000000000000000000e+00,5.000000000000000000e+00,5.000000000000000000e+00,5.000000000000000000e+00,5.000000000000000000e+00,5.000000000000000000e+00,5.000000000000000000e+00,5.000000000000000000e+00,5.000000000000000000e+00,5.000000000000000000e+00,5.000000000000000000e+00,5.000000000000000000e+00,5.000000000000000000e+00,5.000000000000000000e+00,5.000000000000000000e+00,5.000000000000000000e+00,5.000000000000000000e+00,5.000000000000000000e+00,5.000000000000000000e+00,5.000000000000000000e+00,5.000000000000000000e+00,5.000000000000000000e+00,5.000000000000000000e+00,5.000000000000000000e+00,5.000000000000000000e+00,5.000000000000000000e+00,5.000000000000000000e+00,5.000000000000000000e+00,5.000000000000000000e+00,5.000000000000000000e+00,5.000000000000000000e+00,5.000000000000000000e+00,5.000000000000000000e+00,1.625544786453247070e+00,1.606489300727844238e+00,1.609547853469848633e+00,1.633118271827697754e+00,1.578359603881835938e+00,1.543285727500915527e+00,1.529609084129333496e+00,1.526607632637023926e+00,1.523985147476196289e+00,1.564453363418579102e+00,1.631297469139099121e+00,1.631669878959655762e+00,1.641235947608947754e+00,3.352513790130615234e+00,3.259917259216308594e+00,3.172297954559326172e+00,3.089265346527099609e+00,1.736849308013916016e+00,1.666949868202209473e+00,2.864348888397216797e+00,2.796482086181640625e+00,2.731756925582885742e+00,2.669960021972656250e+00,2.610897302627563477e+00,2.554391384124755859e+00,2.500278949737548828e+00,2.448411941528320312e+00,2.398652791976928711e+00,2.350876092910766602e+00,2.304965496063232422e+00,2.260813951492309570e+00,2.218321800231933594e+00,2.177397489547729492e+00,2.137955665588378906e+00,2.099917411804199219e+00,2.063209295272827148e+00,2.027762174606323242e+00,1.993512749671936035e+00,1.960400819778442383e+00,1.928371071815490723e+00,1.897371172904968262e+00,1.867351889610290527e+00
5.000000000000000000e+00,5.000000000000000000e+00,5.000000000000000000e+00,5.000000000000000000e+00,5.000000000000000000e+00,5.000000000000000000e+00,5.000000000000000000e+00,5.000000000000000000e+00,5.000000000000000000e+00,5.000000000000000000e+00,5.000000000000000000e+00,5.000000000000000000e+00,5.000000000000000000e+00,5.000000000000000000e+00,5.000000000000000000e+00,5.000000000000000000e+00,5.000000000000000000e+00,5.000000000000000000e+00,5.000000000000000000e+00,5.000000000000000000e+00,5.000000000000000000e+00,5.000000000000000000e+00,5.000000000000000000e+00,5.000000000000000000e+00,5.000000000000000000e+00,5.000000000000000000e+00,5.000000000000000000e+00,5.000000000000000000e+00,5.000000000000000000e+00,5.000000000000000000e+00,5.000000000000000000e+00,5.000000000000000000e+00,5.000000000000000000e+00,5.000000000000000000e+00,5.000000000000000000e+00,5.000000000000000000e+00,5.000000000000000000e+00,5.000000000000000000e+00,1.621106624603271484e+00,1.594995617866516113e+00,1.605468511581420898e+00,4.682717800140380859e+00,1.590001583099365234e+00,1.551289558410644531e+00,1.525151133537292480e+00,1.521628975868225098e+00,1.518658638000488281e+00,1.554690241813659668e+00,1.631076931953430176e+00,1.632543563842773438e+00,1.640324234962463379e+00,3.352581024169921875e+00,3.259980678558349609e+00,3.172358274459838867e+00,3.089322328567504883e+00,3.010522842407226562e+00,2.935643196105957031e+00,2.864397764205932617e+00,2.796528816223144531e+00,2.731801509857177734e+00,2.670002698898315430e+00,2.610938072204589844e+00,2.554430246353149414e+00,2.500316381454467773e+00,2.448447942733764648e+00,2.398687362670898438e+00,2.350909233093261719e+00,2.304997444152832031e+00,2.260844469070434570e+00,2.218351364135742188e+00,2.177425861358642578e+00,2.137983083724975586e+00,2.099943876266479492e+00,2.063234567642211914e+00,2.027786970138549805e+00,1.993536472320556641e+00,1.960423946380615234e+00,1.928393244743347168e+00,1.897392630577087402e+00,1.867372989654541016e+00
5.000000000000000000e+00,5.000000000000000000e+00,5.000000000000000000e+00,5.000000000000000000e+00,5.000000000000000000e+00,5.000000000000000000e+00,5.000000000000000000e+00,5.000000000000000000e+00,5.000000000000000000e+00,5.000000000000000000e+00,5.000000000000000000e+00,5.000000000000000000e+00,5.000000000000000000e+00,5.000000000000000000e+00,5.000000000000000000e+00,5.000000000000000000e+00,5.000000000000000000e+00,5.000000000000000000e+00,5.000000000000000000e+00,5.000000000000000000e+00,5.000000000000000000e+00,5.000000000000000000e+00,5.000000000000000000e+00,5.000000000000000000e+00,5.000000000000000000e+00,5.000000000000000000e+00,5.000000000000000000e+00,5.000000000000000000e+00,5.000000000000000000e+00,5.000000000000000000e+00,5.000000000000000000e+00,5.000000000000000000e+00,5.000000000000000000e+00,5.000000000000000000e+00,5.000000000000000000e+00,5.000000000000000000e+00,5.000000000000000000e+00,5.000000000000000000e+00,1.616195678710937500e+00,1.585759639739990234e+00,4.876322746276855469e+00,4.682849407196044922e+00,1.604885458946228027e+00,1.559527158737182617e+00,1.525174736976623535e+00,1.516682505607604980e+00,1.513731479644775391e+00,1.545064210891723633e+00,1.630856394767761230e+00,1.632331728935241699e+00,1.640321493148803711e+00,3.352648496627807617e+00,3.260044336318969727e+00,3.172418355941772461e+00,3.089379549026489258e+00,3.010577201843261719e+00,2.935694694519042969e+00,2.864446878433227539e+00,2.796575546264648438e+00,2.731846332550048828e+00,2.670045614242553711e+00,2.610979080200195312e+00,2.554469347000122070e+00,2.500353574752807617e+00,2.448483705520629883e+00,2.398721933364868164e+00,2.350942373275756836e+00,2.305029153823852539e+00,2.260874986648559570e+00,2.218380689620971680e+00,2.177454233169555664e+00,2.138010501861572266e+00,2.099970340728759766e+00,2.063260078430175781e+00,2.027811288833618164e+00,1.993560314178466797e+00,1.960446834564208984e+00,1.928415656089782715e+00,1.897414088249206543e+00,1.867393732070922852e+00
5.000000000000000000e+00,5.000000000000000000e+00,5.000000000000000000e+00,5.000000000000000000e+00,5.000000000000000000e+00,5.000000000000000000e+00,5.000000000000000000e+00,5.000000000000000000e+00,5.000000000000000000e+00,5.000000000000000000e+00,5.000000000000000000e+00,5.000000000000000000e+00,5.000000000000000000e+00,5.000000000000000000e+00,5.000000000000000000e+00,5.000000000000000000e+00,5.000000000000000000e+00,5.000000000000000000e+00,5.000000000000000000e+00,5.000000000000000000e+00,5.000000000000000000e+00,5.000000000000000000e+00,5.000000000000000000e+00,5.000000000000000000e+00,5.000000000000000000e+00,5.000000000000000000e+00,5.000000000000000000e+00,5.000000000000000000e+00,5.000000000000000000e+00,5.000000000000000000e+00,5.000000000000000000e+00,5.000000000000000000e+00,5.000000000000000000e+00,5.000000000000000000e+00,5.000000000000000000e+00,5.000000000000000000e+00,5.000000000000000000e+00,5.000000000000000000e+00,1.608615517616271973e+00,5.000000000000000000e+00,4.876464843750000000e+00,4.682980537414550781e+00,1.617270588874816895e+00,1.567852973937988281e+00,1.531845688819885254e+00,1.515244126319885254e+00,1.508836388587951660e+00,1.533356070518493652e+00,1.631590008735656738e+00,1.633696198463439941e+00,1.636063337326049805e+00,3.352715730667114258e+00,3.260107994079589844e+00,3.172478437423706055e+00,3.089436769485473633e+00,3.010631322860717773e+00,2.935746431350708008e+00,2.864495992660522461e+00,2.796622276306152344e+00,2.731890678405761719e+00,2.670088291168212891e+00,2.611019849777221680e+00,2.554508447647094727e+00,2.500391244888305664e+00,2.448519468307495117e+00,2.398756265640258789e+00,2.350975513458251953e+00,2.305061101913452148e+00,2.260905742645263672e+00,2.218410015106201172e+00,2.177482604980468750e+00,2.138037919998168945e+00,2.099996805191040039e+00,2.063285589218139648e+00,2.027836084365844727e+00,1.993584036827087402e+00,1.960469961166381836e+00,1.928437829017639160e+00,1.897435784339904785e+00,1.867414474487304688e+00
5.000000000000000000e+00,5.000000000000000000e+00,5.000000000000000000e+00,5.000000000000000000e+00,5.000000000000000000e+00,5.000000000000000000e+00,5.000000000000000000e+00,5.000000000000000000e+00,5.000000000000000000e+00,5.000000000000000000e+00,5.000000000000000000e+00,5.000000000000000000e+00,5.000000000000000000e+00,5.000000000000000000e+00,5.000000000000000000e+00,5.000000000000000000e+00,5.000000000000000000e+00,5.000000000000000000e+00,5.000000000000000000e+00,5.000000000000000000e+00,5.000000000000000000e+00,5.000000000000000000e+00,5.000000000000000000e+00,5.000000000000000000e+00,5.000000000000000000e+00,5.000000000000000000e+00,5.000000000000000000e+00,5.000000000000000000e+00,5.000000000000000000e+00,5.000000000000000000e+00,5.000000000000000000e+00,5.000000000000000000e+00,5.000000000000000000e+00,5.000000000000000000e+00,5.000000000000000000e+00,5.000000000000000000e+00,5.000000000000000000e+00,5.000000000000000000e+00,5.000000000000000000e+00,5.000000000000000000e+00,4.876607418060302734e+00,4.683111667633056641e+00,4.504385471343994141e+00,1.582251787185668945e+00,1.540430188179016113e+00,1.515267372131347656e+00,1.505442142486572266e+00,1.521824240684509277e+00,1.630398988723754883e+00,1.635063171386718750e+00,1.636742234230041504e+00,3.352782964706420898e+00,3.260171651840209961e+00,3.172538757324218750e+00,3.089493751525878906e+00,3.010685682296752930e+00,2.935797929763793945e+00,2.864545345306396484e+00,2.796669244766235352e+00,2.731935501098632812e+00,2.670130968093872070e+00,2.611060619354248047e+00,2.554547309875488281e+00,2.500428676605224609e+00,2.448555469512939453e+00,2.398790597915649414e+00,2.351008653640747070e+00,2.305092811584472656e+00,2.260936260223388672e+00,2.218439579010009766e+00,2.177510976791381836e+00,2.138065338134765625e+00,2.100023031234741211e+00,2.063311100006103516e+00,2.027860641479492188e+00,1.993607759475708008e+00,1.960492849349975586e+00,1.928460121154785156e+00,1.897457242012023926e+00,1.867435455322265625e+00
5.000000000000000000e+00,5.000000000000000000e+00,5.000000000000000000e+00,5.000000000000000000e+00,5.000000000000000000e+00,5.000000000000000000e+00,5.000000000000000000e+00,5.000000000000000000e+00,5.000000000000000000e+00,5.000000000000000000e+00,5.000000000000000000e+00,5.000000000000000000e+00,5.000000000000000000e+00,5.000000000000000000e+00,5.000000000000000000e+00,5.000000000000000000e+00,5.000000000000000000e+00,5.000000000000000000e+00,5.000000000000000000e+00,5.000000000000000000e+00,5.000000000000000000e+00,5.000000000000000000e+00,5.000000000000000000e+00,5.000000000000000000e+00,5.000000000000000000e+00,5.000000000000000000e+00,5.000000000000000000e+00,5.000000000000000000e+00,5.000000000000000000e+00,5.000000000000000000e+00,5.000000000000000000e+00,5.000000000000000000e+00,5.000000000000000000e+00,5.000000000000000000e+00,5.000000000000000000e+00,5.000000000000000000e+00,5.000000000000000000e+00,5.000000000000000000e+00,5.000000000000000000e+00,5.000000000000000000e+00,4.876749992370605469e+00,4.683243274688720703e+00,4.504506587982177734e+00,1.591239571571350098e+00,1.549111485481262207e+00,1.515945911407470703e+00,1.504434347152709961e+00,1.515130281448364258e+00,1.629458427429199219e+00,1.635323047637939453e+00,1.638114213943481445e+00,3.352850437164306641e+00,3.260235309600830078e+00,3.172599077224731445e+00,3.089550971984863281e+00,3.010739803314208984e+00,2.935849666595458984e+00,2.864594459533691406e+00,2.796715974807739258e+00,2.731980085372924805e+00,2.670173406600952148e+00,2.611101388931274414e+00,2.554586410522460938e+00,2.500466108322143555e+00,2.448591232299804688e+00,2.398825168609619141e+00,2.351041555404663086e+00,2.305124759674072266e+00,2.260966777801513672e+00,2.218469142913818359e+00,2.177539348602294922e+00,2.138092517852783203e+00,2.100049495697021484e+00,2.063336610794067383e+00,2.027885198593139648e+00,1.993631720542907715e+00,1.960515856742858887e+00,1.928482294082641602e+00,1.897478818893432617e+00,1.867456316947937012e+00
5.000000000000000000e+00,5.000000000000000000e+00,5.000000000000000000e+00,5.000000000000000000e+00,5.000000000000000000e+00,5.000000000000000000e+00,5.000000000000000000e+00,5.000000000000000000e+00,5.000000000000000000e+00,5.000000000000000000e+00,5.000000000000000000e+00,5.000000000000000000e+00,5.000000000000000000e+00,5.000000000000000000e+00,5.000000000000000000e+00,5.000000000000000000e+00,5.000000000000000000e+00,5.000000000000000000e+00,5.000000000000000000e+00,5.000000000000000000e+00,5.000000000000000000e+00,5.000000000000000000e+00,5.000000000000000000e+00,5.000000000000000000e+00,5.000000000000000000e+00,5.000000000000000000e+00,5.000000000000000000e+00,5.000000000000000000e+00,5.000000000000000000e+00,5.000000000000000000e+00,5.000000000000000000e+00,5.000000000000000000e+00,5.000000000000000000e+00,5.000000000000000000e+00,5.000000000000000000e+00,5.000000000000000000e+00,5.000000000000000000e+00,5.000000000000000000e+00,5.000000000000000000e+00,5.000000000000000000e+00,4.876892089843750000e+00,4.683374404907226562e+00,4.504628181457519531e+00,1.600649356842041016e+00,1.558651924133300781e+00,1.520727992057800293e+00,1.506994724273681641e+00,1.515051484107971191e+00,1.631735205650329590e+00,1.634126543998718262e+00,1.639488220214843750e+00,3.352917671203613281e+00,3.260298967361450195e+00,3.172659397125244141e+00,3.089607954025268555e+00,3.010793924331665039e+00,2.935900926589965820e+00,2.864643573760986328e+00,2.796762943267822266e+00,2.732024908065795898e+00,2.670216083526611328e+00,2.611142158508300781e+00,2.554625511169433594e+00,2.500503540039062500e+00,2.448627233505249023e+00,2.398859500885009766e+00,2.351074695587158203e+00,2.305156469345092773e+00,2.260997533798217773e+00,2.218498468399047852e+00,2.177567720413208008e+00,2.138119935989379883e+00,2.100075721740722656e+00,2.063362121582031250e+00,2.027909994125366211e+00,1.993655323982238770e+00,1.960538983345031738e+00,1.928504467010498047e+00,1.897500276565551758e+00,1.867477297782897949e+00
5.000000000000000000e+00,5.000000000000000000e+00,5.000000000000000000e+00,5.000000000000000000e+00,5.000000000000000000e+00,5.000000000000000000e+00,5.000000000000000000e+00,5.000000000000000000e+00,5.000000000000000000e+00,5.000000000000000000e+00,5.000000000000000000e+00,5.000000000000000000e+00,5.000000000000000000e+00,5.000000000000000000e+00,5.000000000000000000e+00,5.000000000000000000e+00,5.000000000000000000e+00,5.000000000000000000e+00,5.000000000000000000e+00,5.000000000000000000e+00,5.000000000000000000e+00,5.000000000000000000e+00,5.000000000000000000e+00,5.000000000000000000e+00,5.000000000000000000e+00,5.000000000000000000e+00,5.000000000000000000e+00,5.000000000000000000e+00,5.000000000000000000e+00,5.000000000000000000e+00,5.000000000000000000e+00,5.000000000000000000e+00,5.000000000000000000e+00,5.000000000000000000e+00,5.000000000000000000e+00,5.000000000000000000e+00,5.000000000000000000e+00,5.000000000000000000e+00,5.000000000000000000e+00,5.000000000000000000e+00,4.877034664154052734e+00,4.683505535125732422e+00,4.504749774932861328e+00,4.339137077331542969e+00,1.559624671936035156e+00,1.528703927993774414e+00,1.513891220092773438e+00,1.526990532875061035e+00,1.634252190589904785e+00,1.634444236755371094e+00,1.640488147735595703e+00,3.352984666824340820e+00,3.260362625122070312e+00,3.172719717025756836e+00,3.089665174484252930e+00,3.010848283767700195e+00,2.935952663421630859e+00,2.864692449569702148e+00,2.796809673309326172e+00,2.732069492340087891e+00,2.670258760452270508e+00,2.611182928085327148e+00,2.554664611816406250e+00,2.500540971755981445e+00,2.448663234710693359e+00,2.398894071578979492e+00,2.351107835769653320e+00,2.305188179016113281e+00,2.261028051376342773e+00,2.218528032302856445e+00,2.177596092224121094e+00,2.138147354125976562e+00,2.100102186203002930e+00,2.063387632369995117e+00,2.027934551239013672e+00,1.993679285049438477e+00,1.960561871528625488e+00,1.928526878356933594e+00,1.897521734237670898e+00,1.867498040199279785e+00
5.000000000000000000e+00,5.000000000000000000e+00,5.000000000000000000e+00,5.000000000000000000e+00,5.000000000000000000e+00,5.000000000000000000e+00,5.000000000000000000e+00,5.000000000000000000e+00,5.000000000000000000e+00,5.000000000000000000e+00,5.000000000000000000e+00,5.000000000000000000e+00,5.000000000000000000e+00,5.000000000000000000e+00,5.000000000000000000e+00,5.000000000000000000e+00,5.000000000000000000e+00,5.000000000000000000e+00,5.000000000000000000e+00,5.000000000000000000e+00,5.000000000000000000e+00,5.000000000000000000e+00,5.000000000000000000e+00,5.000000000000000000e+00,5.000000000000000000e+00,5.000000000000000000e+00,5.000000000000000000e+00,5.000000000000000000e+00,5.000000000000000000e+00,5.000000000000000000e+00,5.000000000000000000e+00,5.000000000000000000e+00,5.000000000000000000e+00,5.000000000000000000e+00,5.000000000000000000e+00,5.000000000000000000e+00,5.000000000000000000e+00,5.000000000000000000e+00,5.000000000000000000e+00,5.000000000000000000e+00,4.877177238464355469e+00,4.683637142181396484e+00,4.504870891571044922e+00,1.605842828750610352e+00,1.559051275253295898e+00,1.537764191627502441e+00,1.525662899017333984e+00,1.542391657829284668e+00,1.639970779418945312e+00,1.642157673835754395e+00,1.648885369300842285e+00,3.353052139282226562e+00,3.260426044464111328e+00,3.172779798507690430e+00,3.089722394943237305e+00,3.010902643203735352e+00,2.936004161834716797e+00,2.864741563796997070e+00,2.796856403350830078e+00,2.732114315032958984e+00,2.670301437377929688e+00,2.611223936080932617e+00,2.554703712463378906e+00,2.500578165054321289e+00,2.448698997497558594e+00,2.398928403854370117e+00,2.351140975952148438e+00,2.305219888687133789e+00,2.261058568954467773e+00,2.218557357788085938e+00,2.177624464035034180e+00,2.138174772262573242e+00,2.100128650665283203e+00,2.063412904739379883e+00,2.027959108352661133e+00,1.993703007698059082e+00,1.960584998130798340e+00,1.928549051284790039e+00,1.897543430328369141e+00,1.867518901824951172e+00
5.000000000000000000e+00,5.000000000000000000e+00,5.000000000000000000e+00,5.000000000000000000e+00,5.000000000000000000e+00,5.000000000000000000e+00,5.000000000000000000e+00,5.000000000000000000e+00,5.000000000000000000e+00,5.000000000000000000e+00,5.000000000000000000e+00,5.000000000000000000e+00,5.000000000000000000e+00,5.000000000000000000e+00,5.000000000000000000e+00,5.000000000000000000e+00,5.000000000000000000e+00,5.000000000000000000e+00,5.000000000000000000e+00,5.000000000000000000e+00,5.000000000000000000e+00,5.000000000000000000e+00,5.000000000000000000e+00,5.000000000000000000e+00,5.000000000000000000e+00,5.000000000000000000e+00,5.000000000000000000e+00,5.000000000000000000e+00,5.000000000000000000e+00,5.000000000000000000e+00,5.000000000000000000e+00,5.000000000000000000e+00,5.000000000000000000e+00,5.000000000000000000e+00,5.000000000000000000e+00,5.000000000000000000e+00,5.000000000000000000e+00,5.000000000000000000e+00,5.000000000000000000e+00,5.000000000000000000e+00,4.877319335937500000e+00,4.683768272399902344e+00,4.504992485046386719e+00,1.600603580474853516e+00,1.561071634292602539e+00,1.546638607978820801e+00,1.537619113922119141e+00,1.564415931701660156e+00,1.652818799018859863e+00,1.657536745071411133e+00,3.451166391372680664e+00,3.353119373321533203e+00,3.260489702224731445e+00,3.172839879989624023e+00,3.089779615402221680e+00,3.010957002639770508e+00,2.936055898666381836e+00,2.864790678024291992e+00,2.796903133392333984e+00,2.732159137725830078e+00,2.670344352722167969e+00,2.611264705657958984e+00,2.554742813110351562e+00,2.500615596771240234e+00,2.448734760284423828e+00,2.398962974548339844e+00,2.351174116134643555e+00,2.305251836776733398e+00,2.261089324951171875e+00,2.218586921691894531e+00,2.177652835845947266e+00,2.138201951980590820e+00,2.100155115127563477e+00,2.063438415527343750e+00,2.027983665466308594e+00,1.993726849555969238e+00,1.960607886314392090e+00,1.928571462631225586e+00,1.897564888000488281e+00,1.867539882659912109e+00
5.000000000000000000e+00,5.000000000000000000e+00,5.000000000000000000e+00,5.000000000000000000e+00,5.000000000000000000e+00,5.000000000000000000e+00,5.000000000000000000e+00,5.000000000000000000e+00,5.000000000000000000e+00,5.000000000000000000e+00,5.000000000000000000e+00,5.000000000000000000e+00,5.000000000000000000e+00,5.000000000000000000e+00,5.000000000000000000e+00,5.000000000000000000e+00,5.000000000000000000e+00,5.000000000000000000e+00,5.000000000000000000e+00,5.000000000000000000e+00,5.000000000000000000e+00,5.000000000000000000e+00,5.000000000000000000e+00,5.000000000000000000e+00,5.000000000000000000e+00,5.000000000000000000e+00,5.000000000000000000e+00,5.000000000000000000e+00,5.000000000000000000e+00,5.000000000000000000e+00,5.000000000000000000e+00,5.000000000000000000e+00,5.000000000000000000e+00,5.000000000000000000e+00,5.000000000000000000e+00,5.000000000000000000e+00,5.000000000000000000e+00,5.000000000000000000e+00,5.000000000000000000e+00,5.000000000000000000e+00,4.877461910247802734e+00,4.683899402618408203e+00,4.505114078521728516e+00,1.595398545265197754e+00,1.567642211914062500e+00,1.555615901947021484e+00,1.549764156341552734e+00,1.598919987678527832e+00,1.690079450607299805e+00,1.689901471138000488e+00,3.451237916946411133e+00,3.353186845779418945e+00,3.260553359985351562e+00,3.172900199890136719e+00,3.089836597442626953e+00,3.011011123657226562e+00,2.936107635498046875e+00,2.864840030670166016e+00,2.796950101852416992e+00,2.732203483581542969e+00,2.670387029647827148e+00,2.611305475234985352e+00,2.554781913757324219e+00,2.500653028488159180e+00,2.448770761489868164e+00,2.398997306823730469e+00,2.351207256317138672e+00,2.305283784866333008e+00,2.261119842529296875e+00,2.218616247177124023e+00,2.177681207656860352e+00,2.138229370117187500e+00,2.100181579589843750e+00,2.063463926315307617e+00,2.028008222579956055e+00,1.993750572204589844e+00,1.960631012916564941e+00,1.928593635559082031e+00,1.897586584091186523e+00,1.867560625076293945e+00
5.000000000000000000e+00,5.000000000000000000e+00,5.000000000000000000e+00,5.000000000000000000e+00,5.000000000000000000e+00,5.000000000000000000e+00,5.000000000000000000e+00,5.000000000000000000e+00,5.000000000000000000e+00,5.000000000000000000e+00,5.000000000000000000e+00,5.000000000000000000e+00,5.000000000000000000e+00,5.000000000000000000e+00,5.000000000000000000e+00,5.000000000000000000e+00,5.000000000000000000e+00,5.000000000000000000e+00,5.000000000000000000e+00,5.000000000000000000e+00,5.000000000000000000e+00,5.000000000000000000e+00,5.000000000000000000e+00,5.000000000000000000e+00,5.000000000000000000e+00,5.000000000000000000e+00,5.000000000000000000e+00,5.000000000000000000e+00,5.000000000000000000e+00,5.000000000000000000e+00,5.000000000000000000e+00,5.000000000000000000e+00,5.000000000000000000e+00,5.000000000000000000e+00,5.000000000000000000e+00,5.000000000000000000e+00,5.000000000000000000e+00,5.000000000000000000e+00,5.000000000000000000e+00,5.000000000000000000e+00,4.877604007720947266e+00,4.684031009674072266e+00,4.505235671997070312e+00,1.595445275306701660e+00,1.574179649353027344e+00,1.563431024551391602e+00,1.559291362762451172e+00,1.746913433074951172e+00,3.665691137313842773e+00,3.555271148681640625e+00,3.451309204101562500e+00,3.353254079818725586e+00,3.260617017745971680e+00,3.172960519790649414e+00,3.089893579483032227e+00,3.011065244674682617e+00,2.936159133911132812e+00,2.864889144897460938e+00,2.796997070312500000e+00,2.732248306274414062e+00,2.670429468154907227e+00,2.611346244812011719e+00,2.554820775985717773e+00,2.500690698623657227e+00,2.448806762695312500e+00,2.399031639099121094e+00,2.351240158081054688e+00,2.305315494537353516e+00,2.261150598526000977e+00,2.218645811080932617e+00,2.177709579467773438e+00,2.138256788253784180e+00,2.100208044052124023e+00,2.063489437103271484e+00,2.028033018112182617e+00,1.993774294853210449e+00,1.960654020309448242e+00,1.928616046905517578e+00,1.897608041763305664e+00,1.867581605911254883e+00
5.000000000000000000e+00,5.000000000000000000e+00,5.000000000000000000e+00,5.000000000000000000e+00,5.000000000000000000e+00,5.000000000000000000e+00,5.000000000000000000e+00,5.000000000000000000e+00,5.000000000000000000e+00,5.000000000000000000e+00,5.000000000000000000e+00,5.000000000000000000e+00,5.000000000000000000e+00,5.000000000000000000e+00,5.000000000000000000e+00,5.000000000000000000e+00,5.000000000000000000e+00,5.000000000000000000e+00,5.000000000000000000e+00,5.000000000000000000e+00,5.000000000000000000e+00,5.000000000000000000e+00,5.000000000000000000e+00,5.000000000000000000e+00,5.000000000000000000e+00,5.000000000000000000e+00,5.000000000000000000e+00,5.000000000000000000e+00,5.000000000000000000e+00,5.000000000000000000e+00,5.000000000000000000e+00,5.000000000000000000e+00,5.000000000000000000e+00,5.000000000000000000e+00,5.000000000000000000e+00,5.000000000000000000e+00,5.000000000000000000e+00,5.000000000000000000e+00,5.000000000000000000e+00,5.000000000000000000e+00,4.877744197845458984e+00,4.684162139892578125e+00,4.505356788635253906e+00,1.601505160331726074e+00,1.580063462257385254e+00,1.566045522689819336e+00,1.561891794204711914e+00,1.800395131111145020e+00,3.665771722793579102e+00,3.555346727371215820e+00,3.451380252838134766e+00,3.353321552276611328e+00,3.260680675506591797e+00,3.173020839691162109e+00,3.089950799942016602e+00,3.011119604110717773e+00,2.936210632324218750e+00,2.864938259124755859e+00,2.797043800354003906e+00,2.732292890548706055e+00,2.670472145080566406e+00,2.611387014389038086e+00,2.554860115051269531e+00,2.500728130340576172e+00,2.448842525482177734e+00,2.399066209793090820e+00,2.351273298263549805e+00,2.305347442626953125e+00,2.261181116104125977e+00,2.218675374984741211e+00,2.177737951278686523e+00,2.138284206390380859e+00,2.100234270095825195e+00,2.063514947891235352e+00,2.028057575225830078e+00,1.993798255920410156e+00,1.960676908493041992e+00,1.928638219833374023e+00,1.897629737854003906e+00,1.867602467536926270e+00
5.000000000000000000e+00,5.000000000000000000e+00,5.000000000000000000e+00,5.000000000000000000e+00,5.000000000000000000e+00,5.000000000000000000e+00,5.000000000000000000e+00,5.000000000000000000e+00,5.000000000000000000e+00,5.000000000000000000e+00,5.000000000000000000e+00,5.000000000000000000e+00,5.000000000000000000e+00,5.000000000000000000e+00,5.000000000000000000e+00,5.000000000000000000e+00,5.000000000000000000e+00,5.000000000000000000e+00,5.000000000000000000e+00,5.000000000000000000e+00,5.000000000000000000e+00,5.000000000000000000e+00,5.000000000000000000e+00,5.000000000000000000e+00,5.000000000000000000e+00,5.000000000000000000e+00,5.000000000000000000e+00,5.000000000000000000e+00,5.000000000000000000e+00,5.000000000000000000e+00,5.000000000000000000e+00,5.000000000000000000e+00,5.000000000000000000e+00,5.000000000000000000e+00,5.000000000000000000e+00,5.000000000000000000e+00,5.000000000000000000e+00,5.000000000000000000e+00,5.000000000000000000e+00,5.000000000000000000e+00,4.877883911132812500e+00,4.684292316436767578e+00,4.505478382110595703e+00,1.610232472419738770e+00,1.586057066917419434e+00,1.569427847862243652e+00,1.564501166343688965e+00,1.611895680427551270e+00,3.665852069854736328e+00,3.555422544479370117e+00,3.451451539993286133e+00,3.353388547897338867e+00,3.260744333267211914e+00,3.173081159591674805e+00,3.090008020401000977e+00,3.011173963546752930e+00,2.936262130737304688e+00,2.864987373352050781e+00,2.797090768814086914e+00,2.732337713241577148e+00,2.670514822006225586e+00,2.611427783966064453e+00,2.554898977279663086e+00,2.500765562057495117e+00,2.448878526687622070e+00,2.399100780487060547e+00,2.351306438446044922e+00,2.305378913879394531e+00,2.261211633682250977e+00,2.218704700469970703e+00,2.177766323089599609e+00,2.138311386108398438e+00,2.100260734558105469e+00,2.063540458679199219e+00,2.028082370758056641e+00,1.993821859359741211e+00,1.960700035095214844e+00,1.928660392761230469e+00,1.897651195526123047e+00,1.867623448371887207e+00
5.000000000000000000e+00,5.000000000000000000e+00,5.000000000000000000e+00,5.000000000000000000e+00,5.000000000000000000e+00,5.000000000000000000e+00,5.000000000000000000e+00,5.000000000000000000e+00,5.000000000000000000e+00,5.000000000000000000e+00,5.000000000000000000e+00,5.000000000000000000e+00,5.000000000000000000e+00,5.000000000000000000e+00,5.000000000000000000e+00,5.000000000000000000e+00,5.000000000000000000e+00,5.000000000000000000e+00,5.000000000000000000e+00,5.000000000000000000e+00,5.000000000000000000e+00,5.000000000000000000e+00,5.000000000000000000e+00,5.000000000000000000e+00,5.000000000000000000e+00,5.000000000000000000e+00,5.000000000000000000e+00,5.000000000000000000e+00,5.000000000000000000e+00,5.000000000000000000e+00,5.000000000000000000e+00,5.000000000000000000e+00,5.000000000000000000e+00,5.000000000000000000e+00,5.000000000000000000e+00,5.000000000000000000e+00,5.000000000000000000e+00,5.000000000000000000e+00,5.000000000000000000e+00,5.000000000000000000e+00,4.878023624420166016e+00,4.684421062469482422e+00,4.505599975585937500e+00,1.631832242012023926e+00,1.592202544212341309e+00,1.573840260505676270e+00,1.567119121551513672e+00,1.612559556961059570e+00,3.665932655334472656e+00,3.555498361587524414e+00,3.451522827148437500e+00,3.353456020355224609e+00,3.260807752609252930e+00,3.173141479492187500e+00,3.090065240859985352e+00,3.011228322982788086e+00,2.936313867568969727e+00,2.865036487579345703e+00,2.797137498855590820e+00,2.732382297515869141e+00,2.670557737350463867e+00,2.611468791961669922e+00,2.554938077926635742e+00,2.500802755355834961e+00,2.448914527893066406e+00,2.399135112762451172e+00,2.351339340209960938e+00,2.305410861968994141e+00,2.261242151260375977e+00,2.218734264373779297e+00,2.177794694900512695e+00,2.138338804244995117e+00,2.100287199020385742e+00,2.063565969467163086e+00,2.028106927871704102e+00,1.993845820426940918e+00,1.960722923278808594e+00,1.928682804107666016e+00,1.897672653198242188e+00,1.867644190788269043e+00
5.000000000000000000e+00,5.000000000000000000e+00,5.000000000000000000e+00,5.000000000000000000e+00,5.000000000000000000e+00,5.000000000000000000e+00,5.000000000000000000e+00,5.000000000000000000e+00,5.000000000000000000e+00,5.000000000000000000e+00,5.000000000000000000e+00,5.000000000000000000e+00,5.000000000000000000e+00,5.000000000000000000e+00,5.000000000000000000e+00,5.000000000000000000e+00,5.000000000000000000e+00,5.000000000000000000e+00,5.000000000000000000e+00,5.000000000000000000e+00,5.000000000000000000e+00,5.000000000000000000e+00,5.000000000000000000e+00,5.000000000000000000e+00,5.000000000000000000e+00,5.000000000000000000e+00,5.000000000000000000e+00,5.000000000000000000e+00,5.000000000000000000e+00,5.000000000000000000e+00,5.000000000000000000e+00,5.000000000000000000e+00,5.000000000000000000e+00,5.000000000000000000e+00,5.000000000000000000e+00,5.000000000000000000e+00,5.000000000000000000e+00,5.000000000000000000e+00,5.000000000000000000e+00,5.000000000000000000e+00,4.878162860870361328e+00,4.684549808502197266e+00,1.972970247268676758e+00,1.643574357032775879e+00,1.598395586013793945e+00,1.578277707099914551e+00,1.569745898246765137e+00,1.613223910331726074e+00,3.666013240814208984e+00,3.555573940277099609e+00,3.451594352722167969e+00,3.353523254394531250e+00,3.260871410369873047e+00,3.173201560974121094e+00,3.090122461318969727e+00,3.011282444000244141e+00,2.936365365982055664e+00,2.865085601806640625e+00,2.797184228897094727e+00,2.732427120208740234e+00,2.670600414276123047e+00,2.611509561538696289e+00,2.554977178573608398e+00,2.500840187072753906e+00,2.448950290679931641e+00,2.399169683456420898e+00,2.351372480392456055e+00,2.305442810058593750e+00,2.261272907257080078e+00,2.218763589859008789e+00,2.177823305130004883e+00,2.138366222381591797e+00,2.100313425064086914e+00,2.063591480255126953e+00,2.028131484985351562e+00,1.993869543075561523e+00,1.960746049880981445e+00,1.928704977035522461e+00,1.897694349288940430e+00,1.867665052413940430e+00
5.000000000000000000e+00,5.000000000000000000e+00,5.000000000000000000e+00,5.000000000000000000e+00,5.000000000000000000e+00,5.000000000000000000e+00,5.000000000000000000e+00,5.000000000000000000e+00,5.000000000000000000e+00,5.000000000000000000e+00,5.000000000000000000e+00,5.000000000000000000e+00,5.000000000000000000e+00,5.000000000000000000e+00,5.000000000000000000e+00,5.000000000000000000e+00,5.000000000000000000e+00,5.000000000000000000e+00,5.000000000000000000e+00,5.000000000000000000e+00,5.000000000000000000e+00,5.000000000000000000e+00,5.000000000000000000e+00,5.000000000000000000e+00,5.000000000000000000e+00,5.000000000000000000e+00,5.000000000000000000e+00,5.000000000000000000e+00,5.000000000000000000e+00,5.000000000000000000e+00,5.000000000000000000e+00,5.000000000000000000e+00,5.000000000000000000e+00,5.000000000000000000e+00,5.000000000000000000e+00,5.000000000000000000e+00,5.000000000000000000e+00,5.000000000000000000e+00,5.000000000000000000e+00,5.000000000000000000e+00,4.878302574157714844e+00,4.684678554534912109e+00,1.997438311576843262e+00,1.659446001052856445e+00,1.604817390441894531e+00,1.584349513053894043e+00,1.575448393821716309e+00,1.616320371627807617e+00,3.666093349456787109e+00,3.555649757385253906e+00,3.451665639877319336e+00,3.353590726852416992e+00,3.260935068130493164e+00,3.173261880874633789e+00,3.090179443359375000e+00,3.011336803436279297e+00,2.936417102813720703e+00,2.865134716033935547e+00,2.797230958938598633e+00,2.732471704483032227e+00,2.670643091201782227e+00,2.611550331115722656e+00,2.555016279220581055e+00,2.500877618789672852e+00,2.448986053466796875e+00,2.399204015731811523e+00,2.351405620574951172e+00,2.305474519729614258e+00,2.261303424835205078e+00,2.218793153762817383e+00,2.177851438522338867e+00,2.138393640518188477e+00,2.100339889526367188e+00,2.063616991043090820e+00,2.028156042098999023e+00,1.993893265724182129e+00,1.960768938064575195e+00,1.928727269172668457e+00,1.897715806961059570e+00,1.867686033248901367e+00
5.000000000000000000e+00,5.000000000000000000e+00,5.000000000000000000e+00,5.000000000000000000e+00,5.000000000000000000e+00,5.000000000000000000e+00,5.000000000000000000e+00,5.000000000000000000e+00,5.000000000000000000e+00,5.000000000000000000e+00,5.000000000000000000e+00,5.000000000000000000e+00,5.000000000000000000e+00,5.000000000000000000e+00,5.000000000000000000e+00,5.000000000000000000e+00,5.000000000000000000e+00,5.000000000000000000e+00,5.000000000000000000e+00,5.000000000000000000e+00,5.000000000000000000e+00,5.000000000000000000e+00,5.000000000000000000e+00,5.000000000000000000e+00,5.000000000000000000e+00,5.000000000000000000e+00,5.000000000000000000e+00,5.000000000000000000e+00,5.000000000000000000e+00,5.000000000000000000e+00,5.000000000000000000e+00,5.000000000000000000e+00,5.000000000000000000e+00,5.000000000000000000e+00,5.000000000000000000e+00,5.000000000000000000e+00,5.000000000000000000e+00,5.000000000000000000e+00,5.000000000000000000e+00,5.000000000000000000e+00,4.878442287445068359e+00,4.684807300567626953e+00,2.002906322479248047e+00,2.001497268676757812e+00,1.612130880355834961e+00,1.591635584831237793e+00,1.584435582160949707e+00,3.783704042434692383e+00,3.666173696517944336e+00,3.555725097656250000e+00,3.451736927032470703e+00,3.353657960891723633e+00,3.260998725891113281e+00,3.173322200775146484e+00,3.090236663818359375e+00,3.011391162872314453e+00,2.936468839645385742e+00,2.865183830261230469e+00,2.797277927398681641e+00,2.732516288757324219e+00,2.670685529708862305e+00,2.611591339111328125e+00,2.555055379867553711e+00,2.500915288925170898e+00,2.449022054672241211e+00,2.399238348007202148e+00,2.351438760757446289e+00,2.305506467819213867e+00,2.261334180831909180e+00,2.218822479248046875e+00,2.177879810333251953e+00,2.138421058654785156e+00,2.100366353988647461e+00,2.063642501831054688e+00,2.028180599212646484e+00,1.993917107582092285e+00,1.960791945457458496e+00,1.928749442100524902e+00,1.897737503051757812e+00,1.867706775665283203e+00
4.870907783508300781e+00,4.869702339172363281e+00,4.868496894836425781e+00,4.867291927337646484e+00,4.866087913513183594e+00,4.864884376525878906e+00,4.863681793212890625e+00,4.862479686737060547e+00,4.861278057098388672e+00,4.860076904296875000e+00,4.858876228332519531e+00,4.857676506042480469e+00,4.856477260589599609e+00,4.855278491973876953e+00,4.854080200195312500e+00,4.852882862091064453e+00,4.851686000823974609e+00,4.850489616394042969e+00,4.849294185638427734e+00,4.848098754882812500e+00,4.846904277801513672e+00,4.845710277557373047e+00,4.844517230987548828e+00,4.843324184417724609e+00,4.842131614685058594e+00,4.840940475463867188e+00,4.839748859405517578e+00,4.838558673858642578e+00,4.837368965148925781e+00,4.836179733276367188e+00,4.834990978240966797e+00,4.833802700042724609e+00,4.832615375518798828e+00,4.831428050994873047e+00,4.830241680145263672e+00,4.829055786132812500e+00,4.827870845794677734e+00,4.826686382293701172e+00,4.825501918792724609e+00,4.824318885803222656e+00,4.823135852813720703e+00,4.684936523437500000e+00,1.996504664421081543e+00,2.018530130386352539e+00,1.619511485099792480e+00,1.598989129066467285e+00,1.593525886535644531e+00,3.783789873123168945e+00,3.666254281997680664e+00,3.555800914764404297e+00,3.451807975769042969e+00,3.353725433349609375e+00,3.261062622070312500e+00,3.173382520675659180e+00,3.090293884277343750e+00,3.011445283889770508e+00,2.936520338058471680e+00,2.865233182907104492e+00,2.797324895858764648e+00,2.732561111450195312e+00,2.670728445053100586e+00,2.611631870269775391e+00,2.555094480514526367e+00,2.500952720642089844e+00,2.449058055877685547e+00,2.399272918701171875e+00,2.351471662521362305e+00,2.305538177490234375e+00,2.261364698410034180e+00,2.218852043151855469e+00,2.177908182144165039e+00,2.138448238372802734e+00,2.100392818450927734e+00,2.063668012619018555e+00,2.028205394744873047e+00,1.993940830230712891e+00,1.960815072059631348e+00,1.928771615028381348e+00,1.897758960723876953e+00,1.867727756500244141e+00
3.775608301162719727e+00,3.774883747100830078e+00,3.774159669876098633e+00,3.773435592651367188e+00,3.772711753845214844e+00,3.771988391876220703e+00,3.771265029907226562e+00,3.770542621612548828e+00,3.769819974899291992e+00,3.769097328186035156e+00,3.768375396728515625e+00,3.767653465270996094e+00,3.766932249069213867e+00,3.766211032867431641e+00,3.765490055084228516e+00,3.764769315719604492e+00,3.764049053192138672e+00,3.763328790664672852e+00,3.762609004974365234e+00,3.761889457702636719e+00,3.761169910430908203e+00,3.760451316833496094e+00,3.759732484817504883e+00,3.759013891220092773e+00,3.758295536041259766e+00,3.757577657699584961e+00,3.756860256195068359e+00,3.756142854690551758e+00,3.755425691604614258e+00,3.754708766937255859e+00,3.753992080688476562e+00,3.753276109695434570e+00,3.752560138702392578e+00,3.751844167709350586e+00,3.751128673553466797e+00,3.750413894653320312e+00,3.749698877334594727e+00,3.748984098434448242e+00,3.748269796371459961e+00,3.747555494308471680e+00,3.746841907501220703e+00,3.746128320693969727e+00,1.992691636085510254e+00,2.023417949676513672e+00,1.626960039138793945e+00,1.606410861015319824e+00,1.600162982940673828e+00,3.741852760314941406e+00,3.666334867477416992e+00,3.555876493453979492e+00,3.451879501342773438e+00,3.353792428970336914e+00,3.261126279830932617e+00,3.173442840576171875e+00,3.090351104736328125e+00,3.011499643325805664e+00,2.936571836471557617e+00,2.865282297134399414e+00,2.797371625900268555e+00,2.732605695724487305e+00,2.670771121978759766e+00,2.611672878265380859e+00,2.555133581161499023e+00,2.500990152359008789e+00,2.449093818664550781e+00,2.399307489395141602e+00,2.351504802703857422e+00,2.305569887161254883e+00,2.261395454406738281e+00,2.218881607055664062e+00,2.177936792373657227e+00,2.138475656509399414e+00,2.100419044494628906e+00,2.063693523406982422e+00,2.028229951858520508e+00,1.993964791297912598e+00,1.960837960243225098e+00,1.928794026374816895e+00,1.897780656814575195e+00,1.867748618125915527e+00
3.082467555999755859e+00,3.081984519958496094e+00,3.081501722335815430e+00,3.081019163131713867e+00,3.080536842346191406e+00,3.080054283142089844e+00,3.079572200775146484e+00,3.079090118408203125e+00,3.078608274459838867e+00,3.078126430511474609e+00,3.077644824981689453e+00,3.077163457870483398e+00,3.076682090759277344e+00,3.076201200485229492e+00,3.075720071792602539e+00,3.075239181518554688e+00,3.074758291244506836e+00,3.074277877807617188e+00,3.073797702789306641e+00,3.073317289352416992e+00,3.072837114334106445e+00,3.072357177734375000e+00,3.071877479553222656e+00,3.071397781372070312e+00,3.070918321609497070e+00,3.070438861846923828e+00,3.069959640502929688e+00,3.069480895996093750e+00,3.069001913070678711e+00,3.068523168563842773e+00,3.068044424057006836e+00,3.067565917968750000e+00,3.067087888717651367e+00,3.066609621047973633e+00,3.066131591796875000e+00,3.065653800964355469e+00,3.065176248550415039e+00,3.064698696136474609e+00,3.064221143722534180e+00,3.063743829727172852e+00,3.063266754150390625e+00,2.001076459884643555e+00,1.993572711944580078e+00,2.020240545272827148e+00,1.634488344192504883e+00,1.613901734352111816e+00,1.604249715805053711e+00,3.059931278228759766e+00,3.059455394744873047e+00,3.058979511260986328e+00,3.058504104614257812e+00,3.058028459548950195e+00,3.057553291320800781e+00,3.057077884674072266e+00,3.056602954864501953e+00,3.011553764343261719e+00,2.936623573303222656e+00,2.865331172943115234e+00,2.797418594360351562e+00,2.732650518417358398e+00,2.670813798904418945e+00,2.611713647842407227e+00,2.555172443389892578e+00,2.501027584075927734e+00,2.449129819869995117e+00,2.399341821670532227e+00,2.351537942886352539e+00,2.305601835250854492e+00,2.261425971984863281e+00,2.218910932540893555e+00,2.177965164184570312e+00,2.138503074645996094e+00,2.100445508956909180e+00,2.063718795776367188e+00,2.028254508972167969e+00,1.993988513946533203e+00,1.960861086845397949e+00,1.928816199302673340e+00,1.897802114486694336e+00,1.867769598960876465e+00
2.604350805282592773e+00,2.604006052017211914e+00,2.603661298751831055e+00,2.603316545486450195e+00,2.602972030639648438e+00,2.602627992630004883e+00,2.602283477783203125e+00,2.601939201354980469e+00,2.601595163345336914e+00,2.601251125335693359e+00,2.600907325744628906e+00,2.600563287734985352e+00,2.600219488143920898e+00,2.599875926971435547e+00,2.599532365798950195e+00,2.599189043045043945e+00,2.598845481872558594e+00,2.598502159118652344e+00,2.598158836364746094e+00,2.597815990447998047e+00,2.597472906112670898e+00,2.597129821777343750e+00,2.596786975860595703e+00,2.596444368362426758e+00,2.596101522445678711e+00,2.595758914947509766e+00,2.595416545867919922e+00,2.595073938369750977e+00,2.594731807708740234e+00,2.594389677047729492e+00,2.594047546386718750e+00,2.593705415725708008e+00,2.593363285064697266e+00,2.593021631240844727e+00,2.592679977416992188e+00,2.592338085174560547e+00,2.591996431350708008e+00,2.591655015945434570e+00,2.591313600540161133e+00,2.590972423553466797e+00,2.590631008148193359e+00,2.590289831161499023e+00,1.982017040252685547e+00,2.006290912628173828e+00,2.589267015457153320e+00,1.630262851715087891e+00,1.620149493217468262e+00,2.588245153427124023e+00,2.587904453277587891e+00,2.587564229965209961e+00,2.587223768234252930e+00,2.586883544921875000e+00,2.586543560028076172e+00,2.586203336715698242e+00,2.585863351821899414e+00,2.585523366928100586e+00,2.585183858871459961e+00,2.584844112396240234e+00,2.584504365921020508e+00,2.584164857864379883e+00,2.583825349807739258e+00,2.583486318588256836e+00,2.555211544036865234e+00,2.501064777374267578e+00,2.449165821075439453e+00,2.399376392364501953e+00,2.351571083068847656e+00,2.305633544921875000e+00,2.261456489562988281e+00,2.218940496444702148e+00,2.177993535995483398e+00,2.138530492782592773e+00,2.100471973419189453e+00,2.063744306564331055e+00,2.028279066085815430e+00,1.994012475013732910e+00,1.960884094238281250e+00,1.928838610649108887e+00,1.897823572158813477e+00,1.867790341377258301e+00
2.254640579223632812e+00,2.254381895065307617e+00,2.254123210906982422e+00,2.253864526748657227e+00,2.253606081008911133e+00,2.253347396850585938e+00,2.253088951110839844e+00,2.252830743789672852e+00,2.252572298049926758e+00,2.252313852310180664e+00,2.252056121826171875e+00,2.251798391342163086e+00,2.251540660858154297e+00,2.251282930374145508e+00,2.251025199890136719e+00,2.250767707824707031e+00,2.250510215759277344e+00,2.250252723693847656e+00,2.249995470046997070e+00,2.249737977981567383e+00,2.249480962753295898e+00,2.249223709106445312e+00,2.248966455459594727e+00,2.248709201812744141e+00,2.248452186584472656e+00,2.248195409774780273e+00,2.247938394546508789e+00,2.247681617736816406e+00,2.247424602508544922e+00,2.247168064117431641e+00,2.246911287307739258e+00,2.246654748916625977e+00,2.246398210525512695e+00,2.246141672134399414e+00,2.245885372161865234e+00,2.245628833770751953e+00,2.245372533798217773e+00,2.245116233825683594e+00,2.244859933853149414e+00,2.244603872299194336e+00,2.244347810745239258e+00,2.244091749191284180e+00,2.243835687637329102e+00,2.243579864501953125e+00,2.243324041366577148e+00,1.628964066505432129e+00,1.612052559852600098e+00,1.616845250129699707e+00,2.242300987243652344e+00,2.242045402526855469e+00,2.241790056228637695e+00,2.241534471511840820e+00,2.241279125213623047e+00,2.241023778915405273e+00,2.240768432617187500e+00,2.240513324737548828e+00,2.240257978439331055e+00,2.240003108978271484e+00,2.239748001098632812e+00,2.239492893218994141e+00,2.239238023757934570e+00,2.238983154296875000e+00,2.238728284835815430e+00,2.238473653793334961e+00,2.238218784332275391e+00,2.237964153289794922e+00,2.237709522247314453e+00,2.237455129623413086e+00,2.237200736999511719e+00,2.218969821929931641e+00,2.178021907806396484e+00,2.138557910919189453e+00,2.100498437881469727e+00,2.063769817352294922e+00,2.028303861618041992e+00,1.994036197662353516e+00,1.960907220840454102e+00,1.928860783576965332e+00,1.897845268249511719e+00,1.867811203002929688e+00
1.987748980522155762e+00,1.987547874450683594e+00,1.987346887588500977e+00,1.987145781517028809e+00,1.986944794654846191e+00,1.986743927001953125e+00,1.986542940139770508e+00,1.986341953277587891e+00,1.986141085624694824e+00,1.985940337181091309e+00,1.985739588737487793e+00,1.985538959503173828e+00,1.985338211059570312e+00,1.985137701034545898e+00,1.984937071800231934e+00,1.984736561775207520e+00,1.984535813331604004e+00,1.984335303306579590e+00,1.984134912490844727e+00,1.983934521675109863e+00,1.983734250068664551e+00,1.983533978462219238e+00,1.983333706855773926e+00,1.983133554458618164e+00,1.982933282852172852e+00,1.982733011245727539e+00,1.982532858848571777e+00,1.982332825660705566e+00,1.982132792472839355e+00,1.981932878494262695e+00,1.981732964515686035e+00,1.981533050537109375e+00,1.981333255767822266e+00,1.981133341789245605e+00,1.980933666229248047e+00,1.980733633041381836e+00,1.980533957481384277e+00,1.980334281921386719e+00,1.980134725570678711e+00,1.979935169219970703e+00,1.979735612869262695e+00,1.979536175727844238e+00,1.979336738586425781e+00,1.979137301445007324e+00,1.978937745094299316e+00,1.621956110000610352e+00,1.595563411712646484e+00,1.583809971809387207e+00,1.588811397552490234e+00,1.977941513061523438e+00,1.977742314338684082e+00,1.977543234825134277e+00,1.977344155311584473e+00,1.977144956588745117e+00,1.976945996284484863e+00,1.976747035980224609e+00,1.976548194885253906e+00,1.976349353790283203e+00,1.976150512695312500e+00,1.975951790809631348e+00,1.975753068923950195e+00,1.975554347038269043e+00,1.975355505943298340e+00,1.975156903266906738e+00,1.974958300590515137e+00,1.974759817123413086e+00,1.974561333656311035e+00,1.974362850189208984e+00,1.974164485931396484e+00,1.973966121673583984e+00,1.973767757415771484e+00,1.973569512367248535e+00,1.973371028900146484e+00,1.973172783851623535e+00,1.972974658012390137e+00,1.972776532173156738e+00,1.960930109024047852e+00,1.928883194923400879e+00,1.897866725921630859e+00,1.867832183837890625e+00
1.777355670928955078e+00,1.777194976806640625e+00,1.777034163475036621e+00,1.776873469352722168e+00,1.776712775230407715e+00,1.776551961898803711e+00,1.776391267776489258e+00,1.776230692863464355e+00,1.776070117950439453e+00,1.775909543037414551e+00,1.775748968124389648e+00,1.775588512420654297e+00,1.775428056716918945e+00,1.775267601013183594e+00,1.775107026100158691e+00,1.774946689605712891e+00,1.774786233901977539e+00,1.774626016616821289e+00,1.774465680122375488e+00,1.774305462837219238e+00,1.774145126342773438e+00,1.773984909057617188e+00,1.773824810981750488e+00,1.773664474487304688e+00,1.773504376411437988e+00,1.773344278335571289e+00,1.773184180259704590e+00,1.773024201393127441e+00,1.772864103317260742e+00,1.772704124450683594e+00,1.772544264793395996e+00,1.772384285926818848e+00,1.772224187850952148e+00,1.772064328193664551e+00,1.771904587745666504e+00,1.771744728088378906e+00,1.771584987640380859e+00,1.771425247192382812e+00,1.771265506744384766e+00,1.771105766296386719e+00,1.770946145057678223e+00,1.770786523818969727e+00,1.770626783370971680e+00,1.770467162132263184e+00,1.770307660102844238e+00,1.618508338928222656e+00,1.573744058609008789e+00,1.560608148574829102e+00,1.553700685501098633e+00,1.552526950836181641e+00,1.769350886344909668e+00,1.769191384315490723e+00,1.769032120704650879e+00,1.768872857093811035e+00,1.768713593482971191e+00,1.768554329872131348e+00,1.768395185470581055e+00,1.768235921859741211e+00,1.768076777458190918e+00,1.767917752265930176e+00,1.767758488655090332e+00,1.767599344253540039e+00,1.767440319061279297e+00,1.767281413078308105e+00,1.767122387886047363e+00,1.766963481903076172e+00,1.766804575920104980e+00,1.766645669937133789e+00,1.766486763954162598e+00,1.766327738761901855e+00,1.766168951988220215e+00,1.766010284423828125e+00,1.765851497650146484e+00,1.765692830085754395e+00,1.765534162521362305e+00,1.765375494956970215e+00,1.765216827392578125e+00,1.765058279037475586e+00,1.764899492263793945e+00,1.764740943908691406e+00
1.607237696647644043e+00,1.607106208801269531e+00,1.606974601745605469e+00,1.606843113899230957e+00,1.606711745262145996e+00,1.606580376625061035e+00,1.606448888778686523e+00,1.606317639350891113e+00,1.606186270713806152e+00,1.606054902076721191e+00,1.605923652648925781e+00,1.605792403221130371e+00,1.605661034584045410e+00,1.605529785156250000e+00,1.605398535728454590e+00,1.605267405509948730e+00,1.605136275291442871e+00,1.605005145072937012e+00,1.604874014854431152e+00,1.604742884635925293e+00,1.604611873626708984e+00,1.604480624198913574e+00,1.604349613189697266e+00,1.604218602180480957e+00,1.604087591171264648e+00,1.603956580162048340e+00,1.603825688362121582e+00,1.603694796562194824e+00,1.603563904762268066e+00,1.603433012962341309e+00,1.603302001953125000e+00,1.603171110153198242e+00,1.603040337562561035e+00,1.602909564971923828e+00,1.602778792381286621e+00,1.602648019790649414e+00,1.602517247200012207e+00,1.602386593818664551e+00,1.602255821228027344e+00,1.602125048637390137e+00,1.601994395256042480e+00,1.601863741874694824e+00,1.601733207702636719e+00,1.601602554321289062e+00,1.601472020149230957e+00,1.601341485977172852e+00,1.558034777641296387e+00,1.527631402015686035e+00,1.521852731704711914e+00,1.517350196838378906e+00,1.512666463851928711e+00,1.600558519363403320e+00,1.600428223609924316e+00,1.600297808647155762e+00,1.600167512893676758e+00,1.600037097930908203e+00,1.599906802177429199e+00,1.599776506423950195e+00,1.599646091461181641e+00,1.599515795707702637e+00,1.599385619163513184e+00,1.599255442619323730e+00,1.599125266075134277e+00,1.598995089530944824e+00,1.598864912986755371e+00,1.598734855651855469e+00,1.598604798316955566e+00,1.598474502563476562e+00,1.598344445228576660e+00,1.598214507102966309e+00,1.598084449768066406e+00,1.597954511642456055e+00,1.597824454307556152e+00,1.597694516181945801e+00,1.597564578056335449e+00,1.597434759140014648e+00,1.597304701805114746e+00,1.597174882888793945e+00,1.597044944763183594e+00,1.596915125846862793e+00
1.466840147972106934e+00,1.466730713844299316e+00,1.466621160507202148e+00,1.466511726379394531e+00,1.466402173042297363e+00,1.466292738914489746e+00,1.466183304786682129e+00,1.466073870658874512e+00,1.465964555740356445e+00,1.465855002403259277e+00,1.465745568275451660e+00,1.465636253356933594e+00,1.465526938438415527e+00,1.465417623519897461e+00,1.465308308601379395e+00,1.465198993682861328e+00,1.465089797973632812e+00,1.464980483055114746e+00,1.464871168136596680e+00,1.464761972427368164e+00,1.464652657508850098e+00,1.464543581008911133e+00,1.464434385299682617e+00,1.464325189590454102e+00,1.464215993881225586e+00,1.464106917381286621e+00,1.463997840881347656e+00,1.463888764381408691e+00,1.463779568672180176e+00,1.463670492172241211e+00,1.463561415672302246e+00,1.463452339172363281e+00,1.463343381881713867e+00,1.463234424591064453e+00,1.463125467300415039e+00,1.463016510009765625e+00,1.462907552719116211e+00,1.462798476219177246e+00,1.462689518928527832e+00,1.462580680847167969e+00,1.462471723556518555e+00,1.462362885475158691e+00,1.462254047393798828e+00,1.462145209312438965e+00,1.462036490440368652e+00,1.461927652359008789e+00,1.461818695068359375e+00,1.461709976196289062e+00,1.461601257324218750e+00,1.461492538452148438e+00,1.461383819580078125e+00,1.461275100708007812e+00,1.461166381835937500e+00,1.461057662963867188e+00,1.460949063301086426e+00,1.460840344429016113e+00,1.460731744766235352e+00,1.460623025894165039e+00,1.460514545440673828e+00,1.460405945777893066e+00,1.460297346115112305e+00,1.460188865661621094e+00,1.460080265998840332e+00,1.459971785545349121e+00,1.459863305091857910e+00,1.459754705429077148e+00,1.459646224975585938e+00,1.459537744522094727e+00,1.459429383277893066e+00,1.459321022033691406e+00,1.459212541580200195e+00,1.459104180335998535e+00,1.458995819091796875e+00,1.458887457847595215e+00,1.458778977394104004e+00,1.458670735359191895e+00,1.458562374114990234e+00,1.458454132080078125e+00,1.458345890045166016e+00,1.458237648010253906e+00
1.349000573158264160e+00,1.348907947540283203e+00,1.348815441131591797e+00,1.348722815513610840e+00,1.348630189895629883e+00,1.348537564277648926e+00,1.348445057868957520e+00,1.348352432250976562e+00,1.348259806632995605e+00,1.348167300224304199e+00,1.348074793815612793e+00,1.347982287406921387e+00,1.347889900207519531e+00,1.347797393798828125e+00,1.347704887390136719e+00,1.347612500190734863e+00,1.347519874572753906e+00,1.347427487373352051e+00,1.347335100173950195e+00,1.347242712974548340e+00,1.347150325775146484e+00,1.347057938575744629e+00,1.346965670585632324e+00,1.346873283386230469e+00,1.346780896186828613e+00,1.346688508987426758e+00,1.346596240997314453e+00,1.346503853797912598e+00,1.346411585807800293e+00,1.346319317817687988e+00,1.346227049827575684e+00,1.346134901046752930e+00,1.346042633056640625e+00,1.345950365066528320e+00,1.345858216285705566e+00,1.345765948295593262e+00,1.345673680305480957e+00,1.345581531524658203e+00,1.345489382743835449e+00,1.345397233963012695e+00,1.345305085182189941e+00,1.345212936401367188e+00,1.345120906829833984e+00,1.345028758049011230e+00,1.344936609268188477e+00,1.344844579696655273e+00,1.344752430915832520e+00,1.344660401344299316e+00,1.344568371772766113e+00,1.344476342201232910e+00,1.344384312629699707e+00,1.344292402267456055e+00,1.344200372695922852e+00,1.344108343124389648e+00,1.344016313552856445e+00,1.343924403190612793e+00,1.343832492828369141e+00,1.343740582466125488e+00,1.343648672103881836e+00,1.343556761741638184e+00,1.343464851379394531e+00,1.343373060226440430e+00,1.343281030654907227e+00,1.343189239501953125e+00,1.343097329139709473e+00,1.343005537986755371e+00,1.342913746833801270e+00,1.342821955680847168e+00,1.342730164527893066e+00,1.342638373374938965e+00,1.342546701431274414e+00,1.342454910278320312e+00,1.342363119125366211e+00,1.342271327972412109e+00,1.342179656028747559e+00,1.342087984085083008e+00,1.341996312141418457e+00,1.341904640197753906e+00,1.341812968254089355e+00,1.341721296310424805e+00
1.248686671257019043e+00,1.248607277870178223e+00,1.248527884483337402e+00,1.248448610305786133e+00,1.248369216918945312e+00,1.248289823532104492e+00,1.248210549354553223e+00,1.248131155967712402e+00,1.248051881790161133e+00,1.247972607612609863e+00,1.247893333435058594e+00,1.247814059257507324e+00,1.247734785079956055e+00,1.247655630111694336e+00,1.247576236724853516e+00,1.247497081756591797e+00,1.247417807579040527e+00,1.247338652610778809e+00,1.247259497642517090e+00,1.247180223464965820e+00,1.247101068496704102e+00,1.247021913528442383e+00,1.246942758560180664e+00,1.246863484382629395e+00,1.246784448623657227e+00,1.246705293655395508e+00,1.246626138687133789e+00,1.246547102928161621e+00,1.246467947959899902e+00,1.246388912200927734e+00,1.246309876441955566e+00,1.246230721473693848e+00,1.246151566505432129e+00,1.246072530746459961e+00,1.245993494987487793e+00,1.245914578437805176e+00,1.245835542678833008e+00,1.245756506919860840e+00,1.245677471160888672e+00,1.245598554611206055e+00,1.245519518852233887e+00,1.245440602302551270e+00,1.245361566543579102e+00,1.245282649993896484e+00,1.245203733444213867e+00,1.245124816894531250e+00,1.245045900344848633e+00,1.244966983795166016e+00,1.244888067245483398e+00,1.244809150695800781e+00,1.244730353355407715e+00,1.244651317596435547e+00,1.244572520256042480e+00,1.244493722915649414e+00,1.244414806365966797e+00,1.244336009025573730e+00,1.244257211685180664e+00,1.244178414344787598e+00,1.244099617004394531e+00,1.244020819664001465e+00,1.243942022323608398e+00,1.243863224983215332e+00,1.243784427642822266e+00,1.243705749511718750e+00,1.243626952171325684e+00,1.243548274040222168e+00,1.243469595909118652e+00,1.243390917778015137e+00,1.243312239646911621e+00,1.243233442306518555e+00,1.243154764175415039e+00,1.243076086044311523e+00,1.242997407913208008e+00,1.242918848991394043e+00,1.242840170860290527e+00,1.242761492729187012e+00,1.242682933807373047e+00,1.242604374885559082e+00,1.242525696754455566e+00,1.242447018623352051e+00
1.162259101867675781e+00,1.162190318107604980e+00,1.162121415138244629e+00,1.162052750587463379e+00,1.161983966827392578e+00,1.161915302276611328e+00,1.161846518516540527e+00,1.161777853965759277e+00,1.161709189414978027e+00,1.161640405654907227e+00,1.161571741104125977e+00,1.161503076553344727e+00,1.161434292793273926e+00,1.161365628242492676e+00,1.161297082901000977e+00,1.161228418350219727e+00,1.161159753799438477e+00,1.161091089248657227e+00,1.161022543907165527e+00,1.160953879356384277e+00,1.160885334014892578e+00,1.160816550254821777e+00,1.160748004913330078e+00,1.160679459571838379e+00,1.160610914230346680e+00,1.160542249679565430e+00,1.160473704338073730e+00,1.160405158996582031e+00,1.160336613655090332e+00,1.160268187522888184e+00,1.160199522972106934e+00,1.160130977630615234e+00,1.160062551498413086e+00,1.159994006156921387e+00,1.159925460815429688e+00,1.159857034683227539e+00,1.159788608551025391e+00,1.159720063209533691e+00,1.159651637077331543e+00,1.159583091735839844e+00,1.159514665603637695e+00,1.159446239471435547e+00,1.159377813339233398e+00,1.159309387207031250e+00,1.159240961074829102e+00,1.159172534942626953e+00,1.159104228019714355e+00,1.159035801887512207e+00,1.158967375755310059e+00,1.158898949623107910e+00,1.158830642700195312e+00,1.158762216567993164e+00,1.158693909645080566e+00,1.158625602722167969e+00,1.158557176589965820e+00,1.158488869667053223e+00,1.158420562744140625e+00,1.158352375030517578e+00,1.158283948898315430e+00,1.158215641975402832e+00,1.158147335052490234e+00,1.158079147338867188e+00,1.158010840415954590e+00,1.157942652702331543e+00,1.157874345779418945e+00,1.157806158065795898e+00,1.157737851142883301e+00,1.157669544219970703e+00,1.157601356506347656e+00,1.157533168792724609e+00,1.157464981079101562e+00,1.157396793365478516e+00,1.157328605651855469e+00,1.157260417938232422e+00,1.157192230224609375e+00,1.157124042510986328e+00,1.157055854797363281e+00,1.156987667083740234e+00,1.156919598579406738e+00,1.156851410865783691e+00
1.087020993232727051e+00,1.086960911750793457e+00,1.086900711059570312e+00,1.086840629577636719e+00,1.086780428886413574e+00,1.086720347404479980e+00,1.086660265922546387e+00,1.086600184440612793e+00,1.086540102958679199e+00,1.086479902267456055e+00,1.086419820785522461e+00,1.086359739303588867e+00,1.086299657821655273e+00,1.086239576339721680e+00,1.086179494857788086e+00,1.086119532585144043e+00,1.086059451103210449e+00,1.085999369621276855e+00,1.085939288139343262e+00,1.085879325866699219e+00,1.085819244384765625e+00,1.085759282112121582e+00,1.085699319839477539e+00,1.085639238357543945e+00,1.085579276084899902e+00,1.085519313812255859e+00,1.085459351539611816e+00,1.085399389266967773e+00,1.085339307785034180e+00,1.085279345512390137e+00,1.085219383239746094e+00,1.085159420967102051e+00,1.085099577903747559e+00,1.085039615631103516e+00,1.084979653358459473e+00,1.084919810295104980e+00,1.084859848022460938e+00,1.084799885749816895e+00,1.084739923477172852e+00,1.084680080413818359e+00,1.084620118141174316e+00,1.084560275077819824e+00,1.084500432014465332e+00,1.084440588951110840e+00,1.084380745887756348e+00,1.084320902824401855e+00,1.084260940551757812e+00,1.084201097488403320e+00,1.084141254425048828e+00,1.084081411361694336e+00,1.084021687507629395e+00,1.083961844444274902e+00,1.083902001380920410e+00,1.083842277526855469e+00,1.083782434463500977e+00,1.083722591400146484e+00,1.083662748336791992e+00,1.083603024482727051e+00,1.083543300628662109e+00,1.083483457565307617e+00,1.083423733711242676e+00,1.083364009857177734e+00,1.083304286003112793e+00,1.083244562149047852e+00,1.083184838294982910e+00,1.083124995231628418e+00,1.083065271377563477e+00,1.083005547523498535e+00,1.082945942878723145e+00,1.082886219024658203e+00,1.082826495170593262e+00,1.082766771316528320e+00,1.082707166671752930e+00,1.082647442817687988e+00,1.082587718963623047e+00,1.082528114318847656e+00,1.082468390464782715e+00,1.082408785820007324e+00,1.082349181175231934e+00,1.082289576530456543e+00
1.020931839942932129e+00,1.020878672599792480e+00,1.020825624465942383e+00,1.020772695541381836e+00,1.020719647407531738e+00,1.020666599273681641e+00,1.020613551139831543e+00,1.020560503005981445e+00,1.020507454872131348e+00,1.020454406738281250e+00,1.020401477813720703e+00,1.020348429679870605e+00,1.020295500755310059e+00,1.020242452621459961e+00,1.020189523696899414e+00,1.020136475563049316e+00,1.020083427429199219e+00,1.020030498504638672e+00,1.019977569580078125e+00,1.019924640655517578e+00,1.019871711730957031e+00,1.019818663597106934e+00,1.019765734672546387e+00,1.019712805747985840e+00,1.019659876823425293e+00,1.019606947898864746e+00,1.019554018974304199e+00,1.019501090049743652e+00,1.019448161125183105e+00,1.019395351409912109e+00,1.019342422485351562e+00,1.019289493560791016e+00,1.019236683845520020e+00,1.019183754920959473e+00,1.019130945205688477e+00,1.019078016281127930e+00,1.019025087356567383e+00,1.018972277641296387e+00,1.018919467926025391e+00,1.018866539001464844e+00,1.018813729286193848e+00,1.018760919570922852e+00,1.018708109855651855e+00,1.018655300140380859e+00,1.018602371215820312e+00,1.018549561500549316e+00,1.018496751785278320e+00,1.018443942070007324e+00,1.018391132354736328e+00,1.018338322639465332e+00,1.018285632133483887e+00,1.018232822418212891e+00,1.018180012702941895e+00,1.018127202987670898e+00,1.018074393272399902e+00,1.018021702766418457e+00,1.017968893051147461e+00,1.017916202545166016e+00,1.017863512039184570e+00,1.017810702323913574e+00,1.017758011817932129e+00,1.017705321311950684e+00,1.017652511596679688e+00,1.017599821090698242e+00,1.017547011375427246e+00,1.017494320869445801e+00,1.017441630363464355e+00,1.017388939857482910e+00,1.017336249351501465e+00,1.017283558845520020e+00,1.017230987548828125e+00,1.017178297042846680e+00,1.017125606536865234e+00,1.017072916030883789e+00,1.017020225524902344e+00,1.016967535018920898e+00,1.016914963722229004e+00,1.016862273216247559e+00,1.016809701919555664e+00,1.016757011413574219e+00
9.624183177947998047e-01,9.623711109161376953e-01,9.623239636421203613e-01,9.622768759727478027e-01,9.622297286987304688e-01,9.621824622154235840e-01,9.621353745460510254e-01,9.620882272720336914e-01,9.620411396026611328e-01,9.619939923286437988e-01,9.619469046592712402e-01,9.618998169898986816e-01,9.618527293205261230e-01,9.618056416511535645e-01,9.617585539817810059e-01,9.617114663124084473e-01,9.616643786430358887e-01,9.616172909736633301e-01,9.615702629089355469e-01,9.615231752395629883e-01,9.614761471748352051e-01,9.614290595054626465e-01,9.613820314407348633e-01,9.613348841667175293e-01,9.612878561019897461e-01,9.612408280372619629e-01,9.611937999725341797e-01,9.611467719078063965e-01,9.610997438430786133e-01,9.610527157783508301e-01,9.610056877136230469e-01,9.609587192535400391e-01,9.609116911888122559e-01,9.608646631240844727e-01,9.608176946640014648e-01,9.607707262039184570e-01,9.607236981391906738e-01,9.606767296791076660e-01,9.606297612190246582e-01,9.605827927589416504e-01,9.605358242988586426e-01,9.604888558387756348e-01,9.604418277740478516e-01,9.603948593139648438e-01,9.603478908538818359e-01,9.603009819984436035e-01,9.602540135383605957e-01,9.602071046829223633e-01,9.601601362228393555e-01,9.601132273674011230e-01,9.600663185119628906e-01,9.600194096565246582e-01,9.599725008010864258e-01,9.599255919456481934e-01,9.598786830902099609e-01,9.598317742347717285e-01,9.597848653793334961e-01,9.597380161285400391e-01,9.596911072731018066e-01,9.596442580223083496e-01,9.595972299575805664e-01,9.595503807067871094e-01,9.595035314559936523e-01,9.594566226005554199e-01,9.594097733497619629e-01,9.593629240989685059e-01,9.593160748481750488e-01,9.592692255973815918e-01,9.592224359512329102e-01,9.591755867004394531e-01,9.591287374496459961e-01,9.590819478034973145e-01,9.590350985527038574e-01,9.589883089065551758e-01,9.589414596557617188e-01,9.588946700096130371e-01,9.588478803634643555e-01,9.588010907173156738e-01,9.587541818618774414e-01,9.587073922157287598e-01
