5.000000000000000000e+00,5.000000000000000000e+00,5.000000000000000000e+00,5.000000000000000000e+00,5.000000000000000000e+00,5.000000000000000000e+00,5.000000000000000000e+00,5.000000000000000000e+00,5.000000000000000000e+00,5.000000000000000000e+00,5.000000000000000000e+00,5.000000000000000000e+00,5.000000000000000000e+00,5.000000000000000000e+00,5.000000000000000000e+00,5.000000000000000000e+00,5.000000000000000000e+00,5.000000000000000000e+00,5.000000000000000000e+00,5.000000000000000000e+00,5.000000000000000000e+00,5.000000000000000000e+00,5.000000000000000000e+00,5.000000000000000000e+00,5.000000000000000000e+00,5.000000000000000000e+00,5.000000000000000000e+00,5.000000000000000000e+00,5.000000000000000000e+00,5.000000000000000000e+00,5.000000000000000000e+00,5.000000000000000000e+00,5.000000000000000000e+00,5.000000000000000000e+00,5.000000000000000000e+00,5.000000000000000000e+00,5.000000000000000000e+00,5.000000000000000000e+00,5.000000000000000000e+00,4.851332664489746094e+00,4.661267757415771484e+00,4.485534191131591797e+00,1.388482570648193359e+00,1.371765494346618652e+00,1.387835502624511719e+00,1.319325089454650879e+00,1.271124601364135742e+00,1.237969040870666504e+00,1.225416421890258789e+00,1.218616724014282227e+00,1.212819337844848633e+00,1.207077503204345703e+00,1.227637052536010742e+00,1.256494998931884766e+00,1.335980653762817383e+00,1.330671191215515137e+00,1.343851804733276367e+00,1.372365474700927734e+00,2.733558893203735352e+00,2.672164678573608398e+00,2.613467454910278320e+00,2.557293653488159180e+00,2.503483772277832031e+00,1.288535475730895996e+00,1.312399506568908691e+00,1.285636305809020996e+00,2.309131145477294922e+00,2.265168428421020508e+00,2.222848415374755859e+00,2.182080507278442383e+00,2.142781257629394531e+00,2.104872465133666992e+00,2.068281650543212891e+00,2.032941341400146484e+00,1.998788356781005859e+00,1.965764045715332031e+00,1.933813214302062988e+00,1.902884364128112793e+00,1.872929096221923828e+00,1.843902587890625000e+00
5.000000000000000000e+00,5.000000000000000000e+00,5.000000000000000000e+00,5.000000000000000000e+00,5.000000000000000000e+00,5.000000000000000000e+00,5.000000000000000000e+00,5.000000000000000000e+00,5.000000000000000000e+00,5.000000000000000000e+00,5.000000000000000000e+00,5.000000000000000000e+00,5.000000000000000000e+00,5.000000000000000000e+00,5.000000000000000000e+00,5.000000000000000000e+00,5.000000000000000000e+00,5.000000000000000000e+00,5.000000000000000000e+00,5.000000000000000000e+00,5.000000000000000000e+00,5.000000000000000000e+00,5.000000000000000000e+00,5.000000000000000000e+00,5.000000000000000000e+00,5.000000000000000000e+00,5.000000000000000000e+00,5.000000000000000000e+00,5.000000000000000000e+00,5.000000000000000000e+00,5.000000000000000000e+00,5.000000000000000000e+00,5.000000000000000000e+00,5.000000000000000000e+00,5.000000000000000000e+00,5.000000000000000000e+00,5.000000000000000000e+00,5.000000000000000000e+00,5.000000000000000000e+00,4.851471424102783203e+00,4.661395549774169922e+00,4.485652923583984375e+00,1.396168589591979980e+00,1.385522603988647461e+00,1.401805520057678223e+00,1.328588366508483887e+00,1.276546835899353027e+00,1.243418931961059570e+00,1.221365690231323242e+00,1.214610576629638672e+00,1.207929730415344238e+00,1.202105760574340820e+00,1.217121005058288574e+00,1.243795275688171387e+00,1.336627244949340820e+00,1.332001566886901855e+00,1.347047090530395508e+00,1.376717209815979004e+00,2.733602762222290039e+00,2.672206640243530273e+00,2.613507747650146484e+00,2.557332038879394531e+00,2.503520727157592773e+00,2.451926946640014648e+00,1.340451478958129883e+00,1.281454205513000488e+00,1.267062187194824219e+00,2.265198707580566406e+00,2.222877502441406250e+00,2.182108640670776367e+00,2.142808437347412109e+00,2.104898691177368164e+00,2.068306684494018555e+00,2.032965660095214844e+00,1.998811960220336914e+00,1.965786814689636230e+00,1.933835029602050781e+00,1.902905583381652832e+00,1.872949838638305664e+00,1.843922615051269531e+00
3.851790904998779297e+00,3.912970542907714844e+00,5.000000000000000000e+00,5.000000000000000000e+00,5.000000000000000000e+00,5.000000000000000000e+00,5.000000000000000000e+00,5.000000000000000000e+00,5.000000000000000000e+00,5.000000000000000000e+00,5.000000000000000000e+00,5.000000000000000000e+00,5.000000000000000000e+00,5.000000000000000000e+00,5.000000000000000000e+00,5.000000000000000000e+00,5.000000000000000000e+00,5.000000000000000000e+00,5.000000000000000000e+00,5.000000000000000000e+00,5.000000000000000000e+00,5.000000000000000000e+00,5.000000000000000000e+00,5.000000000000000000e+00,5.000000000000000000e+00,5.000000000000000000e+00,5.000000000000000000e+00,5.000000000000000000e+00,5.000000000000000000e+00,5.000000000000000000e+00,5.000000000000000000e+00,5.000000000000000000e+00,5.000000000000000000e+00,5.000000000000000000e+00,5.000000000000000000e+00,5.000000000000000000e+00,5.000000000000000000e+00,5.000000000000000000e+00,5.000000000000000000e+00,4.851609706878662109e+00,4.661523818969726562e+00,4.485771179199218750e+00,1.394864916801452637e+00,1.381566166877746582e+00,4.029950141906738281e+00,1.343531966209411621e+00,1.284556627273559570e+00,1.248916983604431152e+00,1.217341423034667969e+00,1.210630655288696289e+00,1.203993558883666992e+00,1.197428703308105469e+00,1.205570101737976074e+00,1.231349587440490723e+00,1.338762760162353516e+00,1.333504319190979004e+00,1.351075291633605957e+00,1.381178259849548340e+00,2.733646869659423828e+00,2.672248601913452148e+00,2.613548040390014648e+00,2.557370424270629883e+00,2.503557443618774414e+00,2.451962471008300781e+00,1.373563051223754883e+00,1.332242369651794434e+00,1.263993144035339355e+00,2.265228986740112305e+00,2.222906589508056641e+00,2.182136774063110352e+00,2.142835378646850586e+00,2.104924678802490234e+00,2.068331956863403320e+00,2.032989978790283203e+00,1.998835444450378418e+00,1.965809464454650879e+00,1.933857083320617676e+00,1.902926921844482422e+00,1.872970461845397949e+00,1.843942642211914062e+00
3.847380399703979492e+00,3.878539800643920898e+00,5.000000000000000000e+00,5.000000000000000000e+00,5.000000000000000000e+00,5.000000000000000000e+00,5.000000000000000000e+00,5.000000000000000000e+00,5.000000000000000000e+00,5.000000000000000000e+00,5.000000000000000000e+00,5.000000000000000000e+00,5.000000000000000000e+00,5.000000000000000000e+00,5.000000000000000000e+00,5.000000000000000000e+00,5.000000000000000000e+00,5.000000000000000000e+00,5.000000000000000000e+00,5.000000000000000000e+00,5.000000000000000000e+00,5.000000000000000000e+00,5.000000000000000000e+00,5.000000000000000000e+00,5.000000000000000000e+00,5.000000000000000000e+00,5.000000000000000000e+00,5.000000000000000000e+00,5.000000000000000000e+00,5.000000000000000000e+00,5.000000000000000000e+00,5.000000000000000000e+00,5.000000000000000000e+00,5.000000000000000000e+00,5.000000000000000000e+00,5.000000000000000000e+00,5.000000000000000000e+00,5.000000000000000000e+00,5.000000000000000000e+00,4.851748466491699219e+00,4.661651611328125000e+00,4.485889911651611328e+00,1.383820295333862305e+00,1.366450548171997070e+00,1.362080812454223633e+00,3.898010730743408203e+00,1.298520922660827637e+00,1.254464030265808105e+00,1.220060706138610840e+00,1.205937385559082031e+00,1.198858141899108887e+00,1.191861629486083984e+00,1.194015979766845703e+00,1.219150304794311523e+00,1.342582702636718750e+00,1.337644815444946289e+00,1.358004450798034668e+00,1.388592839241027832e+00,2.733690977096557617e+00,2.672290802001953125e+00,2.613588094711303711e+00,2.557409048080444336e+00,2.503594398498535156e+00,2.451997995376586914e+00,2.402485132217407227e+00,1.351020693778991699e+00,1.313284516334533691e+00,2.265259265899658203e+00,2.222935676574707031e+00,2.182164669036865234e+00,2.142862319946289062e+00,2.104950666427612305e+00,2.068357229232788086e+00,2.033014297485351562e+00,1.998858809471130371e+00,1.965832233428955078e+00,1.933879137039184570e+00,1.902948260307312012e+00,1.872991204261779785e+00,1.843962788581848145e+00
3.856585741043090820e+00,3.892198562622070312e+00,5.000000000000000000e+00,5.000000000000000000e+00,5.000000000000000000e+00,5.000000000000000000e+00,5.000000000000000000e+00,5.000000000000000000e+00,5.000000000000000000e+00,5.000000000000000000e+00,5.000000000000000000e+00,5.000000000000000000e+00,5.000000000000000000e+00,5.000000000000000000e+00,5.000000000000000000e+00,5.000000000000000000e+00,5.000000000000000000e+00,5.000000000000000000e+00,5.000000000000000000e+00,5.000000000000000000e+00,5.000000000000000000e+00,5.000000000000000000e+00,5.000000000000000000e+00,5.000000000000000000e+00,5.000000000000000000e+00,5.000000000000000000e+00,5.000000000000000000e+00,5.000000000000000000e+00,5.000000000000000000e+00,5.000000000000000000e+00,5.000000000000000000e+00,5.000000000000000000e+00,5.000000000000000000e+00,5.000000000000000000e+00,5.000000000000000000e+00,5.000000000000000000e+00,5.000000000000000000e+00,5.000000000000000000e+00,5.000000000000000000e+00,4.851887226104736328e+00,4.661779880523681641e+00,4.486008644104003906e+00,1.372056245803833008e+00,1.359421133995056152e+00,1.352061867713928223e+00,3.898100137710571289e+00,1.311359643936157227e+00,1.260060548782348633e+00,1.225982546806335449e+00,1.200186729431152344e+00,1.192186951637268066e+00,1.185267806053161621e+00,1.182821631431579590e+00,1.207466483116149902e+00,1.346931934356689453e+00,1.341962099075317383e+00,1.365011692047119141e+00,1.398616433143615723e+00,2.733735084533691406e+00,2.672332763671875000e+00,2.613628387451171875e+00,2.557447671890258789e+00,2.503631353378295898e+00,2.452033281326293945e+00,2.402518987655639648e+00,2.354965209960937500e+00,2.309257030487060547e+00,2.265289545059204102e+00,2.222964763641357422e+00,2.182192802429199219e+00,2.142889499664306641e+00,2.104976892471313477e+00,2.068382263183593750e+00,2.033038616180419922e+00,1.998882412910461426e+00,1.965855002403259277e+00,1.933901190757751465e+00,1.902969598770141602e+00,1.873011946678161621e+00,1.843982815742492676e+00
3.922613859176635742e+00,3.950884103775024414e+00,5.000000000000000000e+00,5.000000000000000000e+00,5.000000000000000000e+00,5.000000000000000000e+00,5.000000000000000000e+00,5.000000000000000000e+00,5.000000000000000000e+00,5.000000000000000000e+00,5.000000000000000000e+00,5.000000000000000000e+00,5.000000000000000000e+00,5.000000000000000000e+00,5.000000000000000000e+00,5.000000000000000000e+00,5.000000000000000000e+00,5.000000000000000000e+00,5.000000000000000000e+00,5.000000000000000000e+00,5.000000000000000000e+00,5.000000000000000000e+00,5.000000000000000000e+00,5.000000000000000000e+00,5.000000000000000000e+00,5.000000000000000000e+00,5.000000000000000000e+00,5.000000000000000000e+00,5.000000000000000000e+00,5.000000000000000000e+00,5.000000000000000000e+00,5.000000000000000000e+00,5.000000000000000000e+00,5.000000000000000000e+00,5.000000000000000000e+00,5.000000000000000000e+00,5.000000000000000000e+00,5.000000000000000000e+00,5.000000000000000000e+00,4.852025985717773438e+00,4.661908149719238281e+00,4.486126899719238281e+00,1.369692325592041016e+00,1.356478810310363770e+00,1.346795916557312012e+00,3.898189783096313477e+00,3.774520635604858398e+00,1.269459128379821777e+00,1.232082843780517578e+00,1.198072195053100586e+00,1.185911655426025391e+00,1.178746461868286133e+00,1.171982049942016602e+00,1.196019768714904785e+00,1.351309418678283691e+00,1.346307396888732910e+00,1.372091889381408691e+00,2.798071146011352539e+00,2.733778953552246094e+00,2.672374963760375977e+00,2.613668680191040039e+00,2.557486295700073242e+00,2.503668308258056641e+00,2.452068805694580078e+00,2.402553081512451172e+00,2.354997873306274414e+00,2.309288263320922852e+00,2.265319585800170898e+00,2.222993850708007812e+00,2.182220935821533203e+00,2.142916679382324219e+00,2.105002880096435547e+00,2.068407535552978516e+00,2.033062934875488281e+00,1.998906016349792480e+00,1.965877890586853027e+00,1.933923363685607910e+00,1.902991056442260742e+00,1.873032569885253906e+00,1.844002842903137207e+00
3.880315303802490234e+00,3.887631177902221680e+00,3.967723369598388672e+00,4.007435798645019531e+00,5.000000000000000000e+00,5.000000000000000000e+00,5.000000000000000000e+00,5.000000000000000000e+00,5.000000000000000000e+00,5.000000000000000000e+00,5.000000000000000000e+00,5.000000000000000000e+00,5.000000000000000000e+00,5.000000000000000000e+00,5.000000000000000000e+00,5.000000000000000000e+00,5.000000000000000000e+00,5.000000000000000000e+00,5.000000000000000000e+00,5.000000000000000000e+00,5.000000000000000000e+00,5.000000000000000000e+00,5.000000000000000000e+00,5.000000000000000000e+00,5.000000000000000000e+00,5.000000000000000000e+00,5.000000000000000000e+00,5.000000000000000000e+00,5.000000000000000000e+00,5.000000000000000000e+00,5.000000000000000000e+00,5.000000000000000000e+00,5.000000000000000000e+00,5.000000000000000000e+00,5.000000000000000000e+00,5.000000000000000000e+00,5.000000000000000000e+00,5.000000000000000000e+00,5.000000000000000000e+00,4.852164745330810547e+00,4.662035942077636719e+00,4.486245632171630859e+00,1.372107386589050293e+00,1.348674058914184570e+00,1.344133257865905762e+00,3.898279428482055664e+00,3.774604797363281250e+00,1.282498359680175781e+00,1.238243937492370605e+00,1.204592466354370117e+00,1.183847069740295410e+00,1.172296643257141113e+00,1.165605783462524414e+00,1.184145808219909668e+00,1.202508807182312012e+00,1.350680589675903320e+00,1.381557822227478027e+00,2.798117399215698242e+00,2.733823060989379883e+00,2.672416925430297852e+00,2.613708734512329102e+00,2.557524681091308594e+00,2.503705263137817383e+00,2.452104091644287109e+00,2.402587175369262695e+00,2.355030298233032227e+00,2.309319734573364258e+00,2.265349864959716797e+00,2.223023176193237305e+00,2.182249069213867188e+00,2.142943620681762695e+00,2.105029106140136719e+00,2.068432807922363281e+00,2.033087491989135742e+00,1.998929619789123535e+00,1.965900659561157227e+00,1.933945417404174805e+00,1.903012394905090332e+00,1.873053312301635742e+00,1.844022750854492188e+00
3.840972661972045898e+00,3.872207880020141602e+00,3.914547681808471680e+00,3.982439041137695312e+00,4.037435531616210938e+00,5.000000000000000000e+00,5.000000000000000000e+00,5.000000000000000000e+00,5.000000000000000000e+00,5.000000000000000000e+00,5.000000000000000000e+00,5.000000000000000000e+00,5.000000000000000000e+00,5.000000000000000000e+00,5.000000000000000000e+00,5.000000000000000000e+00,5.000000000000000000e+00,5.000000000000000000e+00,5.000000000000000000e+00,5.000000000000000000e+00,5.000000000000000000e+00,5.000000000000000000e+00,5.000000000000000000e+00,5.000000000000000000e+00,5.000000000000000000e+00,5.000000000000000000e+00,5.000000000000000000e+00,5.000000000000000000e+00,5.000000000000000000e+00,5.000000000000000000e+00,5.000000000000000000e+00,5.000000000000000000e+00,5.000000000000000000e+00,5.000000000000000000e+00,5.000000000000000000e+00,5.000000000000000000e+00,5.000000000000000000e+00,5.000000000000000000e+00,5.000000000000000000e+00,4.852303504943847656e+00,4.662164211273193359e+00,4.486364364624023438e+00,1.366409778594970703e+00,1.339612364768981934e+00,4.030428409576416016e+00,3.898368597030639648e+00,3.774688243865966797e+00,1.294417977333068848e+00,1.246642351150512695e+00,1.211298584938049316e+00,1.181789636611938477e+00,1.169955849647521973e+00,1.159298419952392578e+00,1.171359658241271973e+00,1.189325094223022461e+00,1.356136083602905273e+00,1.391479730606079102e+00,2.798163414001464844e+00,2.733867168426513672e+00,2.672458887100219727e+00,2.613749027252197266e+00,2.557563304901123047e+00,2.503742218017578125e+00,2.452139616012573242e+00,2.402621030807495117e+00,2.355063199996948242e+00,2.309351205825805664e+00,2.265380144119262695e+00,2.223052024841308594e+00,2.182276964187622070e+00,2.142970561981201172e+00,2.105055332183837891e+00,2.068458080291748047e+00,2.033111810684204102e+00,1.998953104019165039e+00,1.965923428535461426e+00,1.933967471122741699e+00,1.903033494949340820e+00,1.873073816299438477e+00,1.844042778015136719e+00
3.834021568298339844e+00,3.864729642868041992e+00,3.908374786376953125e+00,3.983796358108520508e+00,4.052690505981445312e+00,5.000000000000000000e+00,5.000000000000000000e+00,5.000000000000000000e+00,5.000000000000000000e+00,5.000000000000000000e+00,5.000000000000000000e+00,5.000000000000000000e+00,5.000000000000000000e+00,5.000000000000000000e+00,5.000000000000000000e+00,5.000000000000000000e+00,5.000000000000000000e+00,5.000000000000000000e+00,5.000000000000000000e+00,5.000000000000000000e+00,5.000000000000000000e+00,5.000000000000000000e+00,5.000000000000000000e+00,5.000000000000000000e+00,5.000000000000000000e+00,5.000000000000000000e+00,5.000000000000000000e+00,5.000000000000000000e+00,5.000000000000000000e+00,5.000000000000000000e+00,5.000000000000000000e+00,5.000000000000000000e+00,5.000000000000000000e+00,5.000000000000000000e+00,5.000000000000000000e+00,5.000000000000000000e+00,5.000000000000000000e+00,5.000000000000000000e+00,5.000000000000000000e+00,4.852441787719726562e+00,4.662292003631591797e+00,4.486483097076416016e+00,1.362195014953613281e+00,4.171851634979248047e+00,4.030524253845214844e+00,3.898458242416381836e+00,3.774772405624389648e+00,3.658693790435791016e+00,1.259169697761535645e+00,1.217531323432922363e+00,1.182131409645080566e+00,1.167946457862854004e+00,1.156185865402221680e+00,1.160138368606567383e+00,1.176427483558654785e+00,1.362207293510437012e+00,1.398554682731628418e+00,2.798209667205810547e+00,2.733911037445068359e+00,2.672501087188720703e+00,2.613789319992065430e+00,2.557601928710937500e+00,2.503778934478759766e+00,2.452174901962280273e+00,2.402655124664306641e+00,2.355095863342285156e+00,2.309382677078247070e+00,2.265410423278808594e+00,2.223081350326538086e+00,2.182305097579956055e+00,2.142997741699218750e+00,2.105081319808959961e+00,2.068483114242553711e+00,2.033136129379272461e+00,1.998976707458496094e+00,1.965946316719055176e+00,1.933989286422729492e+00,1.903054952621459961e+00,1.873094558715820312e+00,1.844062805175781250e+00
3.828365325927734375e+00,3.859576940536499023e+00,3.915187835693359375e+00,4.018948078155517578e+00,4.061531543731689453e+00,5.000000000000000000e+00,5.000000000000000000e+00,5.000000000000000000e+00,5.000000000000000000e+00,5.000000000000000000e+00,5.000000000000000000e+00,5.000000000000000000e+00,5.000000000000000000e+00,5.000000000000000000e+00,5.000000000000000000e+00,5.000000000000000000e+00,5.000000000000000000e+00,5.000000000000000000e+00,5.000000000000000000e+00,5.000000000000000000e+00,5.000000000000000000e+00,5.000000000000000000e+00,5.000000000000000000e+00,5.000000000000000000e+00,5.000000000000000000e+00,5.000000000000000000e+00,5.000000000000000000e+00,5.000000000000000000e+00,5.000000000000000000e+00,5.000000000000000000e+00,5.000000000000000000e+00,5.000000000000000000e+00,5.000000000000000000e+00,5.000000000000000000e+00,5.000000000000000000e+00,5.000000000000000000e+00,5.000000000000000000e+00,5.000000000000000000e+00,5.000000000000000000e+00,4.852581024169921875e+00,4.662419795989990234e+00,4.486601352691650391e+00,1.359529614448547363e+00,4.171954154968261719e+00,4.030620098114013672e+00,3.898547887802124023e+00,3.774856567382812500e+00,3.658772230148315430e+00,1.266332030296325684e+00,1.224631309509277344e+00,1.188713073730468750e+00,1.166429519653320312e+00,1.153188943862915039e+00,1.154546141624450684e+00,1.169168949127197266e+00,1.366987109184265137e+00,1.408028841018676758e+00,2.798255681991577148e+00,2.733955144882202148e+00,2.672543287277221680e+00,2.613829851150512695e+00,2.557640314102172852e+00,2.503816127777099609e+00,2.452210426330566406e+00,2.402689218521118164e+00,2.355128526687622070e+00,2.309413909912109375e+00,2.265440702438354492e+00,2.223110437393188477e+00,2.182333230972290039e+00,2.143024682998657227e+00,2.105107307434082031e+00,2.068508386611938477e+00,2.033160448074340820e+00,1.999000072479248047e+00,1.965968847274780273e+00,1.934011340141296387e+00,1.903076291084289551e+00,1.873115181922912598e+00,1.844082951545715332e+00
3.833935976028442383e+00,3.864339828491210938e+00,3.914643287658691406e+00,4.052592277526855469e+00,4.067820549011230469e+00,5.000000000000000000e+00,5.000000000000000000e+00,5.000000000000000000e+00,5.000000000000000000e+00,5.000000000000000000e+00,5.000000000000000000e+00,5.000000000000000000e+00,5.000000000000000000e+00,5.000000000000000000e+00,5.000000000000000000e+00,5.000000000000000000e+00,5.000000000000000000e+00,5.000000000000000000e+00,5.000000000000000000e+00,5.000000000000000000e+00,5.000000000000000000e+00,5.000000000000000000e+00,5.000000000000000000e+00,5.000000000000000000e+00,5.000000000000000000e+00,5.000000000000000000e+00,5.000000000000000000e+00,5.000000000000000000e+00,5.000000000000000000e+00,5.000000000000000000e+00,5.000000000000000000e+00,5.000000000000000000e+00,5.000000000000000000e+00,5.000000000000000000e+00,5.000000000000000000e+00,5.000000000000000000e+00,5.000000000000000000e+00,5.000000000000000000e+00,5.000000000000000000e+00,4.852719783782958984e+00,4.662548065185546875e+00,4.486720085144042969e+00,4.323670864105224609e+00,4.172056674957275391e+00,4.030715465545654297e+00,3.898637771606445312e+00,3.774940252304077148e+00,3.658851385116577148e+00,1.273576140403747559e+00,1.232576847076416016e+00,1.195864319801330566e+00,1.168205618858337402e+00,1.154540300369262695e+00,1.153723120689392090e+00,1.166898250579833984e+00,1.371800541877746582e+00,2.865702152252197266e+00,2.798301935195922852e+00,2.733999252319335938e+00,2.672585248947143555e+00,2.613869905471801758e+00,2.557678937911987305e+00,2.503853082656860352e+00,2.452245950698852539e+00,2.402723073959350586e+00,2.355161190032958984e+00,2.309445381164550781e+00,2.265470981597900391e+00,2.223139524459838867e+00,2.182361125946044922e+00,2.143051862716674805e+00,2.105133533477783203e+00,2.068533658981323242e+00,2.033184766769409180e+00,1.999023675918579102e+00,1.965991616249084473e+00,1.934033393859863281e+00,1.903097629547119141e+00,1.873135924339294434e+00,1.844102978706359863e+00
3.827160596847534180e+00,3.857233285903930664e+00,3.904024600982666016e+00,4.028644084930419922e+00,4.084333419799804688e+00,5.000000000000000000e+00,5.000000000000000000e+00,5.000000000000000000e+00,5.000000000000000000e+00,5.000000000000000000e+00,5.000000000000000000e+00,5.000000000000000000e+00,5.000000000000000000e+00,5.000000000000000000e+00,5.000000000000000000e+00,5.000000000000000000e+00,5.000000000000000000e+00,5.000000000000000000e+00,5.000000000000000000e+00,5.000000000000000000e+00,5.000000000000000000e+00,5.000000000000000000e+00,5.000000000000000000e+00,5.000000000000000000e+00,5.000000000000000000e+00,5.000000000000000000e+00,5.000000000000000000e+00,5.000000000000000000e+00,5.000000000000000000e+00,5.000000000000000000e+00,5.000000000000000000e+00,5.000000000000000000e+00,5.000000000000000000e+00,5.000000000000000000e+00,5.000000000000000000e+00,5.000000000000000000e+00,5.000000000000000000e+00,5.000000000000000000e+00,5.000000000000000000e+00,4.852858543395996094e+00,4.662676334381103516e+00,4.486838817596435547e+00,4.323781013488769531e+00,4.172159671783447266e+00,4.030811309814453125e+00,3.898726940155029297e+00,3.775024175643920898e+00,3.658930301666259766e+00,3.549763679504394531e+00,1.240950107574462891e+00,1.199392199516296387e+00,1.172407150268554688e+00,1.157502889633178711e+00,1.158223390579223633e+00,1.172373175621032715e+00,1.376647830009460449e+00,2.865750551223754883e+00,2.798348188400268555e+00,2.734043121337890625e+00,2.672627449035644531e+00,2.613910198211669922e+00,2.557717561721801758e+00,2.503890037536621094e+00,2.452281236648559570e+00,2.402757167816162109e+00,2.355193853378295898e+00,2.309476852416992188e+00,2.265500783920288086e+00,2.223168611526489258e+00,2.182389259338378906e+00,2.143078804016113281e+00,2.105159759521484375e+00,2.068558692932128906e+00,2.033209085464477539e+00,1.999047160148620605e+00,1.966014504432678223e+00,1.934055566787719727e+00,1.903119087219238281e+00,1.873156666755676270e+00,1.844123005867004395e+00
3.832562923431396484e+00,3.872492313385009766e+00,3.921959638595581055e+00,4.016586303710937500e+00,4.076500415802001953e+00,5.000000000000000000e+00,5.000000000000000000e+00,5.000000000000000000e+00,5.000000000000000000e+00,5.000000000000000000e+00,5.000000000000000000e+00,5.000000000000000000e+00,5.000000000000000000e+00,5.000000000000000000e+00,5.000000000000000000e+00,5.000000000000000000e+00,5.000000000000000000e+00,5.000000000000000000e+00,5.000000000000000000e+00,5.000000000000000000e+00,5.000000000000000000e+00,5.000000000000000000e+00,5.000000000000000000e+00,5.000000000000000000e+00,5.000000000000000000e+00,5.000000000000000000e+00,5.000000000000000000e+00,5.000000000000000000e+00,5.000000000000000000e+00,5.000000000000000000e+00,5.000000000000000000e+00,5.000000000000000000e+00,5.000000000000000000e+00,5.000000000000000000e+00,5.000000000000000000e+00,5.000000000000000000e+00,5.000000000000000000e+00,5.000000000000000000e+00,5.000000000000000000e+00,4.852997303009033203e+00,4.662804603576660156e+00,4.486957073211669922e+00,4.323891162872314453e+00,4.172261714935302734e+00,4.030907154083251953e+00,3.898816585540771484e+00,3.775108337402343750e+00,3.659008979797363281e+00,3.549837589263916016e+00,1.241167068481445312e+00,1.199763655662536621e+00,1.179282426834106445e+00,1.164937615394592285e+00,1.166658401489257812e+00,1.181005239486694336e+00,1.381529688835144043e+00,2.865799188613891602e+00,2.798393964767456055e+00,2.734087228775024414e+00,2.672669410705566406e+00,2.613950490951538086e+00,2.557755947113037109e+00,2.503926753997802734e+00,2.452316761016845703e+00,2.402791261672973633e+00,2.355226516723632812e+00,2.309508323669433594e+00,2.265531063079833984e+00,2.223197698593139648e+00,2.182417392730712891e+00,2.143105745315551758e+00,2.105185747146606445e+00,2.068583965301513672e+00,2.033233642578125000e+00,1.999070763587951660e+00,1.966037273406982422e+00,1.934077620506286621e+00,1.903140425682067871e+00,1.873177289962768555e+00,1.844142913818359375e+00
3.855820655822753906e+00,3.878401279449462891e+00,3.891875982284545898e+00,5.000000000000000000e+00,4.067147254943847656e+00,5.000000000000000000e+00,5.000000000000000000e+00,5.000000000000000000e+00,5.000000000000000000e+00,5.000000000000000000e+00,5.000000000000000000e+00,5.000000000000000000e+00,5.000000000000000000e+00,5.000000000000000000e+00,5.000000000000000000e+00,5.000000000000000000e+00,5.000000000000000000e+00,5.000000000000000000e+00,5.000000000000000000e+00,5.000000000000000000e+00,5.000000000000000000e+00,5.000000000000000000e+00,5.000000000000000000e+00,5.000000000000000000e+00,5.000000000000000000e+00,5.000000000000000000e+00,5.000000000000000000e+00,5.000000000000000000e+00,5.000000000000000000e+00,5.000000000000000000e+00,5.000000000000000000e+00,5.000000000000000000e+00,5.000000000000000000e+00,5.000000000000000000e+00,5.000000000000000000e+00,5.000000000000000000e+00,5.000000000000000000e+00,5.000000000000000000e+00,5.000000000000000000e+00,4.853135585784912109e+00,4.662932395935058594e+00,4.487075805664062500e+00,4.324001312255859375e+00,4.172364711761474609e+00,4.031002521514892578e+00,3.898906230926513672e+00,3.775192022323608398e+00,3.659087896347045898e+00,3.549911975860595703e+00,1.236945629119873047e+00,1.199494242668151855e+00,1.185588955879211426e+00,1.172912120819091797e+00,1.175320863723754883e+00,1.193128108978271484e+00,1.392720103263854980e+00,2.865847349166870117e+00,2.798440217971801758e+00,2.734131336212158203e+00,2.672711610794067383e+00,2.613990545272827148e+00,2.557794570922851562e+00,2.503963708877563477e+00,2.452352285385131836e+00,2.402825117111206055e+00,2.355259180068969727e+00,2.309539794921875000e+00,2.265561580657958984e+00,2.223227024078369141e+00,2.182445287704467773e+00,2.143132925033569336e+00,2.105211973190307617e+00,2.068609237670898438e+00,2.033257722854614258e+00,1.999094367027282715e+00,1.966060042381286621e+00,1.934099674224853516e+00,1.903161764144897461e+00,1.873197793960571289e+00,1.844162940979003906e+00
3.887343168258666992e+00,3.817407131195068359e+00,3.849259376525878906e+00,3.939620018005371094e+00,4.052105903625488281e+00,5.000000000000000000e+00,5.000000000000000000e+00,5.000000000000000000e+00,5.000000000000000000e+00,5.000000000000000000e+00,5.000000000000000000e+00,5.000000000000000000e+00,5.000000000000000000e+00,5.000000000000000000e+00,5.000000000000000000e+00,5.000000000000000000e+00,5.000000000000000000e+00,5.000000000000000000e+00,5.000000000000000000e+00,5.000000000000000000e+00,5.000000000000000000e+00,5.000000000000000000e+00,5.000000000000000000e+00,5.000000000000000000e+00,5.000000000000000000e+00,5.000000000000000000e+00,5.000000000000000000e+00,5.000000000000000000e+00,5.000000000000000000e+00,5.000000000000000000e+00,5.000000000000000000e+00,5.000000000000000000e+00,5.000000000000000000e+00,5.000000000000000000e+00,5.000000000000000000e+00,5.000000000000000000e+00,5.000000000000000000e+00,5.000000000000000000e+00,5.000000000000000000e+00,4.853274822235107422e+00,4.663060665130615234e+00,4.487194538116455078e+00,4.324111461639404297e+00,4.172467231750488281e+00,4.031098365783691406e+00,3.898995637893676758e+00,3.775276184082031250e+00,3.659166812896728516e+00,3.549986362457275391e+00,1.231270313262939453e+00,1.203288555145263672e+00,1.191094279289245605e+00,1.180996537208557129e+00,1.184112906455993652e+00,1.210964560508728027e+00,2.936632871627807617e+00,2.865895748138427734e+00,2.798486471176147461e+00,2.734175205230712891e+00,2.672753572463989258e+00,2.614030838012695312e+00,2.557833194732666016e+00,2.504000902175903320e+00,2.452387571334838867e+00,2.402859210968017578e+00,2.355291843414306641e+00,2.309571266174316406e+00,2.265591859817504883e+00,2.223255872726440430e+00,2.182473421096801758e+00,2.143160104751586914e+00,2.105237960815429688e+00,2.068634271621704102e+00,2.033282279968261719e+00,1.999117970466613770e+00,1.966082930564880371e+00,1.934121727943420410e+00,1.903182983398437500e+00,1.873218536376953125e+00,1.844183087348937988e+00
3.893898010253906250e+00,3.793518781661987305e+00,3.820487976074218750e+00,3.919889688491821289e+00,4.042572021484375000e+00,5.000000000000000000e+00,5.000000000000000000e+00,5.000000000000000000e+00,5.000000000000000000e+00,5.000000000000000000e+00,5.000000000000000000e+00,5.000000000000000000e+00,5.000000000000000000e+00,5.000000000000000000e+00,5.000000000000000000e+00,5.000000000000000000e+00,5.000000000000000000e+00,5.000000000000000000e+00,5.000000000000000000e+00,5.000000000000000000e+00,5.000000000000000000e+00,5.000000000000000000e+00,5.000000000000000000e+00,5.000000000000000000e+00,5.000000000000000000e+00,5.000000000000000000e+00,5.000000000000000000e+00,5.000000000000000000e+00,5.000000000000000000e+00,5.000000000000000000e+00,5.000000000000000000e+00,5.000000000000000000e+00,5.000000000000000000e+00,5.000000000000000000e+00,5.000000000000000000e+00,5.000000000000000000e+00,5.000000000000000000e+00,5.000000000000000000e+00,5.000000000000000000e+00,4.853413581848144531e+00,4.663188934326171875e+00,4.487312793731689453e+00,4.324221611022949219e+00,4.172569751739501953e+00,4.031194210052490234e+00,3.899085283279418945e+00,3.775360345840454102e+00,3.659245967864990234e+00,3.550060510635375977e+00,1.229707598686218262e+00,1.207534313201904297e+00,1.196650981903076172e+00,1.189193248748779297e+00,1.193711876869201660e+00,1.398181796073913574e+00,2.936683654785156250e+00,2.865944147109985352e+00,2.798532485961914062e+00,2.734219312667846680e+00,2.672795772552490234e+00,2.614071130752563477e+00,2.557871818542480469e+00,2.504037618637084961e+00,2.452423095703125000e+00,2.402893304824829102e+00,2.355324745178222656e+00,2.309602499008178711e+00,2.265621900558471680e+00,2.223285198211669922e+00,2.182501554489135742e+00,2.143187284469604492e+00,2.105263948440551758e+00,2.068659543991088867e+00,2.033306598663330078e+00,1.999141573905944824e+00,1.966105461120605469e+00,1.934143543243408203e+00,1.903204321861267090e+00,1.873239278793334961e+00,1.844203114509582520e+00
3.909893751144409180e+00,3.766891717910766602e+00,3.788676977157592773e+00,5.000000000000000000e+00,5.000000000000000000e+00,5.000000000000000000e+00,5.000000000000000000e+00,5.000000000000000000e+00,5.000000000000000000e+00,5.000000000000000000e+00,5.000000000000000000e+00,5.000000000000000000e+00,5.000000000000000000e+00,5.000000000000000000e+00,5.000000000000000000e+00,5.000000000000000000e+00,5.000000000000000000e+00,5.000000000000000000e+00,5.000000000000000000e+00,5.000000000000000000e+00,5.000000000000000000e+00,5.000000000000000000e+00,5.000000000000000000e+00,5.000000000000000000e+00,5.000000000000000000e+00,5.000000000000000000e+00,5.000000000000000000e+00,5.000000000000000000e+00,5.000000000000000000e+00,5.000000000000000000e+00,5.000000000000000000e+00,5.000000000000000000e+00,5.000000000000000000e+00,5.000000000000000000e+00,5.000000000000000000e+00,5.000000000000000000e+00,5.000000000000000000e+00,5.000000000000000000e+00,5.000000000000000000e+00,4.853552341461181641e+00,4.663316726684570312e+00,4.487432003021240234e+00,4.324331760406494141e+00,4.172672271728515625e+00,4.031290054321289062e+00,3.899174928665161133e+00,3.775444030761718750e+00,3.659324407577514648e+00,3.550134658813476562e+00,1.232168555259704590e+00,1.211810111999511719e+00,1.202259778976440430e+00,1.195866703987121582e+00,1.211565971374511719e+00,1.417603373527526855e+00,2.936734437942504883e+00,2.865992546081542969e+00,2.798578739166259766e+00,2.734263420104980469e+00,2.672837972640991211e+00,2.614111423492431641e+00,2.557910203933715820e+00,2.504074573516845703e+00,2.452458620071411133e+00,2.402927398681640625e+00,2.355357170104980469e+00,2.309633970260620117e+00,2.265652179718017578e+00,2.223314285278320312e+00,2.182529449462890625e+00,2.143214225769042969e+00,2.105290174484252930e+00,2.068684816360473633e+00,2.033330917358398438e+00,1.999164938926696777e+00,1.966128230094909668e+00,1.934165716171264648e+00,1.903225660324096680e+00,1.873259902000427246e+00,1.844223141670227051e+00
3.925693988800048828e+00,3.735494375228881836e+00,3.758744955062866211e+00,5.000000000000000000e+00,5.000000000000000000e+00,5.000000000000000000e+00,5.000000000000000000e+00,5.000000000000000000e+00,5.000000000000000000e+00,5.000000000000000000e+00,5.000000000000000000e+00,5.000000000000000000e+00,5.000000000000000000e+00,5.000000000000000000e+00,5.000000000000000000e+00,5.000000000000000000e+00,5.000000000000000000e+00,5.000000000000000000e+00,5.000000000000000000e+00,5.000000000000000000e+00,5.000000000000000000e+00,5.000000000000000000e+00,5.000000000000000000e+00,5.000000000000000000e+00,5.000000000000000000e+00,5.000000000000000000e+00,5.000000000000000000e+00,5.000000000000000000e+00,5.000000000000000000e+00,5.000000000000000000e+00,5.000000000000000000e+00,5.000000000000000000e+00,5.000000000000000000e+00,5.000000000000000000e+00,5.000000000000000000e+00,5.000000000000000000e+00,5.000000000000000000e+00,5.000000000000000000e+00,5.000000000000000000e+00,4.853691101074218750e+00,4.663444995880126953e+00,4.487550258636474609e+00,4.324441909790039062e+00,4.172774791717529297e+00,4.031385898590087891e+00,3.899264335632324219e+00,3.775527954101562500e+00,3.659403562545776367e+00,1.616919636726379395e+00,1.236568808555603027e+00,1.215930223464965820e+00,1.205867528915405273e+00,1.198991775512695312e+00,1.216025710105895996e+00,3.011110067367553711e+00,2.936785221099853516e+00,2.866040945053100586e+00,2.798624992370605469e+00,2.734307527542114258e+00,2.672879934310913086e+00,2.614151716232299805e+00,2.557948827743530273e+00,2.504111528396606445e+00,2.452493906021118164e+00,2.402961254119873047e+00,2.355390071868896484e+00,2.309665441513061523e+00,2.265682458877563477e+00,2.223343372344970703e+00,2.182557582855224609e+00,2.143241167068481445e+00,2.105316400527954102e+00,2.068710088729858398e+00,2.033355236053466797e+00,1.999188423156738281e+00,1.966151118278503418e+00,1.934187769889831543e+00,1.903246998786926270e+00,1.873280644416809082e+00,1.844243288040161133e+00
3.939200639724731445e+00,3.723482608795166016e+00,3.747291326522827148e+00,5.000000000000000000e+00,5.000000000000000000e+00,5.000000000000000000e+00,5.000000000000000000e+00,5.000000000000000000e+00,5.000000000000000000e+00,5.000000000000000000e+00,5.000000000000000000e+00,5.000000000000000000e+00,5.000000000000000000e+00,5.000000000000000000e+00,5.000000000000000000e+00,5.000000000000000000e+00,5.000000000000000000e+00,5.000000000000000000e+00,5.000000000000000000e+00,5.000000000000000000e+00,5.000000000000000000e+00,5.000000000000000000e+00,5.000000000000000000e+00,5.000000000000000000e+00,5.000000000000000000e+00,5.000000000000000000e+00,5.000000000000000000e+00,5.000000000000000000e+00,5.000000000000000000e+00,5.000000000000000000e+00,5.000000000000000000e+00,5.000000000000000000e+00,5.000000000000000000e+00,5.000000000000000000e+00,5.000000000000000000e+00,5.000000000000000000e+00,5.000000000000000000e+00,5.000000000000000000e+00,5.000000000000000000e+00,4.853829860687255859e+00,4.663573265075683594e+00,4.487668991088867188e+00,4.324552059173583984e+00,4.172877788543701172e+00,4.031481266021728516e+00,3.899353981018066406e+00,3.775612115859985352e+00,3.659482479095458984e+00,1.584466695785522461e+00,1.240430235862731934e+00,1.219699740409851074e+00,1.206724524497985840e+00,1.199839115142822266e+00,1.215428709983825684e+00,3.011163711547851562e+00,2.936836004257202148e+00,2.866089344024658203e+00,2.798671007156372070e+00,2.734351396560668945e+00,2.672921895980834961e+00,2.614192008972167969e+00,2.557987451553344727e+00,2.504148483276367188e+00,2.452529430389404297e+00,2.402995347976684570e+00,2.355422735214233398e+00,2.309696912765502930e+00,2.265712499618530273e+00,2.223372459411621094e+00,2.182585716247558594e+00,2.143268346786499023e+00,2.105342388153076172e+00,2.068735361099243164e+00,2.033379793167114258e+00,1.999212026596069336e+00,1.966173887252807617e+00,1.934209823608398438e+00,1.903268456459045410e+00,1.873301386833190918e+00,1.844263315200805664e+00
3.953488826751708984e+00,3.740591287612915039e+00,3.758424520492553711e+00,5.000000000000000000e+00,5.000000000000000000e+00,5.000000000000000000e+00,5.000000000000000000e+00,5.000000000000000000e+00,5.000000000000000000e+00,5.000000000000000000e+00,5.000000000000000000e+00,5.000000000000000000e+00,5.000000000000000000e+00,5.000000000000000000e+00,5.000000000000000000e+00,5.000000000000000000e+00,5.000000000000000000e+00,5.000000000000000000e+00,5.000000000000000000e+00,5.000000000000000000e+00,5.000000000000000000e+00,5.000000000000000000e+00,5.000000000000000000e+00,5.000000000000000000e+00,5.000000000000000000e+00,5.000000000000000000e+00,5.000000000000000000e+00,5.000000000000000000e+00,5.000000000000000000e+00,5.000000000000000000e+00,5.000000000000000000e+00,5.000000000000000000e+00,5.000000000000000000e+00,5.000000000000000000e+00,5.000000000000000000e+00,5.000000000000000000e+00,5.000000000000000000e+00,5.000000000000000000e+00,5.000000000000000000e+00,4.853967189788818359e+00,4.663701057434082031e+00,4.487787723541259766e+00,4.324662208557128906e+00,4.172979831695556641e+00,4.031577110290527344e+00,3.899443626403808594e+00,3.775696277618408203e+00,3.659561157226562500e+00,1.592333197593688965e+00,1.244315862655639648e+00,1.223562359809875488e+00,1.207897186279296875e+00,1.200687527656555176e+00,1.214832425117492676e+00,3.011217117309570312e+00,2.936887025833129883e+00,2.866137742996215820e+00,2.798717021942138672e+00,2.734395503997802734e+00,2.672964096069335938e+00,2.614232301712036133e+00,2.558025836944580078e+00,2.504185438156127930e+00,2.452564716339111328e+00,2.403029441833496094e+00,2.355455160140991211e+00,2.309728145599365234e+00,2.265743017196655273e+00,2.223401546478271484e+00,2.182613849639892578e+00,2.143295288085937500e+00,2.105368614196777344e+00,2.068760395050048828e+00,2.033404111862182617e+00,1.999235630035400391e+00,1.966196656227111816e+00,1.934231877326965332e+00,1.903289794921875000e+00,1.873322010040283203e+00,1.844283223152160645e+00
4.009160995483398438e+00,3.751346588134765625e+00,3.755706310272216797e+00,5.000000000000000000e+00,5.000000000000000000e+00,5.000000000000000000e+00,5.000000000000000000e+00,5.000000000000000000e+00,5.000000000000000000e+00,5.000000000000000000e+00,5.000000000000000000e+00,5.000000000000000000e+00,5.000000000000000000e+00,5.000000000000000000e+00,5.000000000000000000e+00,5.000000000000000000e+00,5.000000000000000000e+00,5.000000000000000000e+00,5.000000000000000000e+00,5.000000000000000000e+00,5.000000000000000000e+00,5.000000000000000000e+00,5.000000000000000000e+00,5.000000000000000000e+00,5.000000000000000000e+00,5.000000000000000000e+00,5.000000000000000000e+00,5.000000000000000000e+00,5.000000000000000000e+00,5.000000000000000000e+00,5.000000000000000000e+00,5.000000000000000000e+00,5.000000000000000000e+00,5.000000000000000000e+00,5.000000000000000000e+00,5.000000000000000000e+00,5.000000000000000000e+00,5.000000000000000000e+00,5.000000000000000000e+00,4.854105472564697266e+00,4.663829326629638672e+00,4.487906455993652344e+00,4.324772834777832031e+00,4.173082351684570312e+00,4.031672954559326172e+00,3.899533033370971680e+00,3.775779962539672852e+00,3.659640073776245117e+00,1.602214217185974121e+00,1.248225688934326172e+00,1.227449417114257812e+00,1.210193395614624023e+00,1.201537251472473145e+00,1.214236617088317871e+00,3.011270761489868164e+00,2.936937570571899414e+00,2.866186141967773438e+00,2.798763275146484375e+00,2.734439611434936523e+00,2.673006057739257812e+00,2.614272356033325195e+00,2.558064460754394531e+00,2.504222393035888672e+00,2.452600240707397461e+00,2.403063297271728516e+00,2.355488061904907227e+00,2.309759855270385742e+00,2.265773296356201172e+00,2.223430633544921875e+00,2.182641744613647461e+00,2.143322467803955078e+00,2.105394601821899414e+00,2.068785667419433594e+00,2.033428430557250977e+00,1.999259233474731445e+00,1.966219544410705566e+00,1.934253931045532227e+00,1.903311014175415039e+00,1.873342514038085938e+00,1.844303250312805176e+00
4.047389507293701172e+00,3.744088172912597656e+00,3.742141485214233398e+00,5.000000000000000000e+00,5.000000000000000000e+00,5.000000000000000000e+00,5.000000000000000000e+00,5.000000000000000000e+00,5.000000000000000000e+00,5.000000000000000000e+00,5.000000000000000000e+00,5.000000000000000000e+00,5.000000000000000000e+00,5.000000000000000000e+00,5.000000000000000000e+00,5.000000000000000000e+00,5.000000000000000000e+00,5.000000000000000000e+00,5.000000000000000000e+00,5.000000000000000000e+00,5.000000000000000000e+00,5.000000000000000000e+00,5.000000000000000000e+00,5.000000000000000000e+00,5.000000000000000000e+00,5.000000000000000000e+00,5.000000000000000000e+00,5.000000000000000000e+00,5.000000000000000000e+00,5.000000000000000000e+00,5.000000000000000000e+00,5.000000000000000000e+00,5.000000000000000000e+00,5.000000000000000000e+00,5.000000000000000000e+00,5.000000000000000000e+00,5.000000000000000000e+00,5.000000000000000000e+00,5.000000000000000000e+00,4.854243755340576172e+00,4.663955688476562500e+00,4.488025188446044922e+00,4.324882507324218750e+00,4.173185348510742188e+00,4.031768798828125000e+00,3.899622678756713867e+00,3.775864124298095703e+00,1.658017277717590332e+00,1.612436652183532715e+00,1.252160429954528809e+00,1.231361269950866699e+00,1.212498188018798828e+00,1.202388167381286621e+00,1.213203549385070801e+00,3.011323928833007812e+00,2.936988592147827148e+00,2.866234540939331055e+00,2.798809528350830078e+00,2.734483480453491211e+00,2.673048257827758789e+00,2.614312887191772461e+00,2.558103084564208984e+00,2.504259347915649414e+00,2.452635526657104492e+00,2.403097391128540039e+00,2.355520725250244141e+00,2.309791326522827148e+00,2.265803337097167969e+00,2.223459720611572266e+00,2.182669878005981445e+00,2.143349647521972656e+00,2.105420589447021484e+00,2.068810939788818359e+00,2.033452749252319336e+00,1.999282836914062500e+00,1.966242313385009766e+00,1.934275865554809570e+00,1.903332352638244629e+00,1.873363256454467773e+00,1.844323396682739258e+00
4.068358421325683594e+00,3.750861167907714844e+00,3.734604120254516602e+00,5.000000000000000000e+00,5.000000000000000000e+00,5.000000000000000000e+00,5.000000000000000000e+00,5.000000000000000000e+00,5.000000000000000000e+00,5.000000000000000000e+00,5.000000000000000000e+00,5.000000000000000000e+00,5.000000000000000000e+00,5.000000000000000000e+00,5.000000000000000000e+00,5.000000000000000000e+00,5.000000000000000000e+00,5.000000000000000000e+00,5.000000000000000000e+00,5.000000000000000000e+00,5.000000000000000000e+00,5.000000000000000000e+00,5.000000000000000000e+00,5.000000000000000000e+00,5.000000000000000000e+00,5.000000000000000000e+00,5.000000000000000000e+00,5.000000000000000000e+00,5.000000000000000000e+00,5.000000000000000000e+00,5.000000000000000000e+00,5.000000000000000000e+00,5.000000000000000000e+00,5.000000000000000000e+00,5.000000000000000000e+00,5.000000000000000000e+00,5.000000000000000000e+00,5.000000000000000000e+00,5.000000000000000000e+00,4.854381561279296875e+00,4.664083480834960938e+00,4.488142490386962891e+00,4.324993133544921875e+00,4.173287868499755859e+00,4.031864643096923828e+00,3.899712324142456055e+00,3.775948286056518555e+00,1.672339320182800293e+00,1.633461952209472656e+00,1.256119966506958008e+00,1.235298037528991699e+00,1.215355992317199707e+00,1.204215645790100098e+00,1.211966872215270996e+00,1.239364147186279297e+00,2.937039375305175781e+00,2.866282939910888672e+00,2.798855543136596680e+00,2.734527587890625000e+00,2.673090457916259766e+00,2.614353179931640625e+00,2.558141469955444336e+00,2.504296302795410156e+00,2.452671051025390625e+00,2.403131484985351562e+00,2.355553388595581055e+00,2.309822559356689453e+00,2.265833616256713867e+00,2.223489046096801758e+00,2.182698011398315430e+00,2.143376588821411133e+00,2.105446815490722656e+00,2.068836212158203125e+00,2.033477067947387695e+00,1.999306440353393555e+00,1.966264963150024414e+00,1.934297919273376465e+00,1.903353691101074219e+00,1.873383998870849609e+00,1.844343423843383789e+00
4.091805934906005859e+00,5.000000000000000000e+00,3.734373331069946289e+00,5.000000000000000000e+00,5.000000000000000000e+00,5.000000000000000000e+00,5.000000000000000000e+00,5.000000000000000000e+00,5.000000000000000000e+00,5.000000000000000000e+00,5.000000000000000000e+00,5.000000000000000000e+00,5.000000000000000000e+00,5.000000000000000000e+00,5.000000000000000000e+00,5.000000000000000000e+00,5.000000000000000000e+00,5.000000000000000000e+00,5.000000000000000000e+00,5.000000000000000000e+00,5.000000000000000000e+00,5.000000000000000000e+00,5.000000000000000000e+00,5.000000000000000000e+00,5.000000000000000000e+00,5.000000000000000000e+00,5.000000000000000000e+00,5.000000000000000000e+00,5.000000000000000000e+00,5.000000000000000000e+00,5.000000000000000000e+00,5.000000000000000000e+00,5.000000000000000000e+00,5.000000000000000000e+00,5.000000000000000000e+00,5.000000000000000000e+00,5.000000000000000000e+00,5.000000000000000000e+00,5.000000000000000000e+00,4.854519844055175781e+00,4.664210796356201172e+00,4.488260269165039062e+00,4.325102329254150391e+00,4.173390388488769531e+00,4.031960487365722656e+00,3.899802207946777344e+00,3.776031970977783203e+00,1.686519265174865723e+00,1.657515168190002441e+00,1.265184164047241211e+00,1.239260196685791016e+00,1.219270825386047363e+00,1.207131981849670410e+00,1.211251258850097656e+00,3.011430978775024414e+00,2.937090158462524414e+00,2.866331338882446289e+00,2.798901796340942383e+00,2.734571695327758789e+00,2.673132658004760742e+00,2.614393234252929688e+00,2.558180093765258789e+00,2.504333257675170898e+00,2.452706575393676758e+00,2.403165340423583984e+00,2.355586051940917969e+00,2.309854030609130859e+00,2.265863895416259766e+00,2.223518133163452148e+00,2.182725906372070312e+00,2.143403530120849609e+00,2.105473041534423828e+00,2.068861484527587891e+00,2.033501386642456055e+00,1.999329805374145508e+00,1.966287732124328613e+00,1.934319972991943359e+00,1.903375148773193359e+00,1.873404741287231445e+00,1.844363451004028320e+00
4.148759841918945312e+00,5.000000000000000000e+00,3.736670732498168945e+00,5.000000000000000000e+00,5.000000000000000000e+00,5.000000000000000000e+00,5.000000000000000000e+00,5.000000000000000000e+00,5.000000000000000000e+00,5.000000000000000000e+00,5.000000000000000000e+00,5.000000000000000000e+00,5.000000000000000000e+00,5.000000000000000000e+00,5.000000000000000000e+00,5.000000000000000000e+00,5.000000000000000000e+00,5.000000000000000000e+00,5.000000000000000000e+00,5.000000000000000000e+00,5.000000000000000000e+00,5.000000000000000000e+00,5.000000000000000000e+00,5.000000000000000000e+00,5.000000000000000000e+00,5.000000000000000000e+00,5.000000000000000000e+00,5.000000000000000000e+00,5.000000000000000000e+00,5.000000000000000000e+00,5.000000000000000000e+00,5.000000000000000000e+00,5.000000000000000000e+00,5.000000000000000000e+00,5.000000000000000000e+00,5.000000000000000000e+00,5.000000000000000000e+00,5.000000000000000000e+00,5.000000000000000000e+00,4.854657649993896484e+00,4.664338588714599609e+00,4.488378524780273438e+00,4.325212001800537109e+00,4.173492908477783203e+00,4.032055854797363281e+00,3.899891376495361328e+00,1.807561635971069336e+00,1.700690627098083496e+00,1.682287454605102539e+00,1.286621809005737305e+00,1.243926525115966797e+00,1.223927021026611328e+00,1.212825059890747070e+00,1.211331725120544434e+00,3.011484146118164062e+00,2.937140941619873047e+00,2.866379737854003906e+00,2.798948049545288086e+00,2.734615564346313477e+00,2.673174619674682617e+00,2.614433526992797852e+00,2.558218717575073242e+00,2.504370212554931641e+00,2.452741861343383789e+00,2.403199434280395508e+00,2.355618715286254883e+00,2.309885501861572266e+00,2.265894174575805664e+00,2.223547220230102539e+00,2.182754039764404297e+00,2.143430709838867188e+00,2.105499267578125000e+00,2.068886518478393555e+00,2.033525943756103516e+00,1.999353289604187012e+00,1.966310501098632812e+00,1.934342026710510254e+00,1.903396487236022949e+00,1.873425364494323730e+00,1.844383597373962402e+00
4.110466003417968750e+00,4.144939422607421875e+00,3.628001213073730469e+00,4.871522426605224609e+00,4.870313644409179688e+00,4.869105339050292969e+00,4.867897987365722656e+00,4.866691112518310547e+00,4.865484237670898438e+00,4.864278316497802734e+00,4.863073348999023438e+00,4.861868858337402344e+00,4.860664844512939453e+00,4.859461307525634766e+00,4.858258724212646484e+00,4.857056140899658203e+00,4.855854988098144531e+00,4.854653835296630859e+00,4.853453159332275391e+00,4.852253437042236328e+00,4.851054191589355469e+00,4.849855899810791016e+00,4.848657608032226562e+00,4.847460269927978516e+00,4.846263408660888672e+00,4.845067024230957031e+00,4.843871116638183594e+00,4.842676162719726562e+00,4.841481685638427734e+00,4.840287685394287109e+00,4.839094161987304688e+00,4.837901592254638672e+00,4.836709499359130859e+00,4.835517883300781250e+00,4.834326744079589844e+00,4.833136558532714844e+00,4.831946849822998047e+00,4.830757617950439453e+00,4.829568862915039062e+00,4.828381061553955078e+00,4.664465904235839844e+00,4.488496303558349609e+00,4.325321674346923828e+00,4.173594474792480469e+00,4.032151699066162109e+00,3.899981260299682617e+00,1.763605952262878418e+00,1.735920190811157227e+00,3.550803184509277344e+00,3.447902441024780273e+00,1.248761296272277832e+00,1.228715658187866211e+00,1.218572139739990234e+00,1.211412191390991211e+00,3.011537551879882812e+00,2.937191963195800781e+00,2.866428375244140625e+00,2.798994064331054688e+00,2.734659910202026367e+00,2.673216819763183594e+00,2.614473819732666016e+00,2.558257102966308594e+00,2.504407167434692383e+00,2.452777385711669922e+00,2.403233528137207031e+00,2.355651617050170898e+00,2.309916734695434570e+00,2.265924453735351562e+00,2.223576307296752930e+00,2.182782173156738281e+00,2.143457651138305664e+00,2.105525255203247070e+00,2.068911790847778320e+00,2.033550262451171875e+00,1.999376893043518066e+00,1.966333389282226562e+00,1.934364080429077148e+00,1.903417825698852539e+00,1.873446106910705566e+00,1.844403624534606934e+00
3.777985095977783203e+00,3.777258396148681641e+00,3.776531219482421875e+00,3.775804996490478516e+00,3.775078535079956055e+00,3.774353027343750000e+00,3.773627042770385742e+00,3.772902011871337891e+00,3.772176504135131836e+00,3.771451711654663086e+00,3.770727396011352539e+00,3.770002841949462891e+00,3.769279003143310547e+00,3.768555164337158203e+00,3.767832040786743164e+00,3.767108678817749023e+00,3.766386032104492188e+00,3.765663146972656250e+00,3.764941215515136719e+00,3.764218807220458984e+00,3.763497352600097656e+00,3.762775659561157227e+00,3.762054681777954102e+00,3.761333465576171875e+00,3.760613203048706055e+00,3.759892463684082031e+00,3.759172201156616211e+00,3.758452653884887695e+00,3.757732868194580078e+00,3.757013797760009766e+00,3.756294727325439453e+00,3.755576133728027344e+00,3.754857540130615234e+00,3.754139661788940430e+00,3.753421545028686523e+00,3.752704143524169922e+00,3.751986503601074219e+00,3.751269578933715820e+00,3.750552654266357422e+00,3.749836206436157227e+00,3.749119758605957031e+00,3.748404026031494141e+00,3.747688293457031250e+00,3.746973037719726562e+00,3.746257543563842773e+00,3.745542526245117188e+00,1.752522706985473633e+00,1.744882464408874512e+00,3.550877571105957031e+00,3.447972536087036133e+00,1.253633856773376465e+00,1.233542084693908691e+00,1.220404267311096191e+00,1.213746190071105957e+00,3.011591196060180664e+00,2.937242507934570312e+00,2.866476535797119141e+00,2.799040317535400391e+00,2.734704017639160156e+00,2.673258781433105469e+00,2.614514112472534180e+00,2.558295726776123047e+00,2.504444122314453125e+00,2.452812910079956055e+00,2.403267621994018555e+00,2.355684041976928711e+00,2.309948444366455078e+00,2.265954732894897461e+00,2.223605632781982422e+00,2.182810068130493164e+00,2.143484830856323242e+00,2.105551481246948242e+00,2.068937063217163086e+00,2.033574581146240234e+00,1.999400496482849121e+00,1.966356158256530762e+00,1.934386253356933594e+00,1.903439283370971680e+00,1.873466610908508301e+00,1.844423532485961914e+00
3.083936452865600586e+00,3.083451986312866211e+00,3.082967758178710938e+00,3.082483530044555664e+00,3.081999540328979492e+00,3.081515550613403320e+00,3.081032037734985352e+00,3.080548286437988281e+00,3.080064773559570312e+00,3.079581737518310547e+00,3.079098463058471680e+00,3.078615665435791016e+00,3.078132629394531250e+00,3.077650308609008789e+00,3.077167510986328125e+00,3.076685428619384766e+00,3.076203107833862305e+00,3.075721263885498047e+00,3.075239181518554688e+00,3.074757575988769531e+00,3.074275732040405273e+00,3.073794603347778320e+00,3.073312997817993164e+00,3.072832107543945312e+00,3.072350978851318359e+00,3.071870326995849609e+00,3.071389436721801758e+00,3.070908784866333008e+00,3.070428609848022461e+00,3.069948196411132812e+00,3.069468259811401367e+00,3.068988084793090820e+00,3.068508386611938477e+00,3.068028688430786133e+00,3.067549467086791992e+00,3.067070007324218750e+00,3.066590785980224609e+00,3.066111803054809570e+00,3.065633058547973633e+00,3.065154075622558594e+00,3.064675807952880859e+00,3.064197063446044922e+00,3.063719034194946289e+00,3.063240766525268555e+00,3.062762737274169922e+00,3.062284946441650391e+00,1.743424177169799805e+00,1.748377084732055664e+00,3.060852289199829102e+00,3.060374975204467773e+00,1.258544445037841797e+00,1.238406419754028320e+00,1.222090125083923340e+00,1.219501972198486328e+00,3.011644363403320312e+00,2.937293529510498047e+00,2.866524934768676758e+00,2.799086570739746094e+00,2.734748125076293945e+00,2.673300743103027344e+00,2.614554405212402344e+00,2.558334350585937500e+00,2.504481077194213867e+00,2.452848196029663086e+00,2.403301477432250977e+00,2.355716943740844727e+00,2.309979915618896484e+00,2.265985012054443359e+00,2.223634481430053711e+00,2.182838201522827148e+00,2.143512010574340820e+00,2.105577468872070312e+00,2.068962097167968750e+00,2.033598899841308594e+00,1.999424099922180176e+00,1.966379046440124512e+00,1.934408307075500488e+00,1.903460383415222168e+00,1.873487353324890137e+00,1.844443559646606445e+00
2.605316877365112305e+00,2.604971408843994141e+00,2.604625463485717773e+00,2.604279994964599609e+00,2.603934526443481445e+00,2.603589057922363281e+00,2.603243827819824219e+00,2.602898597717285156e+00,2.602553367614746094e+00,2.602208375930786133e+00,2.601863384246826172e+00,2.601518392562866211e+00,2.601173877716064453e+00,2.600829124450683594e+00,2.600484609603881836e+00,2.600140094757080078e+00,2.599795579910278320e+00,2.599451303482055664e+00,2.599107265472412109e+00,2.598762989044189453e+00,2.598418951034545898e+00,2.598074913024902344e+00,2.597731113433837891e+00,2.597387313842773438e+00,2.597043752670288086e+00,2.596700191497802734e+00,2.596356630325317383e+00,2.596013307571411133e+00,2.595669746398925781e+00,2.595326662063598633e+00,2.594983577728271484e+00,2.594640493392944336e+00,2.594297647476196289e+00,2.593954801559448242e+00,2.593611955642700195e+00,2.593269348144531250e+00,2.592926740646362305e+00,2.592584371566772461e+00,2.592241764068603516e+00,2.591899633407592773e+00,2.591557264328002930e+00,2.591215372085571289e+00,2.590873241424560547e+00,2.590531349182128906e+00,2.590189218521118164e+00,1.755154371261596680e+00,1.736433029174804688e+00,1.750626325607299805e+00,2.588822841644287109e+00,2.588481426239013672e+00,1.263493776321411133e+00,1.243309378623962402e+00,1.223873972892761230e+00,1.224439144134521484e+00,2.586775779724121094e+00,2.586434841156005859e+00,2.586094141006469727e+00,2.585753440856933594e+00,2.585412979125976562e+00,2.585072278976440430e+00,2.584732055664062500e+00,2.558372974395751953e+00,2.504518032073974609e+00,2.452883720397949219e+00,2.403335571289062500e+00,2.355749607086181641e+00,2.310011148452758789e+00,2.266015052795410156e+00,2.223663806915283203e+00,2.182866334915161133e+00,2.143538951873779297e+00,2.105603456497192383e+00,2.068987369537353516e+00,2.033623218536376953e+00,1.999447703361511230e+00,1.966401576995849609e+00,1.934430122375488281e+00,1.903481721878051758e+00,1.873507976531982422e+00,1.844463706016540527e+00
2.255325078964233398e+00,2.255064725875854492e+00,2.254804611206054688e+00,2.254544496536254883e+00,2.254284620285034180e+00,2.254024744033813477e+00,2.253764629364013672e+00,2.253504991531372070e+00,2.253245115280151367e+00,2.252985477447509766e+00,2.252725839614868164e+00,2.252466440200805664e+00,2.252206802368164062e+00,2.251947164535522461e+00,2.251688003540039062e+00,2.251428604125976562e+00,2.251169204711914062e+00,2.250910043716430664e+00,2.250650882720947266e+00,2.250391721725463867e+00,2.250132799148559570e+00,2.249873876571655273e+00,2.249614715576171875e+00,2.249356031417846680e+00,2.249097824096679688e+00,2.248840093612670898e+00,2.248582363128662109e+00,2.248324871063232422e+00,2.248067378997802734e+00,2.247809886932373047e+00,2.247552633285522461e+00,2.247295141220092773e+00,2.247037887573242188e+00,2.246780633926391602e+00,2.246523618698120117e+00,2.246266365051269531e+00,2.246009349822998047e+00,2.245752334594726562e+00,2.245495557785034180e+00,2.245238542556762695e+00,2.244981765747070312e+00,2.244724988937377930e+00,2.244468450546264648e+00,2.244211673736572266e+00,2.243955135345458984e+00,1.739366888999938965e+00,1.737059712409973145e+00,1.748139262199401855e+00,2.242929458618164062e+00,2.242673158645629883e+00,1.268482089042663574e+00,1.248251318931579590e+00,1.228662252426147461e+00,1.226136207580566406e+00,2.241392612457275391e+00,2.241136789321899414e+00,2.240880966186523438e+00,2.240625143051147461e+00,2.240369319915771484e+00,2.240113735198974609e+00,2.239857912063598633e+00,2.239602565765380859e+00,2.239346981048583984e+00,2.239091396331787109e+00,2.238836050033569336e+00,2.238580703735351562e+00,2.238325357437133789e+00,2.238070249557495117e+00,2.223692893981933594e+00,2.182894468307495117e+00,2.143565893173217773e+00,2.105629682540893555e+00,2.069012641906738281e+00,2.033647775650024414e+00,1.999471068382263184e+00,1.966424345970153809e+00,1.934452295303344727e+00,1.903503179550170898e+00,1.873528718948364258e+00,1.844483733177185059e+00
1.988277077674865723e+00,1.988075017929077148e+00,1.987872838973999023e+00,1.987670540809631348e+00,1.987468600273132324e+00,1.987266540527343750e+00,1.987064361572265625e+00,1.986862540245056152e+00,1.986660599708557129e+00,1.986458778381347656e+00,1.986256837844848633e+00,1.986055016517639160e+00,1.985853314399719238e+00,1.985651731491088867e+00,1.985449910163879395e+00,1.985248327255249023e+00,1.985046744346618652e+00,1.984845042228698730e+00,1.984643578529357910e+00,1.984442114830017090e+00,1.984240770339965820e+00,1.984039187431335449e+00,1.983837962150573730e+00,1.983636617660522461e+00,1.983435273170471191e+00,1.983234047889709473e+00,1.983032941818237305e+00,1.982831835746765137e+00,1.982630610466003418e+00,1.982429623603820801e+00,1.982228636741638184e+00,1.982027649879455566e+00,1.981826543807983398e+00,1.981625676155090332e+00,1.981424927711486816e+00,1.981223940849304199e+00,1.981023192405700684e+00,1.980822563171386719e+00,1.980621933937072754e+00,1.980421066284179688e+00,1.980220556259155273e+00,1.980020046234130859e+00,1.979819536209106445e+00,1.979618787765502930e+00,1.979418396949768066e+00,1.712242603302001953e+00,1.717976093292236328e+00,1.734070062637329102e+00,1.978617072105407715e+00,1.978416800498962402e+00,1.978216409683227539e+00,1.261456131935119629e+00,1.245747566223144531e+00,1.238317489624023438e+00,1.977416038513183594e+00,1.977216005325317383e+00,1.977016091346740723e+00,1.976816058158874512e+00,1.976616144180297852e+00,1.976416468620300293e+00,1.976216673851013184e+00,1.976016759872436523e+00,1.975817084312438965e+00,1.975617408752441406e+00,1.975417613983154297e+00,1.975218057632446289e+00,1.975018501281738281e+00,1.974819064140319824e+00,1.974619388580322266e+00,1.974420070648193359e+00,1.974220633506774902e+00,1.974021434783935547e+00,1.973821878433227539e+00,1.973622679710388184e+00,1.973423480987548828e+00,1.966447234153747559e+00,1.934474349021911621e+00,1.903524518013000488e+00,1.873549461364746094e+00,1.844503760337829590e+00
1.777774930000305176e+00,1.777613282203674316e+00,1.777451753616333008e+00,1.777289986610412598e+00,1.777128458023071289e+00,1.776967048645019531e+00,1.776805520057678223e+00,1.776643872261047363e+00,1.776482462882995605e+00,1.776321053504943848e+00,1.776159524917602539e+00,1.775998234748840332e+00,1.775836944580078125e+00,1.775675654411315918e+00,1.775514245033264160e+00,1.775353074073791504e+00,1.775191903114318848e+00,1.775030732154846191e+00,1.774869441986083984e+00,1.774708390235900879e+00,1.774547338485717773e+00,1.774386048316955566e+00,1.774225115776062012e+00,1.774064183235168457e+00,1.773903131484985352e+00,1.773742079734802246e+00,1.773581147193908691e+00,1.773420333862304688e+00,1.773259282112121582e+00,1.773098587989807129e+00,1.772937774658203125e+00,1.772777080535888672e+00,1.772616147994995117e+00,1.772455453872680664e+00,1.772294759750366211e+00,1.772134184837341309e+00,1.771973371505737305e+00,1.771812796592712402e+00,1.771652340888977051e+00,1.771491646766662598e+00,1.771331191062927246e+00,1.771170735359191895e+00,1.771010279655456543e+00,1.770849704742431641e+00,1.770689368247985840e+00,1.770529031753540039e+00,1.770368456840515137e+00,1.770208239555358887e+00,1.770048022270202637e+00,1.769887804985046387e+00,1.769727349281311035e+00,1.264000177383422852e+00,1.244271278381347656e+00,1.232047319412231445e+00,1.239654421806335449e+00,1.768926739692687988e+00,1.768766760826110840e+00,1.768606543540954590e+00,1.768446564674377441e+00,1.768286705017089844e+00,1.768126726150512695e+00,1.767966747283935547e+00,1.767806887626647949e+00,1.767647027969360352e+00,1.767487049102783203e+00,1.767327308654785156e+00,1.767167568206787109e+00,1.767007946968078613e+00,1.766848087310791016e+00,1.766688466072082520e+00,1.766528844833374023e+00,1.766369223594665527e+00,1.766209483146667480e+00,1.766049981117248535e+00,1.765890479087829590e+00,1.765730857849121094e+00,1.765571475028991699e+00,1.765412092208862305e+00,1.765252709388732910e+00,1.765093207359313965e+00
1.607578039169311523e+00,1.607445836067199707e+00,1.607313752174377441e+00,1.607181429862976074e+00,1.607049345970153809e+00,1.606917262077331543e+00,1.606785297393798828e+00,1.606653094291687012e+00,1.606521129608154297e+00,1.606389164924621582e+00,1.606256961822509766e+00,1.606125116348266602e+00,1.605993151664733887e+00,1.605861306190490723e+00,1.605729222297668457e+00,1.605597376823425293e+00,1.605465531349182129e+00,1.605333805084228516e+00,1.605201840400695801e+00,1.605069994926452637e+00,1.604938268661499023e+00,1.604806423187255859e+00,1.604674696922302246e+00,1.604543089866638184e+00,1.604411363601684570e+00,1.604279637336730957e+00,1.604148030281066895e+00,1.604016423225402832e+00,1.603884816169738770e+00,1.603753209114074707e+00,1.603621602058410645e+00,1.603490114212036133e+00,1.603358507156372070e+00,1.603227019309997559e+00,1.603095650672912598e+00,1.602964162826538086e+00,1.602832674980163574e+00,1.602701306343078613e+00,1.602569937705993652e+00,1.602438449859619141e+00,1.602307081222534180e+00,1.602175831794738770e+00,1.602044582366943359e+00,1.601913213729858398e+00,1.601781964302062988e+00,1.601650714874267578e+00,1.601519584655761719e+00,1.601388216018676758e+00,1.601257085800170898e+00,1.601125955581665039e+00,1.600994825363159180e+00,1.262703537940979004e+00,1.234798669815063477e+00,1.216741323471069336e+00,1.209230303764343262e+00,1.600339531898498535e+00,1.600208520889282227e+00,1.600077629089355469e+00,1.599946498870849609e+00,1.599815487861633301e+00,1.599684715270996094e+00,1.599553704261779785e+00,1.599422812461853027e+00,1.599292039871215820e+00,1.599161267280578613e+00,1.599030256271362305e+00,1.598899602890014648e+00,1.598768830299377441e+00,1.598637938499450684e+00,1.598507285118103027e+00,1.598376631736755371e+00,1.598245978355407715e+00,1.598115205764770508e+00,1.597984552383422852e+00,1.597854018211364746e+00,1.597723484039306641e+00,1.597592711448669434e+00,1.597462296485900879e+00,1.597331762313842773e+00,1.597201108932495117e+00
1.467121720314025879e+00,1.467011690139770508e+00,1.466901659965515137e+00,1.466791629791259766e+00,1.466681480407714844e+00,1.466571450233459473e+00,1.466461420059204102e+00,1.466351270675659180e+00,1.466241359710693359e+00,1.466131448745727539e+00,1.466021537780761719e+00,1.465911507606506348e+00,1.465801596641540527e+00,1.465691685676574707e+00,1.465581774711608887e+00,1.465471863746643066e+00,1.465362071990966797e+00,1.465252280235290527e+00,1.465142369270324707e+00,1.465032577514648438e+00,1.464922785758972168e+00,1.464813113212585449e+00,1.464703202247619629e+00,1.464593529701232910e+00,1.464483857154846191e+00,1.464374065399169922e+00,1.464264392852783203e+00,1.464154720306396484e+00,1.464045047760009766e+00,1.463935375213623047e+00,1.463825702667236328e+00,1.463716149330139160e+00,1.463606476783752441e+00,1.463496923446655273e+00,1.463387370109558105e+00,1.463277935981750488e+00,1.463168263435363770e+00,1.463058829307556152e+00,1.462949395179748535e+00,1.462839961051940918e+00,1.462730407714843750e+00,1.462620973587036133e+00,1.462511539459228516e+00,1.462402105331420898e+00,1.462292671203613281e+00,1.462183356285095215e+00,1.462074041366577148e+00,1.461964607238769531e+00,1.461855292320251465e+00,1.461745977401733398e+00,1.461636662483215332e+00,1.262462854385375977e+00,1.223466515541076660e+00,1.204441308975219727e+00,1.192596077919006348e+00,1.187824845314025879e+00,1.460981249809265137e+00,1.460872054100036621e+00,1.460762858390808105e+00,1.460653781890869141e+00,1.460544586181640625e+00,1.460435390472412109e+00,1.460326313972473145e+00,1.460217356681823730e+00,1.460108280181884766e+00,1.459999084472656250e+00,1.459890127182006836e+00,1.459781169891357422e+00,1.459672212600708008e+00,1.459563016891479492e+00,1.459454178810119629e+00,1.459345221519470215e+00,1.459236145019531250e+00,1.459127306938171387e+00,1.459018468856811523e+00,1.458909511566162109e+00,1.458800554275512695e+00,1.458691716194152832e+00,1.458582997322082520e+00,1.458474040031433105e+00
1.349236965179443359e+00,1.349143862724304199e+00,1.349050879478454590e+00,1.348957777023315430e+00,1.348864674568176270e+00,1.348771572113037109e+00,1.348678588867187500e+00,1.348585367202758789e+00,1.348492383956909180e+00,1.348399400711059570e+00,1.348306417465209961e+00,1.348213434219360352e+00,1.348120450973510742e+00,1.348027467727661133e+00,1.347934603691101074e+00,1.347841501235961914e+00,1.347748637199401855e+00,1.347655773162841797e+00,1.347562789916992188e+00,1.347469925880432129e+00,1.347377061843872070e+00,1.347284317016601562e+00,1.347191333770751953e+00,1.347098588943481445e+00,1.347005724906921387e+00,1.346912860870361328e+00,1.346820116043090820e+00,1.346727371215820312e+00,1.346634626388549805e+00,1.346541762351989746e+00,1.346449017524719238e+00,1.346356272697448730e+00,1.346263647079467773e+00,1.346170783042907715e+00,1.346078157424926758e+00,1.345985531806945801e+00,1.345892786979675293e+00,1.345800161361694336e+00,1.345707535743713379e+00,1.345614910125732422e+00,1.345522165298461914e+00,1.345429658889770508e+00,1.345337033271789551e+00,1.345244526863098145e+00,1.345151782035827637e+00,1.345059275627136230e+00,1.344966769218444824e+00,1.344874143600463867e+00,1.344781637191772461e+00,1.344689249992370605e+00,1.344596743583679199e+00,1.344504117965698242e+00,1.207081437110900879e+00,1.185865640640258789e+00,1.175356864929199219e+00,1.167503714561462402e+00,1.164912104606628418e+00,1.161505460739135742e+00,1.343857169151306152e+00,1.343764781951904297e+00,1.343672394752502441e+00,1.343580126762390137e+00,1.343487739562988281e+00,1.343395352363586426e+00,1.343303084373474121e+00,1.343210697174072266e+00,1.343118429183959961e+00,1.343026161193847656e+00,1.342934012413024902e+00,1.342841625213623047e+00,1.342749357223510742e+00,1.342657208442687988e+00,1.342564940452575684e+00,1.342472791671752930e+00,1.342380523681640625e+00,1.342288374900817871e+00,1.342196226119995117e+00,1.342104077339172363e+00,1.342011928558349609e+00,1.341919898986816406e+00
1.248887658119201660e+00,1.248807907104492188e+00,1.248728156089782715e+00,1.248648405075073242e+00,1.248568654060363770e+00,1.248488903045654297e+00,1.248409152030944824e+00,1.248329520225524902e+00,1.248249650001525879e+00,1.248170018196105957e+00,1.248090386390686035e+00,1.248010635375976562e+00,1.247931003570556641e+00,1.247851252555847168e+00,1.247771620750427246e+00,1.247691988945007324e+00,1.247612357139587402e+00,1.247532725334167480e+00,1.247453093528747559e+00,1.247373461723327637e+00,1.247293949127197266e+00,1.247214436531066895e+00,1.247134685516357422e+00,1.247055172920227051e+00,1.246975660324096680e+00,1.246896147727966309e+00,1.246816515922546387e+00,1.246737122535705566e+00,1.246657609939575195e+00,1.246577978134155273e+00,1.246498584747314453e+00,1.246419072151184082e+00,1.246339678764343262e+00,1.246260166168212891e+00,1.246180653572082520e+00,1.246101260185241699e+00,1.246021747589111328e+00,1.245942354202270508e+00,1.245862960815429688e+00,1.245783567428588867e+00,1.245704174041748047e+00,1.245624780654907227e+00,1.245545506477355957e+00,1.245466113090515137e+00,1.245386719703674316e+00,1.245307445526123047e+00,1.245228052139282227e+00,1.245148658752441406e+00,1.245069384574890137e+00,1.244990110397338867e+00,1.244910836219787598e+00,1.244831562042236328e+00,1.244752287864685059e+00,1.165164947509765625e+00,1.150699496269226074e+00,1.139197707176208496e+00,1.131498694419860840e+00,1.130675792694091797e+00,1.130017995834350586e+00,1.244197726249694824e+00,1.244118571281433105e+00,1.244039416313171387e+00,1.243960142135620117e+00,1.243880987167358398e+00,1.243801951408386230e+00,1.243722677230834961e+00,1.243643641471862793e+00,1.243564486503601074e+00,1.243485450744628906e+00,1.243406295776367188e+00,1.243327260017395020e+00,1.243248105049133301e+00,1.243169069290161133e+00,1.243090033531188965e+00,1.243010997772216797e+00,1.242931962013244629e+00,1.242852926254272461e+00,1.242773890495300293e+00,1.242694854736328125e+00,1.242615938186645508e+00
1.162432074546813965e+00,1.162362813949584961e+00,1.162293791770935059e+00,1.162224650382995605e+00,1.162155508995056152e+00,1.162086486816406250e+00,1.162017345428466797e+00,1.161948323249816895e+00,1.161879181861877441e+00,1.161810159683227539e+00,1.161741137504577637e+00,1.161672115325927734e+00,1.161603093147277832e+00,1.161534070968627930e+00,1.161465048789978027e+00,1.161396026611328125e+00,1.161327004432678223e+00,1.161258101463317871e+00,1.161189079284667969e+00,1.161120057106018066e+00,1.161051154136657715e+00,1.160982131958007812e+00,1.160913109779357910e+00,1.160844206809997559e+00,1.160775303840637207e+00,1.160706400871276855e+00,1.160637497901916504e+00,1.160568594932556152e+00,1.160499691963195801e+00,1.160430669784545898e+00,1.160361886024475098e+00,1.160292983055114746e+00,1.160224199295043945e+00,1.160155296325683594e+00,1.160086393356323242e+00,1.160017609596252441e+00,1.159948825836181641e+00,1.159879922866821289e+00,1.159811139106750488e+00,1.159742355346679688e+00,1.159673452377319336e+00,1.159604668617248535e+00,1.159535884857177734e+00,1.159467101097106934e+00,1.159398317337036133e+00,1.159329533576965332e+00,1.159260869026184082e+00,1.159192085266113281e+00,1.159123301506042480e+00,1.159054636955261230e+00,1.158985853195190430e+00,1.158917188644409180e+00,1.158848404884338379e+00,1.158779740333557129e+00,1.139692425727844238e+00,1.129752159118652344e+00,1.119608998298645020e+00,1.115849852561950684e+00,1.114607214927673340e+00,1.158367753028869629e+00,1.158299088478088379e+00,1.158230543136596680e+00,1.158161878585815430e+00,1.158093214035034180e+00,1.158024668693542480e+00,1.157956123352050781e+00,1.157887458801269531e+00,1.157818913459777832e+00,1.157750368118286133e+00,1.157681703567504883e+00,1.157613158226013184e+00,1.157544612884521484e+00,1.157476186752319336e+00,1.157407522201538086e+00,1.157339096069335938e+00,1.157270550727844238e+00,1.157202005386352539e+00,1.157133460044860840e+00,1.157065033912658691e+00,1.156996607780456543e+00
1.087171316146850586e+00,1.087110757827758789e+00,1.087050318717956543e+00,1.086989879608154297e+00,1.086929440498352051e+00,1.086869001388549805e+00,1.086808562278747559e+00,1.086748123168945312e+00,1.086687684059143066e+00,1.086627364158630371e+00,1.086566925048828125e+00,1.086506605148315430e+00,1.086446166038513184e+00,1.086385726928710938e+00,1.086325407028198242e+00,1.086264967918395996e+00,1.086204648017883301e+00,1.086144328117370605e+00,1.086084008216857910e+00,1.086023569107055664e+00,1.085963249206542969e+00,1.085902929306030273e+00,1.085842609405517578e+00,1.085782289505004883e+00,1.085721969604492188e+00,1.085661768913269043e+00,1.085601449012756348e+00,1.085541129112243652e+00,1.085480928421020508e+00,1.085420608520507812e+00,1.085360288619995117e+00,1.085300087928771973e+00,1.085239887237548828e+00,1.085179567337036133e+00,1.085119366645812988e+00,1.085059046745300293e+00,1.084998846054077148e+00,1.084938645362854004e+00,1.084878444671630859e+00,1.084818243980407715e+00,1.084758043289184570e+00,1.084697842597961426e+00,1.084637641906738281e+00,1.084577441215515137e+00,1.084517240524291992e+00,1.084457159042358398e+00,1.084396958351135254e+00,1.084336876869201660e+00,1.084276676177978516e+00,1.084216475486755371e+00,1.084156394004821777e+00,1.084096193313598633e+00,1.084036111831665039e+00,1.083976030349731445e+00,1.083915948867797852e+00,1.083855748176574707e+00,1.083795785903930664e+00,1.083735704421997070e+00,1.083675622940063477e+00,1.083615422248840332e+00,1.083555459976196289e+00,1.083495378494262695e+00,1.083435297012329102e+00,1.083375215530395508e+00,1.083315253257751465e+00,1.083255171775817871e+00,1.083195090293884277e+00,1.083135128021240234e+00,1.083075165748596191e+00,1.083015084266662598e+00,1.082955121994018555e+00,1.082895159721374512e+00,1.082835197448730469e+00,1.082775115966796875e+00,1.082715153694152832e+00,1.082655191421508789e+00,1.082595348358154297e+00,1.082535266876220703e+00,1.082475304603576660e+00,1.082415461540222168e+00
1.021063327789306641e+00,1.021009922027587891e+00,1.020956635475158691e+00,1.020903348922729492e+00,1.020850062370300293e+00,1.020796656608581543e+00,1.020743370056152344e+00,1.020690083503723145e+00,1.020636796951293945e+00,1.020583510398864746e+00,1.020530223846435547e+00,1.020476937294006348e+00,1.020423650741577148e+00,1.020370364189147949e+00,1.020317196846008301e+00,1.020263910293579102e+00,1.020210623741149902e+00,1.020157456398010254e+00,1.020104169845581055e+00,1.020050883293151855e+00,1.019997715950012207e+00,1.019944548606872559e+00,1.019891262054443359e+00,1.019838094711303711e+00,1.019784927368164062e+00,1.019731640815734863e+00,1.019678473472595215e+00,1.019625306129455566e+00,1.019572138786315918e+00,1.019518971443176270e+00,1.019465684890747070e+00,1.019412636756896973e+00,1.019359469413757324e+00,1.019306302070617676e+00,1.019253134727478027e+00,1.019199967384338379e+00,1.019146919250488281e+00,1.019093751907348633e+00,1.019040584564208984e+00,1.018987536430358887e+00,1.018934369087219238e+00,1.018881201744079590e+00,1.018828153610229492e+00,1.018775105476379395e+00,1.018721938133239746e+00,1.018668889999389648e+00,1.018615841865539551e+00,1.018562674522399902e+00,1.018509626388549805e+00,1.018456578254699707e+00,1.018403530120849609e+00,1.018350481986999512e+00,1.018297433853149414e+00,1.018244385719299316e+00,1.018191337585449219e+00,1.018138289451599121e+00,1.018085241317749023e+00,1.018032312393188477e+00,1.017979264259338379e+00,1.017926216125488281e+00,1.017873167991638184e+00,1.017820239067077637e+00,1.017767190933227539e+00,1.017714262008666992e+00,1.017661213874816895e+00,1.017608284950256348e+00,1.017555236816406250e+00,1.017502307891845703e+00,1.017449378967285156e+00,1.017396450042724609e+00,1.017343401908874512e+00,1.017290472984313965e+00,1.017237544059753418e+00,1.017184615135192871e+00,1.017131686210632324e+00,1.017078757286071777e+00,1.017025947570800781e+00,1.016972899436950684e+00,1.016920089721679688e+00,1.016867160797119141e+00
9.625342488288879395e-01,9.624868631362915039e-01,9.624394774436950684e-01,9.623920917510986328e-01,9.623447656631469727e-01,9.622972607612609863e-01,9.622499346733093262e-01,9.622025489807128906e-01,9.621552228927612305e-01,9.621078968048095703e-01,9.620605707168579102e-01,9.620132446289062500e-01,9.619657993316650391e-01,9.619184732437133789e-01,9.618711471557617188e-01,9.618238210678100586e-01,9.617764949798583984e-01,9.617292284965515137e-01,9.616819024085998535e-01,9.616345167160034180e-01,9.615872502326965332e-01,9.615399241447448730e-01,9.614926576614379883e-01,9.614453911781311035e-01,9.613981246948242188e-01,9.613508582115173340e-01,9.613035917282104492e-01,9.612562060356140137e-01,9.612089991569519043e-01,9.611617326736450195e-01,9.611144661903381348e-01,9.610672593116760254e-01,9.610199928283691406e-01,9.609727859497070312e-01,9.609254598617553711e-01,9.608782529830932617e-01,9.608309864997863770e-01,9.607837796211242676e-01,9.607365727424621582e-01,9.606894254684448242e-01,9.606422185897827148e-01,9.605948925018310547e-01,9.605476856231689453e-01,9.605005383491516113e-01,9.604533314704895020e-01,9.604061841964721680e-01,9.603590369224548340e-01,9.603118300437927246e-01,9.602645635604858398e-01,9.602174162864685059e-01,9.601702690124511719e-01,9.601231217384338379e-01,9.600759744644165039e-01,9.600288271903991699e-01,9.599816799163818359e-01,9.599344730377197266e-01,9.598873257637023926e-01,9.598402380943298340e-01,9.597930908203125000e-01,9.597460031509399414e-01,9.596989154815673828e-01,9.596518278121948242e-01,9.596046805381774902e-01,9.595575332641601562e-01,9.595104455947875977e-01,9.594633579254150391e-01,9.594162702560424805e-01,9.593691825866699219e-01,9.593220949172973633e-01,9.592750668525695801e-01,9.592279195785522461e-01,9.591808319091796875e-01,9.591338038444519043e-01,9.590867161750793457e-01,9.590396881103515625e-01,9.589926600456237793e-01,9.589456319808959961e-01,9.588984847068786621e-01,9.588514566421508789e-01,9.588044881820678711e-01
9.103513360023498535e-01,9.103089570999145508e-01,9.102665781974792480e-01,9.102241992950439453e-01,9.101818203926086426e-01,9.101393818855285645e-01,9.100970029830932617e-01,9.100546240806579590e-01,9.100123047828674316e-01,9.099699258804321289e-01,9.099276065826416016e-01,9.098852872848510742e-01,9.098428487777709961e-01,9.098004698753356934e-01,9.097581505775451660e-01,9.097158312797546387e-01,9.096735119819641113e-01,9.096311926841735840e-01,9.095888733863830566e-01,9.095465540885925293e-01,9.095041751861572266e-01,9.094618558883666992e-01,9.094195961952209473e-01,9.093772768974304199e-01,9.093350172042846680e-01,9.092926979064941406e-01,9.092504382133483887e-01,9.092080593109130859e-01,9.091657400131225586e-01,9.091234803199768066e-01,9.090812206268310547e-01,9.090389609336853027e-01,9.089967012405395508e-01,9.089544415473937988e-01,9.089121222496032715e-01,9.088698625564575195e-01,9.088276028633117676e-01,9.087854027748107910e-01,9.087431430816650391e-01,9.087009429931640625e-01,9.086586833000183105e-01,9.086163640022277832e-01,9.085741639137268066e-01,9.085319638252258301e-01,9.084897041320800781e-01,9.084475040435791016e-01,9.084053039550781250e-01,9.083631038665771484e-01,9.083208441734313965e-01,9.082786440849304199e-01,9.082364439964294434e-01,9.081942439079284668e-01,9.081521034240722656e-01,9.081099033355712891e-01,9.080677628517150879e-01,9.080255627632141113e-01,9.079833030700683594e-01,9.079411625862121582e-01,9.078990221023559570e-01,9.078568220138549805e-01,9.078146815299987793e-01,9.077725410461425781e-01,9.077304005622863770e-01,9.076881408691406250e-01,9.076460599899291992e-01,9.076039195060729980e-01,9.075617790222167969e-01,9.075196385383605957e-01,9.074775576591491699e-01,9.074354171752929688e-01,9.073932170867919922e-01,9.073511362075805664e-01,9.073089957237243652e-01,9.072669148445129395e-01,9.072248339653015137e-01,9.071827530860900879e-01,9.071406722068786621e-01,9.070984721183776855e-01,9.070563912391662598e-01,9.070143103599548340e-01
8.635355234146118164e-01,8.634974360466003418e-01,8.634592890739440918e-01,8.634211421012878418e-01,8.633830547332763672e-01,8.633448481559753418e-01,8.633067011833190918e-01,8.632686138153076172e-01,8.632304668426513672e-01,8.631923794746398926e-01,8.631542921066284180e-01,8.631162047386169434e-01,8.630780577659606934e-01,8.630399107933044434e-01,8.630018234252929688e-01,8.629637360572814941e-01,8.629256486892700195e-01,8.628875613212585449e-01,8.628494739532470703e-01,8.628113865852355957e-01,8.627732396125793457e-01,8.627351522445678711e-01,8.626971244812011719e-01,8.626590371131896973e-01,8.626210093498229980e-01,8.625829219818115234e-01,8.625448942184448242e-01,8.625067472457885742e-01,8.624687194824218750e-01,8.624306917190551758e-01,8.623926639556884766e-01,8.623546361923217773e-01,8.623166084289550781e-01,8.622785806655883789e-01,8.622404336929321289e-01,8.622024059295654297e-01,8.621644377708435059e-01,8.621264100074768066e-01,8.620883822441101074e-01,8.620503544807434082e-01,8.620123863220214844e-01,8.619742989540100098e-01,8.619362711906433105e-01,8.618983030319213867e-01,8.618603348731994629e-01,8.618223071098327637e-01,8.617843389511108398e-01,8.617463707923889160e-01,8.617084026336669922e-01,8.616703152656555176e-01,8.616323471069335938e-01,8.615943789482116699e-01,8.615564107894897461e-01,8.615184426307678223e-01,8.614805340766906738e-01,8.614425659179687500e-01,8.614045381546020508e-01,8.613665699958801270e-01,8.613286614418029785e-01,8.612906932830810547e-01,8.612527847290039062e-01,8.612148165702819824e-01,8.611769080162048340e-01,8.611388802528381348e-01,8.611009716987609863e-01,8.610630631446838379e-01,8.610251545906066895e-01,8.609872460365295410e-01,8.609493374824523926e-01,8.609114289283752441e-01,8.608734011650085449e-01,8.608354926109313965e-01,8.607976436614990234e-01,8.607597351074218750e-01,8.607218265533447266e-01,8.606839776039123535e-01,8.606460690498352051e-01,8.606081604957580566e-01,8.605702519416809082e-01,8.605323433876037598e-01
8.212993741035461426e-01,8.212648630142211914e-01,8.212303519248962402e-01,8.211959004402160645e-01,8.211613893508911133e-01,8.211269378662109375e-01,8.210923671722412109e-01,8.210578560829162598e-01,8.210234045982360840e-01,8.209889531135559082e-01,8.209544420242309570e-01,8.209199905395507812e-01,8.208855390548706055e-01,8.208510279655456543e-01,8.208165168762207031e-01,8.207820653915405273e-01,8.207476139068603516e-01,8.207132220268249512e-01,8.206787705421447754e-01,8.206443190574645996e-01,8.206098079681396484e-01,8.205753564834594727e-01,8.205409049987792969e-01,8.205065131187438965e-01,8.204720616340637207e-01,8.204376697540283203e-01,8.204032182693481445e-01,8.203687071800231934e-01,8.203343152999877930e-01,8.202998638153076172e-01,8.202654719352722168e-01,8.202310800552368164e-01,8.201966881752014160e-01,8.201622366905212402e-01,8.201277852058410645e-01,8.200933933258056641e-01,8.200590014457702637e-01,8.200246095657348633e-01,8.199902176856994629e-01,8.199558258056640625e-01,8.199214339256286621e-01,8.198870420455932617e-01,8.198525905609130859e-01,8.198182582855224609e-01,8.197838664054870605e-01,8.197495341300964355e-01,8.197151422500610352e-01,8.196807503700256348e-01,8.196464180946350098e-01,8.196119666099548340e-01,8.195776343345642090e-01,8.195433020591735840e-01,8.195089101791381836e-01,8.194745779037475586e-01,8.194402456283569336e-01,8.194059133529663086e-01,8.193714618682861328e-01,8.193371295928955078e-01,8.193027973175048828e-01,8.192685246467590332e-01,8.192341923713684082e-01,8.191998600959777832e-01,8.191655278205871582e-01,8.191311359405517578e-01,8.190968036651611328e-01,8.190625309944152832e-01,8.190281987190246582e-01,8.189939260482788086e-01,8.189595937728881836e-01,8.189253211021423340e-01,8.188909888267517090e-01,8.188566565513610840e-01,8.188223242759704590e-01,8.187880516052246094e-01,8.187537789344787598e-01,8.187195062637329102e-01,8.186852335929870605e-01,8.186509609222412109e-01,8.186165690422058105e-01,8.185822963714599609e-01
7.830021381378173828e-01,7.829707860946655273e-01,7.829394340515136719e-01,7.829080820083618164e-01,7.828767299652099609e-01,7.828453779220581055e-01,7.828139662742614746e-01,7.827826738357543945e-01,7.827513217926025391e-01,7.827199697494506836e-01,7.826886773109436035e-01,7.826573252677917480e-01,7.826259732246398926e-01,7.825946211814880371e-01,7.825632691383361816e-01,7.825319766998291016e-01,7.825006246566772461e-01,7.824693322181701660e-01,7.824380397796630859e-01,7.824067473411560059e-01,7.823753356933593750e-01,7.823440432548522949e-01,7.823127508163452148e-01,7.822814583778381348e-01,7.822501659393310547e-01,7.822188735008239746e-01,7.821875810623168945e-01,7.821562290191650391e-01,7.821249365806579590e-01,7.820936441421508789e-01,7.820623517036437988e-01,7.820310592651367188e-01,7.819998264312744141e-01,7.819685339927673340e-01,7.819372415542602539e-01,7.819058895111083984e-01,7.818746566772460938e-01,7.818433642387390137e-01,7.818121314048767090e-01,7.817808389663696289e-01,7.817496061325073242e-01,7.817183732986450195e-01,7.816870212554931641e-01,7.816557884216308594e-01,7.816245555877685547e-01,7.815933227539062500e-01,7.815620303153991699e-01,7.815307974815368652e-01,7.814995646476745605e-01,7.814682722091674805e-01,7.814370393753051758e-01,7.814058065414428711e-01,7.813745737075805664e-01,7.813434004783630371e-01,7.813121676445007324e-01,7.812809348106384277e-01,7.812496423721313477e-01,7.812184095382690430e-01,7.811872363090515137e-01,7.811560034751892090e-01,7.811248302459716797e-01,7.810935974121093750e-01,7.810624241828918457e-01,7.810311913490295410e-01,7.809999585151672363e-01,7.809687256813049316e-01,7.809375524520874023e-01,7.809063792228698730e-01,7.808752059936523438e-01,7.808439731597900391e-01,7.808127999305725098e-01,7.807815670967102051e-01,7.807503938674926758e-01,7.807192206382751465e-01,7.806880474090576172e-01,7.806568741798400879e-01,7.806257009506225586e-01,7.805945277214050293e-01,7.805632948875427246e-01,7.805321812629699707e-01
7.481173872947692871e-01,7.480887770652770996e-01,7.480601668357849121e-01,7.480315566062927246e-01,7.480029463768005371e-01,7.479742765426635742e-01,7.479456067085266113e-01,7.479169964790344238e-01,7.478883862495422363e-01,7.478598356246948242e-01,7.478312253952026367e-01,7.478026151657104492e-01,7.477740049362182617e-01,7.477453351020812988e-01,7.477167844772338867e-01,7.476881742477416992e-01,7.476595640182495117e-01,7.476310133934020996e-01,7.476024031639099121e-01,7.475738525390625000e-01,7.475451827049255371e-01,7.475165724754333496e-01,7.474880218505859375e-01,7.474594712257385254e-01,7.474308609962463379e-01,7.474023103713989258e-01,7.473737597465515137e-01,7.473451495170593262e-01,7.473165392875671387e-01,7.472879886627197266e-01,7.472594380378723145e-01,7.472308874130249023e-01,7.472023367881774902e-01,7.471737861633300781e-01,7.471452355384826660e-01,7.471166253089904785e-01,7.470880746841430664e-01,7.470595240592956543e-01,7.470309734344482422e-01,7.470024228096008301e-01,7.469739317893981934e-01,7.469453811645507812e-01,7.469167709350585938e-01,7.468882203102111816e-01,7.468597292900085449e-01,7.468311786651611328e-01,7.468026876449584961e-01,7.467741370201110840e-01,7.467456459999084473e-01,7.467170357704162598e-01,7.466885447502136230e-01,7.466599941253662109e-01,7.466315031051635742e-01,7.466030120849609375e-01,7.465744614601135254e-01,7.465459704399108887e-01,7.465174794197082520e-01,7.464889287948608398e-01,7.464604377746582031e-01,7.464319467544555664e-01,7.464034557342529297e-01,7.463749647140502930e-01,7.463464736938476562e-01,7.463179826736450195e-01,7.462894320487976074e-01,7.462609410285949707e-01,7.462324500083923340e-01,7.462039589881896973e-01,7.461755275726318359e-01,7.461470365524291992e-01,7.461185455322265625e-01,7.460899949073791504e-01,7.460615634918212891e-01,7.460330724716186523e-01,7.460046410560607910e-01,7.459761500358581543e-01,7.459477186203002930e-01,7.459192276000976562e-01,7.458907365798950195e-01,7.458623051643371582e-01
7.162084579467773438e-01,7.161822319030761719e-01,7.161560058593750000e-01,7.161297798156738281e-01,7.161035537719726562e-01,7.160773277282714844e-01,7.160510420799255371e-01,7.160248160362243652e-01,7.159985899925231934e-01,7.159723639488220215e-01,7.159461379051208496e-01,7.159199714660644531e-01,7.158937454223632812e-01,7.158674597740173340e-01,7.158412933349609375e-01,7.158150672912597656e-01,7.157888412475585938e-01,7.157626748085021973e-01,7.157364487648010254e-01,7.157102823257446289e-01,7.156840562820434570e-01,7.156578302383422852e-01,7.156316041946411133e-01,7.156054377555847168e-01,7.155792713165283203e-01,7.155530452728271484e-01,7.155268788337707520e-01,7.155007123947143555e-01,7.154744267463684082e-01,7.154482603073120117e-01,7.154220938682556152e-01,7.153959274291992188e-01,7.153697609901428223e-01,7.153435945510864258e-01,7.153174281120300293e-01,7.152912020683288574e-01,7.152650356292724609e-01,7.152388691902160645e-01,7.152127027511596680e-01,7.151865363121032715e-01,7.151603698730468750e-01,7.151342034339904785e-01,7.151080369949340820e-01,7.150818705558776855e-01,7.150557041168212891e-01,7.150295376777648926e-01,7.150034308433532715e-01,7.149772644042968750e-01,7.149511575698852539e-01,7.149249911308288574e-01,7.148987650871276855e-01,7.148726582527160645e-01,7.148465514183044434e-01,7.148203849792480469e-01,7.147942781448364258e-01,7.147681117057800293e-01,7.147420048713684082e-01,7.147158384323120117e-01,7.146896719932556152e-01,7.146635651588439941e-01,7.146374583244323730e-01,7.146113514900207520e-01,7.145852446556091309e-01,7.145591378211975098e-01,7.145329713821411133e-01,7.145068645477294922e-01,7.144806981086730957e-01,7.144546508789062500e-01,7.144285440444946289e-01,7.144024372100830078e-01,7.143763303756713867e-01,7.143501639366149902e-01,7.143240571022033691e-01,7.142979502677917480e-01,7.142719030380249023e-01,7.142457962036132812e-01,7.142196893692016602e-01,7.141935825347900391e-01,7.141674757003784180e-01,7.141413688659667969e-01
6.869101524353027344e-01,6.868860125541687012e-01,6.868619322776794434e-01,6.868377923965454102e-01,6.868136525154113770e-01,6.867895126342773438e-01,6.867653727531433105e-01,6.867412328720092773e-01,6.867171525955200195e-01,6.866930127143859863e-01,6.866688728332519531e-01,6.866447925567626953e-01,6.866206526756286621e-01,6.865965723991394043e-01,6.865723729133605957e-01,6.865482926368713379e-01,6.865242123603820801e-01,6.865000724792480469e-01,6.864759922027587891e-01,6.864518523216247559e-01,6.864277720451354980e-01,6.864036321640014648e-01,6.863795518875122070e-01,6.863554716110229492e-01,6.863313317298889160e-01,6.863072514533996582e-01,6.862831711769104004e-01,6.862590909004211426e-01,6.862349510192871094e-01,6.862108707427978516e-01,6.861867904663085938e-01,6.861627101898193359e-01,6.861386299133300781e-01,6.861145496368408203e-01,6.860904693603515625e-01,6.860663294792175293e-01,6.860423088073730469e-01,6.860182285308837891e-01,6.859941482543945312e-01,6.859700679779052734e-01,6.859460473060607910e-01,6.859219670295715332e-01,6.858978867530822754e-01,6.858738064765930176e-01,6.858497262001037598e-01,6.858256459236145020e-01,6.858016252517700195e-01,6.857775449752807617e-01,6.857535243034362793e-01,6.857294440269470215e-01,6.857053637504577637e-01,6.856813430786132812e-01,6.856572628021240234e-01,6.856332421302795410e-01,6.856091618537902832e-01,6.855851411819458008e-01,6.855611205101013184e-01,6.855370402336120605e-01,6.855130195617675781e-01,6.854889392852783203e-01,6.854649186134338379e-01,6.854408979415893555e-01,6.854168772697448730e-01,6.853928565979003906e-01,6.853687763214111328e-01,6.853447556495666504e-01,6.853207349777221680e-01,6.852967143058776855e-01,6.852726936340332031e-01,6.852486729621887207e-01,6.852246522903442383e-01,6.852006316184997559e-01,6.851766109466552734e-01,6.851525902748107910e-01,6.851285696029663086e-01,6.851045489311218262e-01,6.850805878639221191e-01,6.850565671920776367e-01,6.850325465202331543e-01,6.850085258483886719e-01
