5.000000000000000000e+00,5.000000000000000000e+00,5.000000000000000000e+00,5.000000000000000000e+00,5.000000000000000000e+00,5.000000000000000000e+00,5.000000000000000000e+00,5.000000000000000000e+00,5.000000000000000000e+00,5.000000000000000000e+00,5.000000000000000000e+00,5.000000000000000000e+00,5.000000000000000000e+00,5.000000000000000000e+00,5.000000000000000000e+00,5.000000000000000000e+00,5.000000000000000000e+00,5.000000000000000000e+00,5.000000000000000000e+00,5.000000000000000000e+00,5.000000000000000000e+00,5.000000000000000000e+00,5.000000000000000000e+00,5.000000000000000000e+00,5.000000000000000000e+00,5.000000000000000000e+00,5.000000000000000000e+00,5.000000000000000000e+00,5.000000000000000000e+00,5.000000000000000000e+00,5.000000000000000000e+00,5.000000000000000000e+00,1.813281178474426270e+00,1.797113180160522461e+00,1.839126110076904297e+00,1.818361282348632812e+00,1.808230876922607422e+00,1.824989795684814453e+00,1.848095178604125977e+00,1.854720354080200195e+00,1.843723773956298828e+00,1.829255342483520508e+00,1.826378226280212402e+00,1.860248684883117676e+00,2.008975744247436523e+00,2.053137063980102539e+00,3.774329185485839844e+00,3.658276081085205078e+00,3.549146890640258789e+00,3.446339607238769531e+00,3.349320888519287109e+00,3.257615089416503906e+00,3.170797109603881836e+00,3.088486671447753906e+00,3.010341644287109375e+00,2.936053276062011719e+00,2.865343093872070312e+00,2.797958850860595703e+00,2.733670949935913086e+00,2.672271251678466797e+00,2.613569021224975586e+00,2.557390213012695312e+00,2.503575801849365234e+00,2.451979398727416992e+00,2.402467012405395508e+00,2.354914426803588867e+00,2.309207916259765625e+00,2.265241861343383789e+00,2.222918510437011719e+00,2.182147741317749023e+00,2.142845630645751953e+00,2.104934215545654297e+00,2.068340778350830078e+00,2.032998323440551758e+00,1.998843073844909668e+00,1.965816617012023926e+00,1.933863759040832520e+00,1.902933001518249512e+00,1.872975945472717285e+00,1.843947768211364746e+00
5.000000000000000000e+00,5.000000000000000000e+00,5.000000000000000000e+00,5.000000000000000000e+00,5.000000000000000000e+00,5.000000000000000000e+00,5.000000000000000000e+00,5.000000000000000000e+00,5.000000000000000000e+00,5.000000000000000000e+00,5.000000000000000000e+00,5.000000000000000000e+00,5.000000000000000000e+00,5.000000000000000000e+00,5.000000000000000000e+00,5.000000000000000000e+00,5.000000000000000000e+00,5.000000000000000000e+00,5.000000000000000000e+00,5.000000000000000000e+00,5.000000000000000000e+00,5.000000000000000000e+00,5.000000000000000000e+00,5.000000000000000000e+00,5.000000000000000000e+00,5.000000000000000000e+00,5.000000000000000000e+00,5.000000000000000000e+00,5.000000000000000000e+00,5.000000000000000000e+00,5.000000000000000000e+00,5.000000000000000000e+00,1.792883634567260742e+00,1.783965587615966797e+00,1.813884019851684570e+00,1.800008177757263184e+00,1.787166953086853027e+00,1.806607127189636230e+00,1.834938168525695801e+00,1.862325310707092285e+00,1.817055821418762207e+00,1.804206132888793945e+00,1.803128361701965332e+00,1.835699439048767090e+00,2.000053644180297852e+00,2.028235673904418945e+00,3.774412870407104492e+00,3.658354759216308594e+00,3.549220800399780273e+00,3.446409463882446289e+00,3.349386692047119141e+00,3.257677316665649414e+00,3.170856237411499023e+00,3.088542699813842773e+00,3.010394811630249023e+00,2.936103820800781250e+00,2.865391492843627930e+00,2.798004865646362305e+00,2.733714818954467773e+00,2.672313213348388672e+00,2.613609075546264648e+00,2.557428598403930664e+00,2.503612518310546875e+00,2.452014684677124023e+00,2.402500867843627930e+00,2.354947090148925781e+00,2.309239149093627930e+00,2.265271902084350586e+00,2.222947597503662109e+00,2.182175874710083008e+00,2.142872571945190430e+00,2.104960203170776367e+00,2.068366050720214844e+00,2.033022403717041016e+00,1.998866438865661621e+00,1.965839385986328125e+00,1.933885693550109863e+00,1.902954339981079102e+00,1.872996687889099121e+00,1.843967556953430176e+00
5.000000000000000000e+00,5.000000000000000000e+00,5.000000000000000000e+00,5.000000000000000000e+00,5.000000000000000000e+00,5.000000000000000000e+00,5.000000000000000000e+00,5.000000000000000000e+00,5.000000000000000000e+00,5.000000000000000000e+00,5.000000000000000000e+00,5.000000000000000000e+00,5.000000000000000000e+00,5.000000000000000000e+00,5.000000000000000000e+00,5.000000000000000000e+00,5.000000000000000000e+00,5.000000000000000000e+00,5.000000000000000000e+00,5.000000000000000000e+00,5.000000000000000000e+00,5.000000000000000000e+00,5.000000000000000000e+00,5.000000000000000000e+00,5.000000000000000000e+00,5.000000000000000000e+00,5.000000000000000000e+00,5.000000000000000000e+00,5.000000000000000000e+00,5.000000000000000000e+00,5.000000000000000000e+00,5.000000000000000000e+00,1.784440636634826660e+00,1.767532229423522949e+00,1.807930707931518555e+00,1.793854594230651855e+00,1.780175924301147461e+00,1.793560743331909180e+00,1.816515564918518066e+00,1.847514867782592773e+00,1.804731130599975586e+00,1.794469594955444336e+00,1.791468620300292969e+00,1.823907613754272461e+00,2.000939607620239258e+00,2.012499570846557617e+00,3.774496316909790039e+00,3.658433198928833008e+00,3.549294710159301758e+00,3.446479082107543945e+00,3.349452733993530273e+00,3.257739782333374023e+00,3.170915365219116211e+00,3.088598728179931641e+00,3.010447978973388672e+00,2.936154603958129883e+00,2.865439653396606445e+00,2.798050880432128906e+00,2.733758926391601562e+00,2.672355175018310547e+00,2.613649129867553711e+00,2.557466983795166016e+00,2.503649473190307617e+00,2.452050209045410156e+00,2.402534723281860352e+00,2.354979753494262695e+00,2.309270381927490234e+00,2.265301942825317383e+00,2.222976446151733398e+00,2.182203769683837891e+00,2.142899513244628906e+00,2.104986190795898438e+00,2.068391084671020508e+00,2.033046722412109375e+00,1.998890042304992676e+00,1.965861916542053223e+00,1.933907747268676758e+00,1.902975440025329590e+00,1.873017191886901855e+00,1.843987703323364258e+00
5.000000000000000000e+00,5.000000000000000000e+00,5.000000000000000000e+00,4.814691066741943359e+00,4.846925735473632812e+00,5.000000000000000000e+00,5.000000000000000000e+00,5.000000000000000000e+00,5.000000000000000000e+00,5.000000000000000000e+00,5.000000000000000000e+00,5.000000000000000000e+00,5.000000000000000000e+00,5.000000000000000000e+00,5.000000000000000000e+00,5.000000000000000000e+00,5.000000000000000000e+00,5.000000000000000000e+00,5.000000000000000000e+00,5.000000000000000000e+00,5.000000000000000000e+00,5.000000000000000000e+00,5.000000000000000000e+00,5.000000000000000000e+00,5.000000000000000000e+00,5.000000000000000000e+00,5.000000000000000000e+00,5.000000000000000000e+00,5.000000000000000000e+00,5.000000000000000000e+00,5.000000000000000000e+00,5.000000000000000000e+00,1.746925234794616699e+00,1.744043946266174316e+00,1.736595392227172852e+00,1.789279460906982422e+00,1.775448083877563477e+00,1.788227915763854980e+00,1.810515165328979492e+00,1.844666481018066406e+00,1.798031210899353027e+00,1.788905978202819824e+00,1.783745646476745605e+00,1.815648913383483887e+00,2.017537593841552734e+00,2.021435737609863281e+00,3.774580478668212891e+00,3.658511877059936523e+00,3.549368619918823242e+00,3.446548938751220703e+00,3.349518537521362305e+00,3.257802009582519531e+00,3.170974254608154297e+00,3.088654756546020508e+00,3.010501146316528320e+00,2.936205148696899414e+00,2.865487813949584961e+00,2.798096895217895508e+00,2.733802795410156250e+00,2.672397136688232422e+00,2.613689184188842773e+00,2.557505369186401367e+00,2.503686189651489258e+00,2.452085494995117188e+00,2.402568578720092773e+00,2.355012178421020508e+00,2.309301853179931641e+00,2.265332221984863281e+00,2.223005533218383789e+00,2.182231664657592773e+00,2.142926454544067383e+00,2.105012416839599609e+00,2.068416118621826172e+00,2.033071041107177734e+00,1.998913407325744629e+00,1.965884804725646973e+00,1.933929562568664551e+00,1.902996897697448730e+00,1.873037815093994141e+00,1.844007492065429688e+00
5.000000000000000000e+00,5.000000000000000000e+00,5.000000000000000000e+00,4.832520008087158203e+00,4.854190826416015625e+00,5.000000000000000000e+00,5.000000000000000000e+00,5.000000000000000000e+00,5.000000000000000000e+00,5.000000000000000000e+00,5.000000000000000000e+00,5.000000000000000000e+00,5.000000000000000000e+00,5.000000000000000000e+00,5.000000000000000000e+00,5.000000000000000000e+00,5.000000000000000000e+00,5.000000000000000000e+00,5.000000000000000000e+00,5.000000000000000000e+00,5.000000000000000000e+00,5.000000000000000000e+00,5.000000000000000000e+00,5.000000000000000000e+00,5.000000000000000000e+00,5.000000000000000000e+00,5.000000000000000000e+00,5.000000000000000000e+00,5.000000000000000000e+00,5.000000000000000000e+00,5.000000000000000000e+00,5.000000000000000000e+00,1.739214301109313965e+00,5.000000000000000000e+00,1.719184160232543945e+00,1.786177277565002441e+00,1.772393703460693359e+00,1.786689519882202148e+00,1.807017326354980469e+00,1.841845393180847168e+00,1.790521502494812012e+00,1.783716797828674316e+00,1.776089072227478027e+00,1.807964682579040527e+00,1.981459021568298340e+00,2.001593589782714844e+00,3.774664163589477539e+00,3.658590316772460938e+00,3.549442529678344727e+00,3.446618556976318359e+00,3.349584341049194336e+00,3.257864475250244141e+00,3.171033382415771484e+00,3.088710784912109375e+00,3.010554313659667969e+00,2.936255693435668945e+00,2.865535974502563477e+00,2.798142671585083008e+00,2.733846664428710938e+00,2.672438859939575195e+00,2.613729238510131836e+00,2.557543754577636719e+00,2.503722906112670898e+00,2.452120780944824219e+00,2.402602434158325195e+00,2.355044841766357422e+00,2.309333086013793945e+00,2.265362262725830078e+00,2.223034620285034180e+00,2.182259559631347656e+00,2.142953634262084961e+00,2.105038404464721680e+00,2.068441390991210938e+00,2.033095359802246094e+00,1.998936891555786133e+00,1.965907335281372070e+00,1.933951616287231445e+00,1.903017997741699219e+00,1.873058557510375977e+00,1.844027638435363770e+00
5.000000000000000000e+00,5.000000000000000000e+00,5.000000000000000000e+00,4.906509876251220703e+00,4.922076702117919922e+00,5.000000000000000000e+00,5.000000000000000000e+00,5.000000000000000000e+00,5.000000000000000000e+00,5.000000000000000000e+00,5.000000000000000000e+00,5.000000000000000000e+00,5.000000000000000000e+00,5.000000000000000000e+00,5.000000000000000000e+00,5.000000000000000000e+00,5.000000000000000000e+00,5.000000000000000000e+00,5.000000000000000000e+00,5.000000000000000000e+00,5.000000000000000000e+00,5.000000000000000000e+00,5.000000000000000000e+00,5.000000000000000000e+00,5.000000000000000000e+00,5.000000000000000000e+00,5.000000000000000000e+00,5.000000000000000000e+00,5.000000000000000000e+00,5.000000000000000000e+00,5.000000000000000000e+00,5.000000000000000000e+00,1.720605611801147461e+00,5.000000000000000000e+00,1.799343585968017578e+00,1.783390402793884277e+00,1.769349694252014160e+00,1.785153985023498535e+00,1.803537368774414062e+00,1.838247179985046387e+00,1.783074140548706055e+00,1.776783347129821777e+00,1.769580364227294922e+00,1.802361607551574707e+00,1.966512084007263184e+00,1.979932188987731934e+00,3.774747848510742188e+00,3.658668994903564453e+00,3.549516677856445312e+00,3.446688413619995117e+00,3.349650382995605469e+00,3.257926702499389648e+00,3.171092271804809570e+00,3.088766813278198242e+00,3.010607719421386719e+00,2.936306476593017578e+00,2.865584135055541992e+00,2.798188686370849609e+00,2.733890533447265625e+00,2.672480821609497070e+00,2.613769531250000000e+00,2.557582139968872070e+00,2.503759860992431641e+00,2.452156066894531250e+00,2.402636289596557617e+00,2.355077266693115234e+00,2.309364318847656250e+00,2.265392303466796875e+00,2.223063468933105469e+00,2.182287693023681641e+00,2.142980575561523438e+00,2.105064392089843750e+00,2.068466424942016602e+00,2.033119678497314453e+00,1.998960256576538086e+00,1.965930104255676270e+00,1.933973431587219238e+00,1.903039336204528809e+00,1.873079061508178711e+00,1.844047427177429199e+00
4.771881103515625000e+00,4.771208286285400391e+00,4.791875839233398438e+00,4.826220512390136719e+00,4.867367744445800781e+00,4.920099258422851562e+00,4.987411022186279297e+00,5.000000000000000000e+00,5.000000000000000000e+00,5.000000000000000000e+00,5.000000000000000000e+00,5.000000000000000000e+00,5.000000000000000000e+00,5.000000000000000000e+00,5.000000000000000000e+00,5.000000000000000000e+00,5.000000000000000000e+00,5.000000000000000000e+00,5.000000000000000000e+00,5.000000000000000000e+00,5.000000000000000000e+00,5.000000000000000000e+00,5.000000000000000000e+00,5.000000000000000000e+00,5.000000000000000000e+00,5.000000000000000000e+00,5.000000000000000000e+00,5.000000000000000000e+00,5.000000000000000000e+00,5.000000000000000000e+00,5.000000000000000000e+00,5.000000000000000000e+00,1.701474785804748535e+00,5.000000000000000000e+00,1.804204702377319336e+00,1.781545639038085938e+00,1.766316175460815430e+00,1.781986951828002930e+00,1.801283001899719238e+00,1.834663152694702148e+00,1.775659441947937012e+00,1.769785165786743164e+00,1.763818144798278809e+00,1.795429706573486328e+00,1.962301492691040039e+00,1.971825003623962402e+00,3.774831533432006836e+00,3.658747673034667969e+00,3.549590587615966797e+00,3.446758031845092773e+00,3.349716186523437500e+00,3.257988929748535156e+00,3.171151399612426758e+00,3.088822841644287109e+00,3.010660886764526367e+00,2.936357021331787109e+00,2.865632534027099609e+00,2.798234701156616211e+00,2.733934402465820312e+00,2.672522783279418945e+00,2.613809585571289062e+00,2.557620525360107422e+00,2.503796577453613281e+00,2.452191352844238281e+00,2.402670383453369141e+00,2.355109930038452148e+00,2.309395790100097656e+00,2.265422582626342773e+00,2.223092555999755859e+00,2.182315587997436523e+00,2.143007516860961914e+00,2.105090379714965820e+00,2.068491458892822266e+00,2.033143758773803711e+00,1.998983860015869141e+00,1.965952754020690918e+00,1.933995604515075684e+00,1.903060555458068848e+00,1.873099684715270996e+00,1.844067573547363281e+00
5.000000000000000000e+00,4.785020351409912109e+00,4.772454261779785156e+00,4.791747093200683594e+00,4.835015296936035156e+00,4.889061927795410156e+00,4.995258808135986328e+00,5.000000000000000000e+00,5.000000000000000000e+00,5.000000000000000000e+00,5.000000000000000000e+00,5.000000000000000000e+00,5.000000000000000000e+00,5.000000000000000000e+00,5.000000000000000000e+00,5.000000000000000000e+00,5.000000000000000000e+00,5.000000000000000000e+00,5.000000000000000000e+00,5.000000000000000000e+00,5.000000000000000000e+00,5.000000000000000000e+00,5.000000000000000000e+00,5.000000000000000000e+00,5.000000000000000000e+00,5.000000000000000000e+00,5.000000000000000000e+00,5.000000000000000000e+00,5.000000000000000000e+00,5.000000000000000000e+00,5.000000000000000000e+00,5.000000000000000000e+00,5.000000000000000000e+00,5.000000000000000000e+00,1.827099442481994629e+00,1.778531074523925781e+00,1.762881755828857422e+00,1.779070615768432617e+00,1.803623795509338379e+00,1.829616785049438477e+00,1.771395444869995117e+00,1.763672232627868652e+00,1.757746219635009766e+00,1.783575177192687988e+00,4.030689239501953125e+00,1.964190125465393066e+00,3.774915218353271484e+00,3.658826589584350586e+00,3.549664497375488281e+00,3.446827888488769531e+00,3.349781990051269531e+00,3.258051395416259766e+00,3.171210527420043945e+00,3.088878870010375977e+00,3.010714054107666016e+00,2.936407566070556641e+00,2.865680694580078125e+00,2.798280715942382812e+00,2.733978271484375000e+00,2.672564744949340820e+00,2.613849639892578125e+00,2.557658910751342773e+00,2.503833293914794922e+00,2.452226638793945312e+00,2.402704238891601562e+00,2.355142354965209961e+00,2.309427022933959961e+00,2.265452623367309570e+00,2.223121643066406250e+00,2.182343482971191406e+00,2.143034458160400391e+00,2.105116367340087891e+00,2.068516731262207031e+00,2.033168077468872070e+00,1.999007225036621094e+00,1.965975522994995117e+00,1.934017419815063477e+00,1.903081893920898438e+00,1.873120188713073730e+00,1.844087600708007812e+00
5.000000000000000000e+00,4.794719219207763672e+00,4.787945747375488281e+00,4.793054103851318359e+00,4.826239585876464844e+00,4.897397994995117188e+00,5.000000000000000000e+00,5.000000000000000000e+00,5.000000000000000000e+00,5.000000000000000000e+00,5.000000000000000000e+00,5.000000000000000000e+00,5.000000000000000000e+00,5.000000000000000000e+00,5.000000000000000000e+00,5.000000000000000000e+00,5.000000000000000000e+00,5.000000000000000000e+00,5.000000000000000000e+00,5.000000000000000000e+00,5.000000000000000000e+00,5.000000000000000000e+00,5.000000000000000000e+00,5.000000000000000000e+00,5.000000000000000000e+00,5.000000000000000000e+00,5.000000000000000000e+00,5.000000000000000000e+00,5.000000000000000000e+00,5.000000000000000000e+00,5.000000000000000000e+00,5.000000000000000000e+00,5.000000000000000000e+00,5.000000000000000000e+00,5.000000000000000000e+00,1.774452924728393555e+00,1.760219693183898926e+00,1.777371764183044434e+00,1.800481915473937988e+00,1.821163058280944824e+00,1.767890453338623047e+00,1.755329608917236328e+00,1.751716136932373047e+00,1.772853374481201172e+00,4.030784606933593750e+00,3.898701190948486328e+00,3.774998903274536133e+00,3.658905029296875000e+00,3.549738645553588867e+00,3.446897745132446289e+00,3.349847793579101562e+00,3.258113622665405273e+00,3.171269416809082031e+00,3.088934898376464844e+00,3.010767221450805664e+00,2.936458349227905273e+00,2.865728855133056641e+00,2.798326730728149414e+00,2.734022140502929688e+00,2.672606706619262695e+00,2.613889694213867188e+00,2.557697534561157227e+00,2.503870248794555664e+00,2.452261924743652344e+00,2.402738094329833984e+00,2.355175018310546875e+00,2.309458255767822266e+00,2.265482902526855469e+00,2.223150730133056641e+00,2.182371377944946289e+00,2.143061399459838867e+00,2.105142354965209961e+00,2.068541765213012695e+00,2.033192396163940430e+00,1.999030828475952148e+00,1.965998053550720215e+00,1.934039473533630371e+00,1.903103113174438477e+00,1.873140931129455566e+00,1.844107508659362793e+00
5.000000000000000000e+00,4.797697067260742188e+00,4.794765472412109375e+00,4.790372848510742188e+00,4.828899383544921875e+00,4.892752647399902344e+00,5.000000000000000000e+00,5.000000000000000000e+00,5.000000000000000000e+00,5.000000000000000000e+00,5.000000000000000000e+00,5.000000000000000000e+00,5.000000000000000000e+00,5.000000000000000000e+00,5.000000000000000000e+00,5.000000000000000000e+00,5.000000000000000000e+00,5.000000000000000000e+00,5.000000000000000000e+00,5.000000000000000000e+00,5.000000000000000000e+00,5.000000000000000000e+00,5.000000000000000000e+00,5.000000000000000000e+00,5.000000000000000000e+00,5.000000000000000000e+00,5.000000000000000000e+00,5.000000000000000000e+00,5.000000000000000000e+00,5.000000000000000000e+00,5.000000000000000000e+00,5.000000000000000000e+00,5.000000000000000000e+00,5.000000000000000000e+00,5.000000000000000000e+00,1.770393371582031250e+00,1.758556365966796875e+00,1.775111436843872070e+00,1.801772475242614746e+00,4.852968215942382812e+00,1.764399528503417969e+00,1.746099114418029785e+00,1.744577765464782715e+00,1.769857168197631836e+00,4.030879974365234375e+00,3.898790359497070312e+00,3.775082349777221680e+00,3.658983707427978516e+00,3.549812555313110352e+00,3.446967363357543945e+00,3.349913835525512695e+00,3.258175849914550781e+00,3.171328544616699219e+00,3.088990926742553711e+00,3.010820388793945312e+00,2.936508893966674805e+00,2.865777015686035156e+00,2.798372507095336914e+00,2.734066009521484375e+00,2.672648668289184570e+00,2.613929986953735352e+00,2.557735919952392578e+00,2.503906965255737305e+00,2.452297210693359375e+00,2.402771949768066406e+00,2.355207681655883789e+00,2.309489727020263672e+00,2.265512704849243164e+00,2.223179578781127930e+00,2.182399511337280273e+00,2.143088340759277344e+00,2.105168342590332031e+00,2.068567037582397461e+00,2.033216714859008789e+00,1.999054074287414551e+00,1.966020941734313965e+00,1.934061288833618164e+00,1.903124451637268066e+00,1.873161435127258301e+00,1.844127535820007324e+00
5.000000000000000000e+00,4.796005725860595703e+00,4.787103652954101562e+00,4.791270256042480469e+00,4.823041439056396484e+00,4.890310764312744141e+00,5.000000000000000000e+00,5.000000000000000000e+00,5.000000000000000000e+00,5.000000000000000000e+00,5.000000000000000000e+00,5.000000000000000000e+00,5.000000000000000000e+00,5.000000000000000000e+00,5.000000000000000000e+00,5.000000000000000000e+00,5.000000000000000000e+00,5.000000000000000000e+00,5.000000000000000000e+00,5.000000000000000000e+00,5.000000000000000000e+00,5.000000000000000000e+00,5.000000000000000000e+00,5.000000000000000000e+00,5.000000000000000000e+00,5.000000000000000000e+00,5.000000000000000000e+00,5.000000000000000000e+00,5.000000000000000000e+00,5.000000000000000000e+00,5.000000000000000000e+00,5.000000000000000000e+00,5.000000000000000000e+00,5.000000000000000000e+00,5.000000000000000000e+00,1.769368767738342285e+00,1.756896376609802246e+00,1.770795941352844238e+00,1.803064823150634766e+00,4.853106021881103516e+00,1.760190606117248535e+00,1.739550232887268066e+00,1.738831520080566406e+00,1.766139268875122070e+00,4.030975341796875000e+00,3.898879528045654297e+00,3.775166034698486328e+00,3.659062385559082031e+00,3.549886465072631836e+00,3.447037220001220703e+00,3.349979639053344727e+00,3.258238315582275391e+00,3.171387672424316406e+00,3.089046955108642578e+00,3.010873794555664062e+00,2.936559438705444336e+00,2.865825176239013672e+00,2.798418521881103516e+00,2.734109878540039062e+00,2.672690629959106445e+00,2.613970041275024414e+00,2.557774305343627930e+00,2.503943920135498047e+00,2.452332496643066406e+00,2.402805805206298828e+00,2.355240106582641602e+00,2.309520959854125977e+00,2.265542984008789062e+00,2.223208665847778320e+00,2.182427406311035156e+00,2.143115282058715820e+00,2.105194330215454102e+00,2.068592071533203125e+00,2.033241033554077148e+00,1.999077677726745605e+00,1.966043472290039062e+00,1.934083342552185059e+00,1.903145551681518555e+00,1.873182177543640137e+00,1.844147443771362305e+00
5.000000000000000000e+00,4.758565902709960938e+00,4.774869441986083984e+00,4.801412105560302734e+00,4.837264537811279297e+00,4.876226425170898438e+00,5.000000000000000000e+00,5.000000000000000000e+00,5.000000000000000000e+00,5.000000000000000000e+00,5.000000000000000000e+00,5.000000000000000000e+00,5.000000000000000000e+00,5.000000000000000000e+00,5.000000000000000000e+00,5.000000000000000000e+00,5.000000000000000000e+00,5.000000000000000000e+00,5.000000000000000000e+00,5.000000000000000000e+00,5.000000000000000000e+00,5.000000000000000000e+00,5.000000000000000000e+00,5.000000000000000000e+00,5.000000000000000000e+00,5.000000000000000000e+00,5.000000000000000000e+00,5.000000000000000000e+00,5.000000000000000000e+00,5.000000000000000000e+00,5.000000000000000000e+00,5.000000000000000000e+00,5.000000000000000000e+00,5.000000000000000000e+00,5.000000000000000000e+00,1.768587589263916016e+00,1.754362225532531738e+00,1.766501307487487793e+00,1.804359078407287598e+00,4.853244781494140625e+00,1.761753559112548828e+00,1.739539980888366699e+00,1.738837718963623047e+00,4.172439098358154297e+00,4.031071186065673828e+00,3.898968935012817383e+00,3.775249719619750977e+00,3.659141063690185547e+00,3.549960374832153320e+00,3.447106838226318359e+00,3.350045680999755859e+00,3.258300542831420898e+00,3.171446561813354492e+00,3.089102983474731445e+00,3.010926961898803711e+00,2.936610221862792969e+00,2.865873575210571289e+00,2.798464536666870117e+00,2.734153747558593750e+00,2.672732591629028320e+00,2.614010095596313477e+00,2.557812690734863281e+00,2.503980636596679688e+00,2.452367782592773438e+00,2.402839660644531250e+00,2.355272769927978516e+00,2.309552192687988281e+00,2.265573024749755859e+00,2.223237752914428711e+00,2.182455301284790039e+00,2.143142223358154297e+00,2.105220556259155273e+00,2.068617105484008789e+00,2.033265113830566406e+00,1.999101042747497559e+00,1.966066360473632812e+00,1.934105277061462402e+00,1.903167009353637695e+00,1.873202681541442871e+00,1.844167470932006836e+00
5.000000000000000000e+00,4.732214927673339844e+00,4.727724075317382812e+00,4.765662670135498047e+00,4.835660457611083984e+00,4.842375755310058594e+00,4.972362041473388672e+00,5.000000000000000000e+00,5.000000000000000000e+00,5.000000000000000000e+00,5.000000000000000000e+00,5.000000000000000000e+00,5.000000000000000000e+00,5.000000000000000000e+00,5.000000000000000000e+00,5.000000000000000000e+00,5.000000000000000000e+00,5.000000000000000000e+00,5.000000000000000000e+00,5.000000000000000000e+00,5.000000000000000000e+00,5.000000000000000000e+00,5.000000000000000000e+00,5.000000000000000000e+00,5.000000000000000000e+00,5.000000000000000000e+00,5.000000000000000000e+00,5.000000000000000000e+00,5.000000000000000000e+00,5.000000000000000000e+00,5.000000000000000000e+00,5.000000000000000000e+00,5.000000000000000000e+00,5.000000000000000000e+00,5.000000000000000000e+00,1.774694085121154785e+00,1.759833574295043945e+00,1.770860075950622559e+00,1.806743264198303223e+00,4.853383064270019531e+00,1.769997835159301758e+00,1.750087022781372070e+00,1.748002648353576660e+00,4.172541141510009766e+00,4.031166553497314453e+00,3.899058103561401367e+00,3.775333404541015625e+00,3.659219503402709961e+00,3.550034523010253906e+00,3.447176694869995117e+00,3.350111484527587891e+00,3.258363008499145508e+00,3.171505689620971680e+00,3.089159011840820312e+00,3.010980129241943359e+00,2.936660766601562500e+00,2.865921735763549805e+00,2.798510551452636719e+00,2.734197616577148438e+00,2.672774553298950195e+00,2.614050149917602539e+00,2.557851076126098633e+00,2.504017353057861328e+00,2.452403068542480469e+00,2.402873754501342773e+00,2.355305194854736328e+00,2.309583663940429688e+00,2.265603303909301758e+00,2.223266601562500000e+00,2.182483434677124023e+00,2.143169164657592773e+00,2.105246543884277344e+00,2.068642377853393555e+00,2.033289432525634766e+00,1.999124646186828613e+00,1.966088891029357910e+00,1.934127330780029297e+00,1.903188109397888184e+00,1.873223304748535156e+00,1.844187378883361816e+00
5.000000000000000000e+00,4.689974308013916016e+00,4.708249568939208984e+00,4.748935699462890625e+00,4.824578762054443359e+00,4.830009937286376953e+00,5.000000000000000000e+00,5.000000000000000000e+00,5.000000000000000000e+00,5.000000000000000000e+00,5.000000000000000000e+00,5.000000000000000000e+00,5.000000000000000000e+00,5.000000000000000000e+00,5.000000000000000000e+00,5.000000000000000000e+00,5.000000000000000000e+00,5.000000000000000000e+00,5.000000000000000000e+00,5.000000000000000000e+00,5.000000000000000000e+00,5.000000000000000000e+00,5.000000000000000000e+00,5.000000000000000000e+00,5.000000000000000000e+00,5.000000000000000000e+00,5.000000000000000000e+00,5.000000000000000000e+00,5.000000000000000000e+00,5.000000000000000000e+00,5.000000000000000000e+00,5.000000000000000000e+00,5.000000000000000000e+00,5.000000000000000000e+00,5.000000000000000000e+00,1.789195418357849121e+00,1.769649386405944824e+00,1.780634164810180664e+00,1.843443274497985840e+00,4.853521347045898438e+00,1.779651880264282227e+00,1.763013005256652832e+00,1.760897874832153320e+00,4.172643661499023438e+00,4.031261920928955078e+00,3.899147272109985352e+00,3.775417089462280273e+00,3.659298181533813477e+00,3.550108909606933594e+00,3.447246551513671875e+00,3.350177288055419922e+00,3.258425235748291016e+00,3.171564817428588867e+00,3.089215040206909180e+00,3.011033296585083008e+00,2.936711311340332031e+00,2.865969896316528320e+00,2.798556566238403320e+00,2.734241485595703125e+00,2.672816276550292969e+00,2.614090442657470703e+00,2.557889461517333984e+00,2.504054307937622070e+00,2.452438354492187500e+00,2.402907609939575195e+00,2.355337858200073242e+00,2.309614896774291992e+00,2.265633344650268555e+00,2.223295688629150391e+00,2.182511329650878906e+00,2.143196105957031250e+00,2.105272531509399414e+00,2.068667411804199219e+00,2.033313751220703125e+00,1.999148011207580566e+00,1.966111660003662109e+00,1.934149146080017090e+00,1.903209447860717773e+00,1.873243808746337891e+00,1.844207406044006348e+00
5.000000000000000000e+00,5.000000000000000000e+00,4.691231727600097656e+00,4.732815265655517578e+00,4.816100597381591797e+00,4.820890903472900391e+00,5.000000000000000000e+00,5.000000000000000000e+00,5.000000000000000000e+00,5.000000000000000000e+00,5.000000000000000000e+00,5.000000000000000000e+00,5.000000000000000000e+00,5.000000000000000000e+00,5.000000000000000000e+00,5.000000000000000000e+00,5.000000000000000000e+00,5.000000000000000000e+00,5.000000000000000000e+00,5.000000000000000000e+00,5.000000000000000000e+00,5.000000000000000000e+00,5.000000000000000000e+00,5.000000000000000000e+00,5.000000000000000000e+00,5.000000000000000000e+00,5.000000000000000000e+00,5.000000000000000000e+00,5.000000000000000000e+00,5.000000000000000000e+00,5.000000000000000000e+00,5.000000000000000000e+00,5.000000000000000000e+00,5.000000000000000000e+00,1.937188386917114258e+00,1.835293650627136230e+00,1.793773412704467773e+00,1.812583088874816895e+00,5.000000000000000000e+00,1.839160323143005371e+00,1.792058110237121582e+00,1.777937412261962891e+00,1.790204286575317383e+00,4.172745704650878906e+00,4.031357288360595703e+00,3.899236679077148438e+00,3.775500774383544922e+00,3.659376859664916992e+00,3.550182819366455078e+00,3.447316169738769531e+00,3.350243330001831055e+00,3.258487701416015625e+00,3.171623706817626953e+00,3.089271068572998047e+00,3.011086702346801758e+00,2.936762094497680664e+00,2.866018056869506836e+00,2.798602581024169922e+00,2.734285354614257812e+00,2.672858238220214844e+00,2.614130496978759766e+00,2.557927846908569336e+00,2.504091024398803711e+00,2.452473878860473633e+00,2.402941465377807617e+00,2.355370521545410156e+00,2.309646129608154297e+00,2.265663623809814453e+00,2.223324775695800781e+00,2.182539224624633789e+00,2.143223285675048828e+00,2.105298519134521484e+00,2.068692445755004883e+00,2.033338069915771484e+00,1.999171614646911621e+00,1.966134309768676758e+00,1.934171199798583984e+00,1.903230667114257812e+00,1.873264551162719727e+00,1.844227313995361328e+00
5.000000000000000000e+00,5.000000000000000000e+00,4.671716213226318359e+00,4.715453147888183594e+00,4.804157733917236328e+00,4.810069084167480469e+00,5.000000000000000000e+00,5.000000000000000000e+00,5.000000000000000000e+00,5.000000000000000000e+00,5.000000000000000000e+00,5.000000000000000000e+00,5.000000000000000000e+00,5.000000000000000000e+00,5.000000000000000000e+00,5.000000000000000000e+00,5.000000000000000000e+00,5.000000000000000000e+00,5.000000000000000000e+00,5.000000000000000000e+00,5.000000000000000000e+00,5.000000000000000000e+00,5.000000000000000000e+00,5.000000000000000000e+00,5.000000000000000000e+00,5.000000000000000000e+00,5.000000000000000000e+00,5.000000000000000000e+00,5.000000000000000000e+00,5.000000000000000000e+00,5.000000000000000000e+00,5.000000000000000000e+00,5.000000000000000000e+00,5.000000000000000000e+00,1.990789055824279785e+00,1.896162748336791992e+00,1.864110469818115234e+00,1.923550248146057129e+00,5.000000000000000000e+00,1.848435163497924805e+00,1.805637121200561523e+00,1.794589161872863770e+00,1.807206749916076660e+00,4.172848224639892578e+00,4.031452655792236328e+00,3.899325847625732422e+00,3.775584459304809570e+00,3.659455299377441406e+00,3.550256729125976562e+00,3.447386026382446289e+00,3.350309133529663086e+00,3.258549928665161133e+00,3.171682834625244141e+00,3.089327096939086914e+00,3.011139869689941406e+00,2.936812639236450195e+00,2.866066455841064453e+00,2.798648595809936523e+00,2.734329223632812500e+00,2.672900199890136719e+00,2.614170551300048828e+00,2.557966232299804688e+00,2.504127979278564453e+00,2.452509164810180664e+00,2.402975320816040039e+00,2.355402946472167969e+00,2.309677600860595703e+00,2.265693664550781250e+00,2.223353862762451172e+00,2.182567358016967773e+00,2.143250226974487305e+00,2.105324506759643555e+00,2.068717718124389648e+00,2.033362388610839844e+00,1.999194860458374023e+00,1.966157078742980957e+00,1.934193134307861328e+00,1.903252005577087402e+00,1.873285055160522461e+00,1.844247341156005859e+00
5.000000000000000000e+00,5.000000000000000000e+00,4.667191028594970703e+00,4.716149806976318359e+00,4.805131435394287109e+00,4.808397293090820312e+00,5.000000000000000000e+00,5.000000000000000000e+00,5.000000000000000000e+00,5.000000000000000000e+00,5.000000000000000000e+00,5.000000000000000000e+00,5.000000000000000000e+00,5.000000000000000000e+00,5.000000000000000000e+00,5.000000000000000000e+00,5.000000000000000000e+00,5.000000000000000000e+00,5.000000000000000000e+00,5.000000000000000000e+00,5.000000000000000000e+00,5.000000000000000000e+00,5.000000000000000000e+00,5.000000000000000000e+00,5.000000000000000000e+00,5.000000000000000000e+00,5.000000000000000000e+00,5.000000000000000000e+00,5.000000000000000000e+00,5.000000000000000000e+00,5.000000000000000000e+00,5.000000000000000000e+00,5.000000000000000000e+00,5.000000000000000000e+00,5.000000000000000000e+00,1.942449212074279785e+00,1.935381412506103516e+00,1.974772334098815918e+00,5.000000000000000000e+00,1.846078276634216309e+00,1.808020591735839844e+00,1.797227025032043457e+00,1.813959002494812012e+00,4.172950267791748047e+00,4.031548023223876953e+00,3.899415016174316406e+00,3.775668144226074219e+00,3.659533977508544922e+00,3.550330877304077148e+00,3.447455883026123047e+00,3.350374937057495117e+00,3.258612394332885742e+00,3.171741962432861328e+00,3.089383125305175781e+00,3.011193037033081055e+00,2.936863422393798828e+00,2.866114616394042969e+00,2.798694372177124023e+00,2.734373331069946289e+00,2.672942161560058594e+00,2.614210844039916992e+00,2.558004617691040039e+00,2.504164695739746094e+00,2.452544450759887695e+00,2.403009176254272461e+00,2.355435609817504883e+00,2.309708833694458008e+00,2.265723705291748047e+00,2.223382711410522461e+00,2.182595252990722656e+00,2.143277168273925781e+00,2.105350494384765625e+00,2.068742752075195312e+00,2.033386468887329102e+00,1.999218463897705078e+00,1.966179609298706055e+00,1.934215188026428223e+00,1.903273224830627441e+00,1.873305797576904297e+00,1.844267249107360840e+00
5.000000000000000000e+00,5.000000000000000000e+00,4.779074192047119141e+00,4.825180530548095703e+00,4.838173389434814453e+00,4.860184669494628906e+00,5.000000000000000000e+00,5.000000000000000000e+00,5.000000000000000000e+00,5.000000000000000000e+00,5.000000000000000000e+00,5.000000000000000000e+00,5.000000000000000000e+00,5.000000000000000000e+00,5.000000000000000000e+00,5.000000000000000000e+00,5.000000000000000000e+00,5.000000000000000000e+00,5.000000000000000000e+00,5.000000000000000000e+00,5.000000000000000000e+00,5.000000000000000000e+00,5.000000000000000000e+00,5.000000000000000000e+00,5.000000000000000000e+00,5.000000000000000000e+00,5.000000000000000000e+00,5.000000000000000000e+00,5.000000000000000000e+00,5.000000000000000000e+00,5.000000000000000000e+00,5.000000000000000000e+00,5.000000000000000000e+00,5.000000000000000000e+00,5.000000000000000000e+00,1.988437652587890625e+00,1.988020062446594238e+00,5.000000000000000000e+00,5.000000000000000000e+00,1.843726992607116699e+00,1.809918284416198730e+00,1.799838542938232422e+00,1.821640253067016602e+00,4.173052310943603516e+00,4.031643390655517578e+00,3.899504423141479492e+00,3.775751829147338867e+00,3.659612655639648438e+00,3.550404787063598633e+00,3.447525501251220703e+00,3.350440979003906250e+00,3.258674621582031250e+00,3.171801090240478516e+00,3.089439153671264648e+00,3.011246204376220703e+00,2.936913967132568359e+00,2.866162776947021484e+00,2.798740386962890625e+00,2.734417200088500977e+00,2.672984123229980469e+00,2.614250898361206055e+00,2.558043241500854492e+00,2.504201412200927734e+00,2.452579736709594727e+00,2.403043270111083984e+00,2.355468273162841797e+00,2.309740304946899414e+00,2.265753984451293945e+00,2.223411798477172852e+00,2.182623147964477539e+00,2.143304109573364258e+00,2.105376482009887695e+00,2.068768024444580078e+00,2.033410787582397461e+00,1.999241828918457031e+00,1.966202497482299805e+00,1.934237003326416016e+00,1.903294563293457031e+00,1.873326182365417480e+00,1.844287276268005371e+00
5.000000000000000000e+00,5.000000000000000000e+00,4.940146446228027344e+00,4.910327434539794922e+00,4.849513530731201172e+00,4.884484291076660156e+00,5.000000000000000000e+00,5.000000000000000000e+00,5.000000000000000000e+00,5.000000000000000000e+00,5.000000000000000000e+00,5.000000000000000000e+00,5.000000000000000000e+00,5.000000000000000000e+00,5.000000000000000000e+00,5.000000000000000000e+00,5.000000000000000000e+00,5.000000000000000000e+00,5.000000000000000000e+00,5.000000000000000000e+00,5.000000000000000000e+00,5.000000000000000000e+00,5.000000000000000000e+00,5.000000000000000000e+00,5.000000000000000000e+00,5.000000000000000000e+00,5.000000000000000000e+00,5.000000000000000000e+00,5.000000000000000000e+00,5.000000000000000000e+00,5.000000000000000000e+00,5.000000000000000000e+00,5.000000000000000000e+00,5.000000000000000000e+00,5.000000000000000000e+00,2.051545381546020508e+00,2.042918920516967773e+00,5.000000000000000000e+00,5.000000000000000000e+00,1.842205047607421875e+00,1.811819911003112793e+00,1.802457809448242188e+00,1.846190810203552246e+00,4.173154830932617188e+00,4.031738758087158203e+00,3.899593591690063477e+00,3.775835752487182617e+00,3.659691333770751953e+00,3.550478935241699219e+00,3.447595357894897461e+00,3.350506782531738281e+00,3.258736848831176758e+00,3.171859979629516602e+00,3.089495182037353516e+00,3.011299610137939453e+00,2.936964511871337891e+00,2.866211175918579102e+00,2.798786401748657227e+00,2.734461069107055664e+00,2.673026084899902344e+00,2.614290952682495117e+00,2.558081626892089844e+00,2.504238367080688477e+00,2.452615022659301758e+00,2.403077125549316406e+00,2.355500698089599609e+00,2.309771537780761719e+00,2.265784025192260742e+00,2.223440885543823242e+00,2.182651042938232422e+00,2.143331050872802734e+00,2.105402708053588867e+00,2.068793058395385742e+00,2.033435106277465820e+00,1.999265432357788086e+00,1.966225028038024902e+00,1.934259057044982910e+00,1.903315782546997070e+00,1.873346924781799316e+00,1.844307184219360352e+00
5.000000000000000000e+00,5.000000000000000000e+00,5.000000000000000000e+00,5.000000000000000000e+00,4.858298778533935547e+00,4.925283432006835938e+00,5.000000000000000000e+00,5.000000000000000000e+00,5.000000000000000000e+00,5.000000000000000000e+00,5.000000000000000000e+00,5.000000000000000000e+00,5.000000000000000000e+00,5.000000000000000000e+00,5.000000000000000000e+00,5.000000000000000000e+00,5.000000000000000000e+00,5.000000000000000000e+00,5.000000000000000000e+00,5.000000000000000000e+00,5.000000000000000000e+00,5.000000000000000000e+00,5.000000000000000000e+00,5.000000000000000000e+00,5.000000000000000000e+00,5.000000000000000000e+00,5.000000000000000000e+00,5.000000000000000000e+00,5.000000000000000000e+00,5.000000000000000000e+00,5.000000000000000000e+00,5.000000000000000000e+00,5.000000000000000000e+00,5.000000000000000000e+00,5.000000000000000000e+00,2.108901023864746094e+00,2.103989839553833008e+00,5.000000000000000000e+00,5.000000000000000000e+00,1.842891693115234375e+00,1.813725471496582031e+00,1.804798126220703125e+00,1.878887772560119629e+00,4.173256874084472656e+00,4.031834125518798828e+00,3.899682998657226562e+00,3.775919437408447266e+00,3.659770011901855469e+00,3.550552845001220703e+00,3.447665452957153320e+00,3.350572824478149414e+00,3.258799314498901367e+00,3.171919107437133789e+00,3.089551210403442383e+00,3.011352777481079102e+00,2.937015295028686523e+00,2.866259336471557617e+00,2.798832416534423828e+00,2.734504938125610352e+00,2.673068046569824219e+00,2.614331007003784180e+00,2.558120012283325195e+00,2.504275083541870117e+00,2.452650308609008789e+00,2.403110980987548828e+00,2.355533361434936523e+00,2.309802770614624023e+00,2.265814304351806641e+00,2.223469734191894531e+00,2.182679176330566406e+00,2.143357992172241211e+00,2.105428695678710938e+00,2.068818092346191406e+00,2.033459424972534180e+00,1.999288797378540039e+00,1.966247916221618652e+00,1.934280991554260254e+00,1.903337121009826660e+00,1.873367428779602051e+00,1.844327211380004883e+00
5.000000000000000000e+00,5.000000000000000000e+00,5.000000000000000000e+00,5.000000000000000000e+00,4.869978904724121094e+00,5.000000000000000000e+00,5.000000000000000000e+00,5.000000000000000000e+00,5.000000000000000000e+00,5.000000000000000000e+00,5.000000000000000000e+00,5.000000000000000000e+00,5.000000000000000000e+00,5.000000000000000000e+00,5.000000000000000000e+00,5.000000000000000000e+00,5.000000000000000000e+00,5.000000000000000000e+00,5.000000000000000000e+00,5.000000000000000000e+00,5.000000000000000000e+00,5.000000000000000000e+00,5.000000000000000000e+00,5.000000000000000000e+00,5.000000000000000000e+00,5.000000000000000000e+00,5.000000000000000000e+00,5.000000000000000000e+00,5.000000000000000000e+00,5.000000000000000000e+00,5.000000000000000000e+00,5.000000000000000000e+00,5.000000000000000000e+00,5.000000000000000000e+00,5.000000000000000000e+00,2.185186624526977539e+00,2.179327726364135742e+00,5.000000000000000000e+00,5.000000000000000000e+00,1.846624732017517090e+00,1.816583275794982910e+00,1.807365894317626953e+00,4.325070381164550781e+00,4.173359394073486328e+00,4.031929969787597656e+00,3.899772167205810547e+00,3.776003122329711914e+00,3.659848451614379883e+00,3.550626993179321289e+00,3.447735309600830078e+00,3.350638628005981445e+00,3.258861780166625977e+00,3.171978235244750977e+00,3.089607238769531250e+00,3.011405944824218750e+00,2.937065839767456055e+00,2.866307497024536133e+00,2.798878431320190430e+00,2.734548807144165039e+00,2.673110008239746094e+00,2.614371299743652344e+00,2.558158397674560547e+00,2.504312038421630859e+00,2.452685594558715820e+00,2.403144836425781250e+00,2.355565786361694336e+00,2.309834241867065430e+00,2.265844345092773438e+00,2.223498821258544922e+00,2.182707071304321289e+00,2.143384933471679688e+00,2.105454683303833008e+00,2.068843364715576172e+00,2.033483743667602539e+00,1.999312400817871094e+00,1.966270446777343750e+00,1.934303045272827148e+00,1.903358221054077148e+00,1.873388171195983887e+00,1.844347119331359863e+00
5.000000000000000000e+00,5.000000000000000000e+00,5.000000000000000000e+00,5.000000000000000000e+00,4.866113662719726562e+00,5.000000000000000000e+00,5.000000000000000000e+00,5.000000000000000000e+00,5.000000000000000000e+00,5.000000000000000000e+00,5.000000000000000000e+00,5.000000000000000000e+00,5.000000000000000000e+00,5.000000000000000000e+00,5.000000000000000000e+00,5.000000000000000000e+00,5.000000000000000000e+00,5.000000000000000000e+00,5.000000000000000000e+00,5.000000000000000000e+00,5.000000000000000000e+00,5.000000000000000000e+00,5.000000000000000000e+00,5.000000000000000000e+00,5.000000000000000000e+00,5.000000000000000000e+00,5.000000000000000000e+00,5.000000000000000000e+00,5.000000000000000000e+00,5.000000000000000000e+00,5.000000000000000000e+00,5.000000000000000000e+00,5.000000000000000000e+00,5.000000000000000000e+00,5.000000000000000000e+00,2.190902233123779297e+00,2.188609600067138672e+00,5.000000000000000000e+00,5.000000000000000000e+00,1.850373029708862305e+00,1.819470167160034180e+00,1.826401591300964355e+00,4.325180053710937500e+00,4.173461437225341797e+00,4.032025337219238281e+00,3.899861574172973633e+00,3.776086807250976562e+00,3.659927129745483398e+00,3.550700902938842773e+00,3.447805166244506836e+00,3.350704669952392578e+00,3.258924007415771484e+00,3.172037363052368164e+00,3.089663267135620117e+00,3.011459350585937500e+00,2.937116622924804688e+00,2.866355895996093750e+00,2.798924446105957031e+00,2.734592676162719727e+00,2.673151969909667969e+00,2.614411354064941406e+00,2.558196783065795898e+00,2.504348754882812500e+00,2.452720880508422852e+00,2.403178691864013672e+00,2.355598449707031250e+00,2.309865474700927734e+00,2.265874385833740234e+00,2.223527908325195312e+00,2.182734966278076172e+00,2.143411874771118164e+00,2.105480670928955078e+00,2.068868398666381836e+00,2.033508062362670898e+00,1.999335765838623047e+00,1.966293215751647949e+00,1.934324860572814941e+00,1.903379678726196289e+00,1.873408675193786621e+00,1.844367146492004395e+00
4.873975753784179688e+00,4.872778415679931641e+00,4.871581554412841797e+00,4.870385169982910156e+00,4.869189739227294922e+00,4.867994785308837891e+00,4.866800308227539062e+00,4.865606784820556641e+00,4.864413261413574219e+00,4.863220691680908203e+00,4.862028598785400391e+00,4.860836982727050781e+00,4.859646320343017578e+00,4.858455657958984375e+00,4.857266426086425781e+00,4.856077194213867188e+00,4.854888439178466797e+00,4.853700637817382812e+00,4.852513313293457031e+00,4.851326465606689453e+00,4.850140094757080078e+00,4.848954677581787109e+00,4.847769737243652344e+00,4.846584796905517578e+00,4.845400810241699219e+00,4.844217777252197266e+00,4.843034744262695312e+00,4.841852664947509766e+00,4.840671062469482422e+00,4.839489936828613281e+00,4.838309288024902344e+00,4.837129592895507812e+00,4.835950374603271484e+00,4.834771156311035156e+00,4.833593368530273438e+00,2.196482419967651367e+00,2.191694736480712891e+00,4.830061912536621094e+00,4.828886508941650391e+00,1.853935718536376953e+00,1.822366237640380859e+00,1.833226799964904785e+00,4.325290203094482422e+00,4.173563003540039062e+00,4.032120704650878906e+00,3.899950981140136719e+00,3.776170492172241211e+00,3.660005807876586914e+00,3.550774812698364258e+00,3.447874784469604492e+00,3.350770473480224609e+00,3.258986473083496094e+00,3.172096252441406250e+00,3.089719295501708984e+00,3.011512517929077148e+00,2.937167167663574219e+00,2.866404056549072266e+00,2.798970460891723633e+00,2.734636545181274414e+00,2.673193931579589844e+00,2.614451408386230469e+00,2.558235168457031250e+00,2.504385709762573242e+00,2.452756404876708984e+00,2.403212785720825195e+00,2.355631113052368164e+00,2.309896707534790039e+00,2.265904664993286133e+00,2.223556995391845703e+00,2.182763099670410156e+00,2.143438816070556641e+00,2.105506658554077148e+00,2.068893671035766602e+00,2.033532142639160156e+00,1.999359250068664551e+00,1.966315865516662598e+00,1.934347033500671387e+00,1.903400778770446777e+00,1.873429417610168457e+00,1.844387054443359375e+00
3.776995182037353516e+00,3.776275873184204102e+00,3.775557279586791992e+00,3.774838685989379883e+00,3.774120330810546875e+00,3.773402452468872070e+00,3.772684812545776367e+00,3.771967172622680664e+00,3.771250247955322266e+00,3.770533323287963867e+00,3.769816398620605469e+00,3.769100427627563477e+00,3.768384218215942383e+00,3.767668724060058594e+00,3.766952991485595703e+00,3.766237735748291016e+00,3.765522956848144531e+00,3.764808177947998047e+00,3.764093399047851562e+00,3.763379573822021484e+00,3.762665510177612305e+00,3.761951684951782227e+00,3.761238813400268555e+00,3.760525465011596680e+00,3.759812593460083008e+00,3.759100198745727539e+00,3.758387804031372070e+00,3.757675647735595703e+00,3.756964206695556641e+00,3.756252527236938477e+00,3.755541801452636719e+00,3.754830598831176758e+00,3.754119873046875000e+00,3.753409624099731445e+00,3.752699375152587891e+00,2.193477153778076172e+00,2.191017866134643555e+00,3.750570774078369141e+00,3.749861478805541992e+00,1.857305884361267090e+00,1.825271606445312500e+00,1.847650051116943359e+00,3.747028112411499023e+00,3.746320247650146484e+00,3.745612859725952148e+00,3.744905948638916016e+00,3.744198799133300781e+00,3.660084486007690430e+00,3.550848960876464844e+00,3.447944641113281250e+00,3.350836753845214844e+00,3.259048700332641602e+00,3.172155380249023438e+00,3.089775323867797852e+00,3.011565685272216797e+00,2.937217712402343750e+00,2.866452217102050781e+00,2.799016475677490234e+00,2.734680652618408203e+00,2.673235893249511719e+00,2.614491701126098633e+00,2.558273553848266602e+00,2.504422426223754883e+00,2.452791690826416016e+00,2.403246641159057617e+00,2.355663537979125977e+00,2.309928178787231445e+00,2.265934705734252930e+00,2.223585844039916992e+00,2.182790994644165039e+00,2.143465995788574219e+00,2.105532646179199219e+00,2.068918704986572266e+00,2.033556461334228516e+00,1.999382615089416504e+00,1.966338634490966797e+00,1.934368848800659180e+00,1.903422117233276367e+00,1.873449921607971191e+00,1.844407081604003906e+00
3.083087921142578125e+00,3.082608699798583984e+00,3.082129478454589844e+00,3.081650972366333008e+00,3.081171989440917969e+00,3.080693483352661133e+00,3.080215215682983398e+00,3.079736948013305664e+00,3.079258680343627930e+00,3.078780889511108398e+00,3.078303098678588867e+00,3.077825307846069336e+00,3.077347993850708008e+00,3.076870441436767578e+00,3.076393127441406250e+00,3.075916290283203125e+00,3.075439214706420898e+00,3.074962615966796875e+00,3.074486017227172852e+00,3.074009418487548828e+00,3.073533296585083008e+00,3.073056936264038086e+00,3.072580814361572266e+00,3.072105169296264648e+00,3.071629285812377930e+00,3.071153640747070312e+00,3.070678234100341797e+00,3.070202827453613281e+00,3.069727659225463867e+00,3.069252729415893555e+00,3.068777799606323242e+00,3.068303346633911133e+00,3.067828655242919922e+00,3.067354202270507812e+00,3.066880226135253906e+00,3.066406011581420898e+00,2.193238973617553711e+00,3.065458297729492188e+00,3.064984560012817383e+00,1.872069120407104492e+00,1.840907573699951172e+00,3.063564300537109375e+00,3.063091039657592773e+00,3.062618494033813477e+00,3.062145471572875977e+00,3.061672687530517578e+00,3.061200380325317383e+00,3.060727834701538086e+00,3.060256004333496094e+00,3.059783697128295898e+00,3.059311628341674805e+00,3.058840036392211914e+00,3.058368444442749023e+00,3.057896852493286133e+00,3.011619091033935547e+00,2.937268495559692383e+00,2.866500616073608398e+00,2.799062490463256836e+00,2.734724521636962891e+00,2.673277854919433594e+00,2.614531755447387695e+00,2.558312177658081055e+00,2.504459142684936523e+00,2.452826976776123047e+00,2.403280496597290039e+00,2.355696201324462891e+00,2.309959411621093750e+00,2.265964984893798828e+00,2.223614931106567383e+00,2.182818889617919922e+00,2.143492937088012695e+00,2.105558872222900391e+00,2.068943738937377930e+00,2.033580780029296875e+00,1.999406218528747559e+00,1.966361284255981445e+00,1.934390902519226074e+00,1.903443336486816406e+00,1.873470544815063477e+00,1.844426989555358887e+00
2.604576349258422852e+00,2.604234457015991211e+00,2.603892564773559570e+00,2.603550672531127930e+00,2.603209257125854492e+00,2.602867603302001953e+00,2.602525949478149414e+00,2.602184534072875977e+00,2.601843357086181641e+00,2.601501941680908203e+00,2.601161003112792969e+00,2.600819826126098633e+00,2.600478649139404297e+00,2.600137948989868164e+00,2.599797010421752930e+00,2.599456310272216797e+00,2.599115848541259766e+00,2.598775148391723633e+00,2.598434925079345703e+00,2.598094463348388672e+00,2.597754240036010742e+00,2.597414016723632812e+00,2.597074031829833984e+00,2.596733808517456055e+00,2.596394062042236328e+00,2.596054315567016602e+00,2.595714330673217773e+00,2.595374822616577148e+00,2.595035314559936523e+00,2.594695806503295898e+00,2.594356536865234375e+00,2.594017267227172852e+00,2.593677997589111328e+00,2.593338966369628906e+00,2.592999935150146484e+00,2.592661142349243164e+00,2.592322111129760742e+00,2.591983318328857422e+00,2.591644763946533203e+00,1.852907657623291016e+00,1.825930953025817871e+00,2.590629339218139648e+00,2.590291023254394531e+00,2.589952707290649414e+00,2.589614629745483398e+00,2.589276552200317383e+00,2.588938474655151367e+00,2.588600635528564453e+00,2.588262796401977539e+00,2.587925434112548828e+00,2.587587594985961914e+00,2.587249994277954102e+00,2.586912870407104492e+00,2.586575269699096680e+00,2.586238145828247070e+00,2.585901021957397461e+00,2.585563898086547852e+00,2.585226774215698242e+00,2.584890127182006836e+00,2.584553241729736328e+00,2.584216356277465820e+00,2.558350563049316406e+00,2.504496097564697266e+00,2.452862262725830078e+00,2.403314352035522461e+00,2.355728864669799805e+00,2.309990882873535156e+00,2.265995025634765625e+00,2.223644018173217773e+00,2.182847023010253906e+00,2.143519878387451172e+00,2.105584859848022461e+00,2.068969011306762695e+00,2.033605098724365234e+00,1.999429583549499512e+00,1.966384053230285645e+00,1.934412717819213867e+00,1.903464674949645996e+00,1.873491048812866211e+00,1.844447016716003418e+00
2.254699468612670898e+00,2.254440784454345703e+00,2.254182338714599609e+00,2.253923654556274414e+00,2.253665208816528320e+00,2.253407001495361328e+00,2.253148555755615234e+00,2.252890348434448242e+00,2.252632141113281250e+00,2.252373933792114258e+00,2.252115726470947266e+00,2.251857757568359375e+00,2.251599788665771484e+00,2.251341819763183594e+00,2.251084089279174805e+00,2.250826120376586914e+00,2.250568389892578125e+00,2.250310659408569336e+00,2.250053167343139648e+00,2.249795675277709961e+00,2.249537944793701172e+00,2.249280691146850586e+00,2.249023199081420898e+00,2.248765707015991211e+00,2.248509883880615234e+00,2.248255252838134766e+00,2.248000383377075195e+00,2.247745513916015625e+00,2.247490882873535156e+00,2.247236251831054688e+00,2.246981620788574219e+00,2.246727228164672852e+00,2.246472835540771484e+00,2.246218204498291016e+00,2.245964050292968750e+00,2.245709657669067383e+00,2.245455503463745117e+00,2.245201349258422852e+00,2.244947195053100586e+00,1.792410254478454590e+00,1.787781119346618652e+00,1.849977254867553711e+00,2.243931293487548828e+00,2.243677616119384766e+00,2.243423700332641602e+00,2.243170022964477539e+00,2.242916345596313477e+00,2.242662668228149414e+00,2.242409229278564453e+00,2.242155790328979492e+00,2.241902351379394531e+00,2.241648912429809570e+00,2.241395711898803711e+00,2.241142511367797852e+00,2.240889310836791992e+00,2.240636110305786133e+00,2.240383148193359375e+00,2.240129947662353516e+00,2.239876985549926758e+00,2.239624261856079102e+00,2.239371299743652344e+00,2.239118337631225586e+00,2.238865852355957031e+00,2.238613128662109375e+00,2.238360404968261719e+00,2.238107919692993164e+00,2.237855434417724609e+00,2.237602949142456055e+00,2.223673105239868164e+00,2.182874917984008789e+00,2.143546819686889648e+00,2.105610847473144531e+00,2.068994045257568359e+00,2.033629417419433594e+00,1.999453186988830566e+00,1.966406702995300293e+00,1.934434890747070312e+00,1.903485894203186035e+00,1.873511791229248047e+00,1.844466924667358398e+00
1.987793326377868652e+00,1.987592101097106934e+00,1.987391114234924316e+00,1.987190246582031250e+00,1.986989259719848633e+00,1.986788392066955566e+00,1.986587643623352051e+00,1.986386895179748535e+00,1.986186027526855469e+00,1.985985517501831055e+00,1.985784769058227539e+00,1.985584259033203125e+00,1.985383629798889160e+00,1.985183000564575195e+00,1.984982609748840332e+00,1.984782099723815918e+00,1.984581589698791504e+00,1.984381318092346191e+00,1.984180927276611328e+00,1.983980536460876465e+00,1.983780384063720703e+00,1.983580112457275391e+00,1.983379840850830078e+00,1.983179926872253418e+00,1.982979774475097656e+00,1.982779622077941895e+00,1.982579708099365234e+00,1.982379674911499023e+00,1.982179641723632812e+00,1.981979966163635254e+00,1.981779932975769043e+00,1.981580138206481934e+00,1.981380462646484375e+00,1.981180667877197266e+00,1.980981111526489258e+00,1.980781316757202148e+00,1.980581641197204590e+00,1.980382323265075684e+00,1.980182647705078125e+00,1.728402972221374512e+00,1.731476902961730957e+00,1.771864771842956543e+00,1.979384779930114746e+00,1.979185581207275391e+00,1.978986263275146484e+00,1.978786945343017578e+00,1.978587865829467773e+00,1.978388547897338867e+00,1.978189349174499512e+00,1.977990388870239258e+00,1.977791309356689453e+00,1.977592229843139648e+00,1.977393388748168945e+00,1.977194428443908691e+00,1.976995348930358887e+00,1.976796746253967285e+00,1.976597785949707031e+00,1.976399183273315430e+00,1.976200342178344727e+00,1.976001620292663574e+00,1.975803136825561523e+00,1.975604414939880371e+00,1.975405693054199219e+00,1.975207328796386719e+00,1.975008726119995117e+00,1.974810242652893066e+00,1.974611997604370117e+00,1.974413514137268066e+00,1.974215149879455566e+00,1.974017024040222168e+00,1.973818659782409668e+00,1.973620295524597168e+00,1.973422288894653320e+00,1.973224163055419922e+00,1.973025918006896973e+00,1.966429471969604492e+00,1.934456706047058105e+00,1.903507232666015625e+00,1.873532295227050781e+00,1.844486951828002930e+00
1.777389764785766602e+00,1.777228951454162598e+00,1.777068376541137695e+00,1.776907682418823242e+00,1.776746988296508789e+00,1.776586532592773438e+00,1.776425838470458984e+00,1.776265263557434082e+00,1.776104807853698730e+00,1.775944352149963379e+00,1.775783777236938477e+00,1.775623440742492676e+00,1.775462985038757324e+00,1.775302767753601074e+00,1.775142312049865723e+00,1.774981975555419922e+00,1.774821758270263672e+00,1.774661421775817871e+00,1.774501085281372070e+00,1.774341106414794922e+00,1.774180769920349121e+00,1.774020552635192871e+00,1.773860573768615723e+00,1.773700475692749023e+00,1.773540377616882324e+00,1.773380398750305176e+00,1.773220300674438477e+00,1.773060321807861328e+00,1.772900462150573730e+00,1.772740483283996582e+00,1.772580504417419434e+00,1.772420763969421387e+00,1.772260904312133789e+00,1.772101044654846191e+00,1.771941423416137695e+00,1.771781563758850098e+00,1.771621942520141602e+00,1.771462202072143555e+00,1.771302461624145508e+00,1.771142959594726562e+00,1.713196039199829102e+00,1.770823717117309570e+00,1.770664334297180176e+00,1.770504713058471680e+00,1.770345211029052734e+00,1.770185828208923340e+00,1.770026326179504395e+00,1.769866824150085449e+00,1.769707560539245605e+00,1.769548177719116211e+00,1.769388794898986816e+00,1.769229650497436523e+00,1.769070386886596680e+00,1.768911004066467285e+00,1.768751978874206543e+00,1.768592715263366699e+00,1.768433570861816406e+00,1.768274545669555664e+00,1.768115401268005371e+00,1.767956495285034180e+00,1.767797350883483887e+00,1.767638325691223145e+00,1.767479419708251953e+00,1.767320513725280762e+00,1.767161488533020020e+00,1.767002701759338379e+00,1.766843795776367188e+00,1.766684889793395996e+00,1.766526222229003906e+00,1.766367435455322266e+00,1.766208648681640625e+00,1.766049981117248535e+00,1.765891313552856445e+00,1.765732526779174805e+00,1.765574097633361816e+00,1.765415430068969727e+00,1.765256762504577637e+00,1.765098452568054199e+00,1.764939785003662109e+00,1.764781236648559570e+00
1.607264399528503418e+00,1.607133150100708008e+00,1.607001662254333496e+00,1.606870174407958984e+00,1.606738924980163574e+00,1.606607556343078613e+00,1.606476187705993652e+00,1.606344938278198242e+00,1.606213688850402832e+00,1.606082320213317871e+00,1.605951189994812012e+00,1.605819940567016602e+00,1.605688691139221191e+00,1.605557560920715332e+00,1.605426430702209473e+00,1.605295300483703613e+00,1.605164170265197754e+00,1.605033040046691895e+00,1.604902029037475586e+00,1.604771018028259277e+00,1.604639887809753418e+00,1.604508996009826660e+00,1.604377985000610352e+00,1.604246973991394043e+00,1.604116082191467285e+00,1.603985190391540527e+00,1.603854179382324219e+00,1.603723406791687012e+00,1.603592514991760254e+00,1.603461623191833496e+00,1.603330969810485840e+00,1.603200078010559082e+00,1.603069305419921875e+00,1.602938652038574219e+00,1.602807879447937012e+00,1.602677226066589355e+00,1.602546453475952148e+00,1.602415800094604492e+00,1.602285265922546387e+00,1.602154612541198730e+00,1.602023959159851074e+00,1.601893424987792969e+00,1.601762890815734863e+00,1.601632237434387207e+00,1.601501822471618652e+00,1.601371288299560547e+00,1.601240754127502441e+00,1.601110458374023438e+00,1.600979924201965332e+00,1.600849509239196777e+00,1.600719213485717773e+00,1.600588798522949219e+00,1.600458383560180664e+00,1.600328207015991211e+00,1.600197792053222656e+00,1.600067496299743652e+00,1.599937319755554199e+00,1.599807024002075195e+00,1.599676728248596191e+00,1.599546670913696289e+00,1.599416375160217285e+00,1.599286317825317383e+00,1.599156141281127930e+00,1.599026083946228027e+00,1.598896026611328125e+00,1.598765969276428223e+00,1.598635792732238770e+00,1.598505854606628418e+00,1.598375797271728516e+00,1.598245859146118164e+00,1.598115921020507812e+00,1.597985982894897461e+00,1.597856044769287109e+00,1.597726225852966309e+00,1.597596287727355957e+00,1.597466349601745605e+00,1.597336649894714355e+00,1.597206711769104004e+00,1.597076892852783203e+00,1.596947193145751953e+00
1.466861844062805176e+00,1.466752290725708008e+00,1.466642856597900391e+00,1.466533422470092773e+00,1.466423988342285156e+00,1.466314554214477539e+00,1.466205239295959473e+00,1.466095805168151855e+00,1.465986371040344238e+00,1.465877175331115723e+00,1.465767741203308105e+00,1.465658426284790039e+00,1.465549230575561523e+00,1.465439915657043457e+00,1.465330719947814941e+00,1.465221405029296875e+00,1.465112209320068359e+00,1.465003013610839844e+00,1.464893817901611328e+00,1.464784502983093262e+00,1.464675426483154297e+00,1.464566230773925781e+00,1.464457154273986816e+00,1.464348077774047852e+00,1.464238882064819336e+00,1.464129805564880371e+00,1.464020848274230957e+00,1.463911771774291992e+00,1.463802695274353027e+00,1.463693737983703613e+00,1.463584661483764648e+00,1.463475584983825684e+00,1.463366746902465820e+00,1.463257789611816406e+00,1.463148713111877441e+00,1.463039875030517578e+00,1.462931036949157715e+00,1.462822198867797852e+00,1.462713241577148438e+00,1.462604403495788574e+00,1.462495565414428711e+00,1.462386727333068848e+00,1.462277889251708984e+00,1.462169170379638672e+00,1.462060332298278809e+00,1.461951613426208496e+00,1.461842894554138184e+00,1.461734175682067871e+00,1.461625456809997559e+00,1.461516857147216797e+00,1.461408138275146484e+00,1.461299419403076172e+00,1.461190819740295410e+00,1.461082100868225098e+00,1.460973501205444336e+00,1.460865020751953125e+00,1.460756421089172363e+00,1.460647702217102051e+00,1.460539340972900391e+00,1.460430741310119629e+00,1.460322141647338867e+00,1.460213780403137207e+00,1.460105180740356445e+00,1.459996819496154785e+00,1.459888339042663574e+00,1.459779858589172363e+00,1.459671497344970703e+00,1.459563016891479492e+00,1.459454655647277832e+00,1.459346294403076172e+00,1.459237933158874512e+00,1.459129571914672852e+00,1.459021329879760742e+00,1.458912968635559082e+00,1.458804607391357422e+00,1.458696484565734863e+00,1.458588123321533203e+00,1.458479881286621094e+00,1.458371758460998535e+00,1.458263516426086426e+00
1.349018216133117676e+00,1.348925590515136719e+00,1.348833084106445312e+00,1.348740458488464355e+00,1.348647832870483398e+00,1.348555445671081543e+00,1.348462820053100586e+00,1.348370313644409180e+00,1.348277807235717773e+00,1.348185300827026367e+00,1.348092794418334961e+00,1.348000407218933105e+00,1.347907900810241699e+00,1.347815513610839844e+00,1.347723126411437988e+00,1.347630620002746582e+00,1.347538352012634277e+00,1.347445845603942871e+00,1.347353577613830566e+00,1.347261190414428711e+00,1.347168803215026855e+00,1.347076416015625000e+00,1.346984267234802246e+00,1.346891880035400391e+00,1.346799492835998535e+00,1.346707344055175781e+00,1.346614956855773926e+00,1.346522688865661621e+00,1.346430540084838867e+00,1.346338272094726562e+00,1.346246004104614258e+00,1.346153855323791504e+00,1.346061587333679199e+00,1.345969438552856445e+00,1.345877289772033691e+00,1.345785140991210938e+00,1.345692873001098633e+00,1.345600843429565430e+00,1.345508694648742676e+00,1.345416665077209473e+00,1.345324516296386719e+00,1.345232367515563965e+00,1.345140457153320312e+00,1.345048308372497559e+00,1.344956159591674805e+00,1.344864249229431152e+00,1.344772219657897949e+00,1.344680190086364746e+00,1.344588160514831543e+00,1.344496250152587891e+00,1.344404220581054688e+00,1.344312310218811035e+00,1.344220280647277832e+00,1.344128370285034180e+00,1.344036459922790527e+00,1.343944549560546875e+00,1.343852639198303223e+00,1.343760848045349121e+00,1.343668937683105469e+00,1.343577027320861816e+00,1.343485236167907715e+00,1.343393325805664062e+00,1.343301534652709961e+00,1.343209743499755859e+00,1.343117952346801758e+00,1.343026161193847656e+00,1.342934370040893555e+00,1.342842578887939453e+00,1.342750906944274902e+00,1.342659115791320801e+00,1.342567443847656250e+00,1.342475771903991699e+00,1.342383980751037598e+00,1.342292308807373047e+00,1.342200636863708496e+00,1.342108964920043945e+00,1.342017292976379395e+00,1.341925740242004395e+00,1.341834068298339844e+00,1.341742396354675293e+00
1.248700976371765137e+00,1.248621702194213867e+00,1.248542428016662598e+00,1.248463034629821777e+00,1.248383760452270508e+00,1.248304486274719238e+00,1.248225212097167969e+00,1.248145937919616699e+00,1.248066663742065430e+00,1.247987389564514160e+00,1.247908234596252441e+00,1.247828960418701172e+00,1.247749686241149902e+00,1.247670531272888184e+00,1.247591257095336914e+00,1.247512102127075195e+00,1.247432947158813477e+00,1.247353792190551758e+00,1.247274637222290039e+00,1.247195482254028320e+00,1.247116327285766602e+00,1.247037172317504883e+00,1.246958017349243164e+00,1.246878981590270996e+00,1.246799826622009277e+00,1.246720790863037109e+00,1.246641635894775391e+00,1.246562600135803223e+00,1.246483564376831055e+00,1.246404409408569336e+00,1.246325492858886719e+00,1.246246457099914551e+00,1.246167302131652832e+00,1.246088385581970215e+00,1.246009349822998047e+00,1.245930314064025879e+00,1.245851397514343262e+00,1.245772480964660645e+00,1.245693445205688477e+00,1.245614528656005859e+00,1.245535612106323242e+00,1.245456695556640625e+00,1.245377779006958008e+00,1.245298862457275391e+00,1.245219945907592773e+00,1.245141029357910156e+00,1.245062112808227539e+00,1.244983315467834473e+00,1.244904398918151855e+00,1.244825601577758789e+00,1.244746804237365723e+00,1.244667887687683105e+00,1.244589090347290039e+00,1.244510293006896973e+00,1.244431495666503906e+00,1.244352698326110840e+00,1.244273900985717773e+00,1.244195103645324707e+00,1.244116306304931641e+00,1.244037628173828125e+00,1.243958830833435059e+00,1.243880152702331543e+00,1.243801474571228027e+00,1.243722677230834961e+00,1.243644118309020996e+00,1.243565320968627930e+00,1.243486642837524414e+00,1.243407964706420898e+00,1.243329286575317383e+00,1.243250608444213867e+00,1.243172049522399902e+00,1.243093371391296387e+00,1.243014693260192871e+00,1.242936253547668457e+00,1.242857575416564941e+00,1.242778897285461426e+00,1.242700457572937012e+00,1.242621779441833496e+00,1.242543220520019531e+00,1.242464780807495117e+00
1.162271022796630859e+00,1.162202239036560059e+00,1.162133574485778809e+00,1.162064909934997559e+00,1.161996126174926758e+00,1.161927461624145508e+00,1.161858797073364258e+00,1.161790013313293457e+00,1.161721348762512207e+00,1.161652803421020508e+00,1.161584019660949707e+00,1.161515355110168457e+00,1.161446809768676758e+00,1.161378145217895508e+00,1.161309480667114258e+00,1.161240935325622559e+00,1.161172270774841309e+00,1.161103606224060059e+00,1.161035060882568359e+00,1.160966515541076660e+00,1.160897970199584961e+00,1.160829424858093262e+00,1.160760760307312012e+00,1.160692334175109863e+00,1.160623669624328613e+00,1.160555124282836914e+00,1.160486698150634766e+00,1.160418152809143066e+00,1.160349607467651367e+00,1.160281181335449219e+00,1.160212635993957520e+00,1.160144090652465820e+00,1.160075664520263672e+00,1.160007119178771973e+00,1.159938693046569824e+00,1.159870266914367676e+00,1.159801840782165527e+00,1.159733295440673828e+00,1.159664988517761230e+00,1.159596443176269531e+00,1.159528017044067383e+00,1.159459710121154785e+00,1.159391283988952637e+00,1.159322977066040039e+00,1.159254550933837891e+00,1.159186124801635742e+00,1.159117817878723145e+00,1.159049391746520996e+00,1.158980965614318848e+00,1.158912777900695801e+00,1.158844351768493652e+00,1.158776044845581055e+00,1.158707737922668457e+00,1.158639430999755859e+00,1.158571124076843262e+00,1.158502817153930664e+00,1.158434510231018066e+00,1.158366203308105469e+00,1.158298015594482422e+00,1.158229708671569824e+00,1.158161401748657227e+00,1.158093214035034180e+00,1.158025026321411133e+00,1.157956719398498535e+00,1.157888531684875488e+00,1.157820343971252441e+00,1.157752156257629395e+00,1.157683968544006348e+00,1.157615780830383301e+00,1.157547593116760254e+00,1.157479405403137207e+00,1.157411217689514160e+00,1.157343149185180664e+00,1.157274961471557617e+00,1.157206773757934570e+00,1.157138705253601074e+00,1.157070517539978027e+00,1.157002449035644531e+00,1.156934380531311035e+00,1.156866192817687988e+00
1.087031126022338867e+00,1.086970925331115723e+00,1.086910843849182129e+00,1.086850762367248535e+00,1.086790561676025391e+00,1.086730599403381348e+00,1.086670517921447754e+00,1.086610317230224609e+00,1.086550354957580566e+00,1.086490273475646973e+00,1.086430191993713379e+00,1.086370110511779785e+00,1.086310029029846191e+00,1.086250066757202148e+00,1.086189985275268555e+00,1.086130023002624512e+00,1.086069941520690918e+00,1.086009979248046875e+00,1.085949897766113281e+00,1.085889935493469238e+00,1.085829973220825195e+00,1.085769891738891602e+00,1.085710048675537109e+00,1.085649967193603516e+00,1.085590004920959473e+00,1.085530161857604980e+00,1.085470080375671387e+00,1.085410118103027344e+00,1.085350275039672852e+00,1.085290312767028809e+00,1.085230350494384766e+00,1.085170507431030273e+00,1.085110545158386230e+00,1.085050582885742188e+00,1.084990739822387695e+00,1.084930896759033203e+00,1.084870934486389160e+00,1.084811091423034668e+00,1.084751248359680176e+00,1.084691286087036133e+00,1.084631443023681641e+00,1.084571599960327148e+00,1.084511756896972656e+00,1.084451913833618164e+00,1.084392070770263672e+00,1.084332227706909180e+00,1.084272384643554688e+00,1.084212541580200195e+00,1.084152817726135254e+00,1.084092974662780762e+00,1.084033131599426270e+00,1.083973407745361328e+00,1.083913683891296387e+00,1.083853840827941895e+00,1.083794116973876953e+00,1.083734393119812012e+00,1.083674550056457520e+00,1.083614826202392578e+00,1.083555102348327637e+00,1.083495378494262695e+00,1.083435654640197754e+00,1.083375930786132812e+00,1.083316206932067871e+00,1.083256483078002930e+00,1.083196759223937988e+00,1.083137154579162598e+00,1.083077430725097656e+00,1.083017706871032715e+00,1.082958102226257324e+00,1.082898378372192383e+00,1.082838654518127441e+00,1.082779049873352051e+00,1.082719326019287109e+00,1.082659721374511719e+00,1.082600116729736328e+00,1.082540512084960938e+00,1.082480788230895996e+00,1.082421183586120605e+00,1.082361578941345215e+00,1.082301974296569824e+00
1.020940184593200684e+00,1.020887255668640137e+00,1.020834207534790039e+00,1.020781159400939941e+00,1.020728230476379395e+00,1.020675182342529297e+00,1.020622134208679199e+00,1.020569205284118652e+00,1.020516157150268555e+00,1.020463109016418457e+00,1.020410180091857910e+00,1.020357251167297363e+00,1.020304203033447266e+00,1.020251274108886719e+00,1.020198345184326172e+00,1.020145297050476074e+00,1.020092368125915527e+00,1.020039439201354980e+00,1.019986510276794434e+00,1.019933581352233887e+00,1.019880652427673340e+00,1.019827723503112793e+00,1.019774794578552246e+00,1.019721865653991699e+00,1.019669055938720703e+00,1.019616127014160156e+00,1.019563198089599609e+00,1.019510388374328613e+00,1.019457459449768066e+00,1.019404530525207520e+00,1.019351720809936523e+00,1.019298791885375977e+00,1.019245982170104980e+00,1.019193172454833984e+00,1.019140243530273438e+00,1.019087433815002441e+00,1.019034624099731445e+00,1.018981695175170898e+00,1.018928885459899902e+00,1.018876075744628906e+00,1.018823266029357910e+00,1.018770456314086914e+00,1.018717646598815918e+00,1.018664836883544922e+00,1.018612027168273926e+00,1.018559217453002930e+00,1.018506407737731934e+00,1.018453717231750488e+00,1.018400907516479492e+00,1.018348097801208496e+00,1.018295407295227051e+00,1.018242597579956055e+00,1.018189907073974609e+00,1.018137097358703613e+00,1.018084406852722168e+00,1.018031597137451172e+00,1.017978906631469727e+00,1.017926216125488281e+00,1.017873406410217285e+00,1.017820835113525391e+00,1.017768025398254395e+00,1.017715334892272949e+00,1.017662644386291504e+00,1.017609953880310059e+00,1.017557263374328613e+00,1.017504572868347168e+00,1.017451882362365723e+00,1.017399311065673828e+00,1.017346620559692383e+00,1.017293930053710938e+00,1.017241358757019043e+00,1.017188668251037598e+00,1.017135977745056152e+00,1.017083406448364258e+00,1.017030715942382812e+00,1.016978025436401367e+00,1.016925454139709473e+00,1.016872882843017578e+00,1.016820192337036133e+00,1.016767621040344238e+00
9.624254703521728516e-01,9.623783230781555176e-01,9.623311758041381836e-01,9.622840285301208496e-01,9.622368812561035156e-01,9.621897339820861816e-01,9.621427655220031738e-01,9.620956182479858398e-01,9.620485305786132812e-01,9.620013833045959473e-01,9.619542956352233887e-01,9.619072079658508301e-01,9.618602395057678223e-01,9.618131518363952637e-01,9.617660641670227051e-01,9.617189764976501465e-01,9.616718888282775879e-01,9.616248011589050293e-01,9.615778326988220215e-01,9.615308046340942383e-01,9.614837169647216797e-01,9.614366888999938965e-01,9.613896608352661133e-01,9.613426923751831055e-01,9.612956643104553223e-01,9.612486362457275391e-01,9.612016081809997559e-01,9.611545801162719727e-01,9.611075520515441895e-01,9.610606431961059570e-01,9.610136151313781738e-01,9.609666466712951660e-01,9.609196186065673828e-01,9.608725905418395996e-01,9.608256220817565918e-01,9.607787132263183594e-01,9.607317447662353516e-01,9.606847763061523438e-01,9.606378078460693359e-01,9.605908393859863281e-01,9.605438709259033203e-01,9.604970216751098633e-01,9.604500532150268555e-01,9.604030847549438477e-01,9.603561758995056152e-01,9.603092074394226074e-01,9.602623581886291504e-01,9.602154493331909180e-01,9.601684808731079102e-01,9.601215720176696777e-01,9.600746631622314453e-01,9.600277543067932129e-01,9.599809646606445312e-01,9.599340558052062988e-01,9.598871469497680664e-01,9.598402380943298340e-01,9.597933292388916016e-01,9.597464203834533691e-01,9.596996903419494629e-01,9.596527814865112305e-01,9.596059322357177734e-01,9.595590233802795410e-01,9.595121741294860840e-01,9.594653248786926270e-01,9.594185948371887207e-01,9.593717455863952637e-01,9.593248963356018066e-01,9.592780470848083496e-01,9.592311978340148926e-01,9.591844677925109863e-01,9.591376185417175293e-01,9.590908288955688477e-01,9.590439796447753906e-01,9.589971899986267090e-01,9.589503407478332520e-01,9.589036703109741211e-01,9.588568806648254395e-01,9.588100314140319824e-01,9.587632417678833008e-01,9.587164521217346191e-01
9.102544188499450684e-01,9.102122783660888672e-01,9.101701974868774414e-01,9.101279973983764648e-01,9.100858569145202637e-01,9.100437164306640625e-01,9.100015163421630859e-01,9.099593758583068848e-01,9.099173545837402344e-01,9.098752140998840332e-01,9.098330736160278320e-01,9.097909331321716309e-01,9.097487926483154297e-01,9.097066521644592285e-01,9.096646308898925781e-01,9.096224904060363770e-01,9.095804095268249512e-01,9.095382690429687500e-01,9.094961881637573242e-01,9.094541072845458984e-01,9.094120860099792480e-01,9.093700051307678223e-01,9.093278646469116211e-01,9.092857837677001953e-01,9.092437028884887695e-01,9.092017412185668945e-01,9.091596603393554688e-01,9.091175794601440430e-01,9.090754985809326172e-01,9.090334773063659668e-01,9.089913964271545410e-01,9.089494347572326660e-01,9.089074134826660156e-01,9.088653326034545898e-01,9.088233113288879395e-01,9.087812304496765137e-01,9.087392091751098633e-01,9.086972475051879883e-01,9.086552262306213379e-01,9.086132049560546875e-01,9.085711836814880371e-01,9.085291624069213867e-01,9.084871411323547363e-01,9.084452390670776367e-01,9.084032773971557617e-01,9.083612561225891113e-01,9.083192348480224609e-01,9.082772731781005859e-01,9.082353711128234863e-01,9.081934094429016113e-01,9.081513881683349609e-01,9.081094264984130859e-01,9.080674648284912109e-01,9.080255031585693359e-01,9.079836010932922363e-01,9.079416394233703613e-01,9.078996777534484863e-01,9.078577160835266113e-01,9.078157544136047363e-01,9.077737927436828613e-01,9.077319502830505371e-01,9.076900482177734375e-01,9.076480865478515625e-01,9.076061844825744629e-01,9.075642228126525879e-01,9.075223207473754883e-01,9.074804782867431641e-01,9.074385762214660645e-01,9.073966741561889648e-01,9.073547720909118652e-01,9.073128700256347656e-01,9.072710275650024414e-01,9.072291254997253418e-01,9.071872830390930176e-01,9.071453809738159180e-01,9.071034789085388184e-01,9.070615768432617188e-01,9.070197939872741699e-01,9.069779515266418457e-01,9.069360494613647461e-01
8.634487986564636230e-01,8.634108304977416992e-01,8.633729219436645508e-01,8.633349537849426270e-01,8.632971048355102539e-01,8.632591962814331055e-01,8.632212281227111816e-01,8.631833195686340332e-01,8.631454110145568848e-01,8.631075024604797363e-01,8.630696535110473633e-01,8.630317449569702148e-01,8.629938364028930664e-01,8.629559278488159180e-01,8.629180192947387695e-01,8.628801107406616211e-01,8.628423213958740234e-01,8.628044128417968750e-01,8.627665042877197266e-01,8.627285957336425781e-01,8.626907467842102051e-01,8.626528382301330566e-01,8.626150488853454590e-01,8.625771999359130859e-01,8.625392913818359375e-01,8.625014424324035645e-01,8.624635934829711914e-01,8.624258041381835938e-01,8.623879551887512207e-01,8.623501062393188477e-01,8.623122572898864746e-01,8.622744083404541016e-01,8.622365593910217285e-01,8.621987700462341309e-01,8.621609807014465332e-01,8.621231317520141602e-01,8.620852828025817871e-01,8.620474338531494141e-01,8.620096445083618164e-01,8.619719147682189941e-01,8.619340658187866211e-01,8.618962764739990234e-01,8.618584275245666504e-01,8.618206381797790527e-01,8.617828488349914551e-01,8.617451190948486328e-01,8.617073297500610352e-01,8.616695404052734375e-01,8.616317510604858398e-01,8.615939617156982422e-01,8.615562319755554199e-01,8.615184426307678223e-01,8.614807128906250000e-01,8.614429235458374023e-01,8.614051342010498047e-01,8.613673448562622070e-01,8.613296747207641602e-01,8.612919449806213379e-01,8.612541556358337402e-01,8.612164258956909180e-01,8.611786961555480957e-01,8.611409068107604980e-01,8.611032366752624512e-01,8.610655069351196289e-01,8.610277771949768066e-01,8.609900474548339844e-01,8.609523177146911621e-01,8.609145879745483398e-01,8.608769178390502930e-01,8.608392477035522461e-01,8.608015179634094238e-01,8.607637882232666016e-01,8.607260584831237793e-01,8.606884479522705078e-01,8.606507778167724609e-01,8.606130480766296387e-01,8.605753183364868164e-01,8.605376482009887695e-01,8.604999780654907227e-01,8.604623675346374512e-01
8.212212324142456055e-01,8.211869597434997559e-01,8.211526274681091309e-01,8.211182951927185059e-01,8.210840225219726562e-01,8.210496902465820312e-01,8.210154771804809570e-01,8.209811449050903320e-01,8.209468126296997070e-01,8.209125399589538574e-01,8.208782076835632324e-01,8.208439350128173828e-01,8.208097219467163086e-01,8.207754492759704590e-01,8.207411170005798340e-01,8.207068443298339844e-01,8.206725716590881348e-01,8.206382989883422852e-01,8.206040859222412109e-01,8.205698132514953613e-01,8.205355405807495117e-01,8.205012679100036621e-01,8.204669952392578125e-01,8.204327225685119629e-01,8.203985691070556641e-01,8.203642964363098145e-01,8.203300237655639648e-01,8.202958106994628906e-01,8.202615380287170410e-01,8.202273845672607422e-01,8.201931118965148926e-01,8.201588988304138184e-01,8.201246857643127441e-01,8.200904130935668945e-01,8.200562000274658203e-01,8.200220465660095215e-01,8.199878334999084473e-01,8.199535608291625977e-01,8.199193477630615234e-01,8.198851346969604492e-01,8.198509216308593750e-01,8.198168277740478516e-01,8.197826147079467773e-01,8.197484016418457031e-01,8.197141885757446289e-01,8.196799755096435547e-01,8.196457624435424805e-01,8.196116685867309570e-01,8.195774555206298828e-01,8.195433020591735840e-01,8.195090889930725098e-01,8.194749355316162109e-01,8.194407820701599121e-01,8.194066286087036133e-01,8.193724751472473145e-01,8.193382620811462402e-01,8.193041086196899414e-01,8.192699551582336426e-01,8.192358613014221191e-01,8.192017078399658203e-01,8.191675543785095215e-01,8.191334009170532227e-01,8.190992474555969238e-01,8.190650939941406250e-01,8.190310001373291016e-01,8.189968466758728027e-01,8.189626932144165039e-01,8.189285993576049805e-01,8.188944458961486816e-01,8.188602924346923828e-01,8.188262581825256348e-01,8.187921047210693359e-01,8.187580108642578125e-01,8.187238574028015137e-01,8.186897635459899902e-01,8.186557292938232422e-01,8.186216354370117188e-01,8.185874819755554199e-01,8.185533881187438965e-01,8.185192942619323730e-01
7.829314470291137695e-01,7.829002737998962402e-01,7.828691005706787109e-01,7.828379273414611816e-01,7.828067541122436523e-01,7.827755808830261230e-01,7.827444076538085938e-01,7.827131748199462891e-01,7.826820611953735352e-01,7.826508879661560059e-01,7.826197147369384766e-01,7.825885415077209473e-01,7.825573682785034180e-01,7.825261950492858887e-01,7.824950814247131348e-01,7.824639081954956055e-01,7.824327945709228516e-01,7.824016213417053223e-01,7.823704481124877930e-01,7.823392748832702637e-01,7.823082208633422852e-01,7.822770476341247559e-01,7.822459340095520020e-01,7.822147607803344727e-01,7.821836471557617188e-01,7.821524739265441895e-01,7.821214199066162109e-01,7.820902466773986816e-01,7.820591330528259277e-01,7.820280194282531738e-01,7.819969058036804199e-01,7.819658517837524414e-01,7.819346785545349121e-01,7.819035649299621582e-01,7.818724513053894043e-01,7.818413376808166504e-01,7.818102240562438965e-01,7.817791700363159180e-01,7.817480564117431641e-01,7.817169427871704102e-01,7.816858887672424316e-01,7.816547751426696777e-01,7.816236615180969238e-01,7.815926671028137207e-01,7.815615534782409668e-01,7.815304398536682129e-01,7.814993858337402344e-01,7.814682722091674805e-01,7.814372181892395020e-01,7.814061641693115234e-01,7.813751101493835449e-01,7.813439965248107910e-01,7.813129425048828125e-01,7.812818884849548340e-01,7.812508940696716309e-01,7.812198400497436523e-01,7.811887264251708984e-01,7.811576724052429199e-01,7.811266183853149414e-01,7.810955643653869629e-01,7.810645699501037598e-01,7.810335159301757812e-01,7.810024619102478027e-01,7.809714674949645996e-01,7.809404134750366211e-01,7.809093594551086426e-01,7.808783650398254395e-01,7.808473706245422363e-01,7.808163166046142578e-01,7.807852625846862793e-01,7.807542681694030762e-01,7.807232141494750977e-01,7.806922793388366699e-01,7.806612253189086914e-01,7.806302309036254883e-01,7.805991768836975098e-01,7.805681824684143066e-01,7.805372476577758789e-01,7.805062532424926758e-01,7.804752588272094727e-01
7.480531930923461914e-01,7.480247020721435547e-01,7.479962706565856934e-01,7.479677796363830566e-01,7.479392886161804199e-01,7.479108572006225586e-01,7.478824257850646973e-01,7.478539347648620605e-01,7.478255033493041992e-01,7.477970123291015625e-01,7.477686405181884766e-01,7.477401494979858398e-01,7.477117180824279785e-01,7.476832270622253418e-01,7.476547956466674805e-01,7.476263046264648438e-01,7.475979328155517578e-01,7.475695013999938965e-01,7.475410699844360352e-01,7.475125789642333984e-01,7.474841475486755371e-01,7.474557161331176758e-01,7.474273443222045898e-01,7.473989129066467285e-01,7.473704814910888672e-01,7.473420500755310059e-01,7.473136186599731445e-01,7.472851872444152832e-01,7.472568154335021973e-01,7.472283840179443359e-01,7.472000122070312500e-01,7.471715807914733887e-01,7.471431493759155273e-01,7.471148371696472168e-01,7.470864057540893555e-01,7.470579743385314941e-01,7.470296025276184082e-01,7.470011711120605469e-01,7.469727993011474609e-01,7.469444274902343750e-01,7.469160556793212891e-01,7.468876242637634277e-01,7.468592524528503418e-01,7.468308806419372559e-01,7.468024492263793945e-01,7.467741370201110840e-01,7.467457652091979980e-01,7.467173933982849121e-01,7.466889619827270508e-01,7.466605901718139648e-01,7.466322183609008789e-01,7.466039061546325684e-01,7.465755343437194824e-01,7.465471625328063965e-01,7.465187907218933105e-01,7.464904189109802246e-01,7.464621663093566895e-01,7.464337944984436035e-01,7.464054226875305176e-01,7.463770508766174316e-01,7.463487386703491211e-01,7.463203668594360352e-01,7.462920546531677246e-01,7.462637424468994141e-01,7.462353706359863281e-01,7.462070584297180176e-01,7.461786866188049316e-01,7.461503744125366211e-01,7.461220622062683105e-01,7.460937500000000000e-01,7.460653781890869141e-01,7.460370659828186035e-01,7.460087537765502930e-01,7.459804415702819824e-01,7.459521293640136719e-01,7.459238171577453613e-01,7.458955049514770508e-01,7.458671927452087402e-01,7.458388805389404297e-01,7.458106279373168945e-01
7.161498665809631348e-01,7.161238193511962891e-01,7.160977125167846680e-01,7.160716056823730469e-01,7.160455584526062012e-01,7.160194516181945801e-01,7.159933447837829590e-01,7.159672975540161133e-01,7.159411907196044922e-01,7.159151434898376465e-01,7.158890366554260254e-01,7.158629298210144043e-01,7.158369421958923340e-01,7.158108353614807129e-01,7.157847881317138672e-01,7.157586812973022461e-01,7.157326340675354004e-01,7.157065272331237793e-01,7.156805396080017090e-01,7.156544327735900879e-01,7.156283855438232422e-01,7.156023383140563965e-01,7.155762314796447754e-01,7.155501842498779297e-01,7.155241966247558594e-01,7.154981493949890137e-01,7.154720425605773926e-01,7.154459953308105469e-01,7.154199481010437012e-01,7.153939008712768555e-01,7.153679132461547852e-01,7.153418660163879395e-01,7.153158187866210938e-01,7.152897715568542480e-01,7.152637243270874023e-01,7.152377367019653320e-01,7.152116894721984863e-01,7.151857018470764160e-01,7.151596546173095703e-01,7.151336073875427246e-01,7.151075601577758789e-01,7.150816321372985840e-01,7.150555849075317383e-01,7.150295376777648926e-01,7.150035500526428223e-01,7.149775028228759766e-01,7.149515151977539062e-01,7.149255275726318359e-01,7.148995399475097656e-01,7.148734927177429199e-01,7.148475050926208496e-01,7.148215174674987793e-01,7.147954702377319336e-01,7.147695422172546387e-01,7.147435545921325684e-01,7.147175073623657227e-01,7.146915197372436523e-01,7.146655321121215820e-01,7.146396040916442871e-01,7.146136164665222168e-01,7.145876288414001465e-01,7.145616412162780762e-01,7.145355939865112305e-01,7.145096063613891602e-01,7.144837379455566406e-01,7.144577503204345703e-01,7.144317626953125000e-01,7.144057750701904297e-01,7.143797874450683594e-01,7.143537998199462891e-01,7.143278717994689941e-01,7.143019437789916992e-01,7.142759561538696289e-01,7.142499685287475586e-01,7.142240405082702637e-01,7.141980528831481934e-01,7.141721248626708984e-01,7.141461968421936035e-01,7.141202092170715332e-01,7.140942811965942383e-01
6.868565678596496582e-01,6.868325471878051758e-01,6.868085265159606934e-01,6.867845654487609863e-01,6.867606043815612793e-01,6.867365837097167969e-01,6.867125630378723145e-01,6.866885423660278320e-01,6.866645812988281250e-01,6.866406202316284180e-01,6.866165995597839355e-01,6.865926384925842285e-01,6.865686178207397461e-01,6.865446567535400391e-01,6.865206956863403320e-01,6.864967346191406250e-01,6.864727139472961426e-01,6.864487528800964355e-01,6.864247322082519531e-01,6.864007711410522461e-01,6.863768696784973145e-01,6.863528490066528320e-01,6.863288879394531250e-01,6.863049268722534180e-01,6.862809062004089355e-01,6.862569451332092285e-01,6.862330436706542969e-01,6.862090826034545898e-01,6.861851215362548828e-01,6.861611604690551758e-01,6.861371994018554688e-01,6.861132383346557617e-01,6.860892772674560547e-01,6.860653162002563477e-01,6.860414147377014160e-01,6.860174536705017090e-01,6.859934926033020020e-01,6.859695911407470703e-01,6.859456300735473633e-01,6.859216690063476562e-01,6.858977079391479492e-01,6.858738064765930176e-01,6.858498454093933105e-01,6.858259439468383789e-01,6.858019828796386719e-01,6.857780814170837402e-01,6.857541203498840332e-01,6.857302188873291016e-01,6.857062578201293945e-01,6.856823563575744629e-01,6.856584548950195312e-01,6.856344938278198242e-01,6.856105923652648926e-01,6.855866909027099609e-01,6.855627298355102539e-01,6.855388879776000977e-01,6.855149269104003906e-01,6.854910254478454590e-01,6.854671239852905273e-01,6.854432225227355957e-01,6.854193210601806641e-01,6.853954195976257324e-01,6.853715181350708008e-01,6.853476166725158691e-01,6.853237152099609375e-01,6.852998137474060059e-01,6.852759718894958496e-01,6.852520108222961426e-01,6.852281689643859863e-01,6.852042675018310547e-01,6.851803660392761230e-01,6.851564645767211914e-01,6.851326227188110352e-01,6.851087212562561035e-01,6.850848197937011719e-01,6.850609183311462402e-01,6.850370168685913086e-01,6.850131750106811523e-01,6.849893331527709961e-01,6.849654316902160645e-01
6.598654985427856445e-01,6.598433256149291992e-01,6.598211526870727539e-01,6.597990393638610840e-01,6.597768664360046387e-01,6.597547531127929688e-01,6.597325801849365234e-01,6.597104668617248535e-01,6.596882939338684082e-01,6.596661210060119629e-01,6.596440076828002930e-01,6.596218943595886230e-01,6.595997214317321777e-01,6.595776081085205078e-01,6.595554351806640625e-01,6.595333218574523926e-01,6.595112085342407227e-01,6.594890952110290527e-01,6.594669222831726074e-01,6.594448089599609375e-01,6.594226956367492676e-01,6.594005227088928223e-01,6.593784689903259277e-01,6.593563556671142578e-01,6.593341827392578125e-01,6.593120694160461426e-01,6.592899560928344727e-01,6.592678427696228027e-01,6.592457294464111328e-01,6.592236161231994629e-01,6.592015027999877930e-01,6.591793894767761230e-01,6.591572761535644531e-01,6.591351628303527832e-01,6.591131091117858887e-01,6.590909957885742188e-01,6.590688824653625488e-01,6.590467691421508789e-01,6.590246558189392090e-01,6.590026021003723145e-01,6.589804887771606445e-01,6.589583754539489746e-01,6.589363217353820801e-01,6.589142084121704102e-01,6.588920950889587402e-01,6.588700413703918457e-01,6.588479280471801758e-01,6.588258743286132812e-01,6.588037610054016113e-01,6.587816476821899414e-01,6.587595939636230469e-01,6.587375402450561523e-01,6.587154269218444824e-01,6.586933732032775879e-01,6.586712598800659180e-01,6.586492061614990234e-01,6.586270928382873535e-01,6.586050987243652344e-01,6.585829854011535645e-01,6.585609316825866699e-01,6.585388779640197754e-01,6.585167646408081055e-01,6.584947705268859863e-01,6.584727168083190918e-01,6.584506034851074219e-01,6.584285497665405273e-01,6.584064960479736328e-01,6.583844423294067383e-01,6.583623886108398438e-01,6.583403348922729492e-01,6.583182811737060547e-01,6.582962274551391602e-01,6.582741737365722656e-01,6.582521200180053711e-01,6.582301259040832520e-01,6.582080721855163574e-01,6.581860184669494629e-01,6.581639647483825684e-01,6.581419110298156738e-01,6.581198573112487793e-01
6.349154710769653320e-01,6.348950266838073730e-01,6.348744630813598633e-01,6.348539590835571289e-01,6.348334550857543945e-01,6.348129510879516602e-01,6.347924470901489258e-01,6.347719430923461914e-01,6.347514390945434570e-01,6.347309350967407227e-01,6.347104310989379883e-01,6.346899271011352539e-01,6.346694231033325195e-01,6.346489787101745605e-01,6.346284747123718262e-01,6.346079707145690918e-01,6.345874667167663574e-01,6.345669627189636230e-01,6.345465183258056641e-01,6.345260143280029297e-01,6.345055103302001953e-01,6.344850659370422363e-01,6.344645619392395020e-01,6.344440579414367676e-01,6.344236135482788086e-01,6.344031095504760742e-01,6.343826651573181152e-01,6.343621611595153809e-01,6.343416571617126465e-01,6.343212127685546875e-01,6.343007683753967285e-01,6.342802643775939941e-01,6.342598199844360352e-01,6.342393159866333008e-01,6.342188715934753418e-01,6.341984272003173828e-01,6.341779828071594238e-01,6.341574788093566895e-01,6.341370344161987305e-01,6.341165304183959961e-01,6.340960860252380371e-01,6.340756416320800781e-01,6.340551972389221191e-01,6.340347528457641602e-01,6.340142488479614258e-01,6.339938044548034668e-01,6.339733600616455078e-01,6.339529752731323242e-01,6.339324712753295898e-01,6.339120268821716309e-01,6.338915824890136719e-01,6.338711380958557129e-01,6.338506937026977539e-01,6.338302493095397949e-01,6.338098049163818359e-01,6.337893605232238770e-01,6.337689161300659180e-01,6.337484717369079590e-01,6.337280273437500000e-01,6.337076425552368164e-01,6.336871981620788574e-01,6.336667537689208984e-01,6.336463093757629395e-01,6.336258649826049805e-01,6.336054801940917969e-01,6.335850358009338379e-01,6.335646510124206543e-01,6.335442066192626953e-01,6.335237622261047363e-01,6.335033178329467773e-01,6.334829330444335938e-01,6.334625482559204102e-01,6.334421038627624512e-01,6.334216594696044922e-01,6.334012746810913086e-01,6.333808302879333496e-01,6.333604454994201660e-01,6.333400607109069824e-01,6.333196163177490234e-01,6.332992315292358398e-01
6.117835640907287598e-01,6.117644906044006348e-01,6.117454171180725098e-01,6.117264032363891602e-01,6.117073893547058105e-01,6.116883158683776855e-01,6.116693019866943359e-01,6.116502285003662109e-01,6.116312146186828613e-01,6.116122007369995117e-01,6.115931868553161621e-01,6.115741133689880371e-01,6.115550994873046875e-01,6.115360260009765625e-01,6.115170717239379883e-01,6.114979982376098633e-01,6.114789843559265137e-01,6.114599704742431641e-01,6.114409565925598145e-01,6.114218831062316895e-01,6.114029288291931152e-01,6.113839149475097656e-01,6.113648414611816406e-01,6.113458275794982910e-01,6.113268136978149414e-01,6.113077998161315918e-01,6.112887859344482422e-01,6.112697720527648926e-01,6.112507581710815430e-01,6.112317442893981934e-01,6.112127304077148438e-01,6.111937165260314941e-01,6.111747622489929199e-01,6.111557483673095703e-01,6.111367344856262207e-01,6.111177206039428711e-01,6.110987067222595215e-01,6.110797524452209473e-01,6.110607385635375977e-01,6.110417246818542480e-01,6.110227108001708984e-01,6.110036969184875488e-01,6.109847426414489746e-01,6.109657883644104004e-01,6.109467744827270508e-01,6.109277606010437012e-01,6.109087467193603516e-01,6.108897924423217773e-01,6.108707785606384277e-01,6.108518242835998535e-01,6.108328104019165039e-01,6.108138561248779297e-01,6.107948422431945801e-01,6.107758283615112305e-01,6.107568740844726562e-01,6.107379198074340820e-01,6.107189655303955078e-01,6.106999516487121582e-01,6.106809973716735840e-01,6.106619834899902344e-01,6.106430292129516602e-01,6.106240749359130859e-01,6.106050610542297363e-01,6.105861067771911621e-01,6.105671525001525879e-01,6.105481386184692383e-01,6.105292439460754395e-01,6.105102300643920898e-01,6.104912757873535156e-01,6.104723215103149414e-01,6.104533672332763672e-01,6.104343533515930176e-01,6.104154586791992188e-01,6.103965044021606445e-01,6.103774905204772949e-01,6.103585362434387207e-01,6.103395819664001465e-01,6.103206276893615723e-01,6.103017330169677734e-01,6.102827787399291992e-01
