5.000000000000000000e+00,5.000000000000000000e+00,5.000000000000000000e+00,5.000000000000000000e+00,5.000000000000000000e+00,5.000000000000000000e+00,5.000000000000000000e+00,5.000000000000000000e+00,5.000000000000000000e+00,5.000000000000000000e+00,5.000000000000000000e+00,5.000000000000000000e+00,5.000000000000000000e+00,5.000000000000000000e+00,5.000000000000000000e+00,5.000000000000000000e+00,5.000000000000000000e+00,5.000000000000000000e+00,5.000000000000000000e+00,5.000000000000000000e+00,5.000000000000000000e+00,5.000000000000000000e+00,5.000000000000000000e+00,5.000000000000000000e+00,5.000000000000000000e+00,5.000000000000000000e+00,5.000000000000000000e+00,5.000000000000000000e+00,5.000000000000000000e+00,5.000000000000000000e+00,5.000000000000000000e+00,5.000000000000000000e+00,5.000000000000000000e+00,5.000000000000000000e+00,5.000000000000000000e+00,5.000000000000000000e+00,5.000000000000000000e+00,5.000000000000000000e+00,5.000000000000000000e+00,5.000000000000000000e+00,4.661270618438720703e+00,4.485531330108642578e+00,4.322561740875244141e+00,4.171019077301025391e+00,4.029742240905761719e+00,3.897722482681274414e+00,3.774078369140625000e+00,3.658037900924682617e+00,3.548920154571533203e+00,3.446123361587524414e+00,3.349114418029785156e+00,3.257417440414428711e+00,3.170608043670654297e+00,3.088305473327636719e+00,3.010167360305786133e+00,2.935885906219482422e+00,2.865181922912597656e+00,2.797803401947021484e+00,2.733521461486816406e+00,2.672126770019531250e+00,2.613429307937622070e+00,2.557255029678344727e+00,2.503444910049438477e+00,2.451853036880493164e+00,2.402344226837158203e+00,2.354795455932617188e+00,2.309092283248901367e+00,2.265129566192626953e+00,2.222809553146362305e+00,2.182041883468627930e+00,2.142742633819580078e+00,2.104833841323852539e+00,2.068243026733398438e+00,2.032902717590332031e+00,1.998749971389770508e+00,1.965725779533386230e+00,1.933774948120117188e+00,1.902846336364746094e+00,1.872891306877136230e+00,1.843865156173706055e+00
5.000000000000000000e+00,5.000000000000000000e+00,5.000000000000000000e+00,5.000000000000000000e+00,5.000000000000000000e+00,5.000000000000000000e+00,5.000000000000000000e+00,5.000000000000000000e+00,5.000000000000000000e+00,5.000000000000000000e+00,5.000000000000000000e+00,5.000000000000000000e+00,5.000000000000000000e+00,5.000000000000000000e+00,5.000000000000000000e+00,5.000000000000000000e+00,5.000000000000000000e+00,5.000000000000000000e+00,5.000000000000000000e+00,5.000000000000000000e+00,5.000000000000000000e+00,5.000000000000000000e+00,5.000000000000000000e+00,5.000000000000000000e+00,5.000000000000000000e+00,5.000000000000000000e+00,5.000000000000000000e+00,5.000000000000000000e+00,5.000000000000000000e+00,5.000000000000000000e+00,5.000000000000000000e+00,5.000000000000000000e+00,5.000000000000000000e+00,5.000000000000000000e+00,5.000000000000000000e+00,5.000000000000000000e+00,5.000000000000000000e+00,5.000000000000000000e+00,5.000000000000000000e+00,4.851480960845947266e+00,4.661398887634277344e+00,4.485650062561035156e+00,4.322671890258789062e+00,4.171121597290039062e+00,4.029838085174560547e+00,3.897812128067016602e+00,3.774162292480468750e+00,3.658116579055786133e+00,3.548994302749633789e+00,3.446193456649780273e+00,3.349180459976196289e+00,3.257480144500732422e+00,3.170667171478271484e+00,3.088361740112304688e+00,3.010220766067504883e+00,2.935936689376831055e+00,2.865230321884155273e+00,2.797849655151367188e+00,2.733565568923950195e+00,2.672168970108032227e+00,2.613469600677490234e+00,2.557293653488159180e+00,2.503482103347778320e+00,2.451888322830200195e+00,2.402378320693969727e+00,2.354828357696533203e+00,2.309123754501342773e+00,2.265159845352172852e+00,2.222838640213012695e+00,2.182070016860961914e+00,2.142769575119018555e+00,2.104859828948974609e+00,2.068268060684204102e+00,2.032927274703979492e+00,1.998773574829101562e+00,1.965748667716979980e+00,1.933797001838684082e+00,1.902867674827575684e+00,1.872912049293518066e+00,1.843885064125061035e+00
5.000000000000000000e+00,5.000000000000000000e+00,5.000000000000000000e+00,5.000000000000000000e+00,5.000000000000000000e+00,5.000000000000000000e+00,5.000000000000000000e+00,5.000000000000000000e+00,5.000000000000000000e+00,5.000000000000000000e+00,5.000000000000000000e+00,5.000000000000000000e+00,5.000000000000000000e+00,5.000000000000000000e+00,5.000000000000000000e+00,5.000000000000000000e+00,5.000000000000000000e+00,5.000000000000000000e+00,5.000000000000000000e+00,5.000000000000000000e+00,5.000000000000000000e+00,5.000000000000000000e+00,5.000000000000000000e+00,5.000000000000000000e+00,5.000000000000000000e+00,5.000000000000000000e+00,5.000000000000000000e+00,5.000000000000000000e+00,5.000000000000000000e+00,5.000000000000000000e+00,5.000000000000000000e+00,5.000000000000000000e+00,5.000000000000000000e+00,5.000000000000000000e+00,5.000000000000000000e+00,5.000000000000000000e+00,5.000000000000000000e+00,5.000000000000000000e+00,5.000000000000000000e+00,4.851620197296142578e+00,4.661526679992675781e+00,4.485768795013427734e+00,4.322782039642333984e+00,4.171224117279052734e+00,4.029933929443359375e+00,3.897901773452758789e+00,3.774246454238891602e+00,3.658195495605468750e+00,3.549068450927734375e+00,3.446263551712036133e+00,3.349246740341186523e+00,3.257542610168457031e+00,3.170726537704467773e+00,3.088417530059814453e+00,3.010274410247802734e+00,2.935987472534179688e+00,2.865278720855712891e+00,2.797895908355712891e+00,2.733609437942504883e+00,2.672210931777954102e+00,2.613509893417358398e+00,2.557332277297973633e+00,2.503519058227539062e+00,2.451923847198486328e+00,2.402412176132202148e+00,2.354861021041870117e+00,2.309155225753784180e+00,2.265190124511718750e+00,2.222867727279663086e+00,2.182097911834716797e+00,2.142796754837036133e+00,2.104886054992675781e+00,2.068293333053588867e+00,2.032951593399047852e+00,1.998797178268432617e+00,1.965771436691284180e+00,1.933819055557250977e+00,1.902889013290405273e+00,1.872932791709899902e+00,1.843905091285705566e+00
5.000000000000000000e+00,5.000000000000000000e+00,5.000000000000000000e+00,5.000000000000000000e+00,5.000000000000000000e+00,5.000000000000000000e+00,5.000000000000000000e+00,5.000000000000000000e+00,5.000000000000000000e+00,5.000000000000000000e+00,5.000000000000000000e+00,5.000000000000000000e+00,5.000000000000000000e+00,5.000000000000000000e+00,5.000000000000000000e+00,5.000000000000000000e+00,5.000000000000000000e+00,5.000000000000000000e+00,5.000000000000000000e+00,5.000000000000000000e+00,5.000000000000000000e+00,5.000000000000000000e+00,5.000000000000000000e+00,5.000000000000000000e+00,5.000000000000000000e+00,5.000000000000000000e+00,5.000000000000000000e+00,5.000000000000000000e+00,5.000000000000000000e+00,5.000000000000000000e+00,5.000000000000000000e+00,5.000000000000000000e+00,5.000000000000000000e+00,5.000000000000000000e+00,5.000000000000000000e+00,5.000000000000000000e+00,5.000000000000000000e+00,5.000000000000000000e+00,5.000000000000000000e+00,4.851758956909179688e+00,4.661654949188232422e+00,4.485887527465820312e+00,4.322892189025878906e+00,4.171326637268066406e+00,4.030029773712158203e+00,3.897991418838500977e+00,3.774330377578735352e+00,3.658274412155151367e+00,3.549142599105834961e+00,3.446333646774291992e+00,3.349312782287597656e+00,3.257605314254760742e+00,3.170785903930664062e+00,3.088474035263061523e+00,3.010327577590942383e+00,2.936038494110107422e+00,2.865327358245849609e+00,2.797942161560058594e+00,2.733653545379638672e+00,2.672252893447875977e+00,2.613550186157226562e+00,2.557370901107788086e+00,2.503556013107299805e+00,2.451959133148193359e+00,2.402446269989013672e+00,2.354893684387207031e+00,2.309186697006225586e+00,2.265220403671264648e+00,2.222896814346313477e+00,2.182126045227050781e+00,2.142823696136474609e+00,2.104912281036376953e+00,2.068318605422973633e+00,2.032975912094116211e+00,1.998820781707763672e+00,1.965794205665588379e+00,1.933841228485107422e+00,1.902910351753234863e+00,1.872953414916992188e+00,1.843925118446350098e+00
5.000000000000000000e+00,5.000000000000000000e+00,5.000000000000000000e+00,5.000000000000000000e+00,5.000000000000000000e+00,5.000000000000000000e+00,5.000000000000000000e+00,5.000000000000000000e+00,5.000000000000000000e+00,5.000000000000000000e+00,5.000000000000000000e+00,5.000000000000000000e+00,5.000000000000000000e+00,5.000000000000000000e+00,5.000000000000000000e+00,5.000000000000000000e+00,5.000000000000000000e+00,5.000000000000000000e+00,5.000000000000000000e+00,5.000000000000000000e+00,5.000000000000000000e+00,5.000000000000000000e+00,5.000000000000000000e+00,5.000000000000000000e+00,5.000000000000000000e+00,5.000000000000000000e+00,5.000000000000000000e+00,5.000000000000000000e+00,5.000000000000000000e+00,5.000000000000000000e+00,5.000000000000000000e+00,5.000000000000000000e+00,5.000000000000000000e+00,5.000000000000000000e+00,5.000000000000000000e+00,5.000000000000000000e+00,5.000000000000000000e+00,5.000000000000000000e+00,5.000000000000000000e+00,4.851897716522216797e+00,4.661783218383789062e+00,4.486005783081054688e+00,4.323002338409423828e+00,4.171429634094238281e+00,4.030125141143798828e+00,3.898081064224243164e+00,3.774414539337158203e+00,3.658353567123413086e+00,3.549216985702514648e+00,3.446403503417968750e+00,3.349379062652587891e+00,3.257668018341064453e+00,3.170845031738281250e+00,3.088530302047729492e+00,3.010380983352661133e+00,2.936089038848876953e+00,2.865375757217407227e+00,2.797988176345825195e+00,2.733697652816772461e+00,2.672295093536376953e+00,2.613590240478515625e+00,2.557409524917602539e+00,2.503592967987060547e+00,2.451994657516479492e+00,2.402480363845825195e+00,2.354926347732543945e+00,2.309218168258666992e+00,2.265250682830810547e+00,2.222925901412963867e+00,2.182153940200805664e+00,2.142850875854492188e+00,2.104938268661499023e+00,2.068343877792358398e+00,2.033000469207763672e+00,1.998844265937805176e+00,1.965817093849182129e+00,1.933863282203674316e+00,1.902931809425354004e+00,1.872974157333374023e+00,1.843945145606994629e+00
5.000000000000000000e+00,5.000000000000000000e+00,5.000000000000000000e+00,5.000000000000000000e+00,5.000000000000000000e+00,5.000000000000000000e+00,5.000000000000000000e+00,5.000000000000000000e+00,5.000000000000000000e+00,5.000000000000000000e+00,5.000000000000000000e+00,5.000000000000000000e+00,5.000000000000000000e+00,5.000000000000000000e+00,5.000000000000000000e+00,5.000000000000000000e+00,5.000000000000000000e+00,5.000000000000000000e+00,5.000000000000000000e+00,5.000000000000000000e+00,5.000000000000000000e+00,5.000000000000000000e+00,5.000000000000000000e+00,5.000000000000000000e+00,5.000000000000000000e+00,5.000000000000000000e+00,5.000000000000000000e+00,5.000000000000000000e+00,5.000000000000000000e+00,5.000000000000000000e+00,5.000000000000000000e+00,5.000000000000000000e+00,5.000000000000000000e+00,5.000000000000000000e+00,5.000000000000000000e+00,5.000000000000000000e+00,5.000000000000000000e+00,5.000000000000000000e+00,5.000000000000000000e+00,4.852036476135253906e+00,4.661911487579345703e+00,4.486124515533447266e+00,4.323112487792968750e+00,4.171532154083251953e+00,4.030220985412597656e+00,3.898170232772827148e+00,3.774498462677001953e+00,3.658432483673095703e+00,3.549291372299194336e+00,3.446473598480224609e+00,3.349444866180419922e+00,3.257730484008789062e+00,3.170904397964477539e+00,3.088586568832397461e+00,3.010434389114379883e+00,2.936139822006225586e+00,2.865424156188964844e+00,2.798034429550170898e+00,2.733741760253906250e+00,2.672337293624877930e+00,2.613630533218383789e+00,2.557447910308837891e+00,2.503629922866821289e+00,2.452030181884765625e+00,2.402514457702636719e+00,2.354959011077880859e+00,2.309249401092529297e+00,2.265280961990356445e+00,2.222955226898193359e+00,2.182182073593139648e+00,2.142877817153930664e+00,2.104964256286621094e+00,2.068369150161743164e+00,2.033024787902832031e+00,1.998867869377136230e+00,1.965839862823486328e+00,1.933885335922241211e+00,1.902953147888183594e+00,1.872994899749755859e+00,1.843965291976928711e+00
5.000000000000000000e+00,5.000000000000000000e+00,5.000000000000000000e+00,5.000000000000000000e+00,5.000000000000000000e+00,5.000000000000000000e+00,5.000000000000000000e+00,5.000000000000000000e+00,5.000000000000000000e+00,5.000000000000000000e+00,5.000000000000000000e+00,5.000000000000000000e+00,5.000000000000000000e+00,5.000000000000000000e+00,5.000000000000000000e+00,5.000000000000000000e+00,5.000000000000000000e+00,5.000000000000000000e+00,5.000000000000000000e+00,5.000000000000000000e+00,5.000000000000000000e+00,5.000000000000000000e+00,5.000000000000000000e+00,5.000000000000000000e+00,5.000000000000000000e+00,3.794151067733764648e+00,5.000000000000000000e+00,5.000000000000000000e+00,5.000000000000000000e+00,5.000000000000000000e+00,5.000000000000000000e+00,5.000000000000000000e+00,5.000000000000000000e+00,5.000000000000000000e+00,5.000000000000000000e+00,5.000000000000000000e+00,5.000000000000000000e+00,5.000000000000000000e+00,5.000000000000000000e+00,4.852175235748291016e+00,4.662039279937744141e+00,4.486243247985839844e+00,4.323222637176513672e+00,4.171634674072265625e+00,4.030316829681396484e+00,3.898259878158569336e+00,3.774582147598266602e+00,3.658511400222778320e+00,3.549365758895874023e+00,3.446543693542480469e+00,3.349511146545410156e+00,3.257792949676513672e+00,3.170963764190673828e+00,3.088642835617065430e+00,3.010488033294677734e+00,2.936190843582153320e+00,2.865472316741943359e+00,2.798080682754516602e+00,2.733785867691040039e+00,2.672379255294799805e+00,2.613670825958251953e+00,2.557486534118652344e+00,2.503666639328002930e+00,2.452065706253051758e+00,2.402548551559448242e+00,2.354991674423217773e+00,2.309280872344970703e+00,2.265311002731323242e+00,2.222984313964843750e+00,2.182210206985473633e+00,2.142904996871948242e+00,2.104990482330322266e+00,2.068394184112548828e+00,2.033049106597900391e+00,1.998891472816467285e+00,1.965862631797790527e+00,1.933907389640808105e+00,1.902974486351013184e+00,1.873015522956848145e+00,1.843985319137573242e+00
5.000000000000000000e+00,5.000000000000000000e+00,5.000000000000000000e+00,5.000000000000000000e+00,5.000000000000000000e+00,5.000000000000000000e+00,5.000000000000000000e+00,5.000000000000000000e+00,5.000000000000000000e+00,5.000000000000000000e+00,5.000000000000000000e+00,5.000000000000000000e+00,5.000000000000000000e+00,5.000000000000000000e+00,5.000000000000000000e+00,5.000000000000000000e+00,5.000000000000000000e+00,5.000000000000000000e+00,5.000000000000000000e+00,5.000000000000000000e+00,5.000000000000000000e+00,5.000000000000000000e+00,5.000000000000000000e+00,5.000000000000000000e+00,5.000000000000000000e+00,3.752534389495849609e+00,3.778232336044311523e+00,5.000000000000000000e+00,5.000000000000000000e+00,5.000000000000000000e+00,5.000000000000000000e+00,5.000000000000000000e+00,5.000000000000000000e+00,5.000000000000000000e+00,5.000000000000000000e+00,5.000000000000000000e+00,5.000000000000000000e+00,5.000000000000000000e+00,5.000000000000000000e+00,4.852313995361328125e+00,4.662167549133300781e+00,4.486361503601074219e+00,4.323332786560058594e+00,4.171737194061279297e+00,4.030412673950195312e+00,3.898349523544311523e+00,3.774666309356689453e+00,3.658590078353881836e+00,3.549439907073974609e+00,3.446613788604736328e+00,3.349577426910400391e+00,3.257855415344238281e+00,3.171022891998291016e+00,3.088699102401733398e+00,3.010541439056396484e+00,2.936241626739501953e+00,2.865520715713500977e+00,2.798126697540283203e+00,2.733829975128173828e+00,2.672421455383300781e+00,2.613711118698120117e+00,2.557525157928466797e+00,2.503703832626342773e+00,2.452100992202758789e+00,2.402582645416259766e+00,2.355024337768554688e+00,2.309312343597412109e+00,2.265341281890869141e+00,2.223013401031494141e+00,2.182238340377807617e+00,2.142931938171386719e+00,2.105016708374023438e+00,2.068419456481933594e+00,2.033073425292968750e+00,1.998915076255798340e+00,1.965885519981384277e+00,1.933929443359375000e+00,1.902995824813842773e+00,1.873036265373229980e+00,1.844005346298217773e+00
5.000000000000000000e+00,5.000000000000000000e+00,5.000000000000000000e+00,5.000000000000000000e+00,5.000000000000000000e+00,5.000000000000000000e+00,5.000000000000000000e+00,5.000000000000000000e+00,5.000000000000000000e+00,5.000000000000000000e+00,5.000000000000000000e+00,5.000000000000000000e+00,5.000000000000000000e+00,5.000000000000000000e+00,5.000000000000000000e+00,5.000000000000000000e+00,5.000000000000000000e+00,5.000000000000000000e+00,5.000000000000000000e+00,5.000000000000000000e+00,5.000000000000000000e+00,5.000000000000000000e+00,5.000000000000000000e+00,5.000000000000000000e+00,5.000000000000000000e+00,3.766527652740478516e+00,3.784497499465942383e+00,5.000000000000000000e+00,5.000000000000000000e+00,5.000000000000000000e+00,5.000000000000000000e+00,5.000000000000000000e+00,5.000000000000000000e+00,5.000000000000000000e+00,5.000000000000000000e+00,5.000000000000000000e+00,5.000000000000000000e+00,5.000000000000000000e+00,5.000000000000000000e+00,4.852452754974365234e+00,4.662295818328857422e+00,4.486480712890625000e+00,4.323442935943603516e+00,4.171839714050292969e+00,4.030508518218994141e+00,3.898439168930053711e+00,3.774750232696533203e+00,3.658668994903564453e+00,3.549514293670654297e+00,3.446683883666992188e+00,3.349643707275390625e+00,3.257918119430541992e+00,3.171082258224487305e+00,3.088755130767822266e+00,3.010594844818115234e+00,2.936292409896850586e+00,2.865569353103637695e+00,2.798172950744628906e+00,2.733873844146728516e+00,2.672463655471801758e+00,2.613751649856567383e+00,2.557563781738281250e+00,2.503740787506103516e+00,2.452136516571044922e+00,2.402616500854492188e+00,2.355057239532470703e+00,2.309343814849853516e+00,2.265371561050415039e+00,2.223042488098144531e+00,2.182266235351562500e+00,2.142959117889404297e+00,2.105042695999145508e+00,2.068444728851318359e+00,2.033097743988037109e+00,1.998938322067260742e+00,1.965908288955688477e+00,1.933951497077941895e+00,1.903017282485961914e+00,1.873057007789611816e+00,1.844025492668151855e+00
5.000000000000000000e+00,5.000000000000000000e+00,5.000000000000000000e+00,5.000000000000000000e+00,5.000000000000000000e+00,5.000000000000000000e+00,5.000000000000000000e+00,5.000000000000000000e+00,5.000000000000000000e+00,5.000000000000000000e+00,5.000000000000000000e+00,5.000000000000000000e+00,5.000000000000000000e+00,5.000000000000000000e+00,5.000000000000000000e+00,5.000000000000000000e+00,5.000000000000000000e+00,5.000000000000000000e+00,5.000000000000000000e+00,5.000000000000000000e+00,5.000000000000000000e+00,5.000000000000000000e+00,5.000000000000000000e+00,5.000000000000000000e+00,5.000000000000000000e+00,3.796215295791625977e+00,3.812934398651123047e+00,5.000000000000000000e+00,5.000000000000000000e+00,5.000000000000000000e+00,5.000000000000000000e+00,5.000000000000000000e+00,5.000000000000000000e+00,5.000000000000000000e+00,5.000000000000000000e+00,5.000000000000000000e+00,5.000000000000000000e+00,5.000000000000000000e+00,5.000000000000000000e+00,4.852591991424560547e+00,4.662424087524414062e+00,4.486599445343017578e+00,4.323553085327148438e+00,4.171942234039306641e+00,4.030604362487792969e+00,3.898529052734375000e+00,3.774834394454956055e+00,3.658747911453247070e+00,3.549588441848754883e+00,3.446753978729248047e+00,3.349709749221801758e+00,3.257980823516845703e+00,3.171141624450683594e+00,3.088811397552490234e+00,3.010648250579833984e+00,2.936343431472778320e+00,2.865617752075195312e+00,2.798218965530395508e+00,2.733917951583862305e+00,2.672505617141723633e+00,2.613791942596435547e+00,2.557602405548095703e+00,2.503777742385864258e+00,2.452172040939331055e+00,2.402650594711303711e+00,2.355089902877807617e+00,2.309375286102294922e+00,2.265401840209960938e+00,2.223071575164794922e+00,2.182294368743896484e+00,2.142986059188842773e+00,2.105068922042846680e+00,2.068470001220703125e+00,2.033122062683105469e+00,1.998961925506591797e+00,1.965930819511413574e+00,1.933973550796508789e+00,1.903038620948791504e+00,1.873077630996704102e+00,1.844045519828796387e+00
5.000000000000000000e+00,5.000000000000000000e+00,5.000000000000000000e+00,5.000000000000000000e+00,5.000000000000000000e+00,5.000000000000000000e+00,5.000000000000000000e+00,5.000000000000000000e+00,5.000000000000000000e+00,5.000000000000000000e+00,5.000000000000000000e+00,5.000000000000000000e+00,5.000000000000000000e+00,5.000000000000000000e+00,5.000000000000000000e+00,5.000000000000000000e+00,5.000000000000000000e+00,5.000000000000000000e+00,5.000000000000000000e+00,5.000000000000000000e+00,5.000000000000000000e+00,5.000000000000000000e+00,5.000000000000000000e+00,5.000000000000000000e+00,3.813765525817871094e+00,3.861557722091674805e+00,3.786350727081298828e+00,3.847664594650268555e+00,3.845811605453491211e+00,5.000000000000000000e+00,5.000000000000000000e+00,5.000000000000000000e+00,5.000000000000000000e+00,5.000000000000000000e+00,5.000000000000000000e+00,5.000000000000000000e+00,5.000000000000000000e+00,5.000000000000000000e+00,5.000000000000000000e+00,4.852730751037597656e+00,4.662552356719970703e+00,4.486717700958251953e+00,4.323663711547851562e+00,4.172045230865478516e+00,4.030699729919433594e+00,3.898618698120117188e+00,3.774918556213378906e+00,3.658826828002929688e+00,3.549662590026855469e+00,3.446823596954345703e+00,3.349776029586791992e+00,3.258043289184570312e+00,3.171200752258300781e+00,3.088867664337158203e+00,3.010701656341552734e+00,2.936394214630126953e+00,2.865666151046752930e+00,2.798265218734741211e+00,2.733962059020996094e+00,2.672547817230224609e+00,2.613831996917724609e+00,2.557640790939331055e+00,2.503814697265625000e+00,2.452207326889038086e+00,2.402684450149536133e+00,2.355122566223144531e+00,2.309406757354736328e+00,2.265432119369506836e+00,2.223100900650024414e+00,2.182322502136230469e+00,2.143013238906860352e+00,2.105095148086547852e+00,2.068495273590087891e+00,2.033146619796752930e+00,1.998985528945922852e+00,1.965953588485717773e+00,1.933995485305786133e+00,1.903059959411621094e+00,1.873098373413085938e+00,1.844065546989440918e+00
5.000000000000000000e+00,5.000000000000000000e+00,5.000000000000000000e+00,5.000000000000000000e+00,5.000000000000000000e+00,5.000000000000000000e+00,5.000000000000000000e+00,5.000000000000000000e+00,5.000000000000000000e+00,5.000000000000000000e+00,5.000000000000000000e+00,5.000000000000000000e+00,5.000000000000000000e+00,5.000000000000000000e+00,5.000000000000000000e+00,5.000000000000000000e+00,5.000000000000000000e+00,5.000000000000000000e+00,5.000000000000000000e+00,5.000000000000000000e+00,5.000000000000000000e+00,5.000000000000000000e+00,3.806364536285400391e+00,3.795770883560180664e+00,3.774693489074707031e+00,3.766769409179687500e+00,3.771182775497436523e+00,3.780381202697753906e+00,3.831027030944824219e+00,3.845725059509277344e+00,5.000000000000000000e+00,5.000000000000000000e+00,5.000000000000000000e+00,5.000000000000000000e+00,5.000000000000000000e+00,5.000000000000000000e+00,5.000000000000000000e+00,5.000000000000000000e+00,5.000000000000000000e+00,4.852869510650634766e+00,4.662680625915527344e+00,4.486836433410644531e+00,4.323773860931396484e+00,4.172147750854492188e+00,4.030795574188232422e+00,3.898707866668701172e+00,3.775002717971801758e+00,3.658905982971191406e+00,3.549736976623535156e+00,3.446893692016601562e+00,3.349841833114624023e+00,3.258105993270874023e+00,3.171260118484497070e+00,3.088923931121826172e+00,3.010755062103271484e+00,2.936444997787475586e+00,2.865714550018310547e+00,2.798311471939086914e+00,2.734006166458129883e+00,2.672589778900146484e+00,2.613872289657592773e+00,2.557679176330566406e+00,2.503851652145385742e+00,2.452242851257324219e+00,2.402718544006347656e+00,2.355155229568481445e+00,2.309438228607177734e+00,2.265462398529052734e+00,2.223129987716674805e+00,2.182350635528564453e+00,2.143040418624877930e+00,2.105121135711669922e+00,2.068520545959472656e+00,2.033170938491821289e+00,1.999009132385253906e+00,1.965976476669311523e+00,1.934017539024353027e+00,1.903081178665161133e+00,1.873119115829467773e+00,1.844085693359375000e+00
5.000000000000000000e+00,5.000000000000000000e+00,5.000000000000000000e+00,5.000000000000000000e+00,5.000000000000000000e+00,5.000000000000000000e+00,5.000000000000000000e+00,5.000000000000000000e+00,5.000000000000000000e+00,5.000000000000000000e+00,5.000000000000000000e+00,5.000000000000000000e+00,5.000000000000000000e+00,5.000000000000000000e+00,5.000000000000000000e+00,5.000000000000000000e+00,5.000000000000000000e+00,5.000000000000000000e+00,5.000000000000000000e+00,5.000000000000000000e+00,5.000000000000000000e+00,5.000000000000000000e+00,3.829461812973022461e+00,3.796858310699462891e+00,3.747287988662719727e+00,3.745617866516113281e+00,3.751324653625488281e+00,3.773805379867553711e+00,3.834715366363525391e+00,3.853552103042602539e+00,5.000000000000000000e+00,5.000000000000000000e+00,5.000000000000000000e+00,5.000000000000000000e+00,5.000000000000000000e+00,5.000000000000000000e+00,5.000000000000000000e+00,5.000000000000000000e+00,5.000000000000000000e+00,4.853008270263671875e+00,4.662808418273925781e+00,4.486955165863037109e+00,4.323884010314941406e+00,4.172250270843505859e+00,4.030891418457031250e+00,3.898797512054443359e+00,3.775086641311645508e+00,3.658984899520874023e+00,3.549811363220214844e+00,3.446963787078857422e+00,3.349908113479614258e+00,3.258168458938598633e+00,3.171319484710693359e+00,3.088980436325073242e+00,3.010808706283569336e+00,2.936495780944824219e+00,2.865762948989868164e+00,2.798357725143432617e+00,2.734050273895263672e+00,2.672631978988647461e+00,2.613912582397460938e+00,2.557717800140380859e+00,2.503888607025146484e+00,2.452278375625610352e+00,2.402752637863159180e+00,2.355187892913818359e+00,2.309469699859619141e+00,2.265492439270019531e+00,2.223159074783325195e+00,2.182378768920898438e+00,2.143067359924316406e+00,2.105147361755371094e+00,2.068545579910278320e+00,2.033195257186889648e+00,1.999032735824584961e+00,1.965999245643615723e+00,1.934039592742919922e+00,1.903102517127990723e+00,1.873139739036560059e+00,1.844105720520019531e+00
5.000000000000000000e+00,5.000000000000000000e+00,5.000000000000000000e+00,5.000000000000000000e+00,5.000000000000000000e+00,5.000000000000000000e+00,5.000000000000000000e+00,5.000000000000000000e+00,5.000000000000000000e+00,5.000000000000000000e+00,5.000000000000000000e+00,5.000000000000000000e+00,5.000000000000000000e+00,5.000000000000000000e+00,5.000000000000000000e+00,5.000000000000000000e+00,5.000000000000000000e+00,5.000000000000000000e+00,5.000000000000000000e+00,5.000000000000000000e+00,5.000000000000000000e+00,5.000000000000000000e+00,5.000000000000000000e+00,3.837321281433105469e+00,3.758733510971069336e+00,3.733359336853027344e+00,3.743458747863769531e+00,3.787505626678466797e+00,3.878261804580688477e+00,3.855706930160522461e+00,5.000000000000000000e+00,5.000000000000000000e+00,5.000000000000000000e+00,5.000000000000000000e+00,5.000000000000000000e+00,5.000000000000000000e+00,5.000000000000000000e+00,5.000000000000000000e+00,5.000000000000000000e+00,4.853147506713867188e+00,4.662936687469482422e+00,4.487073898315429688e+00,4.323994159698486328e+00,4.172352790832519531e+00,4.030987262725830078e+00,3.898887395858764648e+00,3.775170326232910156e+00,3.659063816070556641e+00,3.549885749816894531e+00,3.447033882141113281e+00,3.349974393844604492e+00,3.258230924606323242e+00,3.171378612518310547e+00,3.089036703109741211e+00,3.010862112045288086e+00,2.936546564102172852e+00,2.865811347961425781e+00,2.798403739929199219e+00,2.734094381332397461e+00,2.672674179077148438e+00,2.613952875137329102e+00,2.557756423950195312e+00,2.503925561904907227e+00,2.452313899993896484e+00,2.402786731719970703e+00,2.355220556259155273e+00,2.309501171112060547e+00,2.265522718429565430e+00,2.223188161849975586e+00,2.182406902313232422e+00,2.143094539642333984e+00,2.105173349380493164e+00,2.068570852279663086e+00,2.033219575881958008e+00,1.999056220054626465e+00,1.966022014617919922e+00,1.934061646461486816e+00,1.903123855590820312e+00,1.873160243034362793e+00,1.844125747680664062e+00
5.000000000000000000e+00,5.000000000000000000e+00,5.000000000000000000e+00,5.000000000000000000e+00,5.000000000000000000e+00,5.000000000000000000e+00,5.000000000000000000e+00,5.000000000000000000e+00,5.000000000000000000e+00,5.000000000000000000e+00,5.000000000000000000e+00,5.000000000000000000e+00,5.000000000000000000e+00,5.000000000000000000e+00,5.000000000000000000e+00,5.000000000000000000e+00,5.000000000000000000e+00,5.000000000000000000e+00,5.000000000000000000e+00,5.000000000000000000e+00,5.000000000000000000e+00,5.000000000000000000e+00,5.000000000000000000e+00,3.837153196334838867e+00,3.752666234970092773e+00,3.735747098922729492e+00,3.745858430862426758e+00,3.781956672668457031e+00,5.000000000000000000e+00,3.855916500091552734e+00,5.000000000000000000e+00,5.000000000000000000e+00,5.000000000000000000e+00,5.000000000000000000e+00,5.000000000000000000e+00,5.000000000000000000e+00,5.000000000000000000e+00,5.000000000000000000e+00,5.000000000000000000e+00,4.853285789489746094e+00,4.663064956665039062e+00,4.487192630767822266e+00,4.324104309082031250e+00,4.172455787658691406e+00,4.031083106994628906e+00,3.898977041244506836e+00,3.775254487991333008e+00,3.659142494201660156e+00,3.549960136413574219e+00,3.447103977203369141e+00,3.350040435791015625e+00,3.258293628692626953e+00,3.171437978744506836e+00,3.089092969894409180e+00,3.010915517807006836e+00,2.936597585678100586e+00,2.865859746932983398e+00,2.798449754714965820e+00,2.734138250350952148e+00,2.672716379165649414e+00,2.613993167877197266e+00,2.557795047760009766e+00,2.503962516784667969e+00,2.452349185943603516e+00,2.402820825576782227e+00,2.355253458023071289e+00,2.309532642364501953e+00,2.265552997589111328e+00,2.223217248916625977e+00,2.182435035705566406e+00,2.143121719360351562e+00,2.105199575424194336e+00,2.068596124649047852e+00,2.033244132995605469e+00,1.999079823493957520e+00,1.966044902801513672e+00,1.934083700180053711e+00,1.903145194053649902e+00,1.873180985450744629e+00,1.844145655632019043e+00
5.000000000000000000e+00,5.000000000000000000e+00,5.000000000000000000e+00,5.000000000000000000e+00,5.000000000000000000e+00,5.000000000000000000e+00,5.000000000000000000e+00,5.000000000000000000e+00,5.000000000000000000e+00,5.000000000000000000e+00,5.000000000000000000e+00,5.000000000000000000e+00,5.000000000000000000e+00,5.000000000000000000e+00,5.000000000000000000e+00,5.000000000000000000e+00,5.000000000000000000e+00,5.000000000000000000e+00,5.000000000000000000e+00,5.000000000000000000e+00,5.000000000000000000e+00,5.000000000000000000e+00,5.000000000000000000e+00,3.858657121658325195e+00,3.735741615295410156e+00,3.729529142379760742e+00,3.740324020385742188e+00,3.777107000350952148e+00,5.000000000000000000e+00,3.870671987533569336e+00,5.000000000000000000e+00,5.000000000000000000e+00,5.000000000000000000e+00,5.000000000000000000e+00,5.000000000000000000e+00,5.000000000000000000e+00,5.000000000000000000e+00,5.000000000000000000e+00,5.000000000000000000e+00,4.853425025939941406e+00,4.663192749023437500e+00,4.487311363220214844e+00,4.324214935302734375e+00,4.172558307647705078e+00,4.031178951263427734e+00,3.899066686630249023e+00,3.775338649749755859e+00,3.659221649169921875e+00,3.550034046173095703e+00,3.447174310684204102e+00,3.350106716156005859e+00,3.258356332778930664e+00,3.171497344970703125e+00,3.089148998260498047e+00,3.010969161987304688e+00,2.936648368835449219e+00,2.865908145904541016e+00,2.798496007919311523e+00,2.734182357788085938e+00,2.672758340835571289e+00,2.614033460617065430e+00,2.557833671569824219e+00,2.503999471664428711e+00,2.452384710311889648e+00,2.402854681015014648e+00,2.355286121368408203e+00,2.309564113616943359e+00,2.265583276748657227e+00,2.223246574401855469e+00,2.182462930679321289e+00,2.143148660659790039e+00,2.105225801467895508e+00,2.068621397018432617e+00,2.033268451690673828e+00,1.999103426933288574e+00,1.966067671775817871e+00,1.934105753898620605e+00,1.903166651725769043e+00,1.873201727867126465e+00,1.844165682792663574e+00
5.000000000000000000e+00,5.000000000000000000e+00,5.000000000000000000e+00,5.000000000000000000e+00,5.000000000000000000e+00,5.000000000000000000e+00,5.000000000000000000e+00,5.000000000000000000e+00,5.000000000000000000e+00,5.000000000000000000e+00,5.000000000000000000e+00,5.000000000000000000e+00,5.000000000000000000e+00,5.000000000000000000e+00,5.000000000000000000e+00,5.000000000000000000e+00,5.000000000000000000e+00,5.000000000000000000e+00,5.000000000000000000e+00,5.000000000000000000e+00,5.000000000000000000e+00,5.000000000000000000e+00,5.000000000000000000e+00,3.884705781936645508e+00,3.748293638229370117e+00,3.733988285064697266e+00,3.747181653976440430e+00,3.787390470504760742e+00,5.000000000000000000e+00,3.830059528350830078e+00,5.000000000000000000e+00,5.000000000000000000e+00,5.000000000000000000e+00,5.000000000000000000e+00,5.000000000000000000e+00,5.000000000000000000e+00,5.000000000000000000e+00,5.000000000000000000e+00,5.000000000000000000e+00,4.853563785552978516e+00,4.663321495056152344e+00,4.487430095672607422e+00,4.324325084686279297e+00,4.172660827636718750e+00,4.031274795532226562e+00,3.899156332015991211e+00,3.775422573089599609e+00,3.659300565719604492e+00,3.550108432769775391e+00,3.447243928909301758e+00,3.350172996520996094e+00,3.258419036865234375e+00,3.171556711196899414e+00,3.089205265045166016e+00,3.011022329330444336e+00,2.936699390411376953e+00,2.865956783294677734e+00,2.798542261123657227e+00,2.734226465225219727e+00,2.672800302505493164e+00,2.614073991775512695e+00,2.557872295379638672e+00,2.504036426544189453e+00,2.452420234680175781e+00,2.402888774871826172e+00,2.355318784713745117e+00,2.309595584869384766e+00,2.265613555908203125e+00,2.223275661468505859e+00,2.182491064071655273e+00,2.143175601959228516e+00,2.105251789093017578e+00,2.068646669387817383e+00,2.033292770385742188e+00,1.999127030372619629e+00,1.966090440750122070e+00,1.934127926826477051e+00,1.903187990188598633e+00,1.873222351074218750e+00,1.844185829162597656e+00
5.000000000000000000e+00,5.000000000000000000e+00,5.000000000000000000e+00,5.000000000000000000e+00,5.000000000000000000e+00,5.000000000000000000e+00,5.000000000000000000e+00,5.000000000000000000e+00,5.000000000000000000e+00,5.000000000000000000e+00,5.000000000000000000e+00,5.000000000000000000e+00,5.000000000000000000e+00,5.000000000000000000e+00,5.000000000000000000e+00,5.000000000000000000e+00,5.000000000000000000e+00,5.000000000000000000e+00,5.000000000000000000e+00,5.000000000000000000e+00,5.000000000000000000e+00,5.000000000000000000e+00,5.000000000000000000e+00,3.866089582443237305e+00,3.742330074310302734e+00,3.753397464752197266e+00,3.759855508804321289e+00,3.785316705703735352e+00,5.000000000000000000e+00,3.797466754913330078e+00,5.000000000000000000e+00,5.000000000000000000e+00,5.000000000000000000e+00,5.000000000000000000e+00,5.000000000000000000e+00,5.000000000000000000e+00,5.000000000000000000e+00,5.000000000000000000e+00,5.000000000000000000e+00,4.853702545166015625e+00,4.663449764251708984e+00,4.487548828125000000e+00,4.324435234069824219e+00,4.172763824462890625e+00,4.031370639801025391e+00,3.899246215820312500e+00,3.775506734848022461e+00,3.659379482269287109e+00,3.550182819366455078e+00,3.447314023971557617e+00,3.350238800048828125e+00,3.258481502532958984e+00,3.171616077423095703e+00,3.089261531829833984e+00,3.011075735092163086e+00,2.936749935150146484e+00,2.866005182266235352e+00,2.798588514328002930e+00,2.734270572662353516e+00,2.672842502593994141e+00,2.614114046096801758e+00,2.557910919189453125e+00,2.504073381423950195e+00,2.452455759048461914e+00,2.402922868728637695e+00,2.355351448059082031e+00,2.309626817703247070e+00,2.265643835067749023e+00,2.223304748535156250e+00,2.182519197463989258e+00,2.143202781677246094e+00,2.105278015136718750e+00,2.068671941757202148e+00,2.033317089080810547e+00,1.999150633811950684e+00,1.966113328933715820e+00,1.934149980545043945e+00,1.903209328651428223e+00,1.873243093490600586e+00,1.844205856323242188e+00
5.000000000000000000e+00,5.000000000000000000e+00,5.000000000000000000e+00,5.000000000000000000e+00,5.000000000000000000e+00,5.000000000000000000e+00,5.000000000000000000e+00,5.000000000000000000e+00,5.000000000000000000e+00,5.000000000000000000e+00,5.000000000000000000e+00,5.000000000000000000e+00,5.000000000000000000e+00,5.000000000000000000e+00,5.000000000000000000e+00,5.000000000000000000e+00,5.000000000000000000e+00,5.000000000000000000e+00,5.000000000000000000e+00,5.000000000000000000e+00,5.000000000000000000e+00,5.000000000000000000e+00,5.000000000000000000e+00,3.789819955825805664e+00,3.692148923873901367e+00,3.731635332107543945e+00,3.785917520523071289e+00,3.782520771026611328e+00,3.869468927383422852e+00,5.000000000000000000e+00,3.797570943832397461e+00,5.000000000000000000e+00,5.000000000000000000e+00,5.000000000000000000e+00,5.000000000000000000e+00,5.000000000000000000e+00,5.000000000000000000e+00,5.000000000000000000e+00,5.000000000000000000e+00,4.853841781616210938e+00,4.663577556610107422e+00,4.487667560577392578e+00,4.324545383453369141e+00,4.172866344451904297e+00,4.031466484069824219e+00,3.899335384368896484e+00,3.775590896606445312e+00,3.659458637237548828e+00,3.550257205963134766e+00,3.447384119033813477e+00,3.350305080413818359e+00,3.258544206619262695e+00,3.171675443649291992e+00,3.089317798614501953e+00,3.011129379272460938e+00,2.936800956726074219e+00,2.866053342819213867e+00,2.798634767532348633e+00,2.734314680099487305e+00,2.672884702682495117e+00,2.614154338836669922e+00,2.557949304580688477e+00,2.504110574722290039e+00,2.452491044998168945e+00,2.402956962585449219e+00,2.355384111404418945e+00,2.309658288955688477e+00,2.265674114227294922e+00,2.223334074020385742e+00,2.182547330856323242e+00,2.143229961395263672e+00,2.105304002761840820e+00,2.068696975708007812e+00,2.033341646194458008e+00,1.999174237251281738e+00,1.966136097908020020e+00,1.934172034263610840e+00,1.903230786323547363e+00,1.873263835906982422e+00,1.844225883483886719e+00
5.000000000000000000e+00,5.000000000000000000e+00,5.000000000000000000e+00,5.000000000000000000e+00,5.000000000000000000e+00,5.000000000000000000e+00,5.000000000000000000e+00,5.000000000000000000e+00,5.000000000000000000e+00,5.000000000000000000e+00,5.000000000000000000e+00,5.000000000000000000e+00,5.000000000000000000e+00,5.000000000000000000e+00,5.000000000000000000e+00,5.000000000000000000e+00,5.000000000000000000e+00,5.000000000000000000e+00,5.000000000000000000e+00,5.000000000000000000e+00,5.000000000000000000e+00,5.000000000000000000e+00,5.000000000000000000e+00,3.712784051895141602e+00,3.672083616256713867e+00,3.703266143798828125e+00,3.778684854507446289e+00,3.777102947235107422e+00,3.852775335311889648e+00,3.708433151245117188e+00,3.742708206176757812e+00,5.000000000000000000e+00,5.000000000000000000e+00,5.000000000000000000e+00,5.000000000000000000e+00,5.000000000000000000e+00,5.000000000000000000e+00,5.000000000000000000e+00,5.000000000000000000e+00,4.853980541229248047e+00,4.663705825805664062e+00,4.487786293029785156e+00,4.324656009674072266e+00,4.172968864440917969e+00,4.031562328338623047e+00,3.899425029754638672e+00,3.775674581527709961e+00,3.659537553787231445e+00,3.550331592559814453e+00,3.447454452514648438e+00,3.350371360778808594e+00,3.258606672286987305e+00,3.171734809875488281e+00,3.089374303817749023e+00,3.011182785034179688e+00,2.936851739883422852e+00,2.866101980209350586e+00,2.798680782318115234e+00,2.734358787536621094e+00,2.672926902770996094e+00,2.614194631576538086e+00,2.557987928390502930e+00,2.504147291183471680e+00,2.452526569366455078e+00,2.402991056442260742e+00,2.355417013168334961e+00,2.309689760208129883e+00,2.265704393386840820e+00,2.223363161087036133e+00,2.182575225830078125e+00,2.143256902694702148e+00,2.105330228805541992e+00,2.068722248077392578e+00,2.033365964889526367e+00,1.999197721481323242e+00,1.966158866882324219e+00,1.934194087982177734e+00,1.903252124786376953e+00,1.873284459114074707e+00,1.844246029853820801e+00
5.000000000000000000e+00,5.000000000000000000e+00,5.000000000000000000e+00,5.000000000000000000e+00,5.000000000000000000e+00,5.000000000000000000e+00,5.000000000000000000e+00,5.000000000000000000e+00,5.000000000000000000e+00,5.000000000000000000e+00,5.000000000000000000e+00,5.000000000000000000e+00,5.000000000000000000e+00,5.000000000000000000e+00,5.000000000000000000e+00,5.000000000000000000e+00,5.000000000000000000e+00,5.000000000000000000e+00,5.000000000000000000e+00,5.000000000000000000e+00,5.000000000000000000e+00,5.000000000000000000e+00,5.000000000000000000e+00,3.827740192413330078e+00,3.655674934387207031e+00,3.684357881546020508e+00,3.786943197250366211e+00,3.784482955932617188e+00,3.872221708297729492e+00,5.000000000000000000e+00,3.698454141616821289e+00,5.000000000000000000e+00,5.000000000000000000e+00,5.000000000000000000e+00,5.000000000000000000e+00,5.000000000000000000e+00,5.000000000000000000e+00,5.000000000000000000e+00,5.000000000000000000e+00,4.854119300842285156e+00,4.663834095001220703e+00,4.487905025482177734e+00,4.324766159057617188e+00,4.173071861267089844e+00,4.031658172607421875e+00,3.899514913558959961e+00,3.775758743286132812e+00,3.659616231918334961e+00,3.550405979156494141e+00,3.447524547576904297e+00,3.350437641143798828e+00,3.258669137954711914e+00,3.171793699264526367e+00,3.089430570602416992e+00,3.011236429214477539e+00,2.936902761459350586e+00,2.866150379180908203e+00,2.798727035522460938e+00,2.734402656555175781e+00,2.672969102859497070e+00,2.614234924316406250e+00,2.558026552200317383e+00,2.504184246063232422e+00,2.452561855316162109e+00,2.403025150299072266e+00,2.355449676513671875e+00,2.309721231460571289e+00,2.265734672546386719e+00,2.223392248153686523e+00,2.182603359222412109e+00,2.143284082412719727e+00,2.105356454849243164e+00,2.068747520446777344e+00,2.033390283584594727e+00,1.999221086502075195e+00,1.966181755065917969e+00,1.934216141700744629e+00,1.903273463249206543e+00,1.873305201530456543e+00,1.844266057014465332e+00
5.000000000000000000e+00,5.000000000000000000e+00,5.000000000000000000e+00,5.000000000000000000e+00,5.000000000000000000e+00,5.000000000000000000e+00,5.000000000000000000e+00,5.000000000000000000e+00,5.000000000000000000e+00,5.000000000000000000e+00,5.000000000000000000e+00,5.000000000000000000e+00,5.000000000000000000e+00,5.000000000000000000e+00,5.000000000000000000e+00,5.000000000000000000e+00,5.000000000000000000e+00,5.000000000000000000e+00,5.000000000000000000e+00,5.000000000000000000e+00,5.000000000000000000e+00,5.000000000000000000e+00,5.000000000000000000e+00,3.809759855270385742e+00,3.635297775268554688e+00,3.663858413696289062e+00,3.797510147094726562e+00,3.794645547866821289e+00,5.000000000000000000e+00,5.000000000000000000e+00,5.000000000000000000e+00,5.000000000000000000e+00,5.000000000000000000e+00,5.000000000000000000e+00,5.000000000000000000e+00,5.000000000000000000e+00,5.000000000000000000e+00,5.000000000000000000e+00,5.000000000000000000e+00,4.854258537292480469e+00,4.663962364196777344e+00,4.488023757934570312e+00,4.324876308441162109e+00,4.173174381256103516e+00,4.031754016876220703e+00,3.899604558944702148e+00,3.775842905044555664e+00,3.659695386886596680e+00,3.550479888916015625e+00,3.447594642639160156e+00,3.350503921508789062e+00,3.258731842041015625e+00,3.171853065490722656e+00,3.089486598968505859e+00,3.011289834976196289e+00,2.936953544616699219e+00,2.866198778152465820e+00,2.798773050308227539e+00,2.734446763992309570e+00,2.673011302947998047e+00,2.614275217056274414e+00,2.558065176010131836e+00,2.504221439361572266e+00,2.452597379684448242e+00,2.403059005737304688e+00,2.355482339859008789e+00,2.309752702713012695e+00,2.265764951705932617e+00,2.223421335220336914e+00,2.182631492614746094e+00,2.143311262130737305e+00,2.105382442474365234e+00,2.068772792816162109e+00,2.033414602279663086e+00,1.999244689941406250e+00,1.966204524040222168e+00,1.934238195419311523e+00,1.903294920921325684e+00,1.873325943946838379e+00,1.844286084175109863e+00
5.000000000000000000e+00,5.000000000000000000e+00,5.000000000000000000e+00,5.000000000000000000e+00,5.000000000000000000e+00,5.000000000000000000e+00,5.000000000000000000e+00,5.000000000000000000e+00,5.000000000000000000e+00,5.000000000000000000e+00,5.000000000000000000e+00,5.000000000000000000e+00,5.000000000000000000e+00,5.000000000000000000e+00,5.000000000000000000e+00,5.000000000000000000e+00,5.000000000000000000e+00,5.000000000000000000e+00,5.000000000000000000e+00,5.000000000000000000e+00,5.000000000000000000e+00,5.000000000000000000e+00,5.000000000000000000e+00,5.000000000000000000e+00,3.612590312957763672e+00,3.641547918319702148e+00,3.807285547256469727e+00,3.803647994995117188e+00,5.000000000000000000e+00,5.000000000000000000e+00,5.000000000000000000e+00,5.000000000000000000e+00,5.000000000000000000e+00,5.000000000000000000e+00,5.000000000000000000e+00,5.000000000000000000e+00,5.000000000000000000e+00,5.000000000000000000e+00,5.000000000000000000e+00,4.854397296905517578e+00,4.664090633392333984e+00,4.488142490386962891e+00,4.324986457824707031e+00,4.173276901245117188e+00,4.031849861145019531e+00,3.899694204330444336e+00,3.775927066802978516e+00,3.659774303436279297e+00,3.550554275512695312e+00,3.447664499282836914e+00,3.350570201873779297e+00,3.258794546127319336e+00,3.171912431716918945e+00,3.089542865753173828e+00,3.011343002319335938e+00,2.937004327774047852e+00,2.866247415542602539e+00,2.798819303512573242e+00,2.734490871429443359e+00,2.673053264617919922e+00,2.614315748214721680e+00,2.558103799819946289e+00,2.504258394241333008e+00,2.452632904052734375e+00,2.403093099594116211e+00,2.355515003204345703e+00,2.309784173965454102e+00,2.265795230865478516e+00,2.223450660705566406e+00,2.182659626007080078e+00,2.143338203430175781e+00,2.105408668518066406e+00,2.068798065185546875e+00,2.033439159393310547e+00,1.999268293380737305e+00,1.966227173805236816e+00,1.934260368347167969e+00,1.903316259384155273e+00,1.873346567153930664e+00,1.844306230545043945e+00
5.000000000000000000e+00,5.000000000000000000e+00,5.000000000000000000e+00,5.000000000000000000e+00,5.000000000000000000e+00,5.000000000000000000e+00,5.000000000000000000e+00,5.000000000000000000e+00,5.000000000000000000e+00,5.000000000000000000e+00,5.000000000000000000e+00,5.000000000000000000e+00,5.000000000000000000e+00,5.000000000000000000e+00,5.000000000000000000e+00,5.000000000000000000e+00,5.000000000000000000e+00,5.000000000000000000e+00,5.000000000000000000e+00,5.000000000000000000e+00,5.000000000000000000e+00,5.000000000000000000e+00,5.000000000000000000e+00,5.000000000000000000e+00,3.605871200561523438e+00,3.632320165634155273e+00,3.813741922378540039e+00,3.809657573699951172e+00,5.000000000000000000e+00,5.000000000000000000e+00,5.000000000000000000e+00,5.000000000000000000e+00,5.000000000000000000e+00,5.000000000000000000e+00,5.000000000000000000e+00,5.000000000000000000e+00,5.000000000000000000e+00,5.000000000000000000e+00,5.000000000000000000e+00,4.854536056518554688e+00,4.664218902587890625e+00,4.488261222839355469e+00,4.325097084045410156e+00,4.173379898071289062e+00,4.031945705413818359e+00,3.899784088134765625e+00,3.776011228561401367e+00,3.659853458404541016e+00,3.550628662109375000e+00,3.447734594345092773e+00,3.350636243820190430e+00,3.258857250213623047e+00,3.171971797943115234e+00,3.089599132537841797e+00,3.011396646499633789e+00,2.937055110931396484e+00,2.866295814514160156e+00,2.798865556716918945e+00,2.734534978866577148e+00,2.673095226287841797e+00,2.614355802536010742e+00,2.558142423629760742e+00,2.504295349121093750e+00,2.452668428421020508e+00,2.403127193450927734e+00,2.355547666549682617e+00,2.309815645217895508e+00,2.265825510025024414e+00,2.223479747772216797e+00,2.182687520980834961e+00,2.143365383148193359e+00,2.105434656143188477e+00,2.068823337554931641e+00,2.033463478088378906e+00,1.999291896820068359e+00,1.966249942779541016e+00,1.934282183647155762e+00,1.903337597846984863e+00,1.873367309570312500e+00,1.844326257705688477e+00
5.000000000000000000e+00,5.000000000000000000e+00,5.000000000000000000e+00,5.000000000000000000e+00,5.000000000000000000e+00,5.000000000000000000e+00,5.000000000000000000e+00,5.000000000000000000e+00,5.000000000000000000e+00,5.000000000000000000e+00,5.000000000000000000e+00,5.000000000000000000e+00,5.000000000000000000e+00,5.000000000000000000e+00,5.000000000000000000e+00,5.000000000000000000e+00,5.000000000000000000e+00,5.000000000000000000e+00,5.000000000000000000e+00,5.000000000000000000e+00,5.000000000000000000e+00,5.000000000000000000e+00,5.000000000000000000e+00,5.000000000000000000e+00,3.646548032760620117e+00,3.657108306884765625e+00,3.843373537063598633e+00,3.824499368667602539e+00,5.000000000000000000e+00,5.000000000000000000e+00,5.000000000000000000e+00,5.000000000000000000e+00,5.000000000000000000e+00,5.000000000000000000e+00,5.000000000000000000e+00,5.000000000000000000e+00,5.000000000000000000e+00,5.000000000000000000e+00,5.000000000000000000e+00,4.854673862457275391e+00,4.664347171783447266e+00,4.488380432128906250e+00,4.325207233428955078e+00,4.173482418060302734e+00,4.032041549682617188e+00,3.899873256683349609e+00,3.776095151901245117e+00,3.659932374954223633e+00,3.550703048706054688e+00,3.447804689407348633e+00,3.350702285766601562e+00,3.258919954299926758e+00,3.172031164169311523e+00,3.089655637741088867e+00,3.011450052261352539e+00,2.937105894088745117e+00,2.866343975067138672e+00,2.798911809921264648e+00,2.734579086303710938e+00,2.673137426376342773e+00,2.614396095275878906e+00,2.558180809020996094e+00,2.504332304000854492e+00,2.452703952789306641e+00,2.403161287307739258e+00,2.355580329895019531e+00,2.309847116470336914e+00,2.265855789184570312e+00,2.223508834838867188e+00,2.182715654373168945e+00,2.143392324447631836e+00,2.105460882186889648e+00,2.068848371505737305e+00,2.033487796783447266e+00,1.999315500259399414e+00,1.966272711753845215e+00,1.934304237365722656e+00,1.903358817100524902e+00,1.873388051986694336e+00,1.844346404075622559e+00
5.000000000000000000e+00,5.000000000000000000e+00,5.000000000000000000e+00,5.000000000000000000e+00,5.000000000000000000e+00,5.000000000000000000e+00,5.000000000000000000e+00,5.000000000000000000e+00,5.000000000000000000e+00,5.000000000000000000e+00,5.000000000000000000e+00,5.000000000000000000e+00,5.000000000000000000e+00,5.000000000000000000e+00,5.000000000000000000e+00,5.000000000000000000e+00,5.000000000000000000e+00,5.000000000000000000e+00,5.000000000000000000e+00,5.000000000000000000e+00,5.000000000000000000e+00,5.000000000000000000e+00,5.000000000000000000e+00,5.000000000000000000e+00,3.668292999267578125e+00,3.679466009140014648e+00,5.000000000000000000e+00,3.919711112976074219e+00,5.000000000000000000e+00,5.000000000000000000e+00,5.000000000000000000e+00,5.000000000000000000e+00,5.000000000000000000e+00,5.000000000000000000e+00,5.000000000000000000e+00,5.000000000000000000e+00,5.000000000000000000e+00,5.000000000000000000e+00,5.000000000000000000e+00,4.854812145233154297e+00,4.664475440979003906e+00,4.488499164581298828e+00,4.325317382812500000e+00,4.173584938049316406e+00,4.032137393951416016e+00,3.899963140487670898e+00,3.776179075241088867e+00,3.660011529922485352e+00,3.550777435302734375e+00,3.447874784469604492e+00,3.350768566131591797e+00,3.258982181549072266e+00,3.172090768814086914e+00,3.089711904525756836e+00,3.011503696441650391e+00,2.937156915664672852e+00,2.866392612457275391e+00,2.798958063125610352e+00,2.734623193740844727e+00,2.673179626464843750e+00,2.614436388015747070e+00,2.558219432830810547e+00,2.504369258880615234e+00,2.452739477157592773e+00,2.403195381164550781e+00,2.355613231658935547e+00,2.309878587722778320e+00,2.265886068344116211e+00,2.223538160324096680e+00,2.182743787765502930e+00,2.143419504165649414e+00,2.105487108230590820e+00,2.068873643875122070e+00,2.033512353897094727e+00,1.999338984489440918e+00,1.966295599937438965e+00,1.934326291084289551e+00,1.903380155563354492e+00,1.873408555984497070e+00,1.844366431236267090e+00
5.000000000000000000e+00,5.000000000000000000e+00,5.000000000000000000e+00,5.000000000000000000e+00,5.000000000000000000e+00,5.000000000000000000e+00,5.000000000000000000e+00,5.000000000000000000e+00,5.000000000000000000e+00,5.000000000000000000e+00,5.000000000000000000e+00,5.000000000000000000e+00,5.000000000000000000e+00,5.000000000000000000e+00,5.000000000000000000e+00,5.000000000000000000e+00,5.000000000000000000e+00,5.000000000000000000e+00,5.000000000000000000e+00,5.000000000000000000e+00,5.000000000000000000e+00,5.000000000000000000e+00,5.000000000000000000e+00,5.000000000000000000e+00,3.680879116058349609e+00,3.678245306015014648e+00,5.000000000000000000e+00,4.002265453338623047e+00,5.000000000000000000e+00,5.000000000000000000e+00,5.000000000000000000e+00,5.000000000000000000e+00,5.000000000000000000e+00,5.000000000000000000e+00,5.000000000000000000e+00,5.000000000000000000e+00,5.000000000000000000e+00,5.000000000000000000e+00,5.000000000000000000e+00,4.854950428009033203e+00,4.664602279663085938e+00,4.488617897033691406e+00,4.325428009033203125e+00,4.173687934875488281e+00,4.032233238220214844e+00,3.900052785873413086e+00,3.776263236999511719e+00,3.660089969635009766e+00,3.550852060317993164e+00,3.447944879531860352e+00,3.350834846496582031e+00,3.259044885635375977e+00,3.172149658203125000e+00,3.089768171310424805e+00,3.011557102203369141e+00,2.937207698822021484e+00,2.866441011428833008e+00,2.799004077911376953e+00,2.734667301177978516e+00,2.673221826553344727e+00,2.614476680755615234e+00,2.558258056640625000e+00,2.504406213760375977e+00,2.452774763107299805e+00,2.403229475021362305e+00,2.355645895004272461e+00,2.309910058975219727e+00,2.265916347503662109e+00,2.223567008972167969e+00,2.182771921157836914e+00,2.143446683883666992e+00,2.105513095855712891e+00,2.068898916244506836e+00,2.033536434173583984e+00,1.999362587928771973e+00,1.966318368911743164e+00,1.934348464012145996e+00,1.903401494026184082e+00,1.873429298400878906e+00,1.844386339187622070e+00
5.000000000000000000e+00,5.000000000000000000e+00,5.000000000000000000e+00,5.000000000000000000e+00,5.000000000000000000e+00,5.000000000000000000e+00,5.000000000000000000e+00,5.000000000000000000e+00,5.000000000000000000e+00,5.000000000000000000e+00,5.000000000000000000e+00,5.000000000000000000e+00,5.000000000000000000e+00,5.000000000000000000e+00,5.000000000000000000e+00,5.000000000000000000e+00,5.000000000000000000e+00,5.000000000000000000e+00,5.000000000000000000e+00,5.000000000000000000e+00,5.000000000000000000e+00,5.000000000000000000e+00,5.000000000000000000e+00,5.000000000000000000e+00,3.709659576416015625e+00,3.676774263381958008e+00,5.000000000000000000e+00,4.080354213714599609e+00,5.000000000000000000e+00,5.000000000000000000e+00,5.000000000000000000e+00,5.000000000000000000e+00,5.000000000000000000e+00,5.000000000000000000e+00,5.000000000000000000e+00,5.000000000000000000e+00,5.000000000000000000e+00,5.000000000000000000e+00,5.000000000000000000e+00,4.855088233947753906e+00,4.664730072021484375e+00,4.488735198974609375e+00,4.325538158416748047e+00,4.173790454864501953e+00,4.032329082489013672e+00,3.900142669677734375e+00,3.776347398757934570e+00,3.660169124603271484e+00,3.550926446914672852e+00,3.448015213012695312e+00,3.350900888442993164e+00,3.259107589721679688e+00,3.172209024429321289e+00,3.089824199676513672e+00,3.011610746383666992e+00,2.937258720397949219e+00,2.866489410400390625e+00,2.799050331115722656e+00,2.734711408615112305e+00,2.673264026641845703e+00,2.614517211914062500e+00,2.558296680450439453e+00,2.504443168640136719e+00,2.452810287475585938e+00,2.403263568878173828e+00,2.355678796768188477e+00,2.309941530227661133e+00,2.265946626663208008e+00,2.223596334457397461e+00,2.182800054550170898e+00,2.143473625183105469e+00,2.105539321899414062e+00,2.068924188613891602e+00,2.033560991287231445e+00,1.999386191368103027e+00,1.966341257095336914e+00,1.934370517730712891e+00,1.903422951698303223e+00,1.873449921607971191e+00,1.844406366348266602e+00
5.000000000000000000e+00,5.000000000000000000e+00,5.000000000000000000e+00,5.000000000000000000e+00,5.000000000000000000e+00,5.000000000000000000e+00,5.000000000000000000e+00,5.000000000000000000e+00,5.000000000000000000e+00,5.000000000000000000e+00,5.000000000000000000e+00,5.000000000000000000e+00,5.000000000000000000e+00,5.000000000000000000e+00,5.000000000000000000e+00,5.000000000000000000e+00,5.000000000000000000e+00,5.000000000000000000e+00,5.000000000000000000e+00,5.000000000000000000e+00,5.000000000000000000e+00,5.000000000000000000e+00,5.000000000000000000e+00,5.000000000000000000e+00,5.000000000000000000e+00,3.677231550216674805e+00,5.000000000000000000e+00,4.191768169403076172e+00,5.000000000000000000e+00,5.000000000000000000e+00,5.000000000000000000e+00,5.000000000000000000e+00,5.000000000000000000e+00,5.000000000000000000e+00,5.000000000000000000e+00,5.000000000000000000e+00,5.000000000000000000e+00,5.000000000000000000e+00,5.000000000000000000e+00,4.855226516723632812e+00,4.664857387542724609e+00,4.488852977752685547e+00,4.325647354125976562e+00,4.173892974853515625e+00,4.032424926757812500e+00,3.900232315063476562e+00,3.776431322097778320e+00,3.660248279571533203e+00,3.551000356674194336e+00,3.448085308074951172e+00,3.350967168807983398e+00,3.259170293807983398e+00,3.172268390655517578e+00,3.089880704879760742e+00,3.011663913726806641e+00,2.937309503555297852e+00,2.866538047790527344e+00,2.799096584320068359e+00,2.734755516052246094e+00,2.673305988311767578e+00,2.614557504653930664e+00,2.558335304260253906e+00,2.504480123519897461e+00,2.452845811843872070e+00,2.403297424316406250e+00,2.355711460113525391e+00,2.309973001480102539e+00,2.265976905822753906e+00,2.223625421524047852e+00,2.182827949523925781e+00,2.143500804901123047e+00,2.105565547943115234e+00,2.068949460983276367e+00,2.033585309982299805e+00,1.999409794807434082e+00,1.966364026069641113e+00,1.934392571449279785e+00,1.903444290161132812e+00,1.873470664024353027e+00,1.844426393508911133e+00
5.000000000000000000e+00,5.000000000000000000e+00,5.000000000000000000e+00,5.000000000000000000e+00,5.000000000000000000e+00,5.000000000000000000e+00,5.000000000000000000e+00,5.000000000000000000e+00,5.000000000000000000e+00,5.000000000000000000e+00,5.000000000000000000e+00,5.000000000000000000e+00,5.000000000000000000e+00,5.000000000000000000e+00,5.000000000000000000e+00,5.000000000000000000e+00,5.000000000000000000e+00,5.000000000000000000e+00,5.000000000000000000e+00,5.000000000000000000e+00,5.000000000000000000e+00,5.000000000000000000e+00,5.000000000000000000e+00,5.000000000000000000e+00,5.000000000000000000e+00,3.681392908096313477e+00,5.000000000000000000e+00,4.210315704345703125e+00,5.000000000000000000e+00,5.000000000000000000e+00,5.000000000000000000e+00,5.000000000000000000e+00,5.000000000000000000e+00,5.000000000000000000e+00,5.000000000000000000e+00,5.000000000000000000e+00,5.000000000000000000e+00,5.000000000000000000e+00,5.000000000000000000e+00,4.855364799499511719e+00,4.664984703063964844e+00,4.488971710205078125e+00,4.325757026672363281e+00,4.173995971679687500e+00,4.032520771026611328e+00,3.900322198867797852e+00,3.776515483856201172e+00,3.660327196121215820e+00,3.551074743270874023e+00,3.448155164718627930e+00,3.351033449172973633e+00,3.259232997894287109e+00,3.172327756881713867e+00,3.089936971664428711e+00,3.011717319488525391e+00,2.937360525131225586e+00,2.866586446762084961e+00,2.799142837524414062e+00,2.734799623489379883e+00,2.673348188400268555e+00,2.614597558975219727e+00,2.558373928070068359e+00,2.504517316818237305e+00,2.452881336212158203e+00,2.403331518173217773e+00,2.355744123458862305e+00,2.310004472732543945e+00,2.266007184982299805e+00,2.223654508590698242e+00,2.182856082916259766e+00,2.143527746200561523e+00,2.105591773986816406e+00,2.068974733352661133e+00,2.033609867095947266e+00,1.999433398246765137e+00,1.966386795043945312e+00,1.934414625167846680e+00,1.903465628623962402e+00,1.873491406440734863e+00,1.844446539878845215e+00
4.875319957733154297e+00,4.874109268188476562e+00,4.872899055480957031e+00,4.871689796447753906e+00,4.870481014251708984e+00,4.869272708892822266e+00,4.868065357208251953e+00,4.866858005523681641e+00,4.865651607513427734e+00,4.864445686340332031e+00,4.863240718841552734e+00,4.862036228179931641e+00,4.860832214355468750e+00,4.859628677368164062e+00,4.858426094055175781e+00,4.857223510742187500e+00,4.856021881103515625e+00,4.854820728302001953e+00,4.853621006011962891e+00,4.852420806884765625e+00,4.851221561431884766e+00,4.850022792816162109e+00,4.848824977874755859e+00,4.847627162933349609e+00,4.846430301666259766e+00,3.666696071624755859e+00,4.172898769378662109e+00,4.203042030334472656e+00,4.841649055480957031e+00,4.840455055236816406e+00,4.839261531829833984e+00,4.838068485260009766e+00,4.836876869201660156e+00,4.835685253143310547e+00,4.834494113922119141e+00,4.833303451538085938e+00,4.832113742828369141e+00,4.830924510955810547e+00,4.829735755920410156e+00,4.828547954559326172e+00,4.665112495422363281e+00,4.489089488983154297e+00,4.325866699218750000e+00,4.174097061157226562e+00,4.032616615295410156e+00,3.900411367416381836e+00,3.776599645614624023e+00,3.660406351089477539e+00,3.551149129867553711e+00,3.448225259780883789e+00,3.351099491119384766e+00,3.259295701980590820e+00,3.172387361526489258e+00,3.089993238449096680e+00,3.011770963668823242e+00,2.937411069869995117e+00,2.866634845733642578e+00,2.799188852310180664e+00,2.734843730926513672e+00,2.673390388488769531e+00,2.614637851715087891e+00,2.558412313461303711e+00,2.504554271697998047e+00,2.452916860580444336e+00,2.403365612030029297e+00,2.355776786804199219e+00,2.310035705566406250e+00,2.266037464141845703e+00,2.223683834075927734e+00,2.182884216308593750e+00,2.143554925918579102e+00,2.105617761611938477e+00,2.069000005722045898e+00,2.033634185791015625e+00,1.999457001686096191e+00,1.966409683227539062e+00,1.934436798095703125e+00,1.903487086296081543e+00,1.873512148857116699e+00,1.844466567039489746e+00
3.778146028518676758e+00,3.777419090270996094e+00,3.776692390441894531e+00,3.775965690612792969e+00,3.775239706039428711e+00,3.774513483047485352e+00,3.773787975311279297e+00,3.773062229156494141e+00,3.772337436676025391e+00,3.771612644195556641e+00,3.770887851715087891e+00,3.770163774490356445e+00,3.769439458847045898e+00,3.768716096878051758e+00,3.767992258071899414e+00,3.767269372940063477e+00,3.766546726226806641e+00,3.765823841094970703e+00,3.765101671218872070e+00,3.764379262924194336e+00,3.763657808303833008e+00,3.762936115264892578e+00,3.762214899063110352e+00,3.761494159698486328e+00,3.760773420333862305e+00,3.577698469161987305e+00,3.759332656860351562e+00,3.758613109588623047e+00,3.757893323898315430e+00,3.757174253463745117e+00,3.756455421447753906e+00,3.755736351013183594e+00,3.755017995834350586e+00,3.754299640655517578e+00,3.753581762313842773e+00,3.752864360809326172e+00,3.752146720886230469e+00,3.751429796218872070e+00,3.750712871551513672e+00,3.749996423721313477e+00,3.749279975891113281e+00,3.748564004898071289e+00,3.747848510742187500e+00,3.747132778167724609e+00,3.746417760848999023e+00,3.745702743530273438e+00,3.744988203048706055e+00,3.660485267639160156e+00,3.551223516464233398e+00,3.448295354843139648e+00,3.351165771484375000e+00,3.259357929229736328e+00,3.172446727752685547e+00,3.090049743652343750e+00,3.011824369430541992e+00,2.937462091445922852e+00,2.866683244705200195e+00,2.799235105514526367e+00,2.734887838363647461e+00,2.673432350158691406e+00,2.614678144454956055e+00,2.558450937271118164e+00,2.504591226577758789e+00,2.452952384948730469e+00,2.403399705886840820e+00,2.355809450149536133e+00,2.310067176818847656e+00,2.266067504882812500e+00,2.223712921142578125e+00,2.182912349700927734e+00,2.143582105636596680e+00,2.105643749237060547e+00,2.069025039672851562e+00,2.033658504486083984e+00,1.999480605125427246e+00,1.966432452201843262e+00,1.934458851814270020e+00,1.903508424758911133e+00,1.873532772064208984e+00,1.844486713409423828e+00
3.084084033966064453e+00,3.083599328994750977e+00,3.083115100860595703e+00,3.082630634307861328e+00,3.082146883010864258e+00,3.081663131713867188e+00,3.081179141998291016e+00,3.080695629119873047e+00,3.080212116241455078e+00,3.079729080200195312e+00,3.079245805740356445e+00,3.078762769699096680e+00,3.078280210494995117e+00,3.077797412872314453e+00,3.077314853668212891e+00,3.076832294464111328e+00,3.076350212097167969e+00,3.075868129730224609e+00,3.075386285781860352e+00,3.074904680252075195e+00,3.074422836303710938e+00,3.073941469192504883e+00,3.073460102081298828e+00,3.072978973388671875e+00,3.072497844696044922e+00,3.072016954421997070e+00,3.071536540985107422e+00,3.071055650711059570e+00,3.070575475692749023e+00,3.070095062255859375e+00,3.069615125656127930e+00,3.069134950637817383e+00,3.068655252456665039e+00,3.068175792694091797e+00,3.067696094512939453e+00,3.067216873168945312e+00,3.066737413406372070e+00,3.066258430480957031e+00,3.065779447555541992e+00,3.065300941467285156e+00,3.064822435379028320e+00,3.064343690872192383e+00,3.063865661621093750e+00,3.063387393951416016e+00,3.062909364700317383e+00,3.062431335449218750e+00,3.061953783035278320e+00,3.061476230621337891e+00,3.060998678207397461e+00,3.060521602630615234e+00,3.060044288635253906e+00,3.059567451477050781e+00,3.059090614318847656e+00,3.058614015579223633e+00,3.011878013610839844e+00,2.937513113021850586e+00,2.866731643676757812e+00,2.799281120300292969e+00,2.734931945800781250e+00,2.673474550247192383e+00,2.614718675613403320e+00,2.558489561080932617e+00,2.504628181457519531e+00,2.452987670898437500e+00,2.403433799743652344e+00,2.355842351913452148e+00,2.310098886489868164e+00,2.266098022460937500e+00,2.223742008209228516e+00,2.182940483093261719e+00,2.143609046936035156e+00,2.105669975280761719e+00,2.069050312042236328e+00,2.033682823181152344e+00,1.999504208564758301e+00,1.966455340385437012e+00,1.934480905532836914e+00,1.903529763221740723e+00,1.873553514480590820e+00,1.844506740570068359e+00
2.605450868606567383e+00,2.605105161666870117e+00,2.604759454727172852e+00,2.604413747787475586e+00,2.604068279266357422e+00,2.603722810745239258e+00,2.603377342224121094e+00,2.603032350540161133e+00,2.602687120437622070e+00,2.602342128753662109e+00,2.601997137069702148e+00,2.601652145385742188e+00,2.601307392120361328e+00,2.600962638854980469e+00,2.600618124008178711e+00,2.600273847579956055e+00,2.599929332733154297e+00,2.599585056304931641e+00,2.599240779876708984e+00,2.598896503448486328e+00,2.598552465438842773e+00,2.598208427429199219e+00,2.597864866256713867e+00,2.597520828247070312e+00,2.597177267074584961e+00,2.596833467483520508e+00,2.596490144729614258e+00,2.596146583557128906e+00,2.595803260803222656e+00,2.595460176467895508e+00,2.595117092132568359e+00,2.594774007797241211e+00,2.594430923461914062e+00,2.594088077545166016e+00,2.593745231628417969e+00,2.593402624130249023e+00,2.593060255050659180e+00,2.592717409133911133e+00,2.592375278472900391e+00,2.592032670974731445e+00,2.591690540313720703e+00,2.591348409652709961e+00,2.591006278991699219e+00,2.590664386749267578e+00,2.590322494506835938e+00,2.589980840682983398e+00,2.589638948440551758e+00,2.589297533035278320e+00,2.588955879211425781e+00,2.588614463806152344e+00,2.588273286819458008e+00,2.587931871414184570e+00,2.587590932846069336e+00,2.587249755859375000e+00,2.586908817291259766e+00,2.586567878723144531e+00,2.586227178573608398e+00,2.585886478424072266e+00,2.585545778274536133e+00,2.585205316543579102e+00,2.584864854812622070e+00,2.558528184890747070e+00,2.504665136337280273e+00,2.453023195266723633e+00,2.403467893600463867e+00,2.355875015258789062e+00,2.310130357742309570e+00,2.266128301620483398e+00,2.223771095275878906e+00,2.182968616485595703e+00,2.143636226654052734e+00,2.105696201324462891e+00,2.069075584411621094e+00,2.033707141876220703e+00,1.999527573585510254e+00,1.966478109359741211e+00,1.934502959251403809e+00,1.903551220893859863e+00,1.873574256896972656e+00,1.844526767730712891e+00
2.255441188812255859e+00,2.255181074142456055e+00,2.254921197891235352e+00,2.254661321640014648e+00,2.254401683807373047e+00,2.254141807556152344e+00,2.253882169723510742e+00,2.253622531890869141e+00,2.253363132476806641e+00,2.253103494644165039e+00,2.252844095230102539e+00,2.252584934234619141e+00,2.252325534820556641e+00,2.252066373825073242e+00,2.251807212829589844e+00,2.251548051834106445e+00,2.251288890838623047e+00,2.251029968261718750e+00,2.250771045684814453e+00,2.250512123107910156e+00,2.250253200531005859e+00,2.249994516372680664e+00,2.249735832214355469e+00,2.249477148056030273e+00,2.249219179153442383e+00,2.248961687088012695e+00,2.248703956604003906e+00,2.248446464538574219e+00,2.248188734054565430e+00,2.247931241989135742e+00,2.247673988342285156e+00,2.247416496276855469e+00,2.247159481048583984e+00,2.246901988983154297e+00,2.246644973754882812e+00,2.246387720108032227e+00,2.246130704879760742e+00,2.245873689651489258e+00,2.245616912841796875e+00,2.245359897613525391e+00,2.245103120803833008e+00,2.244846343994140625e+00,2.244589567184448242e+00,2.244333028793334961e+00,2.244076251983642578e+00,2.243819952011108398e+00,2.243563413619995117e+00,2.243307113647460938e+00,2.243050813674926758e+00,2.242794275283813477e+00,2.242538213729858398e+00,2.242281913757324219e+00,2.242025852203369141e+00,2.241769790649414062e+00,2.241513729095458984e+00,2.241257905960083008e+00,2.241001844406127930e+00,2.240746259689331055e+00,2.240490436553955078e+00,2.240234613418579102e+00,2.239979028701782227e+00,2.239723443984985352e+00,2.239468097686767578e+00,2.239212512969970703e+00,2.238957166671752930e+00,2.238701581954956055e+00,2.238446474075317383e+00,2.238191127777099609e+00,2.223800420761108398e+00,2.182996511459350586e+00,2.143663406372070312e+00,2.105722427368164062e+00,2.069100856781005859e+00,2.033731698989868164e+00,1.999551057815551758e+00,1.966500639915466309e+00,1.934525012969970703e+00,1.903572559356689453e+00,1.873594999313354492e+00,1.844546914100646973e+00
1.988369703292846680e+00,1.988167762756347656e+00,1.987965703010559082e+00,1.987763881683349609e+00,1.987562060356140137e+00,1.987360000610351562e+00,1.987158298492431641e+00,1.986956357955932617e+00,1.986754775047302246e+00,1.986552834510803223e+00,1.986351370811462402e+00,1.986149549484252930e+00,1.985948085784912109e+00,1.985746383666992188e+00,1.985545039176940918e+00,1.985343456268310547e+00,1.985142111778259277e+00,1.984940648078918457e+00,1.984739422798156738e+00,1.984538197517395020e+00,1.984336733818054199e+00,1.984135627746582031e+00,1.983934283256530762e+00,1.983733296394348145e+00,1.983532071113586426e+00,1.983331084251403809e+00,1.983129978179931641e+00,1.982929110527038574e+00,1.982728004455566406e+00,1.982527256011962891e+00,1.982326269149780273e+00,1.982125520706176758e+00,1.981924653053283691e+00,1.981724023818969727e+00,1.981523513793945312e+00,1.981322646141052246e+00,1.981122136116027832e+00,1.980921506881713867e+00,1.980720996856689453e+00,1.980520486831665039e+00,1.980320096015930176e+00,1.980119585990905762e+00,1.979919314384460449e+00,1.979718804359436035e+00,1.979518651962280273e+00,1.979318261146545410e+00,1.979118108749389648e+00,1.978918075561523438e+00,1.978717803955078125e+00,1.978517889976501465e+00,1.978317737579345703e+00,1.978117823600769043e+00,1.977917671203613281e+00,1.977717876434326172e+00,1.977517843246459961e+00,1.977318167686462402e+00,1.977118134498596191e+00,1.976918578147888184e+00,1.976718664169311523e+00,1.976519107818603516e+00,1.976319313049316406e+00,1.976119875907897949e+00,1.975920319557189941e+00,1.975720763206481934e+00,1.975521326065063477e+00,1.975321769714355469e+00,1.975122451782226562e+00,1.974923014640808105e+00,1.974723815917968750e+00,1.974524378776550293e+00,1.974325299263000488e+00,1.974125862121582031e+00,1.973926901817321777e+00,1.973727583885192871e+00,1.973528623580932617e+00,1.966523528099060059e+00,1.934547185897827148e+00,1.903594017028808594e+00,1.873615622520446777e+00,1.844566941261291504e+00
1.777851104736328125e+00,1.777689456939697266e+00,1.777528047561645508e+00,1.777366399765014648e+00,1.777205109596252441e+00,1.777043581008911133e+00,1.776882290840148926e+00,1.776720881462097168e+00,1.776559591293334961e+00,1.776398181915283203e+00,1.776237010955810547e+00,1.776075959205627441e+00,1.775914549827575684e+00,1.775753498077392578e+00,1.775592327117919922e+00,1.775431275367736816e+00,1.775270104408264160e+00,1.775109052658081055e+00,1.774948000907897949e+00,1.774787068367004395e+00,1.774626016616821289e+00,1.774465084075927734e+00,1.774304151535034180e+00,1.774143338203430176e+00,1.773982286453247070e+00,1.773821592330932617e+00,1.773660898208618164e+00,1.773499965667724609e+00,1.773339390754699707e+00,1.773178577423095703e+00,1.773018002510070801e+00,1.772857189178466797e+00,1.772696614265441895e+00,1.772535920143127441e+00,1.772375464439392090e+00,1.772214889526367188e+00,1.772054433822631836e+00,1.771893858909606934e+00,1.771733522415161133e+00,1.771573185920715332e+00,1.771412730216979980e+00,1.771252393722534180e+00,1.771091938018798828e+00,1.770931720733642578e+00,1.770771384239196777e+00,1.770611166954040527e+00,1.770450949668884277e+00,1.770290732383728027e+00,1.770130515098571777e+00,1.769970536231994629e+00,1.769810318946838379e+00,1.769650340080261230e+00,1.769490122795104980e+00,1.769330263137817383e+00,1.769170284271240234e+00,1.769010305404663086e+00,1.768850445747375488e+00,1.768690466880798340e+00,1.768530607223510742e+00,1.768370747566223145e+00,1.768211007118225098e+00,1.768051147460937500e+00,1.767891407012939453e+00,1.767731666564941406e+00,1.767572045326232910e+00,1.767412304878234863e+00,1.767252683639526367e+00,1.767092943191528320e+00,1.766933441162109375e+00,1.766774058341979980e+00,1.766614437103271484e+00,1.766455054283142090e+00,1.766295433044433594e+00,1.766136050224304199e+00,1.765976548194885254e+00,1.765817284584045410e+00,1.765657901763916016e+00,1.765498638153076172e+00,1.765339255332946777e+00,1.765180110931396484e+00
1.607641816139221191e+00,1.607509613037109375e+00,1.607377648353576660e+00,1.607245683670043945e+00,1.607113599777221680e+00,1.606981635093688965e+00,1.606849551200866699e+00,1.606717705726623535e+00,1.606585741043090820e+00,1.606453895568847656e+00,1.606321930885314941e+00,1.606190085411071777e+00,1.606058239936828613e+00,1.605926394462585449e+00,1.605794548988342285e+00,1.605662822723388672e+00,1.605530977249145508e+00,1.605399370193481445e+00,1.605267763137817383e+00,1.605135917663574219e+00,1.605004310607910156e+00,1.604872584342956543e+00,1.604741096496582031e+00,1.604609370231628418e+00,1.604477882385253906e+00,1.604346156120300293e+00,1.604214787483215332e+00,1.604083180427551270e+00,1.603951692581176758e+00,1.603820204734802246e+00,1.603688716888427734e+00,1.603557229042053223e+00,1.603425979614257812e+00,1.603294610977172852e+00,1.603163123130798340e+00,1.603031873703002930e+00,1.602900505065917969e+00,1.602769255638122559e+00,1.602637887001037598e+00,1.602506637573242188e+00,1.602375388145446777e+00,1.602244257926940918e+00,1.602112889289855957e+00,1.601981878280639648e+00,1.601850628852844238e+00,1.601719498634338379e+00,1.601588368415832520e+00,1.601457357406616211e+00,1.601326346397399902e+00,1.601195216178894043e+00,1.601064324378967285e+00,1.600933194160461426e+00,1.600802302360534668e+00,1.600671291351318359e+00,1.600540399551391602e+00,1.600409388542175293e+00,1.600278615951538086e+00,1.600147604942321777e+00,1.600016832351684570e+00,1.599885821342468262e+00,1.599755167961120605e+00,1.599624395370483398e+00,1.599493622779846191e+00,1.599362850189208984e+00,1.599232077598571777e+00,1.599101424217224121e+00,1.598970651626586914e+00,1.598840117454528809e+00,1.598709464073181152e+00,1.598578810691833496e+00,1.598448157310485840e+00,1.598317623138427734e+00,1.598187088966369629e+00,1.598056554794311523e+00,1.597926020622253418e+00,1.597795605659484863e+00,1.597665190696716309e+00,1.597534656524658203e+00,1.597404241561889648e+00,1.597273826599121094e+00
1.467176079750061035e+00,1.467066168785095215e+00,1.466956138610839844e+00,1.466846227645874023e+00,1.466736197471618652e+00,1.466626286506652832e+00,1.466516256332397461e+00,1.466406464576721191e+00,1.466296434402465820e+00,1.466186642646789551e+00,1.466076731681823730e+00,1.465966939926147461e+00,1.465857148170471191e+00,1.465747237205505371e+00,1.465637564659118652e+00,1.465527653694152832e+00,1.465417981147766113e+00,1.465308189392089844e+00,1.465198516845703125e+00,1.465088725090026855e+00,1.464979052543640137e+00,1.464869379997253418e+00,1.464759707450866699e+00,1.464650034904479980e+00,1.464540481567382812e+00,1.464430928230285645e+00,1.464321255683898926e+00,1.464211702346801758e+00,1.464102029800415039e+00,1.463992595672607422e+00,1.463883042335510254e+00,1.463773488998413086e+00,1.463663935661315918e+00,1.463554501533508301e+00,1.463444948196411133e+00,1.463335633277893066e+00,1.463226079940795898e+00,1.463116765022277832e+00,1.463007211685180664e+00,1.462897896766662598e+00,1.462788701057434082e+00,1.462679266929626465e+00,1.462569952011108398e+00,1.462460517883300781e+00,1.462351322174072266e+00,1.462242007255554199e+00,1.462132811546325684e+00,1.462023496627807617e+00,1.461914300918579102e+00,1.461804986000061035e+00,1.461695790290832520e+00,1.461586594581604004e+00,1.461477518081665039e+00,1.461368203163146973e+00,1.461259126663208008e+00,1.461150050163269043e+00,1.461040973663330078e+00,1.460931897163391113e+00,1.460822701454162598e+00,1.460713744163513184e+00,1.460604667663574219e+00,1.460495710372924805e+00,1.460386633872985840e+00,1.460277676582336426e+00,1.460168600082397461e+00,1.460059762001037598e+00,1.459950685501098633e+00,1.459841847419738770e+00,1.459732890129089355e+00,1.459624052047729492e+00,1.459515213966369629e+00,1.459406256675720215e+00,1.459297537803649902e+00,1.459188580513000488e+00,1.459079861640930176e+00,1.458970904350280762e+00,1.458862185478210449e+00,1.458753466606140137e+00,1.458644747734069824e+00,1.458535909652709961e+00
1.349284052848815918e+00,1.349191069602966309e+00,1.349098086357116699e+00,1.349005103111267090e+00,1.348912119865417480e+00,1.348819017410278320e+00,1.348726153373718262e+00,1.348633170127868652e+00,1.348540186882019043e+00,1.348447203636169434e+00,1.348354339599609375e+00,1.348261356353759766e+00,1.348168492317199707e+00,1.348075628280639648e+00,1.347982764244079590e+00,1.347889900207519531e+00,1.347797036170959473e+00,1.347704172134399414e+00,1.347611427307128906e+00,1.347518682479858398e+00,1.347425818443298340e+00,1.347333073616027832e+00,1.347240209579467773e+00,1.347147583961486816e+00,1.347054719924926758e+00,1.346962094306945801e+00,1.346869230270385742e+00,1.346776604652404785e+00,1.346683859825134277e+00,1.346591234207153320e+00,1.346498489379882812e+00,1.346405863761901855e+00,1.346313238143920898e+00,1.346220612525939941e+00,1.346128106117248535e+00,1.346035361289978027e+00,1.345942854881286621e+00,1.345850229263305664e+00,1.345757722854614258e+00,1.345665097236633301e+00,1.345572590827941895e+00,1.345479965209960938e+00,1.345387578010559082e+00,1.345294952392578125e+00,1.345202565193176270e+00,1.345109939575195312e+00,1.345017552375793457e+00,1.344925165176391602e+00,1.344832658767700195e+00,1.344740271568298340e+00,1.344647765159606934e+00,1.344555497169494629e+00,1.344462990760803223e+00,1.344370722770690918e+00,1.344278216361999512e+00,1.344185948371887207e+00,1.344093561172485352e+00,1.344001293182373047e+00,1.343908905982971191e+00,1.343816637992858887e+00,1.343724250793457031e+00,1.343632102012634277e+00,1.343539834022521973e+00,1.343447566032409668e+00,1.343355417251586914e+00,1.343263030052185059e+00,1.343170881271362305e+00,1.343078613281250000e+00,1.342986583709716797e+00,1.342894315719604492e+00,1.342802166938781738e+00,1.342710018157958984e+00,1.342617869377136230e+00,1.342525720596313477e+00,1.342433691024780273e+00,1.342341542243957520e+00,1.342249393463134766e+00,1.342157363891601562e+00,1.342065334320068359e+00,1.341973304748535156e+00
1.248929023742675781e+00,1.248849272727966309e+00,1.248769640922546387e+00,1.248689889907836914e+00,1.248610258102416992e+00,1.248530507087707520e+00,1.248450875282287598e+00,1.248371124267578125e+00,1.248291611671447754e+00,1.248211860656738281e+00,1.248132348060607910e+00,1.248052716255187988e+00,1.247973084449768066e+00,1.247893571853637695e+00,1.247813940048217773e+00,1.247734427452087402e+00,1.247654795646667480e+00,1.247575283050537109e+00,1.247495651245117188e+00,1.247416138648986816e+00,1.247336626052856445e+00,1.247257113456726074e+00,1.247177600860595703e+00,1.247098088264465332e+00,1.247018575668334961e+00,1.246939182281494141e+00,1.246859788894653320e+00,1.246780276298522949e+00,1.246700882911682129e+00,1.246621370315551758e+00,1.246541976928710938e+00,1.246462464332580566e+00,1.246383190155029297e+00,1.246303677558898926e+00,1.246224403381347656e+00,1.246145009994506836e+00,1.246065616607666016e+00,1.245986223220825195e+00,1.245906949043273926e+00,1.245827674865722656e+00,1.245748281478881836e+00,1.245669007301330566e+00,1.245589613914489746e+00,1.245510458946228027e+00,1.245431065559387207e+00,1.245351910591125488e+00,1.245272517204284668e+00,1.245193362236022949e+00,1.245114088058471680e+00,1.245034813880920410e+00,1.244955658912658691e+00,1.244876384735107422e+00,1.244797229766845703e+00,1.244718074798583984e+00,1.244638919830322266e+00,1.244559645652770996e+00,1.244480609893798828e+00,1.244401335716247559e+00,1.244322299957275391e+00,1.244243144989013672e+00,1.244163990020751953e+00,1.244084835052490234e+00,1.244005799293518066e+00,1.243926644325256348e+00,1.243847608566284180e+00,1.243768572807312012e+00,1.243689537048339844e+00,1.243610382080078125e+00,1.243531465530395508e+00,1.243452429771423340e+00,1.243373394012451172e+00,1.243294358253479004e+00,1.243215322494506836e+00,1.243136405944824219e+00,1.243057370185852051e+00,1.242978453636169434e+00,1.242899417877197266e+00,1.242820501327514648e+00,1.242741584777832031e+00,1.242662668228149414e+00
1.162468552589416504e+00,1.162399530410766602e+00,1.162330508232116699e+00,1.162261486053466797e+00,1.162192344665527344e+00,1.162123441696166992e+00,1.162054300308227539e+00,1.161985397338867188e+00,1.161916255950927734e+00,1.161847352981567383e+00,1.161778330802917480e+00,1.161709427833557129e+00,1.161640405654907227e+00,1.161571502685546875e+00,1.161502480506896973e+00,1.161433577537536621e+00,1.161364555358886719e+00,1.161295652389526367e+00,1.161226749420166016e+00,1.161157846450805664e+00,1.161088943481445312e+00,1.161020040512084961e+00,1.160951137542724609e+00,1.160882234573364258e+00,1.160813450813293457e+00,1.160744547843933105e+00,1.160675644874572754e+00,1.160606741905212402e+00,1.160537958145141602e+00,1.160469055175781250e+00,1.160400271415710449e+00,1.160331487655639648e+00,1.160262703895568848e+00,1.160193920135498047e+00,1.160125136375427246e+00,1.160056352615356445e+00,1.159987568855285645e+00,1.159918785095214844e+00,1.159850001335144043e+00,1.159781217575073242e+00,1.159712433815002441e+00,1.159643769264221191e+00,1.159574985504150391e+00,1.159506320953369141e+00,1.159437537193298340e+00,1.159368872642517090e+00,1.159300208091735840e+00,1.159231543540954590e+00,1.159162878990173340e+00,1.159094214439392090e+00,1.159025549888610840e+00,1.158956885337829590e+00,1.158888220787048340e+00,1.158819556236267090e+00,1.158751010894775391e+00,1.158682346343994141e+00,1.158613681793212891e+00,1.158545017242431641e+00,1.158476471900939941e+00,1.158407926559448242e+00,1.158339381217956543e+00,1.158270835876464844e+00,1.158202171325683594e+00,1.158133745193481445e+00,1.158065080642700195e+00,1.157996654510498047e+00,1.157928109169006348e+00,1.157859563827514648e+00,1.157791018486022949e+00,1.157722592353820801e+00,1.157654047012329102e+00,1.157585501670837402e+00,1.157517075538635254e+00,1.157448530197143555e+00,1.157380104064941406e+00,1.157311677932739258e+00,1.157243251800537109e+00,1.157174706459045410e+00,1.157106399536132812e+00,1.157037854194641113e+00
1.087203979492187500e+00,1.087143540382385254e+00,1.087083101272583008e+00,1.087022781372070312e+00,1.086962342262268066e+00,1.086902022361755371e+00,1.086841583251953125e+00,1.086781263351440430e+00,1.086720824241638184e+00,1.086660504341125488e+00,1.086600184440612793e+00,1.086539864540100098e+00,1.086479544639587402e+00,1.086419224739074707e+00,1.086358904838562012e+00,1.086298584938049316e+00,1.086238265037536621e+00,1.086177945137023926e+00,1.086117625236511230e+00,1.086057305335998535e+00,1.085997104644775391e+00,1.085936784744262695e+00,1.085876584053039551e+00,1.085816264152526855e+00,1.085756063461303711e+00,1.085695862770080566e+00,1.085635542869567871e+00,1.085575342178344727e+00,1.085515022277832031e+00,1.085454940795898438e+00,1.085394620895385742e+00,1.085334420204162598e+00,1.085274219512939453e+00,1.085214018821716309e+00,1.085153818130493164e+00,1.085093736648559570e+00,1.085033535957336426e+00,1.084973335266113281e+00,1.084913134574890137e+00,1.084853053092956543e+00,1.084792971611022949e+00,1.084732770919799805e+00,1.084672570228576660e+00,1.084612488746643066e+00,1.084552407264709473e+00,1.084492206573486328e+00,1.084432125091552734e+00,1.084372043609619141e+00,1.084311962127685547e+00,1.084251880645751953e+00,1.084191799163818359e+00,1.084131717681884766e+00,1.084071636199951172e+00,1.084011554718017578e+00,1.083951473236083984e+00,1.083891510963439941e+00,1.083831429481506348e+00,1.083771467208862305e+00,1.083711385726928711e+00,1.083651423454284668e+00,1.083591341972351074e+00,1.083531379699707031e+00,1.083471298217773438e+00,1.083411335945129395e+00,1.083351373672485352e+00,1.083291411399841309e+00,1.083231329917907715e+00,1.083171486854553223e+00,1.083111405372619629e+00,1.083051562309265137e+00,1.082991600036621094e+00,1.082931637763977051e+00,1.082871675491333008e+00,1.082811713218688965e+00,1.082751870155334473e+00,1.082691907882690430e+00,1.082632064819335938e+00,1.082572102546691895e+00,1.082512259483337402e+00,1.082452297210693359e+00
1.021092772483825684e+00,1.021039485931396484e+00,1.020986199378967285e+00,1.020932912826538086e+00,1.020879745483398438e+00,1.020826458930969238e+00,1.020773172378540039e+00,1.020719885826110840e+00,1.020666718482971191e+00,1.020613431930541992e+00,1.020560264587402344e+00,1.020506978034973145e+00,1.020453810691833496e+00,1.020400524139404297e+00,1.020347356796264648e+00,1.020294070243835449e+00,1.020240902900695801e+00,1.020187735557556152e+00,1.020134568214416504e+00,1.020081400871276855e+00,1.020028114318847656e+00,1.019975066184997559e+00,1.019921779632568359e+00,1.019868731498718262e+00,1.019815444946289062e+00,1.019762396812438965e+00,1.019709229469299316e+00,1.019656062126159668e+00,1.019602894783020020e+00,1.019549846649169922e+00,1.019496679306030273e+00,1.019443511962890625e+00,1.019390463829040527e+00,1.019337296485900879e+00,1.019284248352050781e+00,1.019231081008911133e+00,1.019178032875061035e+00,1.019124984741210938e+00,1.019071936607360840e+00,1.019018769264221191e+00,1.018965721130371094e+00,1.018912672996520996e+00,1.018859624862670898e+00,1.018806576728820801e+00,1.018753528594970703e+00,1.018700480461120605e+00,1.018647432327270508e+00,1.018594503402709961e+00,1.018541455268859863e+00,1.018488407135009766e+00,1.018435359001159668e+00,1.018382430076599121e+00,1.018329381942749023e+00,1.018276333808898926e+00,1.018223404884338379e+00,1.018170356750488281e+00,1.018117427825927734e+00,1.018064379692077637e+00,1.018011450767517090e+00,1.017958521842956543e+00,1.017905473709106445e+00,1.017852544784545898e+00,1.017799615859985352e+00,1.017746686935424805e+00,1.017693758010864258e+00,1.017640829086303711e+00,1.017587900161743164e+00,1.017534971237182617e+00,1.017482042312622070e+00,1.017429113388061523e+00,1.017376303672790527e+00,1.017323374748229980e+00,1.017270445823669434e+00,1.017217516899108887e+00,1.017164707183837891e+00,1.017111897468566895e+00,1.017058968544006348e+00,1.017006158828735352e+00,1.016953229904174805e+00,1.016900420188903809e+00
9.625610709190368652e-01,9.625136852264404297e-01,9.624662995338439941e-01,9.624189734458923340e-01,9.623716473579406738e-01,9.623243212699890137e-01,9.622769355773925781e-01,9.622296094894409180e-01,9.621823430061340332e-01,9.621350169181823730e-01,9.620876908302307129e-01,9.620404839515686035e-01,9.619931578636169434e-01,9.619458317756652832e-01,9.618985056877136230e-01,9.618512988090515137e-01,9.618039727210998535e-01,9.617566466331481934e-01,9.617093801498413086e-01,9.616621732711791992e-01,9.616149067878723145e-01,9.615675806999206543e-01,9.615203142166137695e-01,9.614731669425964355e-01,9.614259004592895508e-01,9.613786339759826660e-01,9.613314867019653320e-01,9.612842202186584473e-01,9.612369537353515625e-01,9.611896872520446777e-01,9.611425399780273438e-01,9.610953330993652344e-01,9.610480666160583496e-01,9.610008597373962402e-01,9.609537124633789062e-01,9.609065055847167969e-01,9.608592987060546875e-01,9.608120918273925781e-01,9.607650041580200195e-01,9.607177972793579102e-01,9.606705904006958008e-01,9.606235027313232422e-01,9.605762958526611328e-01,9.605291485786437988e-01,9.604819416999816895e-01,9.604348540306091309e-01,9.603877067565917969e-01,9.603405594825744629e-01,9.602933526039123535e-01,9.602463245391845703e-01,9.601991772651672363e-01,9.601520299911499023e-01,9.601048827171325684e-01,9.600578546524047852e-01,9.600107073783874512e-01,9.599635601043701172e-01,9.599165916442871094e-01,9.598694443702697754e-01,9.598223567008972168e-01,9.597752094268798828e-01,9.597282409667968750e-01,9.596810936927795410e-01,9.596340060234069824e-01,9.595869183540344238e-01,9.595399498939514160e-01,9.594928622245788574e-01,9.594457745552062988e-01,9.593986868858337402e-01,9.593517780303955078e-01,9.593046903610229492e-01,9.592576026916503906e-01,9.592106938362121582e-01,9.591636061668395996e-01,9.591165781021118164e-01,9.590695500373840332e-01,9.590225815773010254e-01,9.589755535125732422e-01,9.589285254478454590e-01,9.588814973831176758e-01,9.588345885276794434e-01
9.103758335113525391e-01,9.103334546089172363e-01,9.102910757064819336e-01,9.102488160133361816e-01,9.102064371109008789e-01,9.101640582084655762e-01,9.101216793060302734e-01,9.100794196128845215e-01,9.100371003150939941e-01,9.099947214126586914e-01,9.099524021148681641e-01,9.099101424217224121e-01,9.098677635192871094e-01,9.098254442214965820e-01,9.097831249237060547e-01,9.097409248352050781e-01,9.096985459327697754e-01,9.096562266349792480e-01,9.096140265464782715e-01,9.095717072486877441e-01,9.095293879508972168e-01,9.094871282577514648e-01,9.094449281692504883e-01,9.094026088714599609e-01,9.093603491783142090e-01,9.093180298805236816e-01,9.092758297920227051e-01,9.092335700988769531e-01,9.091913104057312012e-01,9.091489911079406738e-01,9.091068506240844727e-01,9.090645909309387207e-01,9.090223312377929688e-01,9.089801907539367676e-01,9.089379310607910156e-01,9.088956713676452637e-01,9.088534116744995117e-01,9.088112711906433105e-01,9.087690114974975586e-01,9.087268114089965820e-01,9.086845517158508301e-01,9.086424708366394043e-01,9.086002111434936523e-01,9.085580110549926758e-01,9.085158109664916992e-01,9.084736704826354980e-01,9.084314703941345215e-01,9.083892703056335449e-01,9.083471894264221191e-01,9.083049893379211426e-01,9.082627892494201660e-01,9.082205891609191895e-01,9.081785082817077637e-01,9.081363677978515625e-01,9.080941677093505859e-01,9.080520272254943848e-01,9.080099463462829590e-01,9.079678058624267578e-01,9.079256057739257812e-01,9.078834652900695801e-01,9.078414440155029297e-01,9.077992439270019531e-01,9.077571034431457520e-01,9.077150821685791016e-01,9.076729416847229004e-01,9.076308012008666992e-01,9.075886607170104980e-01,9.075466394424438477e-01,9.075045585632324219e-01,9.074624180793762207e-01,9.074203372001647949e-01,9.073783159255981445e-01,9.073362350463867188e-01,9.072940945625305176e-01,9.072520136833190918e-01,9.072099924087524414e-01,9.071679115295410156e-01,9.071258306503295898e-01,9.070838689804077148e-01,9.070417881011962891e-01
8.635580539703369141e-01,8.635199069976806641e-01,8.634817600250244141e-01,8.634437322616577148e-01,8.634055852890014648e-01,8.633674979209899902e-01,8.633293509483337402e-01,8.632913231849670410e-01,8.632532358169555664e-01,8.632151484489440918e-01,8.631770014762878418e-01,8.631389737129211426e-01,8.631008863449096680e-01,8.630627989768981934e-01,8.630248308181762695e-01,8.629867434501647949e-01,8.629486560821533203e-01,8.629105687141418457e-01,8.628725409507751465e-01,8.628344535827636719e-01,8.627964258193969727e-01,8.627583384513854980e-01,8.627203702926635742e-01,8.626822829246520996e-01,8.626442551612854004e-01,8.626062870025634766e-01,8.625681996345520020e-01,8.625301718711853027e-01,8.624921441078186035e-01,8.624541759490966797e-01,8.624161481857299805e-01,8.623781204223632812e-01,8.623400926589965820e-01,8.623021245002746582e-01,8.622640967369079590e-01,8.622260689735412598e-01,8.621880412101745605e-01,8.621501326560974121e-01,8.621121048927307129e-01,8.620741367340087891e-01,8.620362281799316406e-01,8.619982004165649414e-01,8.619602322578430176e-01,8.619222044944763184e-01,8.618842959403991699e-01,8.618463277816772461e-01,8.618083596229553223e-01,8.617703318595886230e-01,8.617324829101562500e-01,8.616945147514343262e-01,8.616565465927124023e-01,8.616185784339904785e-01,8.615806698799133301e-01,8.615427017211914062e-01,8.615047335624694824e-01,8.614668846130371094e-01,8.614289164543151855e-01,8.613910079002380371e-01,8.613530397415161133e-01,8.613151907920837402e-01,8.612772822380065918e-01,8.612393140792846680e-01,8.612014055252075195e-01,8.611635565757751465e-01,8.611256480216979980e-01,8.610876798629760742e-01,8.610497713088989258e-01,8.610119819641113281e-01,8.609740734100341797e-01,8.609361648559570312e-01,8.608983159065246582e-01,8.608604073524475098e-01,8.608224987983703613e-01,8.607846498489379883e-01,8.607468605041503906e-01,8.607089519500732422e-01,8.606710433959960938e-01,8.606331944465637207e-01,8.605954051017761230e-01,8.605574965476989746e-01
