5.000000000000000000e+00,5.000000000000000000e+00,5.000000000000000000e+00,5.000000000000000000e+00,5.000000000000000000e+00,5.000000000000000000e+00,5.000000000000000000e+00,5.000000000000000000e+00,5.000000000000000000e+00,5.000000000000000000e+00,5.000000000000000000e+00,5.000000000000000000e+00,5.000000000000000000e+00,5.000000000000000000e+00,5.000000000000000000e+00,5.000000000000000000e+00,5.000000000000000000e+00,5.000000000000000000e+00,5.000000000000000000e+00,5.000000000000000000e+00,5.000000000000000000e+00,5.000000000000000000e+00,5.000000000000000000e+00,5.000000000000000000e+00,5.000000000000000000e+00,5.000000000000000000e+00,5.000000000000000000e+00,5.000000000000000000e+00,5.000000000000000000e+00,5.000000000000000000e+00,5.000000000000000000e+00,5.000000000000000000e+00,5.000000000000000000e+00,5.000000000000000000e+00,5.000000000000000000e+00,5.000000000000000000e+00,5.000000000000000000e+00,5.000000000000000000e+00,5.000000000000000000e+00,5.000000000000000000e+00,5.000000000000000000e+00,5.000000000000000000e+00,5.000000000000000000e+00,4.171754837036132812e+00,4.030422210693359375e+00,3.898352861404418945e+00,3.774663686752319336e+00,3.658581972122192383e+00,3.549427270889282227e+00,3.446597099304199219e+00,3.349557399749755859e+00,3.257832050323486328e+00,3.170996665954589844e+00,3.088670492172241211e+00,3.010510683059692383e+00,2.936208963394165039e+00,2.865486383438110352e+00,2.798090696334838867e+00,2.733792543411254883e+00,2.672383069992065430e+00,2.613671541213989258e+00,2.557484626770019531e+00,2.503662347793579102e+00,2.452059030532836914e+00,2.402539968490600586e+00,2.354981184005737305e+00,2.309268712997436523e+00,2.265297412872314453e+00,2.222969055175781250e+00,2.182193756103515625e+00,2.142887115478515625e+00,2.104971408843994141e+00,2.068374156951904297e+00,2.033028125762939453e+00,1.998869299888610840e+00,1.965839862823486328e+00,1.933883905410766602e+00,1.902950406074523926e+00,1.872990846633911133e+00,1.843959927558898926e+00
5.000000000000000000e+00,5.000000000000000000e+00,5.000000000000000000e+00,5.000000000000000000e+00,5.000000000000000000e+00,5.000000000000000000e+00,5.000000000000000000e+00,5.000000000000000000e+00,5.000000000000000000e+00,5.000000000000000000e+00,5.000000000000000000e+00,5.000000000000000000e+00,5.000000000000000000e+00,5.000000000000000000e+00,5.000000000000000000e+00,5.000000000000000000e+00,5.000000000000000000e+00,5.000000000000000000e+00,5.000000000000000000e+00,5.000000000000000000e+00,5.000000000000000000e+00,5.000000000000000000e+00,5.000000000000000000e+00,5.000000000000000000e+00,5.000000000000000000e+00,5.000000000000000000e+00,5.000000000000000000e+00,5.000000000000000000e+00,5.000000000000000000e+00,5.000000000000000000e+00,5.000000000000000000e+00,5.000000000000000000e+00,5.000000000000000000e+00,5.000000000000000000e+00,5.000000000000000000e+00,5.000000000000000000e+00,5.000000000000000000e+00,5.000000000000000000e+00,5.000000000000000000e+00,5.000000000000000000e+00,5.000000000000000000e+00,5.000000000000000000e+00,4.323469638824462891e+00,4.171857357025146484e+00,4.030518054962158203e+00,3.898442506790161133e+00,3.774747848510742188e+00,3.658661365509033203e+00,3.549501657485961914e+00,3.446667194366455078e+00,3.349623441696166992e+00,3.257894992828369141e+00,3.171056032180786133e+00,3.088726758956909180e+00,3.010564088821411133e+00,2.936259984970092773e+00,2.865535020828247070e+00,2.798136949539184570e+00,2.733836650848388672e+00,2.672425031661987305e+00,2.613712072372436523e+00,2.557523250579833984e+00,2.503699541091918945e+00,2.452094554901123047e+00,2.402573823928833008e+00,2.355014085769653320e+00,2.309300184249877930e+00,2.265327692031860352e+00,2.222998142242431641e+00,2.182221651077270508e+00,2.142914295196533203e+00,2.104997634887695312e+00,2.068399429321289062e+00,2.033052444458007812e+00,1.998893141746520996e+00,1.965862631797790527e+00,1.933905959129333496e+00,1.902971863746643066e+00,1.873011469841003418e+00,1.843980193138122559e+00
5.000000000000000000e+00,5.000000000000000000e+00,5.000000000000000000e+00,5.000000000000000000e+00,5.000000000000000000e+00,5.000000000000000000e+00,5.000000000000000000e+00,5.000000000000000000e+00,5.000000000000000000e+00,5.000000000000000000e+00,5.000000000000000000e+00,5.000000000000000000e+00,5.000000000000000000e+00,5.000000000000000000e+00,5.000000000000000000e+00,5.000000000000000000e+00,5.000000000000000000e+00,5.000000000000000000e+00,5.000000000000000000e+00,5.000000000000000000e+00,5.000000000000000000e+00,5.000000000000000000e+00,5.000000000000000000e+00,5.000000000000000000e+00,5.000000000000000000e+00,5.000000000000000000e+00,5.000000000000000000e+00,5.000000000000000000e+00,5.000000000000000000e+00,5.000000000000000000e+00,5.000000000000000000e+00,5.000000000000000000e+00,5.000000000000000000e+00,5.000000000000000000e+00,5.000000000000000000e+00,5.000000000000000000e+00,5.000000000000000000e+00,5.000000000000000000e+00,5.000000000000000000e+00,5.000000000000000000e+00,5.000000000000000000e+00,4.486635684967041016e+00,4.323579788208007812e+00,4.171960353851318359e+00,4.030613899230957031e+00,3.898532152175903320e+00,3.774831771850585938e+00,3.658740282058715820e+00,3.549576282501220703e+00,3.446737289428710938e+00,3.349689722061157227e+00,3.257957696914672852e+00,3.171115636825561523e+00,3.088783025741577148e+00,3.010617733001708984e+00,2.936310768127441406e+00,2.865583419799804688e+00,2.798183441162109375e+00,2.733880758285522461e+00,2.672467231750488281e+00,2.613752365112304688e+00,2.557561874389648438e+00,2.503736495971679688e+00,2.452130079269409180e+00,2.402607917785644531e+00,2.355046749114990234e+00,2.309331893920898438e+00,2.265357971191406250e+00,2.223027229309082031e+00,2.182249784469604492e+00,2.142941236495971680e+00,2.105023860931396484e+00,2.068424701690673828e+00,2.033076763153076172e+00,1.998916745185852051e+00,1.965885519981384277e+00,1.933928012847900391e+00,1.902993202209472656e+00,1.873032212257385254e+00,1.844000220298767090e+00
5.000000000000000000e+00,5.000000000000000000e+00,5.000000000000000000e+00,5.000000000000000000e+00,5.000000000000000000e+00,5.000000000000000000e+00,5.000000000000000000e+00,5.000000000000000000e+00,5.000000000000000000e+00,5.000000000000000000e+00,5.000000000000000000e+00,5.000000000000000000e+00,5.000000000000000000e+00,5.000000000000000000e+00,5.000000000000000000e+00,5.000000000000000000e+00,5.000000000000000000e+00,5.000000000000000000e+00,5.000000000000000000e+00,5.000000000000000000e+00,5.000000000000000000e+00,5.000000000000000000e+00,5.000000000000000000e+00,5.000000000000000000e+00,5.000000000000000000e+00,5.000000000000000000e+00,5.000000000000000000e+00,5.000000000000000000e+00,5.000000000000000000e+00,5.000000000000000000e+00,5.000000000000000000e+00,5.000000000000000000e+00,5.000000000000000000e+00,5.000000000000000000e+00,5.000000000000000000e+00,5.000000000000000000e+00,5.000000000000000000e+00,5.000000000000000000e+00,5.000000000000000000e+00,5.000000000000000000e+00,4.662600517272949219e+00,4.486754894256591797e+00,4.323690414428710938e+00,4.172062873840332031e+00,4.030710220336914062e+00,3.898621797561645508e+00,3.774915933609008789e+00,3.658819437026977539e+00,3.549650669097900391e+00,3.446807622909545898e+00,3.349756002426147461e+00,3.258020401000976562e+00,3.171175003051757812e+00,3.088839530944824219e+00,3.010671138763427734e+00,2.936361551284790039e+00,2.865631818771362305e+00,2.798229455947875977e+00,2.733924865722656250e+00,2.672509431838989258e+00,2.613792657852172852e+00,2.557600498199462891e+00,2.503773689270019531e+00,2.452165603637695312e+00,2.402642011642456055e+00,2.355079412460327148e+00,2.309363365173339844e+00,2.265388250350952148e+00,2.223056554794311523e+00,2.182277917861938477e+00,2.142968416213989258e+00,2.105050086975097656e+00,2.068450212478637695e+00,2.033101320266723633e+00,1.998940229415893555e+00,1.965908288955688477e+00,1.933950304985046387e+00,1.903014540672302246e+00,1.873052835464477539e+00,1.844020247459411621e+00
5.000000000000000000e+00,5.000000000000000000e+00,5.000000000000000000e+00,5.000000000000000000e+00,5.000000000000000000e+00,5.000000000000000000e+00,5.000000000000000000e+00,5.000000000000000000e+00,5.000000000000000000e+00,5.000000000000000000e+00,5.000000000000000000e+00,5.000000000000000000e+00,5.000000000000000000e+00,5.000000000000000000e+00,5.000000000000000000e+00,5.000000000000000000e+00,5.000000000000000000e+00,5.000000000000000000e+00,5.000000000000000000e+00,5.000000000000000000e+00,5.000000000000000000e+00,5.000000000000000000e+00,5.000000000000000000e+00,5.000000000000000000e+00,5.000000000000000000e+00,5.000000000000000000e+00,5.000000000000000000e+00,5.000000000000000000e+00,5.000000000000000000e+00,5.000000000000000000e+00,5.000000000000000000e+00,5.000000000000000000e+00,5.000000000000000000e+00,5.000000000000000000e+00,5.000000000000000000e+00,5.000000000000000000e+00,5.000000000000000000e+00,5.000000000000000000e+00,5.000000000000000000e+00,4.852931499481201172e+00,4.662728786468505859e+00,4.486873626708984375e+00,4.323800563812255859e+00,4.172165870666503906e+00,4.030806064605712891e+00,3.898711919784545898e+00,3.775000095367431641e+00,3.658898353576660156e+00,3.549725055694580078e+00,3.446877717971801758e+00,3.349822521209716797e+00,3.258082866668701172e+00,3.171234369277954102e+00,3.088895797729492188e+00,3.010724782943725586e+00,2.936412572860717773e+00,2.865680456161499023e+00,2.798275709152221680e+00,2.733968973159790039e+00,2.672551870346069336e+00,2.613832950592041016e+00,2.557639122009277344e+00,2.503810644149780273e+00,2.452201128005981445e+00,2.402676105499267578e+00,2.355112314224243164e+00,2.309394836425781250e+00,2.265418529510498047e+00,2.223085880279541016e+00,2.182306051254272461e+00,2.142995595932006836e+00,2.105076313018798828e+00,2.068475246429443359e+00,2.033125638961791992e+00,1.998963832855224609e+00,1.965931057929992676e+00,1.933972358703613281e+00,1.903035879135131836e+00,1.873073577880859375e+00,1.844040393829345703e+00
5.000000000000000000e+00,5.000000000000000000e+00,5.000000000000000000e+00,5.000000000000000000e+00,5.000000000000000000e+00,5.000000000000000000e+00,5.000000000000000000e+00,5.000000000000000000e+00,5.000000000000000000e+00,5.000000000000000000e+00,5.000000000000000000e+00,5.000000000000000000e+00,5.000000000000000000e+00,5.000000000000000000e+00,5.000000000000000000e+00,5.000000000000000000e+00,5.000000000000000000e+00,5.000000000000000000e+00,5.000000000000000000e+00,5.000000000000000000e+00,5.000000000000000000e+00,5.000000000000000000e+00,5.000000000000000000e+00,5.000000000000000000e+00,5.000000000000000000e+00,5.000000000000000000e+00,5.000000000000000000e+00,5.000000000000000000e+00,5.000000000000000000e+00,5.000000000000000000e+00,5.000000000000000000e+00,5.000000000000000000e+00,5.000000000000000000e+00,5.000000000000000000e+00,5.000000000000000000e+00,5.000000000000000000e+00,5.000000000000000000e+00,5.000000000000000000e+00,5.000000000000000000e+00,4.853070735931396484e+00,4.662857532501220703e+00,4.486992359161376953e+00,4.323911190032958984e+00,4.172268867492675781e+00,4.030902385711669922e+00,3.898801565170288086e+00,3.775084495544433594e+00,3.658977270126342773e+00,3.549799442291259766e+00,3.446947813034057617e+00,3.349888801574707031e+00,3.258145809173583984e+00,3.171293735504150391e+00,3.088952064514160156e+00,3.010778427124023438e+00,2.936463594436645508e+00,2.865728855133056641e+00,2.798321962356567383e+00,2.734013080596923828e+00,2.672593832015991211e+00,2.613873481750488281e+00,2.557677745819091797e+00,2.503847599029541016e+00,2.452236652374267578e+00,2.402710437774658203e+00,2.355144977569580078e+00,2.309426307678222656e+00,2.265448808670043945e+00,2.223114967346191406e+00,2.182334184646606445e+00,2.143022537231445312e+00,2.105102300643920898e+00,2.068500518798828125e+00,2.033150196075439453e+00,1.998987436294555664e+00,1.965953826904296875e+00,1.933994412422180176e+00,1.903057336807250977e+00,1.873094558715820312e+00,1.844060420989990234e+00
5.000000000000000000e+00,5.000000000000000000e+00,5.000000000000000000e+00,5.000000000000000000e+00,5.000000000000000000e+00,5.000000000000000000e+00,5.000000000000000000e+00,5.000000000000000000e+00,5.000000000000000000e+00,5.000000000000000000e+00,5.000000000000000000e+00,5.000000000000000000e+00,5.000000000000000000e+00,5.000000000000000000e+00,5.000000000000000000e+00,5.000000000000000000e+00,5.000000000000000000e+00,5.000000000000000000e+00,5.000000000000000000e+00,5.000000000000000000e+00,5.000000000000000000e+00,5.000000000000000000e+00,5.000000000000000000e+00,5.000000000000000000e+00,5.000000000000000000e+00,5.000000000000000000e+00,5.000000000000000000e+00,5.000000000000000000e+00,5.000000000000000000e+00,5.000000000000000000e+00,5.000000000000000000e+00,5.000000000000000000e+00,5.000000000000000000e+00,5.000000000000000000e+00,5.000000000000000000e+00,5.000000000000000000e+00,5.000000000000000000e+00,5.000000000000000000e+00,5.000000000000000000e+00,4.853209972381591797e+00,4.662985801696777344e+00,4.487111568450927734e+00,4.324021816253662109e+00,4.172371387481689453e+00,4.030998229980468750e+00,3.898891448974609375e+00,3.775168657302856445e+00,3.659056663513183594e+00,3.549873828887939453e+00,3.447018146514892578e+00,3.349954843521118164e+00,3.258208513259887695e+00,3.171353340148925781e+00,3.089008569717407227e+00,3.010831832885742188e+00,2.936514616012573242e+00,2.865777492523193359e+00,2.798368215560913086e+00,2.734057188034057617e+00,2.672636032104492188e+00,2.613913774490356445e+00,2.557716608047485352e+00,2.503884553909301758e+00,2.452272176742553711e+00,2.402744531631469727e+00,2.355177879333496094e+00,2.309457778930664062e+00,2.265479087829589844e+00,2.223144054412841797e+00,2.182362318038940430e+00,2.143049955368041992e+00,2.105128526687622070e+00,2.068525791168212891e+00,2.033174514770507812e+00,1.999011039733886719e+00,1.965976715087890625e+00,1.934016466140747070e+00,1.903078675270080566e+00,1.873115181922912598e+00,1.844080448150634766e+00
5.000000000000000000e+00,5.000000000000000000e+00,5.000000000000000000e+00,5.000000000000000000e+00,5.000000000000000000e+00,5.000000000000000000e+00,5.000000000000000000e+00,5.000000000000000000e+00,5.000000000000000000e+00,5.000000000000000000e+00,5.000000000000000000e+00,5.000000000000000000e+00,5.000000000000000000e+00,5.000000000000000000e+00,5.000000000000000000e+00,5.000000000000000000e+00,5.000000000000000000e+00,5.000000000000000000e+00,5.000000000000000000e+00,5.000000000000000000e+00,5.000000000000000000e+00,5.000000000000000000e+00,5.000000000000000000e+00,5.000000000000000000e+00,5.000000000000000000e+00,5.000000000000000000e+00,5.000000000000000000e+00,5.000000000000000000e+00,5.000000000000000000e+00,5.000000000000000000e+00,5.000000000000000000e+00,5.000000000000000000e+00,5.000000000000000000e+00,5.000000000000000000e+00,5.000000000000000000e+00,5.000000000000000000e+00,5.000000000000000000e+00,5.000000000000000000e+00,5.000000000000000000e+00,4.853349208831787109e+00,4.663114070892333984e+00,4.487230300903320312e+00,4.324131965637207031e+00,4.172474384307861328e+00,4.031094074249267578e+00,3.898981094360351562e+00,3.775252819061279297e+00,3.659135818481445312e+00,3.549948453903198242e+00,3.447088241577148438e+00,3.350021123886108398e+00,3.258271217346191406e+00,3.171412706375122070e+00,3.089065074920654297e+00,3.010885238647460938e+00,2.936565399169921875e+00,2.865826129913330078e+00,2.798414707183837891e+00,2.734101295471191406e+00,2.672678232192993164e+00,2.613954067230224609e+00,2.557755231857299805e+00,2.503921747207641602e+00,2.452307701110839844e+00,2.402778387069702148e+00,2.355210542678833008e+00,2.309489250183105469e+00,2.265509366989135742e+00,2.223173379898071289e+00,2.182390451431274414e+00,2.143076896667480469e+00,2.105154752731323242e+00,2.068551063537597656e+00,2.033198833465576172e+00,1.999034643173217773e+00,1.965999722480773926e+00,1.934038639068603516e+00,1.903100013732910156e+00,1.873135924339294434e+00,1.844100594520568848e+00
5.000000000000000000e+00,5.000000000000000000e+00,5.000000000000000000e+00,5.000000000000000000e+00,5.000000000000000000e+00,5.000000000000000000e+00,5.000000000000000000e+00,5.000000000000000000e+00,5.000000000000000000e+00,5.000000000000000000e+00,5.000000000000000000e+00,5.000000000000000000e+00,5.000000000000000000e+00,5.000000000000000000e+00,5.000000000000000000e+00,5.000000000000000000e+00,5.000000000000000000e+00,5.000000000000000000e+00,5.000000000000000000e+00,5.000000000000000000e+00,5.000000000000000000e+00,5.000000000000000000e+00,5.000000000000000000e+00,5.000000000000000000e+00,5.000000000000000000e+00,5.000000000000000000e+00,5.000000000000000000e+00,5.000000000000000000e+00,5.000000000000000000e+00,5.000000000000000000e+00,5.000000000000000000e+00,5.000000000000000000e+00,5.000000000000000000e+00,5.000000000000000000e+00,5.000000000000000000e+00,5.000000000000000000e+00,5.000000000000000000e+00,5.000000000000000000e+00,5.000000000000000000e+00,4.853487968444824219e+00,4.663242816925048828e+00,4.487349510192871094e+00,4.324242591857910156e+00,4.172576904296875000e+00,4.031189918518066406e+00,3.899070739746093750e+00,3.775336980819702148e+00,3.659214735031127930e+00,3.550022840499877930e+00,3.447158575057983398e+00,3.350087404251098633e+00,3.258333921432495117e+00,3.171472072601318359e+00,3.089121341705322266e+00,3.010939121246337891e+00,2.936616420745849609e+00,2.865874528884887695e+00,2.798460721969604492e+00,2.734145641326904297e+00,2.672720432281494141e+00,2.613994359970092773e+00,2.557793855667114258e+00,2.503958702087402344e+00,2.452343225479125977e+00,2.402812480926513672e+00,2.355243206024169922e+00,2.309520721435546875e+00,2.265539646148681641e+00,2.223202466964721680e+00,2.182418584823608398e+00,2.143104076385498047e+00,2.105180978775024414e+00,2.068576574325561523e+00,2.033223390579223633e+00,1.999058127403259277e+00,1.966022491455078125e+00,1.934060692787170410e+00,1.903121352195739746e+00,1.873156666755676270e+00,1.844120621681213379e+00
5.000000000000000000e+00,5.000000000000000000e+00,5.000000000000000000e+00,5.000000000000000000e+00,5.000000000000000000e+00,5.000000000000000000e+00,5.000000000000000000e+00,5.000000000000000000e+00,5.000000000000000000e+00,5.000000000000000000e+00,5.000000000000000000e+00,5.000000000000000000e+00,5.000000000000000000e+00,5.000000000000000000e+00,5.000000000000000000e+00,5.000000000000000000e+00,5.000000000000000000e+00,5.000000000000000000e+00,5.000000000000000000e+00,5.000000000000000000e+00,5.000000000000000000e+00,5.000000000000000000e+00,5.000000000000000000e+00,5.000000000000000000e+00,5.000000000000000000e+00,5.000000000000000000e+00,5.000000000000000000e+00,5.000000000000000000e+00,5.000000000000000000e+00,5.000000000000000000e+00,5.000000000000000000e+00,5.000000000000000000e+00,5.000000000000000000e+00,5.000000000000000000e+00,5.000000000000000000e+00,5.000000000000000000e+00,5.000000000000000000e+00,5.000000000000000000e+00,5.000000000000000000e+00,4.853627681732177734e+00,4.663371086120605469e+00,4.487468242645263672e+00,4.324352741241455078e+00,4.172679901123046875e+00,4.031285762786865234e+00,3.899160861968994141e+00,3.775420904159545898e+00,3.659293889999389648e+00,3.550097227096557617e+00,3.447228670120239258e+00,3.350153923034667969e+00,3.258396387100219727e+00,3.171531438827514648e+00,3.089177608489990234e+00,3.010992527008056641e+00,2.936667442321777344e+00,2.865922927856445312e+00,2.798506975173950195e+00,2.734189748764038086e+00,2.672762632369995117e+00,2.614034891128540039e+00,2.557832241058349609e+00,2.503995656967163086e+00,2.452378749847412109e+00,2.402846813201904297e+00,2.355276107788085938e+00,2.309552192687988281e+00,2.265569925308227539e+00,2.223231792449951172e+00,2.182446718215942383e+00,2.143131256103515625e+00,2.105207204818725586e+00,2.068601846694946289e+00,2.033247947692871094e+00,1.999081730842590332e+00,1.966045379638671875e+00,1.934082746505737305e+00,1.903143048286437988e+00,1.873177289962768555e+00,1.844140648841857910e+00
5.000000000000000000e+00,5.000000000000000000e+00,5.000000000000000000e+00,5.000000000000000000e+00,5.000000000000000000e+00,5.000000000000000000e+00,5.000000000000000000e+00,5.000000000000000000e+00,5.000000000000000000e+00,5.000000000000000000e+00,5.000000000000000000e+00,5.000000000000000000e+00,5.000000000000000000e+00,5.000000000000000000e+00,5.000000000000000000e+00,5.000000000000000000e+00,5.000000000000000000e+00,5.000000000000000000e+00,5.000000000000000000e+00,5.000000000000000000e+00,5.000000000000000000e+00,5.000000000000000000e+00,5.000000000000000000e+00,5.000000000000000000e+00,5.000000000000000000e+00,5.000000000000000000e+00,5.000000000000000000e+00,5.000000000000000000e+00,5.000000000000000000e+00,5.000000000000000000e+00,5.000000000000000000e+00,5.000000000000000000e+00,5.000000000000000000e+00,5.000000000000000000e+00,5.000000000000000000e+00,5.000000000000000000e+00,5.000000000000000000e+00,5.000000000000000000e+00,5.000000000000000000e+00,4.853766441345214844e+00,4.663499832153320312e+00,4.487587451934814453e+00,4.324463367462158203e+00,4.172782897949218750e+00,4.031382083892822266e+00,3.899250745773315430e+00,3.775505542755126953e+00,3.659372806549072266e+00,3.550171613693237305e+00,3.447298765182495117e+00,3.350220203399658203e+00,3.258459329605102539e+00,3.171590805053710938e+00,3.089233875274658203e+00,3.011046171188354492e+00,2.936718463897705078e+00,2.865971565246582031e+00,2.798553228378295898e+00,2.734233856201171875e+00,2.672804832458496094e+00,2.614075422286987305e+00,2.557870864868164062e+00,2.504032850265502930e+00,2.452414274215698242e+00,2.402880907058715820e+00,2.355309009552001953e+00,2.309583663940429688e+00,2.265600442886352539e+00,2.223260879516601562e+00,2.182474851608276367e+00,2.143158197402954102e+00,2.105233192443847656e+00,2.068626880645751953e+00,2.033272266387939453e+00,1.999105572700500488e+00,1.966068148612976074e+00,1.934104800224304199e+00,1.903164386749267578e+00,1.873198032379150391e+00,1.844160795211791992e+00
5.000000000000000000e+00,5.000000000000000000e+00,5.000000000000000000e+00,5.000000000000000000e+00,5.000000000000000000e+00,5.000000000000000000e+00,5.000000000000000000e+00,5.000000000000000000e+00,5.000000000000000000e+00,5.000000000000000000e+00,5.000000000000000000e+00,5.000000000000000000e+00,5.000000000000000000e+00,5.000000000000000000e+00,5.000000000000000000e+00,5.000000000000000000e+00,5.000000000000000000e+00,5.000000000000000000e+00,5.000000000000000000e+00,5.000000000000000000e+00,5.000000000000000000e+00,5.000000000000000000e+00,5.000000000000000000e+00,5.000000000000000000e+00,5.000000000000000000e+00,5.000000000000000000e+00,5.000000000000000000e+00,5.000000000000000000e+00,5.000000000000000000e+00,5.000000000000000000e+00,5.000000000000000000e+00,5.000000000000000000e+00,5.000000000000000000e+00,5.000000000000000000e+00,5.000000000000000000e+00,5.000000000000000000e+00,5.000000000000000000e+00,5.000000000000000000e+00,5.000000000000000000e+00,4.853905677795410156e+00,4.663628101348876953e+00,4.487706184387207031e+00,4.324573993682861328e+00,4.172885894775390625e+00,4.031477928161621094e+00,3.899340391159057617e+00,3.775589704513549805e+00,3.659452199935913086e+00,3.550246000289916992e+00,3.447369098663330078e+00,3.350286483764648438e+00,3.258522033691406250e+00,3.171650409698486328e+00,3.089290380477905273e+00,3.011099576950073242e+00,2.936769247055053711e+00,2.866020202636718750e+00,2.798599481582641602e+00,2.734278202056884766e+00,2.672847032546997070e+00,2.614115715026855469e+00,2.557909727096557617e+00,2.504069805145263672e+00,2.452449798583984375e+00,2.402915000915527344e+00,2.355341672897338867e+00,2.309615373611450195e+00,2.265630722045898438e+00,2.223290205001831055e+00,2.182502985000610352e+00,2.143185615539550781e+00,2.105259418487548828e+00,2.068652153015136719e+00,2.033296585083007812e+00,1.999129176139831543e+00,1.966090917587280273e+00,1.934126853942871094e+00,1.903185725212097168e+00,1.873218774795532227e+00,1.844181060791015625e+00
5.000000000000000000e+00,5.000000000000000000e+00,5.000000000000000000e+00,5.000000000000000000e+00,5.000000000000000000e+00,5.000000000000000000e+00,5.000000000000000000e+00,5.000000000000000000e+00,5.000000000000000000e+00,5.000000000000000000e+00,5.000000000000000000e+00,5.000000000000000000e+00,5.000000000000000000e+00,5.000000000000000000e+00,5.000000000000000000e+00,5.000000000000000000e+00,5.000000000000000000e+00,5.000000000000000000e+00,5.000000000000000000e+00,5.000000000000000000e+00,5.000000000000000000e+00,5.000000000000000000e+00,5.000000000000000000e+00,5.000000000000000000e+00,5.000000000000000000e+00,5.000000000000000000e+00,5.000000000000000000e+00,5.000000000000000000e+00,5.000000000000000000e+00,5.000000000000000000e+00,5.000000000000000000e+00,5.000000000000000000e+00,5.000000000000000000e+00,5.000000000000000000e+00,5.000000000000000000e+00,5.000000000000000000e+00,5.000000000000000000e+00,5.000000000000000000e+00,5.000000000000000000e+00,4.854044914245605469e+00,4.663756370544433594e+00,4.487825393676757812e+00,4.324684143066406250e+00,4.172988414764404297e+00,4.031574249267578125e+00,3.899430036544799805e+00,3.775673866271972656e+00,3.659531354904174805e+00,3.550320625305175781e+00,3.447439193725585938e+00,3.350352525711059570e+00,3.258584737777709961e+00,3.171709775924682617e+00,3.089346885681152344e+00,3.011152982711791992e+00,2.936820030212402344e+00,2.866068601608276367e+00,2.798645973205566406e+00,2.734322309494018555e+00,2.672889232635498047e+00,2.614156007766723633e+00,2.557948350906372070e+00,2.504106998443603516e+00,2.452485322952270508e+00,2.402949094772338867e+00,2.355374336242675781e+00,2.309646844863891602e+00,2.265661001205444336e+00,2.223319292068481445e+00,2.182531118392944336e+00,2.143212556838989258e+00,2.105285644531250000e+00,2.068677425384521484e+00,2.033321142196655273e+00,1.999152779579162598e+00,1.966113805770874023e+00,1.934149146080017090e+00,1.903207063674926758e+00,1.873239398002624512e+00,1.844201087951660156e+00
5.000000000000000000e+00,5.000000000000000000e+00,5.000000000000000000e+00,5.000000000000000000e+00,5.000000000000000000e+00,5.000000000000000000e+00,5.000000000000000000e+00,5.000000000000000000e+00,5.000000000000000000e+00,5.000000000000000000e+00,5.000000000000000000e+00,5.000000000000000000e+00,5.000000000000000000e+00,5.000000000000000000e+00,5.000000000000000000e+00,5.000000000000000000e+00,5.000000000000000000e+00,5.000000000000000000e+00,5.000000000000000000e+00,5.000000000000000000e+00,5.000000000000000000e+00,5.000000000000000000e+00,5.000000000000000000e+00,5.000000000000000000e+00,5.000000000000000000e+00,5.000000000000000000e+00,5.000000000000000000e+00,5.000000000000000000e+00,5.000000000000000000e+00,5.000000000000000000e+00,5.000000000000000000e+00,5.000000000000000000e+00,5.000000000000000000e+00,5.000000000000000000e+00,5.000000000000000000e+00,5.000000000000000000e+00,5.000000000000000000e+00,5.000000000000000000e+00,5.000000000000000000e+00,4.854184150695800781e+00,4.663885116577148438e+00,4.487944126129150391e+00,4.324794769287109375e+00,4.173091411590576172e+00,4.031670093536376953e+00,3.899520397186279297e+00,3.775757789611816406e+00,3.659610271453857422e+00,3.550395011901855469e+00,3.447509527206420898e+00,3.350418806076049805e+00,3.258647441864013672e+00,3.171769142150878906e+00,3.089403152465820312e+00,3.011206865310668945e+00,2.936871051788330078e+00,2.866117000579833984e+00,2.798692226409912109e+00,2.734366655349731445e+00,2.672931432723999023e+00,2.614196300506591797e+00,2.557986974716186523e+00,2.504143953323364258e+00,2.452520847320556641e+00,2.402983188629150391e+00,2.355407238006591797e+00,2.309678316116333008e+00,2.265691280364990234e+00,2.223348617553710938e+00,2.182559251785278320e+00,2.143239736557006836e+00,2.105311870574951172e+00,2.068702936172485352e+00,2.033345460891723633e+00,1.999176383018493652e+00,1.966136574745178223e+00,1.934171199798583984e+00,1.903228521347045898e+00,1.873260140419006348e+00,1.844221115112304688e+00
5.000000000000000000e+00,5.000000000000000000e+00,5.000000000000000000e+00,5.000000000000000000e+00,5.000000000000000000e+00,5.000000000000000000e+00,5.000000000000000000e+00,5.000000000000000000e+00,5.000000000000000000e+00,5.000000000000000000e+00,5.000000000000000000e+00,5.000000000000000000e+00,5.000000000000000000e+00,5.000000000000000000e+00,5.000000000000000000e+00,5.000000000000000000e+00,5.000000000000000000e+00,5.000000000000000000e+00,5.000000000000000000e+00,5.000000000000000000e+00,5.000000000000000000e+00,5.000000000000000000e+00,5.000000000000000000e+00,5.000000000000000000e+00,5.000000000000000000e+00,5.000000000000000000e+00,5.000000000000000000e+00,5.000000000000000000e+00,5.000000000000000000e+00,5.000000000000000000e+00,5.000000000000000000e+00,5.000000000000000000e+00,5.000000000000000000e+00,5.000000000000000000e+00,5.000000000000000000e+00,5.000000000000000000e+00,5.000000000000000000e+00,5.000000000000000000e+00,5.000000000000000000e+00,4.854323387145996094e+00,4.664013385772705078e+00,4.488063335418701172e+00,4.324905395507812500e+00,4.173194408416748047e+00,4.031765937805175781e+00,3.899610042572021484e+00,3.775842428207397461e+00,3.659689188003540039e+00,3.550469398498535156e+00,3.447579860687255859e+00,3.350485563278198242e+00,3.258710145950317383e+00,3.171828508377075195e+00,3.089459657669067383e+00,3.011260271072387695e+00,2.936922073364257812e+00,2.866165637969970703e+00,2.798738479614257812e+00,2.734410762786865234e+00,2.672973632812500000e+00,2.614236593246459961e+00,2.558025598526000977e+00,2.504180908203125000e+00,2.452556371688842773e+00,2.403017282485961914e+00,2.355439901351928711e+00,2.309709787368774414e+00,2.265721559524536133e+00,2.223377704620361328e+00,2.182587623596191406e+00,2.143266916275024414e+00,2.105338096618652344e+00,2.068728208541870117e+00,2.033370018005371094e+00,1.999199867248535156e+00,1.966159343719482422e+00,1.934193372726440430e+00,1.903249859809875488e+00,1.873281121253967285e+00,1.844241261482238770e+00
4.111436367034912109e+00,4.142584323883056641e+00,5.000000000000000000e+00,5.000000000000000000e+00,5.000000000000000000e+00,5.000000000000000000e+00,5.000000000000000000e+00,5.000000000000000000e+00,5.000000000000000000e+00,5.000000000000000000e+00,5.000000000000000000e+00,5.000000000000000000e+00,5.000000000000000000e+00,5.000000000000000000e+00,5.000000000000000000e+00,5.000000000000000000e+00,5.000000000000000000e+00,5.000000000000000000e+00,5.000000000000000000e+00,5.000000000000000000e+00,5.000000000000000000e+00,5.000000000000000000e+00,5.000000000000000000e+00,5.000000000000000000e+00,5.000000000000000000e+00,5.000000000000000000e+00,5.000000000000000000e+00,5.000000000000000000e+00,5.000000000000000000e+00,5.000000000000000000e+00,5.000000000000000000e+00,5.000000000000000000e+00,5.000000000000000000e+00,5.000000000000000000e+00,5.000000000000000000e+00,5.000000000000000000e+00,5.000000000000000000e+00,5.000000000000000000e+00,5.000000000000000000e+00,4.854462623596191406e+00,4.664142131805419922e+00,4.488182067871093750e+00,4.325016021728515625e+00,4.173297405242919922e+00,4.031862258911132812e+00,3.899699687957763672e+00,3.775926589965820312e+00,3.659768819808959961e+00,3.550543785095214844e+00,3.447649955749511719e+00,3.350551605224609375e+00,3.258773088455200195e+00,3.171887874603271484e+00,3.089515924453735352e+00,3.011313915252685547e+00,2.936973094940185547e+00,2.866214275360107422e+00,2.798784494400024414e+00,2.734454870223999023e+00,2.673015832901000977e+00,2.614277124404907227e+00,2.558064222335815430e+00,2.504217863082885742e+00,2.452591896057128906e+00,2.403051376342773438e+00,2.355472803115844727e+00,2.309741258621215820e+00,2.265751838684082031e+00,2.223407030105590820e+00,2.182615756988525391e+00,2.143294095993041992e+00,2.105364084243774414e+00,2.068753480911254883e+00,2.033394336700439453e+00,1.999223470687866211e+00,1.966182231903076172e+00,1.934215426445007324e+00,1.903271198272705078e+00,1.873301744461059570e+00,1.844261288642883301e+00
4.121016979217529297e+00,4.156809329986572266e+00,5.000000000000000000e+00,5.000000000000000000e+00,5.000000000000000000e+00,5.000000000000000000e+00,5.000000000000000000e+00,5.000000000000000000e+00,5.000000000000000000e+00,5.000000000000000000e+00,5.000000000000000000e+00,5.000000000000000000e+00,5.000000000000000000e+00,5.000000000000000000e+00,5.000000000000000000e+00,5.000000000000000000e+00,5.000000000000000000e+00,5.000000000000000000e+00,5.000000000000000000e+00,5.000000000000000000e+00,5.000000000000000000e+00,5.000000000000000000e+00,5.000000000000000000e+00,5.000000000000000000e+00,5.000000000000000000e+00,5.000000000000000000e+00,5.000000000000000000e+00,5.000000000000000000e+00,5.000000000000000000e+00,5.000000000000000000e+00,5.000000000000000000e+00,5.000000000000000000e+00,5.000000000000000000e+00,5.000000000000000000e+00,5.000000000000000000e+00,5.000000000000000000e+00,5.000000000000000000e+00,5.000000000000000000e+00,5.000000000000000000e+00,4.854601383209228516e+00,4.664270877838134766e+00,4.488301277160644531e+00,4.325126171112060547e+00,4.173400402069091797e+00,4.031958103179931641e+00,3.899789571762084961e+00,3.776010751724243164e+00,3.659847736358642578e+00,3.550618648529052734e+00,3.447720050811767578e+00,3.350617885589599609e+00,3.258835792541503906e+00,3.171947717666625977e+00,3.089572191238403320e+00,3.011367321014404297e+00,2.937023878097534180e+00,2.866262674331665039e+00,2.798830986022949219e+00,2.734498977661132812e+00,2.673058032989501953e+00,2.614317417144775391e+00,2.558103084564208984e+00,2.504255056381225586e+00,2.452627420425415039e+00,2.403085470199584961e+00,2.355505466461181641e+00,2.309772968292236328e+00,2.265782117843627930e+00,2.223436117172241211e+00,2.182643651962280273e+00,2.143321275711059570e+00,2.105390310287475586e+00,2.068778514862060547e+00,2.033418655395507812e+00,1.999247074127197266e+00,1.966205239295959473e+00,1.934237480163574219e+00,1.903292655944824219e+00,1.873322486877441406e+00,1.844281435012817383e+00
4.152842998504638672e+00,4.165569782257080078e+00,5.000000000000000000e+00,5.000000000000000000e+00,5.000000000000000000e+00,5.000000000000000000e+00,5.000000000000000000e+00,5.000000000000000000e+00,5.000000000000000000e+00,5.000000000000000000e+00,5.000000000000000000e+00,5.000000000000000000e+00,5.000000000000000000e+00,5.000000000000000000e+00,5.000000000000000000e+00,5.000000000000000000e+00,5.000000000000000000e+00,5.000000000000000000e+00,5.000000000000000000e+00,5.000000000000000000e+00,5.000000000000000000e+00,5.000000000000000000e+00,5.000000000000000000e+00,5.000000000000000000e+00,5.000000000000000000e+00,5.000000000000000000e+00,5.000000000000000000e+00,5.000000000000000000e+00,5.000000000000000000e+00,5.000000000000000000e+00,5.000000000000000000e+00,5.000000000000000000e+00,5.000000000000000000e+00,5.000000000000000000e+00,5.000000000000000000e+00,5.000000000000000000e+00,5.000000000000000000e+00,5.000000000000000000e+00,5.000000000000000000e+00,4.854740619659423828e+00,4.664399147033691406e+00,4.488420009613037109e+00,4.325236797332763672e+00,4.173502922058105469e+00,4.032054424285888672e+00,3.899879217147827148e+00,3.776094913482666016e+00,3.659926891326904297e+00,3.550693035125732422e+00,3.447790622711181641e+00,3.350684165954589844e+00,3.258898258209228516e+00,3.172007083892822266e+00,3.089628696441650391e+00,3.011420965194702148e+00,2.937074899673461914e+00,2.866311311721801758e+00,2.798877239227294922e+00,2.734543323516845703e+00,2.673100233078002930e+00,2.614357709884643555e+00,2.558141708374023438e+00,2.504292249679565430e+00,2.452662944793701172e+00,2.403119564056396484e+00,2.355538368225097656e+00,2.309804439544677734e+00,2.265812635421752930e+00,2.223465204238891602e+00,2.182671785354614258e+00,2.143348217010498047e+00,2.105416536331176758e+00,2.068803787231445312e+00,2.033443212509155273e+00,1.999270677566528320e+00,1.966228008270263672e+00,1.934259533882141113e+00,1.903313994407653809e+00,1.873343229293823242e+00,1.844301462173461914e+00
4.162563800811767578e+00,4.173370838165283203e+00,5.000000000000000000e+00,5.000000000000000000e+00,5.000000000000000000e+00,5.000000000000000000e+00,5.000000000000000000e+00,5.000000000000000000e+00,5.000000000000000000e+00,5.000000000000000000e+00,5.000000000000000000e+00,5.000000000000000000e+00,5.000000000000000000e+00,5.000000000000000000e+00,5.000000000000000000e+00,5.000000000000000000e+00,5.000000000000000000e+00,5.000000000000000000e+00,5.000000000000000000e+00,5.000000000000000000e+00,5.000000000000000000e+00,5.000000000000000000e+00,5.000000000000000000e+00,5.000000000000000000e+00,5.000000000000000000e+00,5.000000000000000000e+00,5.000000000000000000e+00,5.000000000000000000e+00,5.000000000000000000e+00,5.000000000000000000e+00,5.000000000000000000e+00,5.000000000000000000e+00,5.000000000000000000e+00,5.000000000000000000e+00,5.000000000000000000e+00,5.000000000000000000e+00,5.000000000000000000e+00,5.000000000000000000e+00,5.000000000000000000e+00,4.854879856109619141e+00,4.664527893066406250e+00,4.488539218902587891e+00,4.325347423553466797e+00,4.173605918884277344e+00,4.032150268554687500e+00,3.899969339370727539e+00,3.776179075241088867e+00,3.660005807876586914e+00,3.550767421722412109e+00,3.447860717773437500e+00,3.350750684738159180e+00,3.258960962295532227e+00,3.172066450119018555e+00,3.089685201644897461e+00,3.011474609375000000e+00,2.937125682830810547e+00,2.866359710693359375e+00,2.798923492431640625e+00,2.734587430953979492e+00,2.673142671585083008e+00,2.614398241043090820e+00,2.558180332183837891e+00,2.504329204559326172e+00,2.452698469161987305e+00,2.403153657913208008e+00,2.355571031570434570e+00,2.309835910797119141e+00,2.265842914581298828e+00,2.223494529724121094e+00,2.182699918746948242e+00,2.143375396728515625e+00,2.105442762374877930e+00,2.068829298019409180e+00,2.033467531204223633e+00,1.999294281005859375e+00,1.966250896453857422e+00,1.934281587600708008e+00,1.903335571289062500e+00,1.873363852500915527e+00,1.844321489334106445e+00
5.000000000000000000e+00,4.185429096221923828e+00,5.000000000000000000e+00,5.000000000000000000e+00,5.000000000000000000e+00,5.000000000000000000e+00,5.000000000000000000e+00,5.000000000000000000e+00,5.000000000000000000e+00,5.000000000000000000e+00,5.000000000000000000e+00,5.000000000000000000e+00,5.000000000000000000e+00,5.000000000000000000e+00,5.000000000000000000e+00,5.000000000000000000e+00,5.000000000000000000e+00,5.000000000000000000e+00,5.000000000000000000e+00,5.000000000000000000e+00,5.000000000000000000e+00,5.000000000000000000e+00,5.000000000000000000e+00,5.000000000000000000e+00,5.000000000000000000e+00,5.000000000000000000e+00,5.000000000000000000e+00,5.000000000000000000e+00,5.000000000000000000e+00,5.000000000000000000e+00,5.000000000000000000e+00,5.000000000000000000e+00,5.000000000000000000e+00,5.000000000000000000e+00,5.000000000000000000e+00,5.000000000000000000e+00,5.000000000000000000e+00,5.000000000000000000e+00,5.000000000000000000e+00,4.855019569396972656e+00,4.664656162261962891e+00,4.488658428192138672e+00,4.325457572937011719e+00,4.173708915710449219e+00,4.032246589660644531e+00,3.900059223175048828e+00,3.776263475418090820e+00,3.660084962844848633e+00,3.550841808319091797e+00,3.447930812835693359e+00,3.350816965103149414e+00,3.259024143218994141e+00,3.172125816345214844e+00,3.089741468429565430e+00,3.011528253555297852e+00,2.937176942825317383e+00,2.866408109664916992e+00,2.798969745635986328e+00,2.734631538391113281e+00,2.673184871673583984e+00,2.614438772201538086e+00,2.558218955993652344e+00,2.504366159439086914e+00,2.452733993530273438e+00,2.403187990188598633e+00,2.355603694915771484e+00,2.309867382049560547e+00,2.265873193740844727e+00,2.223523855209350586e+00,2.182728290557861328e+00,2.143402576446533203e+00,2.105468988418579102e+00,2.068854570388793945e+00,2.033492088317871094e+00,1.999317884445190430e+00,1.966273665428161621e+00,1.934303760528564453e+00,1.903356909751892090e+00,1.873384594917297363e+00,1.844341635704040527e+00
5.000000000000000000e+00,4.177598953247070312e+00,5.000000000000000000e+00,5.000000000000000000e+00,5.000000000000000000e+00,5.000000000000000000e+00,5.000000000000000000e+00,5.000000000000000000e+00,5.000000000000000000e+00,5.000000000000000000e+00,5.000000000000000000e+00,5.000000000000000000e+00,5.000000000000000000e+00,5.000000000000000000e+00,5.000000000000000000e+00,5.000000000000000000e+00,5.000000000000000000e+00,5.000000000000000000e+00,5.000000000000000000e+00,5.000000000000000000e+00,5.000000000000000000e+00,5.000000000000000000e+00,5.000000000000000000e+00,5.000000000000000000e+00,5.000000000000000000e+00,5.000000000000000000e+00,5.000000000000000000e+00,5.000000000000000000e+00,5.000000000000000000e+00,5.000000000000000000e+00,5.000000000000000000e+00,5.000000000000000000e+00,5.000000000000000000e+00,5.000000000000000000e+00,5.000000000000000000e+00,5.000000000000000000e+00,5.000000000000000000e+00,5.000000000000000000e+00,5.000000000000000000e+00,4.855158329010009766e+00,4.664784908294677734e+00,4.488777160644531250e+00,4.325568675994873047e+00,4.173811435699462891e+00,4.032342433929443359e+00,3.900148868560791016e+00,3.776347637176513672e+00,3.660164356231689453e+00,3.550916194915771484e+00,3.448000907897949219e+00,3.350883245468139648e+00,3.259086608886718750e+00,3.172185420989990234e+00,3.089797735214233398e+00,3.011581659317016602e+00,2.937227964401245117e+00,2.866456985473632812e+00,2.799015998840332031e+00,2.734675645828247070e+00,2.673226833343505859e+00,2.614479064941406250e+00,2.558257579803466797e+00,2.504403114318847656e+00,2.452769517898559570e+00,2.403222084045410156e+00,2.355636596679687500e+00,2.309898853302001953e+00,2.265903472900390625e+00,2.223552942276000977e+00,2.182756423950195312e+00,2.143429756164550781e+00,2.105494976043701172e+00,2.068879842758178711e+00,2.033516407012939453e+00,1.999341607093811035e+00,1.966296553611755371e+00,1.934325814247131348e+00,1.903378367424011230e+00,1.873405337333679199e+00,1.844361901283264160e+00
5.000000000000000000e+00,4.164985656738281250e+00,5.000000000000000000e+00,5.000000000000000000e+00,5.000000000000000000e+00,5.000000000000000000e+00,5.000000000000000000e+00,5.000000000000000000e+00,5.000000000000000000e+00,5.000000000000000000e+00,5.000000000000000000e+00,5.000000000000000000e+00,5.000000000000000000e+00,5.000000000000000000e+00,5.000000000000000000e+00,5.000000000000000000e+00,5.000000000000000000e+00,5.000000000000000000e+00,5.000000000000000000e+00,5.000000000000000000e+00,5.000000000000000000e+00,5.000000000000000000e+00,5.000000000000000000e+00,5.000000000000000000e+00,5.000000000000000000e+00,5.000000000000000000e+00,5.000000000000000000e+00,5.000000000000000000e+00,5.000000000000000000e+00,5.000000000000000000e+00,5.000000000000000000e+00,5.000000000000000000e+00,5.000000000000000000e+00,5.000000000000000000e+00,5.000000000000000000e+00,5.000000000000000000e+00,5.000000000000000000e+00,5.000000000000000000e+00,5.000000000000000000e+00,4.855298042297363281e+00,4.664913177490234375e+00,4.488896369934082031e+00,4.325678825378417969e+00,4.173914909362792969e+00,4.032438278198242188e+00,3.900238752365112305e+00,3.776431798934936523e+00,3.660243272781372070e+00,3.550991058349609375e+00,3.448071241378784180e+00,3.350949525833129883e+00,3.259149312973022461e+00,3.172244787216186523e+00,3.089854240417480469e+00,3.011635303497314453e+00,2.937278747558593750e+00,2.866505384445190430e+00,2.799062490463256836e+00,2.734719753265380859e+00,2.673269033432006836e+00,2.614519357681274414e+00,2.558296203613281250e+00,2.504440307617187500e+00,2.452805042266845703e+00,2.403256177902221680e+00,2.355669498443603516e+00,2.309930562973022461e+00,2.265933752059936523e+00,2.223582029342651367e+00,2.182784557342529297e+00,2.143456935882568359e+00,2.105521440505981445e+00,2.068905115127563477e+00,2.033540964126586914e+00,1.999365210533142090e+00,1.966319322586059570e+00,1.934347867965698242e+00,1.903399705886840820e+00,1.873426079750061035e+00,1.844381928443908691e+00
5.000000000000000000e+00,4.147771835327148438e+00,5.000000000000000000e+00,5.000000000000000000e+00,5.000000000000000000e+00,5.000000000000000000e+00,5.000000000000000000e+00,5.000000000000000000e+00,5.000000000000000000e+00,5.000000000000000000e+00,5.000000000000000000e+00,5.000000000000000000e+00,5.000000000000000000e+00,5.000000000000000000e+00,5.000000000000000000e+00,5.000000000000000000e+00,5.000000000000000000e+00,5.000000000000000000e+00,5.000000000000000000e+00,5.000000000000000000e+00,5.000000000000000000e+00,5.000000000000000000e+00,5.000000000000000000e+00,5.000000000000000000e+00,5.000000000000000000e+00,5.000000000000000000e+00,5.000000000000000000e+00,5.000000000000000000e+00,5.000000000000000000e+00,5.000000000000000000e+00,5.000000000000000000e+00,5.000000000000000000e+00,5.000000000000000000e+00,5.000000000000000000e+00,5.000000000000000000e+00,5.000000000000000000e+00,5.000000000000000000e+00,5.000000000000000000e+00,5.000000000000000000e+00,4.855436801910400391e+00,4.665041923522949219e+00,4.489015102386474609e+00,4.325789451599121094e+00,4.174017429351806641e+00,4.032534599304199219e+00,3.900328397750854492e+00,3.776515960693359375e+00,3.660322427749633789e+00,3.551065444946289062e+00,3.448141574859619141e+00,3.351015806198120117e+00,3.259212017059326172e+00,3.172304153442382812e+00,3.089910745620727539e+00,3.011688709259033203e+00,2.937329769134521484e+00,2.866553783416748047e+00,2.799108743667602539e+00,2.734764099121093750e+00,2.673311233520507812e+00,2.614559650421142578e+00,2.558334827423095703e+00,2.504477500915527344e+00,2.452840805053710938e+00,2.403290033340454102e+00,2.355702161788940430e+00,2.309962034225463867e+00,2.265964269638061523e+00,2.223611354827880859e+00,2.182812690734863281e+00,2.143483877182006836e+00,2.105547428131103516e+00,2.068930387496948242e+00,2.033565282821655273e+00,1.999388813972473145e+00,1.966342091560363770e+00,1.934370160102844238e+00,1.903421044349670410e+00,1.873446702957153320e+00,1.844402074813842773e+00
5.000000000000000000e+00,4.131230354309082031e+00,5.000000000000000000e+00,5.000000000000000000e+00,5.000000000000000000e+00,5.000000000000000000e+00,5.000000000000000000e+00,5.000000000000000000e+00,5.000000000000000000e+00,5.000000000000000000e+00,5.000000000000000000e+00,5.000000000000000000e+00,5.000000000000000000e+00,5.000000000000000000e+00,5.000000000000000000e+00,5.000000000000000000e+00,5.000000000000000000e+00,5.000000000000000000e+00,5.000000000000000000e+00,5.000000000000000000e+00,5.000000000000000000e+00,5.000000000000000000e+00,5.000000000000000000e+00,5.000000000000000000e+00,5.000000000000000000e+00,5.000000000000000000e+00,5.000000000000000000e+00,5.000000000000000000e+00,5.000000000000000000e+00,5.000000000000000000e+00,5.000000000000000000e+00,5.000000000000000000e+00,5.000000000000000000e+00,5.000000000000000000e+00,5.000000000000000000e+00,5.000000000000000000e+00,5.000000000000000000e+00,5.000000000000000000e+00,5.000000000000000000e+00,4.855576038360595703e+00,4.665170192718505859e+00,4.489134311676025391e+00,4.325900077819824219e+00,4.174120426177978516e+00,4.032630443572998047e+00,3.900418758392333984e+00,3.776600122451782227e+00,3.660401582717895508e+00,3.551139831542968750e+00,3.448211908340454102e+00,3.351082324981689453e+00,3.259274721145629883e+00,3.172363519668579102e+00,3.089967012405395508e+00,3.011742591857910156e+00,2.937380552291870117e+00,2.866602420806884766e+00,2.799154758453369141e+00,2.734808206558227539e+00,2.673353672027587891e+00,2.614599943161010742e+00,2.558373451232910156e+00,2.504514455795288086e+00,2.452876329421997070e+00,2.403324365615844727e+00,2.355734825134277344e+00,2.309993505477905273e+00,2.265994548797607422e+00,2.223640680313110352e+00,2.182840585708618164e+00,2.143511056900024414e+00,2.105573654174804688e+00,2.068955659866333008e+00,2.033589839935302734e+00,1.999412417411804199e+00,1.966364979743957520e+00,1.934392213821411133e+00,1.903442502021789551e+00,1.873467445373535156e+00,1.844422101974487305e+00
5.000000000000000000e+00,4.116147994995117188e+00,5.000000000000000000e+00,5.000000000000000000e+00,5.000000000000000000e+00,5.000000000000000000e+00,5.000000000000000000e+00,5.000000000000000000e+00,5.000000000000000000e+00,5.000000000000000000e+00,5.000000000000000000e+00,5.000000000000000000e+00,5.000000000000000000e+00,5.000000000000000000e+00,5.000000000000000000e+00,5.000000000000000000e+00,5.000000000000000000e+00,5.000000000000000000e+00,5.000000000000000000e+00,5.000000000000000000e+00,5.000000000000000000e+00,5.000000000000000000e+00,5.000000000000000000e+00,5.000000000000000000e+00,5.000000000000000000e+00,5.000000000000000000e+00,5.000000000000000000e+00,5.000000000000000000e+00,5.000000000000000000e+00,5.000000000000000000e+00,5.000000000000000000e+00,5.000000000000000000e+00,5.000000000000000000e+00,5.000000000000000000e+00,5.000000000000000000e+00,5.000000000000000000e+00,5.000000000000000000e+00,5.000000000000000000e+00,5.000000000000000000e+00,4.855715751647949219e+00,4.665298938751220703e+00,4.489253520965576172e+00,4.326010704040527344e+00,4.174223423004150391e+00,4.032726764678955078e+00,3.900508403778076172e+00,3.776684761047363281e+00,3.660480499267578125e+00,3.551214218139648438e+00,3.448282003402709961e+00,3.351148605346679688e+00,3.259337663650512695e+00,3.172422885894775391e+00,3.090023517608642578e+00,3.011795997619628906e+00,2.937431812286376953e+00,2.866650819778442383e+00,2.799201011657714844e+00,2.734852313995361328e+00,2.673395872116088867e+00,2.614640474319458008e+00,2.558412075042724609e+00,2.504551410675048828e+00,2.452911853790283203e+00,2.403358459472656250e+00,2.355767726898193359e+00,2.310024976730346680e+00,2.266024827957153320e+00,2.223669767379760742e+00,2.182868957519531250e+00,2.143538236618041992e+00,2.105599880218505859e+00,2.068980932235717773e+00,2.033614158630371094e+00,1.999436020851135254e+00,1.966387748718261719e+00,1.934414267539978027e+00,1.903463840484619141e+00,1.873488426208496094e+00,1.844442129135131836e+00
5.000000000000000000e+00,5.000000000000000000e+00,5.000000000000000000e+00,5.000000000000000000e+00,5.000000000000000000e+00,5.000000000000000000e+00,5.000000000000000000e+00,5.000000000000000000e+00,5.000000000000000000e+00,5.000000000000000000e+00,5.000000000000000000e+00,5.000000000000000000e+00,5.000000000000000000e+00,5.000000000000000000e+00,5.000000000000000000e+00,5.000000000000000000e+00,5.000000000000000000e+00,5.000000000000000000e+00,5.000000000000000000e+00,5.000000000000000000e+00,5.000000000000000000e+00,5.000000000000000000e+00,5.000000000000000000e+00,5.000000000000000000e+00,5.000000000000000000e+00,5.000000000000000000e+00,5.000000000000000000e+00,5.000000000000000000e+00,5.000000000000000000e+00,5.000000000000000000e+00,5.000000000000000000e+00,5.000000000000000000e+00,5.000000000000000000e+00,5.000000000000000000e+00,5.000000000000000000e+00,5.000000000000000000e+00,5.000000000000000000e+00,5.000000000000000000e+00,5.000000000000000000e+00,4.855854988098144531e+00,4.665427684783935547e+00,4.489372253417968750e+00,4.326121330261230469e+00,4.174326419830322266e+00,4.032822608947753906e+00,3.900598287582397461e+00,3.776768922805786133e+00,3.660560131072998047e+00,3.551288604736328125e+00,3.448352098464965820e+00,3.351214885711669922e+00,3.259400367736816406e+00,3.172482728958129883e+00,3.090079784393310547e+00,3.011849641799926758e+00,2.937482595443725586e+00,2.866699695587158203e+00,2.799247264862060547e+00,2.734896421432495117e+00,2.673438072204589844e+00,2.614681005477905273e+00,2.558450937271118164e+00,2.504588365554809570e+00,2.452947139739990234e+00,2.403392553329467773e+00,2.355800628662109375e+00,2.310056686401367188e+00,2.266055107116699219e+00,2.223698854446411133e+00,2.182897090911865234e+00,2.143565416336059570e+00,2.105626106262207031e+00,2.069006204605102539e+00,2.033638477325439453e+00,1.999459624290466309e+00,1.966410756111145020e+00,1.934436440467834473e+00,1.903485178947448730e+00,1.873509049415588379e+00,1.844462275505065918e+00
5.000000000000000000e+00,5.000000000000000000e+00,5.000000000000000000e+00,5.000000000000000000e+00,5.000000000000000000e+00,5.000000000000000000e+00,5.000000000000000000e+00,5.000000000000000000e+00,5.000000000000000000e+00,5.000000000000000000e+00,5.000000000000000000e+00,5.000000000000000000e+00,5.000000000000000000e+00,5.000000000000000000e+00,5.000000000000000000e+00,5.000000000000000000e+00,5.000000000000000000e+00,5.000000000000000000e+00,5.000000000000000000e+00,5.000000000000000000e+00,5.000000000000000000e+00,5.000000000000000000e+00,5.000000000000000000e+00,5.000000000000000000e+00,5.000000000000000000e+00,5.000000000000000000e+00,5.000000000000000000e+00,5.000000000000000000e+00,5.000000000000000000e+00,5.000000000000000000e+00,5.000000000000000000e+00,5.000000000000000000e+00,5.000000000000000000e+00,5.000000000000000000e+00,5.000000000000000000e+00,5.000000000000000000e+00,5.000000000000000000e+00,5.000000000000000000e+00,5.000000000000000000e+00,4.855994224548339844e+00,4.665555953979492188e+00,4.489491462707519531e+00,4.326231479644775391e+00,4.174429416656494141e+00,4.032918930053710938e+00,3.900687932968139648e+00,3.776853084564208984e+00,3.660639047622680664e+00,3.551363468170166016e+00,3.448422193527221680e+00,3.351281166076660156e+00,3.259463071823120117e+00,3.172542095184326172e+00,3.090136528015136719e+00,3.011903047561645508e+00,2.937533617019653320e+00,2.866748094558715820e+00,2.799293756484985352e+00,2.734940767288208008e+00,2.673480272293090820e+00,2.614721298217773438e+00,2.558489561080932617e+00,2.504625558853149414e+00,2.452982664108276367e+00,2.403426647186279297e+00,2.355833292007446289e+00,2.310088157653808594e+00,2.266085624694824219e+00,2.223728179931640625e+00,2.182925224304199219e+00,2.143592596054077148e+00,2.105652332305908203e+00,2.069031476974487305e+00,2.033663034439086914e+00,1.999483227729797363e+00,1.966433644294738770e+00,1.934458494186401367e+00,1.903506636619567871e+00,1.873529791831970215e+00,1.844482302665710449e+00
5.000000000000000000e+00,5.000000000000000000e+00,5.000000000000000000e+00,5.000000000000000000e+00,5.000000000000000000e+00,5.000000000000000000e+00,5.000000000000000000e+00,5.000000000000000000e+00,5.000000000000000000e+00,5.000000000000000000e+00,5.000000000000000000e+00,5.000000000000000000e+00,5.000000000000000000e+00,5.000000000000000000e+00,5.000000000000000000e+00,5.000000000000000000e+00,5.000000000000000000e+00,5.000000000000000000e+00,5.000000000000000000e+00,5.000000000000000000e+00,5.000000000000000000e+00,5.000000000000000000e+00,5.000000000000000000e+00,5.000000000000000000e+00,5.000000000000000000e+00,5.000000000000000000e+00,5.000000000000000000e+00,5.000000000000000000e+00,5.000000000000000000e+00,5.000000000000000000e+00,5.000000000000000000e+00,5.000000000000000000e+00,5.000000000000000000e+00,5.000000000000000000e+00,5.000000000000000000e+00,5.000000000000000000e+00,5.000000000000000000e+00,5.000000000000000000e+00,5.000000000000000000e+00,4.856132507324218750e+00,4.665684700012207031e+00,4.489610671997070312e+00,4.326342582702636719e+00,4.174531936645507812e+00,4.033014774322509766e+00,3.900778293609619141e+00,3.776937246322631836e+00,3.660718202590942383e+00,3.551437854766845703e+00,3.448492765426635742e+00,3.351347446441650391e+00,3.259525775909423828e+00,3.172601461410522461e+00,3.090192794799804688e+00,3.011956930160522461e+00,2.937584400177001953e+00,2.866796493530273438e+00,2.799340009689331055e+00,2.734985113143920898e+00,2.673522472381591797e+00,2.614761590957641602e+00,2.558528184890747070e+00,2.504662752151489258e+00,2.453018426895141602e+00,2.403460741043090820e+00,2.355865955352783203e+00,2.310119628906250000e+00,2.266115903854370117e+00,2.223757266998291016e+00,2.182953357696533203e+00,2.143619775772094727e+00,2.105678558349609375e+00,2.069056749343872070e+00,2.033687353134155273e+00,1.999506831169128418e+00,1.966456413269042969e+00,1.934480547904968262e+00,1.903528213500976562e+00,1.873550534248352051e+00,1.844502449035644531e+00
5.000000000000000000e+00,5.000000000000000000e+00,5.000000000000000000e+00,5.000000000000000000e+00,5.000000000000000000e+00,5.000000000000000000e+00,5.000000000000000000e+00,5.000000000000000000e+00,5.000000000000000000e+00,5.000000000000000000e+00,5.000000000000000000e+00,5.000000000000000000e+00,5.000000000000000000e+00,5.000000000000000000e+00,5.000000000000000000e+00,5.000000000000000000e+00,5.000000000000000000e+00,5.000000000000000000e+00,5.000000000000000000e+00,5.000000000000000000e+00,5.000000000000000000e+00,5.000000000000000000e+00,5.000000000000000000e+00,5.000000000000000000e+00,5.000000000000000000e+00,5.000000000000000000e+00,5.000000000000000000e+00,5.000000000000000000e+00,5.000000000000000000e+00,5.000000000000000000e+00,5.000000000000000000e+00,5.000000000000000000e+00,5.000000000000000000e+00,5.000000000000000000e+00,5.000000000000000000e+00,5.000000000000000000e+00,5.000000000000000000e+00,5.000000000000000000e+00,5.000000000000000000e+00,4.856270313262939453e+00,4.665813446044921875e+00,4.489729881286621094e+00,4.326452732086181641e+00,4.174635410308837891e+00,4.033110618591308594e+00,3.900868177413940430e+00,3.777021884918212891e+00,3.660797357559204102e+00,3.551512241363525391e+00,3.448563098907470703e+00,3.351414203643798828e+00,3.259588479995727539e+00,3.172660827636718750e+00,3.090249061584472656e+00,3.012010335922241211e+00,2.937635660171508789e+00,2.866845130920410156e+00,2.799386262893676758e+00,2.735029220581054688e+00,2.673564672470092773e+00,2.614801883697509766e+00,2.558566808700561523e+00,2.504699707031250000e+00,2.453053951263427734e+00,2.403495073318481445e+00,2.355898857116699219e+00,2.310151100158691406e+00,2.266146183013916016e+00,2.223786592483520508e+00,2.182981491088867188e+00,2.143646717071533203e+00,2.105704545974731445e+00,2.069082021713256836e+00,2.033711910247802734e+00,1.999530434608459473e+00,1.966479301452636719e+00,1.934502601623535156e+00,1.903549551963806152e+00,1.873571276664733887e+00,1.844522476196289062e+00
5.000000000000000000e+00,5.000000000000000000e+00,5.000000000000000000e+00,5.000000000000000000e+00,5.000000000000000000e+00,5.000000000000000000e+00,5.000000000000000000e+00,5.000000000000000000e+00,5.000000000000000000e+00,5.000000000000000000e+00,5.000000000000000000e+00,5.000000000000000000e+00,5.000000000000000000e+00,5.000000000000000000e+00,5.000000000000000000e+00,5.000000000000000000e+00,5.000000000000000000e+00,5.000000000000000000e+00,5.000000000000000000e+00,5.000000000000000000e+00,5.000000000000000000e+00,5.000000000000000000e+00,5.000000000000000000e+00,5.000000000000000000e+00,5.000000000000000000e+00,5.000000000000000000e+00,5.000000000000000000e+00,5.000000000000000000e+00,5.000000000000000000e+00,5.000000000000000000e+00,5.000000000000000000e+00,5.000000000000000000e+00,5.000000000000000000e+00,5.000000000000000000e+00,5.000000000000000000e+00,5.000000000000000000e+00,5.000000000000000000e+00,5.000000000000000000e+00,5.000000000000000000e+00,4.856408596038818359e+00,4.665940284729003906e+00,4.489848613739013672e+00,4.326563358306884766e+00,4.174737930297851562e+00,4.033206939697265625e+00,3.900957822799682617e+00,3.777106046676635742e+00,3.660876750946044922e+00,3.551586627960205078e+00,3.448633193969726562e+00,3.351480484008789062e+00,3.259651422500610352e+00,3.172720193862915039e+00,3.090305566787719727e+00,3.012063980102539062e+00,2.937686681747436523e+00,2.866893768310546875e+00,2.799432516098022461e+00,2.735073328018188477e+00,2.673606872558593750e+00,2.614842414855957031e+00,2.558605432510375977e+00,2.504736661911010742e+00,2.453089475631713867e+00,2.403529167175292969e+00,2.355931758880615234e+00,2.310182571411132812e+00,2.266176700592041016e+00,2.223815917968750000e+00,2.183009624481201172e+00,2.143673896789550781e+00,2.105730772018432617e+00,2.069107294082641602e+00,2.033736228942871094e+00,1.999554157257080078e+00,1.966502070426940918e+00,1.934524774551391602e+00,1.903571009635925293e+00,1.873591899871826172e+00,1.844542741775512695e+00
5.000000000000000000e+00,5.000000000000000000e+00,5.000000000000000000e+00,5.000000000000000000e+00,5.000000000000000000e+00,5.000000000000000000e+00,5.000000000000000000e+00,5.000000000000000000e+00,5.000000000000000000e+00,5.000000000000000000e+00,5.000000000000000000e+00,5.000000000000000000e+00,5.000000000000000000e+00,5.000000000000000000e+00,5.000000000000000000e+00,5.000000000000000000e+00,5.000000000000000000e+00,5.000000000000000000e+00,5.000000000000000000e+00,5.000000000000000000e+00,5.000000000000000000e+00,5.000000000000000000e+00,5.000000000000000000e+00,5.000000000000000000e+00,5.000000000000000000e+00,5.000000000000000000e+00,5.000000000000000000e+00,5.000000000000000000e+00,5.000000000000000000e+00,5.000000000000000000e+00,5.000000000000000000e+00,5.000000000000000000e+00,5.000000000000000000e+00,5.000000000000000000e+00,5.000000000000000000e+00,5.000000000000000000e+00,5.000000000000000000e+00,5.000000000000000000e+00,5.000000000000000000e+00,4.856546878814697266e+00,4.666067600250244141e+00,4.489966392517089844e+00,4.326673984527587891e+00,4.174840927124023438e+00,4.033302783966064453e+00,3.901047706604003906e+00,3.777190208435058594e+00,3.660955905914306641e+00,3.551661491394042969e+00,3.448703289031982422e+00,3.351546764373779297e+00,3.259714126586914062e+00,3.172779798507690430e+00,3.090361833572387695e+00,3.012117624282836914e+00,2.937737464904785156e+00,2.866942405700683594e+00,2.799479007720947266e+00,2.735117435455322266e+00,2.673649072647094727e+00,2.614882946014404297e+00,2.558644294738769531e+00,2.504773616790771484e+00,2.453125000000000000e+00,2.403563261032104492e+00,2.355964422225952148e+00,2.310214281082153320e+00,2.266206979751586914e+00,2.223845005035400391e+00,2.183037757873535156e+00,2.143701076507568359e+00,2.105756998062133789e+00,2.069132566452026367e+00,2.033760786056518555e+00,1.999577760696411133e+00,1.966524839401245117e+00,1.934546828269958496e+00,1.903592348098754883e+00,1.873612642288208008e+00,1.844562888145446777e+00
5.000000000000000000e+00,5.000000000000000000e+00,5.000000000000000000e+00,5.000000000000000000e+00,5.000000000000000000e+00,5.000000000000000000e+00,5.000000000000000000e+00,5.000000000000000000e+00,5.000000000000000000e+00,5.000000000000000000e+00,5.000000000000000000e+00,5.000000000000000000e+00,5.000000000000000000e+00,5.000000000000000000e+00,5.000000000000000000e+00,5.000000000000000000e+00,5.000000000000000000e+00,5.000000000000000000e+00,5.000000000000000000e+00,5.000000000000000000e+00,5.000000000000000000e+00,5.000000000000000000e+00,5.000000000000000000e+00,5.000000000000000000e+00,5.000000000000000000e+00,5.000000000000000000e+00,5.000000000000000000e+00,5.000000000000000000e+00,5.000000000000000000e+00,5.000000000000000000e+00,5.000000000000000000e+00,5.000000000000000000e+00,5.000000000000000000e+00,5.000000000000000000e+00,5.000000000000000000e+00,5.000000000000000000e+00,5.000000000000000000e+00,5.000000000000000000e+00,5.000000000000000000e+00,4.856685161590576172e+00,4.666194915771484375e+00,4.490084648132324219e+00,4.326783657073974609e+00,4.174943923950195312e+00,4.033399105072021484e+00,3.901137351989746094e+00,3.777274370193481445e+00,3.661034822463989258e+00,3.551735877990722656e+00,3.448773860931396484e+00,3.351613044738769531e+00,3.259776830673217773e+00,3.172839403152465820e+00,3.090418577194213867e+00,3.012171030044555664e+00,2.937788486480712891e+00,2.866990804672241211e+00,2.799525260925292969e+00,2.735161781311035156e+00,2.673691272735595703e+00,2.614923238754272461e+00,2.558682918548583984e+00,2.504811048507690430e+00,2.453160524368286133e+00,2.403597354888916016e+00,2.355997323989868164e+00,2.310245752334594727e+00,2.266237258911132812e+00,2.223874092102050781e+00,2.183065891265869141e+00,2.143728256225585938e+00,2.105783224105834961e+00,2.069157838821411133e+00,2.033785104751586914e+00,1.999601364135742188e+00,1.966547727584838867e+00,1.934569120407104492e+00,1.903613686561584473e+00,1.873633384704589844e+00,1.844582915306091309e+00
5.000000000000000000e+00,5.000000000000000000e+00,5.000000000000000000e+00,5.000000000000000000e+00,5.000000000000000000e+00,5.000000000000000000e+00,5.000000000000000000e+00,5.000000000000000000e+00,5.000000000000000000e+00,5.000000000000000000e+00,5.000000000000000000e+00,5.000000000000000000e+00,5.000000000000000000e+00,5.000000000000000000e+00,5.000000000000000000e+00,5.000000000000000000e+00,5.000000000000000000e+00,5.000000000000000000e+00,5.000000000000000000e+00,5.000000000000000000e+00,5.000000000000000000e+00,5.000000000000000000e+00,5.000000000000000000e+00,5.000000000000000000e+00,5.000000000000000000e+00,5.000000000000000000e+00,5.000000000000000000e+00,5.000000000000000000e+00,5.000000000000000000e+00,5.000000000000000000e+00,5.000000000000000000e+00,5.000000000000000000e+00,5.000000000000000000e+00,5.000000000000000000e+00,5.000000000000000000e+00,5.000000000000000000e+00,5.000000000000000000e+00,5.000000000000000000e+00,5.000000000000000000e+00,4.856823444366455078e+00,4.666323184967041016e+00,4.490202903747558594e+00,4.326893329620361328e+00,4.175046920776367188e+00,4.033495426177978516e+00,3.901227712631225586e+00,3.777358531951904297e+00,3.661113977432250977e+00,3.551810503005981445e+00,3.448844194412231445e+00,3.351679325103759766e+00,3.259839534759521484e+00,3.172898769378662109e+00,3.090474843978881836e+00,3.012224912643432617e+00,2.937839508056640625e+00,2.867039442062377930e+00,2.799571514129638672e+00,2.735205888748168945e+00,2.673733711242675781e+00,2.614963531494140625e+00,2.558721542358398438e+00,2.504848003387451172e+00,2.453196287155151367e+00,2.403631448745727539e+00,2.356029987335205078e+00,2.310277223587036133e+00,2.266267776489257812e+00,2.223903417587280273e+00,2.183094024658203125e+00,2.143755435943603516e+00,2.105809450149536133e+00,2.069183349609375000e+00,2.033809661865234375e+00,1.999624967575073242e+00,1.966570496559143066e+00,1.934591174125671387e+00,1.903635144233703613e+00,1.873654127120971680e+00,1.844602942466735840e+00
4.875002861022949219e+00,4.873792171478271484e+00,4.872581958770751953e+00,4.871372222900390625e+00,4.870163440704345703e+00,4.868955135345458984e+00,4.867747306823730469e+00,4.866539955139160156e+00,4.865333080291748047e+00,4.864127159118652344e+00,4.862921714782714844e+00,4.861716747283935547e+00,4.860512733459472656e+00,4.859308719635009766e+00,4.858105659484863281e+00,4.856903553009033203e+00,4.855701923370361328e+00,4.854500770568847656e+00,4.853300094604492188e+00,4.852099895477294922e+00,4.850900650024414062e+00,4.849701404571533203e+00,4.848503112792968750e+00,4.847305774688720703e+00,4.846108436584472656e+00,4.844912052154541016e+00,4.843716144561767578e+00,4.842521190643310547e+00,4.841326236724853516e+00,4.840132236480712891e+00,4.838938236236572266e+00,4.837745189666748047e+00,4.836553096771240234e+00,4.835361003875732422e+00,4.834169864654541016e+00,4.832979202270507812e+00,4.831789016723632812e+00,4.830599784851074219e+00,4.829411029815673828e+00,4.828222751617431641e+00,4.666450500488281250e+00,4.490320682525634766e+00,4.327003002166748047e+00,4.175148487091064453e+00,4.033591270446777344e+00,3.901317596435546875e+00,3.777443170547485352e+00,3.661193132400512695e+00,3.551884889602661133e+00,3.448914289474487305e+00,3.351745843887329102e+00,3.259902238845825195e+00,3.172958135604858398e+00,3.090531110763549805e+00,3.012278318405151367e+00,2.937890529632568359e+00,2.867087841033935547e+00,2.799617767333984375e+00,2.735249996185302734e+00,2.673775911331176758e+00,2.615004062652587891e+00,2.558760166168212891e+00,2.504884958267211914e+00,2.453231573104858398e+00,2.403665542602539062e+00,2.356062650680541992e+00,2.310308694839477539e+00,2.266298055648803711e+00,2.223932743072509766e+00,2.183122396469116211e+00,2.143782615661621094e+00,2.105835676193237305e+00,2.069208621978759766e+00,2.033833980560302734e+00,1.999648571014404297e+00,1.966593384742736816e+00,1.934613347053527832e+00,1.903656482696533203e+00,1.873674988746643066e+00,1.844623088836669922e+00
3.777808189392089844e+00,3.777081012725830078e+00,3.776354074478149414e+00,3.775627374649047852e+00,3.774901151657104492e+00,3.774174928665161133e+00,3.773449182510375977e+00,3.772723674774169922e+00,3.771998405456542969e+00,3.771273612976074219e+00,3.770548820495605469e+00,3.769824504852294922e+00,3.769100427627563477e+00,3.768376588821411133e+00,3.767652988433837891e+00,3.766929864883422852e+00,3.766206741333007812e+00,3.765484094619750977e+00,3.764762163162231445e+00,3.764039754867553711e+00,3.763317823410034180e+00,3.762596368789672852e+00,3.761874914169311523e+00,3.761153936386108398e+00,3.760433197021484375e+00,3.759712696075439453e+00,3.758992433547973633e+00,3.758272409439086914e+00,3.757552862167358398e+00,3.756833314895629883e+00,3.756114244461059570e+00,3.755395412445068359e+00,3.754676818847656250e+00,3.753958463668823242e+00,3.753240585327148438e+00,3.752522706985473633e+00,3.751805305480957031e+00,3.751088142395019531e+00,3.750371217727661133e+00,3.749654531478881836e+00,3.748938560485839844e+00,3.748222351074218750e+00,3.747506618499755859e+00,3.746790885925292969e+00,3.746075630187988281e+00,3.745360612869262695e+00,3.744645833969116211e+00,3.661272525787353516e+00,3.551959276199340820e+00,3.448984384536743164e+00,3.351812124252319336e+00,3.259965419769287109e+00,3.173017501831054688e+00,3.090587615966796875e+00,3.012331962585449219e+00,2.937941551208496094e+00,2.867136478424072266e+00,2.799664020538330078e+00,2.735294342041015625e+00,2.673818111419677734e+00,2.615044355392456055e+00,2.558799028396606445e+00,2.504921913146972656e+00,2.453267097473144531e+00,2.403699636459350586e+00,2.356095790863037109e+00,2.310340166091918945e+00,2.266328334808349609e+00,2.223961830139160156e+00,2.183150529861450195e+00,2.143809795379638672e+00,2.105861663818359375e+00,2.069233894348144531e+00,2.033858537673950195e+00,1.999672174453735352e+00,1.966616153717041016e+00,1.934635400772094727e+00,1.903677940368652344e+00,1.873695731163024902e+00,1.844643115997314453e+00
3.083760261535644531e+00,3.083275794982910156e+00,3.082791328430175781e+00,3.082307100296020508e+00,3.081822872161865234e+00,3.081339120864868164e+00,3.080855369567871094e+00,3.080371618270874023e+00,3.079888105392456055e+00,3.079404830932617188e+00,3.078921556472778320e+00,3.078438520431518555e+00,3.077955722808837891e+00,3.077472925186157227e+00,3.076990365982055664e+00,3.076508045196533203e+00,3.076025724411010742e+00,3.075543642044067383e+00,3.075061559677124023e+00,3.074579715728759766e+00,3.074098110198974609e+00,3.073616743087768555e+00,3.073135375976562500e+00,3.072654247283935547e+00,3.072173118591308594e+00,3.071692228317260742e+00,3.071211576461791992e+00,3.070730924606323242e+00,3.070250272750854492e+00,3.069770097732543945e+00,3.069289922714233398e+00,3.068809986114501953e+00,3.068330049514770508e+00,3.067850351333618164e+00,3.067370653152465820e+00,3.066891431808471680e+00,3.066411972045898438e+00,3.065932989120483398e+00,3.065454006195068359e+00,3.064975261688232422e+00,3.064496517181396484e+00,3.064018011093139648e+00,3.063539743423461914e+00,3.063061714172363281e+00,3.062583684921264648e+00,3.062105894088745117e+00,3.061628103256225586e+00,3.061150312423706055e+00,3.060672998428344727e+00,3.060195684432983398e+00,3.059718370437622070e+00,3.059241294860839844e+00,3.058764457702636719e+00,3.058287858963012695e+00,3.012385606765747070e+00,2.937992572784423828e+00,2.867185115814208984e+00,2.799710512161254883e+00,2.735338449478149414e+00,2.673860311508178711e+00,2.615084886550903320e+00,2.558837652206420898e+00,2.504959106445312500e+00,2.453302621841430664e+00,2.403733730316162109e+00,2.356128454208374023e+00,2.310371875762939453e+00,2.266358613967895508e+00,2.223991155624389648e+00,2.183178663253784180e+00,2.143836975097656250e+00,2.105888128280639648e+00,2.069259166717529297e+00,2.033882856369018555e+00,1.999695777893066406e+00,1.966639280319213867e+00,1.934657454490661621e+00,1.903699278831481934e+00,1.873716473579406738e+00,1.844663262367248535e+00
2.605149507522583008e+00,2.604803800582885742e+00,2.604458093643188477e+00,2.604112386703491211e+00,2.603766918182373047e+00,2.603421449661254883e+00,2.603076219558715820e+00,2.602730751037597656e+00,2.602385759353637695e+00,2.602040529251098633e+00,2.601695537567138672e+00,2.601350784301757812e+00,2.601005792617797852e+00,2.600661039352416992e+00,2.600316524505615234e+00,2.599972009658813477e+00,2.599627494812011719e+00,2.599283218383789062e+00,2.598938941955566406e+00,2.598594665527343750e+00,2.598250627517700195e+00,2.597906589508056641e+00,2.597562789916992188e+00,2.597218990325927734e+00,2.596875429153442383e+00,2.596531629562377930e+00,2.596188306808471680e+00,2.595844745635986328e+00,2.595501422882080078e+00,2.595158100128173828e+00,2.594815015792846680e+00,2.594471931457519531e+00,2.594128847122192383e+00,2.593786001205444336e+00,2.593443155288696289e+00,2.593100309371948242e+00,2.592757701873779297e+00,2.592415332794189453e+00,2.592072725296020508e+00,2.591730356216430664e+00,2.591388225555419922e+00,2.591046094894409180e+00,2.590703964233398438e+00,2.590361833572387695e+00,2.590019941329956055e+00,2.589678287506103516e+00,2.589336633682250977e+00,2.588994979858398438e+00,2.588653564453125000e+00,2.588311910629272461e+00,2.587970733642578125e+00,2.587629318237304688e+00,2.587288141250610352e+00,2.586947202682495117e+00,2.586606025695800781e+00,2.586265087127685547e+00,2.585924386978149414e+00,2.585583686828613281e+00,2.585242986679077148e+00,2.584902524948120117e+00,2.584562063217163086e+00,2.558876276016235352e+00,2.504996299743652344e+00,2.453338384628295898e+00,2.403767824172973633e+00,2.356161117553710938e+00,2.310403347015380859e+00,2.266389131546020508e+00,2.224020242691040039e+00,2.183206796646118164e+00,2.143863916397094727e+00,2.105914354324340820e+00,2.069284439086914062e+00,2.033907413482666016e+00,1.999719381332397461e+00,1.966662049293518066e+00,1.934679508209228516e+00,1.903720617294311523e+00,1.873737096786499023e+00,1.844683289527893066e+00
2.255177736282348633e+00,2.254917383193969727e+00,2.254656791687011719e+00,2.254396200180053711e+00,2.254135608673095703e+00,2.253875255584716797e+00,2.253614902496337891e+00,2.253354787826538086e+00,2.253094434738159180e+00,2.252834320068359375e+00,2.252574205398559570e+00,2.252314090728759766e+00,2.252053976058959961e+00,2.251794338226318359e+00,2.251534461975097656e+00,2.251274585723876953e+00,2.251014709472656250e+00,2.250755071640014648e+00,2.250495433807373047e+00,2.250236034393310547e+00,2.249976396560668945e+00,2.249716997146606445e+00,2.249457597732543945e+00,2.249198198318481445e+00,2.248940467834472656e+00,2.248682737350463867e+00,2.248425006866455078e+00,2.248167514801025391e+00,2.247910022735595703e+00,2.247652530670166016e+00,2.247395038604736328e+00,2.247137784957885742e+00,2.246880292892456055e+00,2.246623039245605469e+00,2.246366024017333984e+00,2.246108770370483398e+00,2.245851755142211914e+00,2.245594739913940430e+00,2.245337724685668945e+00,2.245080709457397461e+00,2.244823932647705078e+00,2.244567155838012695e+00,2.244310379028320312e+00,2.244053840637207031e+00,2.243797302246093750e+00,2.243540763854980469e+00,2.243284225463867188e+00,2.243027687072753906e+00,2.242771625518798828e+00,2.242515325546264648e+00,2.242259025573730469e+00,2.242002725601196289e+00,2.241746664047241211e+00,2.241490602493286133e+00,2.241234540939331055e+00,2.240978717803955078e+00,2.240722656250000000e+00,2.240466833114624023e+00,2.240211009979248047e+00,2.239955425262451172e+00,2.239699602127075195e+00,2.239444017410278320e+00,2.239188432693481445e+00,2.238933086395263672e+00,2.238677501678466797e+00,2.238422155380249023e+00,2.238166809082031250e+00,2.237911701202392578e+00,2.224049568176269531e+00,2.183234930038452148e+00,2.143891096115112305e+00,2.105940341949462891e+00,2.069309711456298828e+00,2.033931970596313477e+00,1.999742984771728516e+00,1.966684937477111816e+00,1.934701681137084961e+00,1.903742313385009766e+00,1.873757839202880859e+00,1.844703435897827148e+00
1.988165259361267090e+00,1.987962603569030762e+00,1.987760066986083984e+00,1.987557530403137207e+00,1.987355113029479980e+00,1.987152814865112305e+00,1.986950516700744629e+00,1.986748099327087402e+00,1.986545801162719727e+00,1.986343622207641602e+00,1.986141324043273926e+00,1.985939145088195801e+00,1.985736966133117676e+00,1.985534906387329102e+00,1.985332846641540527e+00,1.985130786895751953e+00,1.984928846359252930e+00,1.984727144241333008e+00,1.984525322914123535e+00,1.984323382377624512e+00,1.984121561050415039e+00,1.983919739723205566e+00,1.983718037605285645e+00,1.983516335487365723e+00,1.983314752578735352e+00,1.983113050460815430e+00,1.982911586761474609e+00,1.982710003852844238e+00,1.982508778572082520e+00,1.982307314872741699e+00,1.982105851173400879e+00,1.981904506683349609e+00,1.981703162193298340e+00,1.981501936912536621e+00,1.981300711631774902e+00,1.981099486351013184e+00,1.980898261070251465e+00,1.980697154998779297e+00,1.980496168136596680e+00,1.980295062065124512e+00,1.980094313621520996e+00,1.979893326759338379e+00,1.979692459106445312e+00,1.979491591453552246e+00,1.979290723800659180e+00,1.979089856147766113e+00,1.978889107704162598e+00,1.978688478469848633e+00,1.978487730026245117e+00,1.978287100791931152e+00,1.978086590766906738e+00,1.977885961532592773e+00,1.977685689926147461e+00,1.977485179901123047e+00,1.977284789085388184e+00,1.977084398269653320e+00,1.976884007453918457e+00,1.976683735847473145e+00,1.976483464241027832e+00,1.976283192634582520e+00,1.976083040237426758e+00,1.975882887840270996e+00,1.975682854652404785e+00,1.975482702255249023e+00,1.975282907485961914e+00,1.975082993507385254e+00,1.974882960319519043e+00,1.974683165550231934e+00,1.974483251571655273e+00,1.974283456802368164e+00,1.974083662033081055e+00,1.973883867263793945e+00,1.973684191703796387e+00,1.973484516143798828e+00,1.973284959793090820e+00,1.966707706451416016e+00,1.934723734855651855e+00,1.903763651847839355e+00,1.873778581619262695e+00,1.844723463058471680e+00
1.777687311172485352e+00,1.777525424957275391e+00,1.777363419532775879e+00,1.777201652526855469e+00,1.777039885520935059e+00,1.776877999305725098e+00,1.776716113090515137e+00,1.776554346084594727e+00,1.776392579078674316e+00,1.776230812072753906e+00,1.776069164276123047e+00,1.775907516479492188e+00,1.775745749473571777e+00,1.775584220886230469e+00,1.775422811508178711e+00,1.775261282920837402e+00,1.775099635124206543e+00,1.774938225746154785e+00,1.774776697158813477e+00,1.774615287780761719e+00,1.774453878402709961e+00,1.774292469024658203e+00,1.774131059646606445e+00,1.773969769477844238e+00,1.773808479309082031e+00,1.773647189140319824e+00,1.773486137390136719e+00,1.773324966430664062e+00,1.773163795471191406e+00,1.773002624511718750e+00,1.772841453552246094e+00,1.772680401802062988e+00,1.772519350051879883e+00,1.772358298301696777e+00,1.772197246551513672e+00,1.772036314010620117e+00,1.771875381469726562e+00,1.771714448928833008e+00,1.771553754806518555e+00,1.771392822265625000e+00,1.771232008934020996e+00,1.771071195602416992e+00,1.770910382270812988e+00,1.770749688148498535e+00,1.770588994026184082e+00,1.770428299903869629e+00,1.770267605781555176e+00,1.770107030868530273e+00,1.769946455955505371e+00,1.769785881042480469e+00,1.769625425338745117e+00,1.769464969635009766e+00,1.769304513931274414e+00,1.769144058227539062e+00,1.768983602523803711e+00,1.768823266029357910e+00,1.768662810325622559e+00,1.768502473831176758e+00,1.768342256546020508e+00,1.768181920051574707e+00,1.768021702766418457e+00,1.767861485481262207e+00,1.767701506614685059e+00,1.767541289329528809e+00,1.767381191253662109e+00,1.767221093177795410e+00,1.767060995101928711e+00,1.766900897026062012e+00,1.766740918159484863e+00,1.766580939292907715e+00,1.766420960426330566e+00,1.766261100769042969e+00,1.766101121902465820e+00,1.765941500663757324e+00,1.765781641006469727e+00,1.765621781349182129e+00,1.765462040901184082e+00,1.765302300453186035e+00,1.765142560005187988e+00,1.764982938766479492e+00
1.607508063316345215e+00,1.607375621795654297e+00,1.607243180274963379e+00,1.607110857963562012e+00,1.606978416442871094e+00,1.606846094131469727e+00,1.606713771820068359e+00,1.606581449508666992e+00,1.606449127197265625e+00,1.606316804885864258e+00,1.606184601783752441e+00,1.606052398681640625e+00,1.605920314788818359e+00,1.605788111686706543e+00,1.605655908584594727e+00,1.605523824691772461e+00,1.605391621589660645e+00,1.605259537696838379e+00,1.605127453804016113e+00,1.604995489120483398e+00,1.604863405227661133e+00,1.604731321334838867e+00,1.604599356651306152e+00,1.604467391967773438e+00,1.604335665702819824e+00,1.604203701019287109e+00,1.604071736335754395e+00,1.603939890861511230e+00,1.603808045387268066e+00,1.603676199913024902e+00,1.603544354438781738e+00,1.603412628173828125e+00,1.603280782699584961e+00,1.603149056434631348e+00,1.603017330169677734e+00,1.602885603904724121e+00,1.602754116058349609e+00,1.602622389793395996e+00,1.602490782737731934e+00,1.602359175682067871e+00,1.602227568626403809e+00,1.602095961570739746e+00,1.601964354515075684e+00,1.601832866668701172e+00,1.601701378822326660e+00,1.601569890975952148e+00,1.601438403129577637e+00,1.601306915283203125e+00,1.601175665855407715e+00,1.601044297218322754e+00,1.600912928581237793e+00,1.600781559944152832e+00,1.600650191307067871e+00,1.600518822669982910e+00,1.600387573242187500e+00,1.600256323814392090e+00,1.600125074386596680e+00,1.599993705749511719e+00,1.599862575531005859e+00,1.599731445312500000e+00,1.599600315093994141e+00,1.599469184875488281e+00,1.599338054656982422e+00,1.599206924438476562e+00,1.599075913429260254e+00,1.598944783210754395e+00,1.598813772201538086e+00,1.598682761192321777e+00,1.598551750183105469e+00,1.598420739173889160e+00,1.598289847373962402e+00,1.598159074783325195e+00,1.598028182983398438e+00,1.597897171974182129e+00,1.597766399383544922e+00,1.597635507583618164e+00,1.597504734992980957e+00,1.597373843193054199e+00,1.597243070602416992e+00,1.597112298011779785e+00
1.467064738273620605e+00,1.466954469680786133e+00,1.466844201087951660e+00,1.466733813285827637e+00,1.466623544692993164e+00,1.466513395309448242e+00,1.466403126716613770e+00,1.466292858123779297e+00,1.466182708740234375e+00,1.466072440147399902e+00,1.465962409973144531e+00,1.465852260589599609e+00,1.465742111206054688e+00,1.465632081031799316e+00,1.465521931648254395e+00,1.465411901473999023e+00,1.465301752090454102e+00,1.465191721916198730e+00,1.465081691741943359e+00,1.464971661567687988e+00,1.464861631393432617e+00,1.464751720428466797e+00,1.464641809463500977e+00,1.464531898498535156e+00,1.464421987533569336e+00,1.464312076568603516e+00,1.464202165603637695e+00,1.464092254638671875e+00,1.463982343673706055e+00,1.463872551918029785e+00,1.463762640953063965e+00,1.463652849197387695e+00,1.463543057441711426e+00,1.463433265686035156e+00,1.463323593139648438e+00,1.463213801383972168e+00,1.463104128837585449e+00,1.462994337081909180e+00,1.462884664535522461e+00,1.462774991989135742e+00,1.462665319442749023e+00,1.462555646896362305e+00,1.462445974349975586e+00,1.462336421012878418e+00,1.462226748466491699e+00,1.462117314338684082e+00,1.462007761001586914e+00,1.461898207664489746e+00,1.461788654327392578e+00,1.461679100990295410e+00,1.461569666862487793e+00,1.461460113525390625e+00,1.461350679397583008e+00,1.461241245269775391e+00,1.461131811141967773e+00,1.461022377014160156e+00,1.460912942886352539e+00,1.460803627967834473e+00,1.460694313049316406e+00,1.460584878921508789e+00,1.460475564002990723e+00,1.460366249084472656e+00,1.460256934165954590e+00,1.460147619247436523e+00,1.460038423538208008e+00,1.459929108619689941e+00,1.459819912910461426e+00,1.459710597991943359e+00,1.459601402282714844e+00,1.459492325782775879e+00,1.459383130073547363e+00,1.459274053573608398e+00,1.459164857864379883e+00,1.459055781364440918e+00,1.458946585655212402e+00,1.458837509155273438e+00,1.458728432655334473e+00,1.458619356155395508e+00,1.458510279655456543e+00,1.458401322364807129e+00
1.349189877510070801e+00,1.349096655845642090e+00,1.349003314971923828e+00,1.348910093307495117e+00,1.348816752433776855e+00,1.348723530769348145e+00,1.348630309104919434e+00,1.348537087440490723e+00,1.348443984985351562e+00,1.348350763320922852e+00,1.348257541656494141e+00,1.348164439201354980e+00,1.348071217536926270e+00,1.347978115081787109e+00,1.347885012626647949e+00,1.347791910171508789e+00,1.347698688507080078e+00,1.347605705261230469e+00,1.347512602806091309e+00,1.347419500350952148e+00,1.347326636314392090e+00,1.347233533859252930e+00,1.347140550613403320e+00,1.347047448158264160e+00,1.346954464912414551e+00,1.346861481666564941e+00,1.346768498420715332e+00,1.346675515174865723e+00,1.346582531929016113e+00,1.346489667892456055e+00,1.346396684646606445e+00,1.346303939819335938e+00,1.346210956573486328e+00,1.346118092536926270e+00,1.346025228500366211e+00,1.345932364463806152e+00,1.345839500427246094e+00,1.345746636390686035e+00,1.345653891563415527e+00,1.345561027526855469e+00,1.345468282699584961e+00,1.345375418663024902e+00,1.345282673835754395e+00,1.345190048217773438e+00,1.345097303390502930e+00,1.345004558563232422e+00,1.344911813735961914e+00,1.344819068908691406e+00,1.344726324081420898e+00,1.344633698463439941e+00,1.344541072845458984e+00,1.344448328018188477e+00,1.344355702400207520e+00,1.344263076782226562e+00,1.344170451164245605e+00,1.344077944755554199e+00,1.343985319137573242e+00,1.343892812728881836e+00,1.343800187110900879e+00,1.343707680702209473e+00,1.343615055084228516e+00,1.343522548675537109e+00,1.343430042266845703e+00,1.343337535858154297e+00,1.343245029449462891e+00,1.343152523040771484e+00,1.343060016632080078e+00,1.342967748641967773e+00,1.342875242233276367e+00,1.342782855033874512e+00,1.342690467834472656e+00,1.342597961425781250e+00,1.342505574226379395e+00,1.342413187026977539e+00,1.342320919036865234e+00,1.342228531837463379e+00,1.342136144638061523e+00,1.342043876647949219e+00,1.341951489448547363e+00,1.341859340667724609e+00
1.248848199844360352e+00,1.248768329620361328e+00,1.248688340187072754e+00,1.248608469963073730e+00,1.248528599739074707e+00,1.248448729515075684e+00,1.248368859291076660e+00,1.248288989067077637e+00,1.248209118843078613e+00,1.248129248619079590e+00,1.248049378395080566e+00,1.247969508171081543e+00,1.247889757156372070e+00,1.247809886932373047e+00,1.247730135917663574e+00,1.247650265693664551e+00,1.247570514678955078e+00,1.247490882873535156e+00,1.247411012649536133e+00,1.247331261634826660e+00,1.247251510620117188e+00,1.247171878814697266e+00,1.247092127799987793e+00,1.247012376785278320e+00,1.246932625770568848e+00,1.246852993965148926e+00,1.246773242950439453e+00,1.246693611145019531e+00,1.246613979339599609e+00,1.246534347534179688e+00,1.246454715728759766e+00,1.246375083923339844e+00,1.246295452117919922e+00,1.246215820312500000e+00,1.246136307716369629e+00,1.246056675910949707e+00,1.245977044105529785e+00,1.245897531509399414e+00,1.245817899703979492e+00,1.245738387107849121e+00,1.245658874511718750e+00,1.245579361915588379e+00,1.245499849319458008e+00,1.245420336723327637e+00,1.245340824127197266e+00,1.245261311531066895e+00,1.245181918144226074e+00,1.245102405548095703e+00,1.245023012161254883e+00,1.244943499565124512e+00,1.244864106178283691e+00,1.244784593582153320e+00,1.244705200195312500e+00,1.244625926017761230e+00,1.244546532630920410e+00,1.244467139244079590e+00,1.244387745857238770e+00,1.244308352470397949e+00,1.244228959083557129e+00,1.244149684906005859e+00,1.244070291519165039e+00,1.243991017341613770e+00,1.243911623954772949e+00,1.243832349777221680e+00,1.243753075599670410e+00,1.243673801422119141e+00,1.243594527244567871e+00,1.243515253067016602e+00,1.243435978889465332e+00,1.243356823921203613e+00,1.243277549743652344e+00,1.243198275566101074e+00,1.243119120597839355e+00,1.243039846420288086e+00,1.242960691452026367e+00,1.242881536483764648e+00,1.242802381515502930e+00,1.242723226547241211e+00,1.242644071578979492e+00,1.242564916610717773e+00
1.162398576736450195e+00,1.162329316139221191e+00,1.162260055541992188e+00,1.162190914154052734e+00,1.162121653556823730e+00,1.162052512168884277e+00,1.161983251571655273e+00,1.161914110183715820e+00,1.161844849586486816e+00,1.161775708198547363e+00,1.161706447601318359e+00,1.161637306213378906e+00,1.161568164825439453e+00,1.161499023437500000e+00,1.161429882049560547e+00,1.161360740661621094e+00,1.161291599273681641e+00,1.161222457885742188e+00,1.161153435707092285e+00,1.161084294319152832e+00,1.161015152931213379e+00,1.160946130752563477e+00,1.160876989364624023e+00,1.160807967185974121e+00,1.160738825798034668e+00,1.160669803619384766e+00,1.160600781440734863e+00,1.160531759262084961e+00,1.160462737083435059e+00,1.160393714904785156e+00,1.160324692726135254e+00,1.160255670547485352e+00,1.160186648368835449e+00,1.160117745399475098e+00,1.160048723220825195e+00,1.159979701042175293e+00,1.159910798072814941e+00,1.159841775894165039e+00,1.159772872924804688e+00,1.159703969955444336e+00,1.159635066986083984e+00,1.159566164016723633e+00,1.159497141838073730e+00,1.159428238868713379e+00,1.159359335899353027e+00,1.159290432929992676e+00,1.159221529960632324e+00,1.159152746200561523e+00,1.159083843231201172e+00,1.159014940261840820e+00,1.158946156501770020e+00,1.158877372741699219e+00,1.158808469772338867e+00,1.158739686012268066e+00,1.158670902252197266e+00,1.158601999282836914e+00,1.158533215522766113e+00,1.158464431762695312e+00,1.158395648002624512e+00,1.158326864242553711e+00,1.158258080482482910e+00,1.158189415931701660e+00,1.158120632171630859e+00,1.158051967620849609e+00,1.157983183860778809e+00,1.157914519309997559e+00,1.157845735549926758e+00,1.157777070999145508e+00,1.157708287239074707e+00,1.157639622688293457e+00,1.157570958137512207e+00,1.157502293586730957e+00,1.157433629035949707e+00,1.157364964485168457e+00,1.157296299934387207e+00,1.157227635383605957e+00,1.157159090042114258e+00,1.157090425491333008e+00,1.157021760940551758e+00,1.156953215599060059e+00
1.087142705917358398e+00,1.087082266807556152e+00,1.087021589279174805e+00,1.086961030960083008e+00,1.086900472640991211e+00,1.086839914321899414e+00,1.086779475212097168e+00,1.086718916893005371e+00,1.086658358573913574e+00,1.086597800254821777e+00,1.086537361145019531e+00,1.086476802825927734e+00,1.086416244506835938e+00,1.086355805397033691e+00,1.086295366287231445e+00,1.086234927177429199e+00,1.086174368858337402e+00,1.086113929748535156e+00,1.086053490638732910e+00,1.085993051528930664e+00,1.085932612419128418e+00,1.085872173309326172e+00,1.085811734199523926e+00,1.085751295089721680e+00,1.085690855979919434e+00,1.085630536079406738e+00,1.085570096969604492e+00,1.085509657859802246e+00,1.085449218750000000e+00,1.085388898849487305e+00,1.085328459739685059e+00,1.085268139839172363e+00,1.085207700729370117e+00,1.085147380828857422e+00,1.085087060928344727e+00,1.085026741027832031e+00,1.084966301918029785e+00,1.084906101226806641e+00,1.084845781326293945e+00,1.084785461425781250e+00,1.084725141525268555e+00,1.084664821624755859e+00,1.084604501724243164e+00,1.084544181823730469e+00,1.084483861923217773e+00,1.084423661231994629e+00,1.084363341331481934e+00,1.084303021430969238e+00,1.084242820739746094e+00,1.084182620048522949e+00,1.084122419357299805e+00,1.084062099456787109e+00,1.084001898765563965e+00,1.083941698074340820e+00,1.083881378173828125e+00,1.083821177482604980e+00,1.083760976791381836e+00,1.083700776100158691e+00,1.083640575408935547e+00,1.083580374717712402e+00,1.083520293235778809e+00,1.083460092544555664e+00,1.083400011062622070e+00,1.083339810371398926e+00,1.083279609680175781e+00,1.083219528198242188e+00,1.083159327507019043e+00,1.083099246025085449e+00,1.083039045333862305e+00,1.082978963851928711e+00,1.082918882369995117e+00,1.082858681678771973e+00,1.082798719406127930e+00,1.082738637924194336e+00,1.082678556442260742e+00,1.082618474960327148e+00,1.082558393478393555e+00,1.082498311996459961e+00,1.082438230514526367e+00,1.082378149032592773e+00
1.021038889884948730e+00,1.020985364913940430e+00,1.020931959152221680e+00,1.020878553390502930e+00,1.020825147628784180e+00,1.020771741867065430e+00,1.020718336105346680e+00,1.020664930343627930e+00,1.020611524581909180e+00,1.020558118820190430e+00,1.020504713058471680e+00,1.020451426506042480e+00,1.020398020744323730e+00,1.020344614982604980e+00,1.020291328430175781e+00,1.020237922668457031e+00,1.020184636116027832e+00,1.020131230354309082e+00,1.020077943801879883e+00,1.020024538040161133e+00,1.019971251487731934e+00,1.019917964935302734e+00,1.019864559173583984e+00,1.019811391830444336e+00,1.019757986068725586e+00,1.019704699516296387e+00,1.019651412963867188e+00,1.019598126411437988e+00,1.019544839859008789e+00,1.019491553306579590e+00,1.019438266754150391e+00,1.019384980201721191e+00,1.019331812858581543e+00,1.019278526306152344e+00,1.019225358963012695e+00,1.019172072410583496e+00,1.019118785858154297e+00,1.019065618515014648e+00,1.019012331962585449e+00,1.018959164619445801e+00,1.018905878067016602e+00,1.018852710723876953e+00,1.018799543380737305e+00,1.018746256828308105e+00,1.018693089485168457e+00,1.018639922142028809e+00,1.018586754798889160e+00,1.018533587455749512e+00,1.018480420112609863e+00,1.018427252769470215e+00,1.018374085426330566e+00,1.018320918083190918e+00,1.018267750740051270e+00,1.018214583396911621e+00,1.018161535263061523e+00,1.018108367919921875e+00,1.018055200576782227e+00,1.018002152442932129e+00,1.017949104309082031e+00,1.017895936965942383e+00,1.017842888832092285e+00,1.017789721488952637e+00,1.017736673355102539e+00,1.017683506011962891e+00,1.017630457878112793e+00,1.017577409744262695e+00,1.017524242401123047e+00,1.017471194267272949e+00,1.017418146133422852e+00,1.017365097999572754e+00,1.017312169075012207e+00,1.017259120941162109e+00,1.017206072807312012e+00,1.017153024673461914e+00,1.017099976539611816e+00,1.017046928405761719e+00,1.016993880271911621e+00,1.016940951347351074e+00,1.016887903213500977e+00,1.016834855079650879e+00
