5.000000000000000000e+00,5.000000000000000000e+00,5.000000000000000000e+00,5.000000000000000000e+00,5.000000000000000000e+00,5.000000000000000000e+00,5.000000000000000000e+00,5.000000000000000000e+00,5.000000000000000000e+00,5.000000000000000000e+00,5.000000000000000000e+00,5.000000000000000000e+00,5.000000000000000000e+00,5.000000000000000000e+00,5.000000000000000000e+00,5.000000000000000000e+00,5.000000000000000000e+00,5.000000000000000000e+00,5.000000000000000000e+00,5.000000000000000000e+00,5.000000000000000000e+00,5.000000000000000000e+00,5.000000000000000000e+00,5.000000000000000000e+00,5.000000000000000000e+00,5.000000000000000000e+00,5.000000000000000000e+00,5.000000000000000000e+00,5.000000000000000000e+00,5.000000000000000000e+00,5.000000000000000000e+00,1.938328504562377930e+00,1.921234250068664551e+00,1.930118799209594727e+00,1.889062166213989258e+00,1.857919931411743164e+00,1.849176883697509766e+00,1.849337935447692871e+00,1.855513930320739746e+00,1.859729290008544922e+00,1.870585560798645020e+00,1.901746153831481934e+00,2.058791637420654297e+00,2.063797473907470703e+00,4.029646873474121094e+00,3.897636413574218750e+00,3.774000644683837891e+00,3.657967329025268555e+00,3.548856735229492188e+00,3.446066141128540039e+00,3.349062442779541016e+00,3.257370710372924805e+00,3.170565605163574219e+00,3.088267326354980469e+00,3.010133028030395508e+00,2.935854911804199219e+00,2.865154266357421875e+00,2.797778606414794922e+00,2.733499288558959961e+00,2.672107219696044922e+00,2.613411903381347656e+00,2.557240009307861328e+00,2.503431797027587891e+00,2.451841354370117188e+00,2.402334451675415039e+00,2.354787349700927734e+00,2.309085369110107422e+00,2.265124082565307617e+00,2.222805023193359375e+00,2.182038784027099609e+00,2.142740488052368164e+00,2.104832649230957031e+00,2.068242788314819336e+00,2.032903432846069336e+00,1.998751640319824219e+00,1.965728163719177246e+00,1.933778166770935059e+00,1.902850031852722168e+00,1.872895836830139160e+00,1.843869924545288086e+00
5.000000000000000000e+00,5.000000000000000000e+00,5.000000000000000000e+00,5.000000000000000000e+00,5.000000000000000000e+00,5.000000000000000000e+00,5.000000000000000000e+00,5.000000000000000000e+00,5.000000000000000000e+00,5.000000000000000000e+00,5.000000000000000000e+00,5.000000000000000000e+00,5.000000000000000000e+00,5.000000000000000000e+00,5.000000000000000000e+00,5.000000000000000000e+00,5.000000000000000000e+00,5.000000000000000000e+00,5.000000000000000000e+00,5.000000000000000000e+00,5.000000000000000000e+00,5.000000000000000000e+00,5.000000000000000000e+00,5.000000000000000000e+00,5.000000000000000000e+00,5.000000000000000000e+00,5.000000000000000000e+00,5.000000000000000000e+00,5.000000000000000000e+00,5.000000000000000000e+00,5.000000000000000000e+00,1.940794110298156738e+00,1.916236400604248047e+00,1.933697342872619629e+00,1.888666152954101562e+00,1.875066995620727539e+00,1.861219406127929688e+00,1.857549309730529785e+00,1.857445001602172852e+00,1.868985176086425781e+00,1.887578129768371582e+00,1.914327859878540039e+00,2.070948600769042969e+00,2.078299045562744141e+00,4.029741764068603516e+00,3.897725582122802734e+00,3.774084091186523438e+00,3.658046007156372070e+00,3.548930168151855469e+00,3.446135520935058594e+00,3.349128484725952148e+00,3.257432937622070312e+00,3.170624494552612305e+00,3.088323116302490234e+00,3.010185956954956055e+00,2.935905456542968750e+00,2.865202426910400391e+00,2.797824859619140625e+00,2.733542919158935547e+00,2.672148942947387695e+00,2.613451957702636719e+00,2.557278394699096680e+00,2.503468513488769531e+00,2.451876640319824219e+00,2.402368307113647461e+00,2.354819774627685547e+00,2.309116840362548828e+00,2.265154123306274414e+00,2.222834110260009766e+00,2.182066440582275391e+00,2.142767190933227539e+00,2.104858636856079102e+00,2.068267822265625000e+00,2.032927751541137695e+00,1.998775005340576172e+00,1.965750694274902344e+00,1.933800101280212402e+00,1.902871489524841309e+00,1.872916340827941895e+00,1.843889951705932617e+00
5.000000000000000000e+00,5.000000000000000000e+00,5.000000000000000000e+00,5.000000000000000000e+00,5.000000000000000000e+00,5.000000000000000000e+00,5.000000000000000000e+00,5.000000000000000000e+00,5.000000000000000000e+00,5.000000000000000000e+00,5.000000000000000000e+00,5.000000000000000000e+00,5.000000000000000000e+00,5.000000000000000000e+00,5.000000000000000000e+00,5.000000000000000000e+00,5.000000000000000000e+00,5.000000000000000000e+00,5.000000000000000000e+00,5.000000000000000000e+00,5.000000000000000000e+00,5.000000000000000000e+00,5.000000000000000000e+00,5.000000000000000000e+00,5.000000000000000000e+00,5.000000000000000000e+00,5.000000000000000000e+00,5.000000000000000000e+00,5.000000000000000000e+00,5.000000000000000000e+00,5.000000000000000000e+00,1.905730605125427246e+00,1.885543823242187500e+00,1.901426672935485840e+00,1.890219569206237793e+00,1.871669173240661621e+00,1.861773133277893066e+00,1.859219074249267578e+00,1.856966614723205566e+00,1.872157216072082520e+00,1.883565306663513184e+00,1.914411783218383789e+00,2.076472997665405273e+00,2.083567619323730469e+00,4.029837131500244141e+00,3.897814273834228516e+00,3.774167299270629883e+00,3.658124208450317383e+00,3.549004077911376953e+00,3.446205139160156250e+00,3.349193811416625977e+00,3.257494926452636719e+00,3.170683383941650391e+00,3.088378906250000000e+00,3.010239124298095703e+00,2.935956001281738281e+00,2.865250349044799805e+00,2.797870397567749023e+00,2.733586788177490234e+00,2.672190904617309570e+00,2.613492012023925781e+00,2.557316541671752930e+00,2.503505229949951172e+00,2.451911687850952148e+00,2.402402162551879883e+00,2.354852199554443359e+00,2.309147834777832031e+00,2.265184164047241211e+00,2.222862958908081055e+00,2.182094335556030273e+00,2.142794132232666016e+00,2.104884624481201172e+00,2.068292856216430664e+00,2.032951831817626953e+00,1.998798370361328125e+00,1.965773463249206543e+00,1.933821916580200195e+00,1.902892589569091797e+00,1.872936844825744629e+00,1.843909859657287598e+00
5.000000000000000000e+00,5.000000000000000000e+00,5.000000000000000000e+00,5.000000000000000000e+00,5.000000000000000000e+00,5.000000000000000000e+00,5.000000000000000000e+00,5.000000000000000000e+00,5.000000000000000000e+00,5.000000000000000000e+00,5.000000000000000000e+00,5.000000000000000000e+00,5.000000000000000000e+00,5.000000000000000000e+00,5.000000000000000000e+00,5.000000000000000000e+00,5.000000000000000000e+00,5.000000000000000000e+00,5.000000000000000000e+00,5.000000000000000000e+00,5.000000000000000000e+00,5.000000000000000000e+00,5.000000000000000000e+00,5.000000000000000000e+00,5.000000000000000000e+00,5.000000000000000000e+00,5.000000000000000000e+00,5.000000000000000000e+00,5.000000000000000000e+00,5.000000000000000000e+00,5.000000000000000000e+00,1.883768200874328613e+00,1.864317536354064941e+00,1.882941961288452148e+00,1.888085007667541504e+00,1.872330307960510254e+00,1.864562988281250000e+00,1.867286086082458496e+00,1.867267608642578125e+00,1.880802154541015625e+00,1.890613555908203125e+00,1.909750699996948242e+00,2.070395231246948242e+00,2.074127197265625000e+00,4.029932022094726562e+00,3.897903442382812500e+00,3.774250984191894531e+00,3.658202648162841797e+00,3.549077749252319336e+00,3.446274518966674805e+00,3.349259853363037109e+00,3.257557153701782227e+00,3.170742273330688477e+00,3.088434696197509766e+00,3.010292053222656250e+00,2.936006307601928711e+00,2.865298748016357422e+00,2.797916412353515625e+00,2.733630418777465820e+00,2.672232389450073242e+00,2.613531827926635742e+00,2.557354927062988281e+00,2.503541946411132812e+00,2.451946973800659180e+00,2.402435779571533203e+00,2.354884624481201172e+00,2.309179306030273438e+00,2.265214204788208008e+00,2.222892045974731445e+00,2.182122230529785156e+00,2.142821073532104492e+00,2.104910373687744141e+00,2.068318128585815430e+00,2.032976150512695312e+00,1.998821735382080078e+00,1.965796113014221191e+00,1.933843731880187988e+00,1.902913689613342285e+00,1.872957587242126465e+00,1.843929648399353027e+00
5.000000000000000000e+00,5.000000000000000000e+00,5.000000000000000000e+00,5.000000000000000000e+00,5.000000000000000000e+00,5.000000000000000000e+00,5.000000000000000000e+00,5.000000000000000000e+00,5.000000000000000000e+00,5.000000000000000000e+00,5.000000000000000000e+00,5.000000000000000000e+00,5.000000000000000000e+00,5.000000000000000000e+00,5.000000000000000000e+00,5.000000000000000000e+00,5.000000000000000000e+00,5.000000000000000000e+00,5.000000000000000000e+00,5.000000000000000000e+00,5.000000000000000000e+00,5.000000000000000000e+00,5.000000000000000000e+00,5.000000000000000000e+00,5.000000000000000000e+00,5.000000000000000000e+00,5.000000000000000000e+00,5.000000000000000000e+00,5.000000000000000000e+00,5.000000000000000000e+00,5.000000000000000000e+00,1.864965200424194336e+00,1.836714267730712891e+00,1.870300650596618652e+00,1.882286787033081055e+00,1.868958711624145508e+00,1.880457282066345215e+00,1.883835434913635254e+00,1.877516388893127441e+00,1.897467255592346191e+00,1.881844043731689453e+00,1.885787367820739746e+00,1.917931199073791504e+00,2.069724321365356445e+00,4.030026912689208984e+00,3.897992372512817383e+00,3.774334192276000977e+00,3.658280849456787109e+00,3.549151659011840820e+00,3.446344375610351562e+00,3.349325180053710938e+00,3.257619142532348633e+00,3.170801162719726562e+00,3.088490724563598633e+00,3.010345458984375000e+00,2.936056852340698242e+00,2.865346670150756836e+00,2.797962188720703125e+00,2.733674287796020508e+00,2.672274351119995117e+00,2.613571882247924805e+00,2.557393074035644531e+00,2.503578662872314453e+00,2.451982259750366211e+00,2.402469635009765625e+00,2.354917287826538086e+00,2.309210300445556641e+00,2.265244245529174805e+00,2.222920894622802734e+00,2.182150125503540039e+00,2.142848014831542969e+00,2.104936599731445312e+00,2.068342924118041992e+00,2.033000469207763672e+00,1.998845219612121582e+00,1.965818643569946289e+00,1.933865785598754883e+00,1.902934908866882324e+00,1.872978091239929199e+00,1.843949556350708008e+00
5.000000000000000000e+00,5.000000000000000000e+00,5.000000000000000000e+00,5.000000000000000000e+00,5.000000000000000000e+00,5.000000000000000000e+00,5.000000000000000000e+00,5.000000000000000000e+00,5.000000000000000000e+00,5.000000000000000000e+00,5.000000000000000000e+00,5.000000000000000000e+00,5.000000000000000000e+00,5.000000000000000000e+00,5.000000000000000000e+00,5.000000000000000000e+00,5.000000000000000000e+00,5.000000000000000000e+00,5.000000000000000000e+00,5.000000000000000000e+00,5.000000000000000000e+00,5.000000000000000000e+00,5.000000000000000000e+00,5.000000000000000000e+00,5.000000000000000000e+00,5.000000000000000000e+00,5.000000000000000000e+00,5.000000000000000000e+00,5.000000000000000000e+00,5.000000000000000000e+00,5.000000000000000000e+00,1.836491942405700684e+00,1.811171054840087891e+00,1.856862068176269531e+00,1.872342824935913086e+00,1.862362146377563477e+00,1.872611761093139648e+00,1.898806333541870117e+00,1.913253664970397949e+00,1.868168234825134277e+00,1.846896529197692871e+00,1.845284223556518555e+00,1.878329634666442871e+00,2.063930273056030273e+00,4.030122280120849609e+00,3.898081541061401367e+00,3.774417877197265625e+00,3.658359527587890625e+00,3.549225330352783203e+00,3.446413755416870117e+00,3.349391222000122070e+00,3.257681608200073242e+00,3.170860052108764648e+00,3.088546514511108398e+00,3.010398387908935547e+00,2.936107635498046875e+00,2.865394830703735352e+00,2.798008203506469727e+00,2.733718156814575195e+00,2.672316074371337891e+00,2.613611936569213867e+00,2.557431459426879883e+00,2.503615379333496094e+00,2.452017545700073242e+00,2.402503490447998047e+00,2.354949474334716797e+00,2.309241771697998047e+00,2.265274286270141602e+00,2.222949981689453125e+00,2.182178020477294922e+00,2.142874956130981445e+00,2.104962587356567383e+00,2.068368196487426758e+00,2.033024549484252930e+00,1.998868584632873535e+00,1.965841293334960938e+00,1.933887600898742676e+00,1.902956247329711914e+00,1.872998476028442383e+00,1.843969583511352539e+00
5.000000000000000000e+00,5.000000000000000000e+00,5.000000000000000000e+00,5.000000000000000000e+00,5.000000000000000000e+00,5.000000000000000000e+00,5.000000000000000000e+00,5.000000000000000000e+00,5.000000000000000000e+00,5.000000000000000000e+00,5.000000000000000000e+00,5.000000000000000000e+00,5.000000000000000000e+00,5.000000000000000000e+00,5.000000000000000000e+00,5.000000000000000000e+00,5.000000000000000000e+00,5.000000000000000000e+00,5.000000000000000000e+00,5.000000000000000000e+00,5.000000000000000000e+00,5.000000000000000000e+00,5.000000000000000000e+00,5.000000000000000000e+00,5.000000000000000000e+00,5.000000000000000000e+00,5.000000000000000000e+00,5.000000000000000000e+00,5.000000000000000000e+00,5.000000000000000000e+00,5.000000000000000000e+00,1.827067494392395020e+00,1.808644413948059082e+00,1.897876024246215820e+00,1.860465049743652344e+00,1.850598573684692383e+00,1.860516786575317383e+00,1.886525154113769531e+00,1.899376988410949707e+00,1.843928098678588867e+00,1.832083463668823242e+00,1.829175114631652832e+00,1.862440466880798340e+00,2.054735183715820312e+00,4.030217170715332031e+00,3.898170232772827148e+00,3.774501085281372070e+00,3.658437967300415039e+00,3.549299240112304688e+00,3.446483373641967773e+00,3.349456787109375000e+00,3.257743597030639648e+00,3.170918941497802734e+00,3.088602542877197266e+00,3.010451555252075195e+00,2.936157941818237305e+00,2.865442752838134766e+00,2.798053741455078125e+00,2.733762025833129883e+00,2.672358036041259766e+00,2.613651990890502930e+00,2.557469844818115234e+00,2.503652095794677734e+00,2.452052831649780273e+00,2.402537345886230469e+00,2.354982137680053711e+00,2.309272766113281250e+00,2.265304327011108398e+00,2.222978830337524414e+00,2.182205915451049805e+00,2.142901897430419922e+00,2.104988336563110352e+00,2.068393230438232422e+00,2.033048868179321289e+00,1.998891949653625488e+00,1.965864062309265137e+00,1.933909535408020020e+00,1.902977466583251953e+00,1.873018980026245117e+00,1.843989491462707520e+00
5.000000000000000000e+00,5.000000000000000000e+00,5.000000000000000000e+00,4.892906188964843750e+00,4.924045562744140625e+00,5.000000000000000000e+00,5.000000000000000000e+00,5.000000000000000000e+00,5.000000000000000000e+00,5.000000000000000000e+00,5.000000000000000000e+00,5.000000000000000000e+00,5.000000000000000000e+00,5.000000000000000000e+00,5.000000000000000000e+00,5.000000000000000000e+00,5.000000000000000000e+00,5.000000000000000000e+00,5.000000000000000000e+00,5.000000000000000000e+00,5.000000000000000000e+00,5.000000000000000000e+00,5.000000000000000000e+00,5.000000000000000000e+00,5.000000000000000000e+00,5.000000000000000000e+00,5.000000000000000000e+00,5.000000000000000000e+00,5.000000000000000000e+00,5.000000000000000000e+00,5.000000000000000000e+00,1.792506694793701172e+00,1.769708156585693359e+00,1.765085339546203613e+00,1.858773350715637207e+00,1.846599340438842773e+00,1.853078603744506836e+00,1.876464724540710449e+00,1.886984348297119141e+00,1.834206700325012207e+00,1.823700308799743652e+00,1.818135380744934082e+00,1.850004792213439941e+00,2.056790590286254883e+00,2.090163230895996094e+00,3.898259401321411133e+00,3.774584770202636719e+00,3.658516168594360352e+00,3.549372911453247070e+00,3.446552753448486328e+00,3.349522590637207031e+00,3.257805824279785156e+00,3.170977830886840820e+00,3.088658094406127930e+00,3.010504484176635742e+00,2.936208486557006836e+00,2.865490913391113281e+00,2.798099756240844727e+00,2.733805656433105469e+00,2.672399759292602539e+00,2.613691806793212891e+00,2.557508230209350586e+00,2.503688812255859375e+00,2.452087879180908203e+00,2.402570962905883789e+00,2.355014562606811523e+00,2.309304237365722656e+00,2.265334367752075195e+00,2.223007678985595703e+00,2.182233810424804688e+00,2.142928600311279297e+00,2.105014324188232422e+00,2.068418264389038086e+00,2.033072948455810547e+00,1.998915314674377441e+00,1.965886592864990234e+00,1.933931350708007812e+00,1.902998566627502441e+00,1.873039722442626953e+00,1.844009399414062500e+00
5.000000000000000000e+00,5.000000000000000000e+00,5.000000000000000000e+00,4.896569252014160156e+00,4.926113605499267578e+00,5.000000000000000000e+00,5.000000000000000000e+00,5.000000000000000000e+00,5.000000000000000000e+00,5.000000000000000000e+00,5.000000000000000000e+00,5.000000000000000000e+00,5.000000000000000000e+00,5.000000000000000000e+00,5.000000000000000000e+00,5.000000000000000000e+00,5.000000000000000000e+00,5.000000000000000000e+00,5.000000000000000000e+00,5.000000000000000000e+00,5.000000000000000000e+00,5.000000000000000000e+00,5.000000000000000000e+00,5.000000000000000000e+00,5.000000000000000000e+00,5.000000000000000000e+00,5.000000000000000000e+00,5.000000000000000000e+00,5.000000000000000000e+00,5.000000000000000000e+00,5.000000000000000000e+00,1.767869591712951660e+00,1.769076108932495117e+00,1.744472742080688477e+00,1.858155369758605957e+00,1.845547080039978027e+00,1.851315140724182129e+00,1.874697089195251465e+00,1.885097384452819824e+00,1.824607849121093750e+00,1.816347837448120117e+00,1.807402133941650391e+00,1.838892817497253418e+00,2.058676719665527344e+00,4.030407428741455078e+00,3.898348331451416016e+00,3.774667978286743164e+00,3.658594846725463867e+00,3.549446821212768555e+00,3.446622610092163086e+00,3.349588155746459961e+00,3.257867813110351562e+00,3.171036720275878906e+00,3.088714122772216797e+00,3.010557651519775391e+00,2.936258792877197266e+00,2.865538835525512695e+00,2.798145532608032227e+00,2.733849525451660156e+00,2.672441720962524414e+00,2.613732099533081055e+00,2.557546377182006836e+00,2.503725290298461914e+00,2.452123165130615234e+00,2.402604818344116211e+00,2.355046987533569336e+00,2.309335231781005859e+00,2.265364408493041992e+00,2.223036527633666992e+00,2.182261705398559570e+00,2.142955541610717773e+00,2.105040311813354492e+00,2.068443298339843750e+00,2.033097267150878906e+00,1.998938798904418945e+00,1.965909242630004883e+00,1.933953404426574707e+00,1.903019785881042480e+00,1.873060226440429688e+00,1.844029426574707031e+00
5.000000000000000000e+00,5.000000000000000000e+00,5.000000000000000000e+00,4.977376937866210938e+00,4.934752941131591797e+00,5.000000000000000000e+00,5.000000000000000000e+00,5.000000000000000000e+00,5.000000000000000000e+00,5.000000000000000000e+00,5.000000000000000000e+00,5.000000000000000000e+00,5.000000000000000000e+00,5.000000000000000000e+00,5.000000000000000000e+00,5.000000000000000000e+00,5.000000000000000000e+00,5.000000000000000000e+00,5.000000000000000000e+00,5.000000000000000000e+00,5.000000000000000000e+00,5.000000000000000000e+00,5.000000000000000000e+00,5.000000000000000000e+00,5.000000000000000000e+00,5.000000000000000000e+00,5.000000000000000000e+00,5.000000000000000000e+00,5.000000000000000000e+00,5.000000000000000000e+00,5.000000000000000000e+00,1.747405648231506348e+00,5.000000000000000000e+00,1.886255264282226562e+00,1.859257221221923828e+00,1.846634149551391602e+00,1.853764772415161133e+00,1.875999569892883301e+00,1.880361557006835938e+00,1.814719438552856445e+00,1.807268500328063965e+00,1.798833489418029785e+00,1.830040216445922852e+00,2.034700632095336914e+00,2.073521137237548828e+00,3.898437500000000000e+00,3.774751663208007812e+00,3.658673048019409180e+00,3.549520254135131836e+00,3.446691989898681641e+00,3.349653959274291992e+00,3.257930040359497070e+00,3.171095609664916992e+00,3.088769912719726562e+00,3.010610580444335938e+00,2.936309576034545898e+00,2.865587234497070312e+00,2.798191547393798828e+00,2.733893156051635742e+00,2.672483444213867188e+00,2.613771915435791016e+00,2.557584762573242188e+00,2.503762245178222656e+00,2.452158212661743164e+00,2.402638673782348633e+00,2.355079412460327148e+00,2.309366703033447266e+00,2.265394449234008789e+00,2.223065614700317383e+00,2.182289600372314453e+00,2.142982482910156250e+00,2.105066299438476562e+00,2.068468332290649414e+00,2.033121347427368164e+00,1.998962163925170898e+00,1.965931773185729980e+00,1.933975219726562500e+00,1.903041124343872070e+00,1.873080730438232422e+00,1.844049334526062012e+00
5.000000000000000000e+00,4.834828376770019531e+00,4.873819828033447266e+00,4.879786014556884766e+00,4.947872638702392578e+00,5.000000000000000000e+00,5.000000000000000000e+00,5.000000000000000000e+00,5.000000000000000000e+00,5.000000000000000000e+00,5.000000000000000000e+00,5.000000000000000000e+00,5.000000000000000000e+00,5.000000000000000000e+00,5.000000000000000000e+00,5.000000000000000000e+00,5.000000000000000000e+00,5.000000000000000000e+00,5.000000000000000000e+00,5.000000000000000000e+00,5.000000000000000000e+00,5.000000000000000000e+00,5.000000000000000000e+00,5.000000000000000000e+00,5.000000000000000000e+00,5.000000000000000000e+00,5.000000000000000000e+00,5.000000000000000000e+00,5.000000000000000000e+00,5.000000000000000000e+00,5.000000000000000000e+00,1.725624203681945801e+00,5.000000000000000000e+00,1.910190224647521973e+00,1.861021161079406738e+00,1.847722649574279785e+00,1.856407284736633301e+00,1.876913309097290039e+00,1.884645104408264160e+00,1.808108448982238770e+00,1.797844290733337402e+00,1.790822029113769531e+00,1.820174217224121094e+00,2.023188591003417969e+00,2.042299985885620117e+00,3.898526191711425781e+00,3.774834871292114258e+00,3.658751487731933594e+00,3.549594402313232422e+00,3.446761608123779297e+00,3.349719524383544922e+00,3.257992267608642578e+00,3.171154499053955078e+00,3.088825941085815430e+00,3.010663747787475586e+00,2.936359882354736328e+00,2.865635156631469727e+00,2.798237323760986328e+00,2.733937025070190430e+00,2.672525405883789062e+00,2.613811969757080078e+00,2.557622909545898438e+00,2.503798723220825195e+00,2.452193737030029297e+00,2.402672529220581055e+00,2.355112075805664062e+00,2.309397697448730469e+00,2.265424489974975586e+00,2.223094463348388672e+00,2.182317495346069336e+00,2.143009424209594727e+00,2.105092287063598633e+00,2.068493366241455078e+00,2.033145666122436523e+00,1.998985528945922852e+00,1.965954542160034180e+00,1.933997154235839844e+00,1.903062224388122559e+00,1.873101234436035156e+00,1.844069123268127441e+00
5.000000000000000000e+00,4.843988895416259766e+00,4.839861869812011719e+00,4.854316234588623047e+00,4.894614696502685547e+00,4.953553676605224609e+00,5.000000000000000000e+00,5.000000000000000000e+00,5.000000000000000000e+00,5.000000000000000000e+00,5.000000000000000000e+00,5.000000000000000000e+00,5.000000000000000000e+00,5.000000000000000000e+00,5.000000000000000000e+00,5.000000000000000000e+00,5.000000000000000000e+00,5.000000000000000000e+00,5.000000000000000000e+00,5.000000000000000000e+00,5.000000000000000000e+00,5.000000000000000000e+00,5.000000000000000000e+00,5.000000000000000000e+00,5.000000000000000000e+00,5.000000000000000000e+00,5.000000000000000000e+00,5.000000000000000000e+00,5.000000000000000000e+00,5.000000000000000000e+00,5.000000000000000000e+00,5.000000000000000000e+00,5.000000000000000000e+00,5.000000000000000000e+00,1.863340139389038086e+00,1.848812103271484375e+00,1.858326792716979980e+00,1.877750635147094727e+00,5.000000000000000000e+00,1.802151560783386230e+00,1.789496421813964844e+00,1.782539248466491699e+00,1.804997682571411133e+00,2.022658348083496094e+00,2.028118848800659180e+00,3.898615598678588867e+00,3.774918556213378906e+00,3.658829689025878906e+00,3.549667835235595703e+00,3.446830987930297852e+00,3.349785327911376953e+00,3.258054494857788086e+00,3.171213388442993164e+00,3.088881731033325195e+00,3.010716676712036133e+00,2.936410427093505859e+00,2.865683317184448242e+00,2.798283338546752930e+00,2.733980655670166016e+00,2.672567129135131836e+00,2.613852024078369141e+00,2.557661294937133789e+00,2.503835678100585938e+00,2.452228784561157227e+00,2.402706146240234375e+00,2.355144500732421875e+00,2.309429168701171875e+00,2.265454769134521484e+00,2.223123550415039062e+00,2.182345390319824219e+00,2.143036127090454102e+00,2.105118274688720703e+00,2.068518400192260742e+00,2.033169746398925781e+00,1.999008893966674805e+00,1.965977191925048828e+00,1.934018969535827637e+00,1.903083443641662598e+00,1.873121857643127441e+00,1.844089031219482422e+00
5.000000000000000000e+00,4.849892616271972656e+00,4.851709365844726562e+00,4.858915805816650391e+00,4.892419815063476562e+00,4.962956428527832031e+00,5.000000000000000000e+00,5.000000000000000000e+00,5.000000000000000000e+00,5.000000000000000000e+00,5.000000000000000000e+00,5.000000000000000000e+00,5.000000000000000000e+00,5.000000000000000000e+00,5.000000000000000000e+00,5.000000000000000000e+00,5.000000000000000000e+00,5.000000000000000000e+00,5.000000000000000000e+00,5.000000000000000000e+00,5.000000000000000000e+00,5.000000000000000000e+00,5.000000000000000000e+00,5.000000000000000000e+00,5.000000000000000000e+00,5.000000000000000000e+00,5.000000000000000000e+00,5.000000000000000000e+00,5.000000000000000000e+00,5.000000000000000000e+00,5.000000000000000000e+00,5.000000000000000000e+00,5.000000000000000000e+00,5.000000000000000000e+00,1.864529132843017578e+00,1.849973201751708984e+00,1.859328746795654297e+00,1.878588795661926270e+00,5.000000000000000000e+00,1.797333359718322754e+00,1.778315901756286621e+00,1.774332523345947266e+00,1.790072321891784668e+00,4.172136306762695312e+00,2.020311832427978516e+00,3.898704290390014648e+00,3.775001764297485352e+00,3.658908367156982422e+00,3.549741983413696289e+00,3.446900844573974609e+00,3.349850893020629883e+00,3.258116483688354492e+00,3.171272277832031250e+00,3.088937759399414062e+00,3.010770082473754883e+00,2.936460733413696289e+00,2.865731239318847656e+00,2.798328876495361328e+00,2.734024524688720703e+00,2.672609090805053711e+00,2.613892078399658203e+00,2.557699680328369141e+00,2.503872156143188477e+00,2.452264070510864258e+00,2.402740240097045898e+00,2.355176925659179688e+00,2.309460163116455078e+00,2.265484571456909180e+00,2.223152399063110352e+00,2.182373285293579102e+00,2.143063068389892578e+00,2.105144023895263672e+00,2.068543434143066406e+00,2.033194065093994141e+00,1.999032497406005859e+00,1.965999722480773926e+00,1.934041023254394531e+00,1.903104543685913086e+00,1.873142361640930176e+00,1.844109058380126953e+00
5.000000000000000000e+00,4.851081371307373047e+00,4.873597621917724609e+00,4.858940601348876953e+00,4.891958236694335938e+00,4.955035686492919922e+00,5.000000000000000000e+00,5.000000000000000000e+00,5.000000000000000000e+00,5.000000000000000000e+00,5.000000000000000000e+00,5.000000000000000000e+00,5.000000000000000000e+00,5.000000000000000000e+00,5.000000000000000000e+00,5.000000000000000000e+00,5.000000000000000000e+00,5.000000000000000000e+00,5.000000000000000000e+00,5.000000000000000000e+00,5.000000000000000000e+00,5.000000000000000000e+00,5.000000000000000000e+00,5.000000000000000000e+00,5.000000000000000000e+00,5.000000000000000000e+00,5.000000000000000000e+00,5.000000000000000000e+00,5.000000000000000000e+00,5.000000000000000000e+00,5.000000000000000000e+00,5.000000000000000000e+00,5.000000000000000000e+00,5.000000000000000000e+00,1.864040732383728027e+00,1.849492311477661133e+00,1.861276388168334961e+00,1.878517270088195801e+00,5.000000000000000000e+00,1.792540788650512695e+00,1.766640424728393555e+00,1.764209747314453125e+00,1.782473802566528320e+00,4.172237873077392578e+00,4.030883789062500000e+00,3.898793458938598633e+00,3.775085449218750000e+00,3.658986568450927734e+00,3.549815416336059570e+00,3.446970224380493164e+00,3.349916696548461914e+00,3.258178710937500000e+00,3.171331167221069336e+00,3.088993310928344727e+00,3.010823011398315430e+00,2.936511516571044922e+00,2.865779399871826172e+00,2.798374891281127930e+00,2.734068155288696289e+00,2.672650814056396484e+00,2.613932132720947266e+00,2.557738065719604492e+00,2.503909111022949219e+00,2.452299118041992188e+00,2.402773857116699219e+00,2.355209350585937500e+00,2.309491634368896484e+00,2.265514612197875977e+00,2.223181486129760742e+00,2.182401180267333984e+00,2.143090009689331055e+00,2.105170011520385742e+00,2.068568468093872070e+00,2.033218383789062500e+00,1.999055743217468262e+00,1.966022253036499023e+00,1.934062838554382324e+00,1.903125882148742676e+00,1.873162865638732910e+00,1.844128966331481934e+00
5.000000000000000000e+00,4.851948261260986328e+00,4.852881908416748047e+00,4.846225738525390625e+00,4.882051467895507812e+00,4.937019348144531250e+00,5.000000000000000000e+00,5.000000000000000000e+00,5.000000000000000000e+00,5.000000000000000000e+00,5.000000000000000000e+00,5.000000000000000000e+00,5.000000000000000000e+00,5.000000000000000000e+00,5.000000000000000000e+00,5.000000000000000000e+00,5.000000000000000000e+00,5.000000000000000000e+00,5.000000000000000000e+00,5.000000000000000000e+00,5.000000000000000000e+00,5.000000000000000000e+00,5.000000000000000000e+00,5.000000000000000000e+00,5.000000000000000000e+00,5.000000000000000000e+00,5.000000000000000000e+00,5.000000000000000000e+00,5.000000000000000000e+00,5.000000000000000000e+00,5.000000000000000000e+00,5.000000000000000000e+00,5.000000000000000000e+00,5.000000000000000000e+00,1.866198182106018066e+00,1.849011659622192383e+00,1.863228321075439453e+00,1.884244680404663086e+00,5.000000000000000000e+00,1.786837100982666016e+00,1.758163213729858398e+00,1.757132411003112793e+00,1.774560093879699707e+00,4.172339916229248047e+00,4.030978679656982422e+00,3.898882389068603516e+00,3.775168657302856445e+00,3.659065246582031250e+00,3.549889564514160156e+00,3.447040081024169922e+00,3.349982261657714844e+00,3.258240699768066406e+00,3.171390295028686523e+00,3.089049339294433594e+00,3.010876178741455078e+00,2.936561822891235352e+00,2.865827560424804688e+00,2.798420667648315430e+00,2.734112024307250977e+00,2.672692775726318359e+00,2.613971948623657227e+00,2.557776212692260742e+00,2.503945589065551758e+00,2.452334403991699219e+00,2.402807712554931641e+00,2.355242013931274414e+00,2.309522628784179688e+00,2.265544652938842773e+00,2.223210334777832031e+00,2.182429075241088867e+00,2.143116950988769531e+00,2.105195999145507812e+00,2.068593502044677734e+00,2.033242464065551758e+00,1.999079108238220215e+00,1.966045141220092773e+00,1.934084773063659668e+00,1.903147101402282715e+00,1.873183369636535645e+00,1.844148755073547363e+00
5.000000000000000000e+00,4.808075428009033203e+00,4.850908756256103516e+00,4.860180377960205078e+00,4.896450042724609375e+00,4.944996833801269531e+00,5.000000000000000000e+00,5.000000000000000000e+00,5.000000000000000000e+00,5.000000000000000000e+00,5.000000000000000000e+00,5.000000000000000000e+00,5.000000000000000000e+00,5.000000000000000000e+00,5.000000000000000000e+00,5.000000000000000000e+00,5.000000000000000000e+00,5.000000000000000000e+00,5.000000000000000000e+00,5.000000000000000000e+00,5.000000000000000000e+00,5.000000000000000000e+00,5.000000000000000000e+00,5.000000000000000000e+00,5.000000000000000000e+00,5.000000000000000000e+00,5.000000000000000000e+00,5.000000000000000000e+00,5.000000000000000000e+00,5.000000000000000000e+00,5.000000000000000000e+00,5.000000000000000000e+00,5.000000000000000000e+00,5.000000000000000000e+00,1.869475722312927246e+00,1.848531007766723633e+00,1.863054513931274414e+00,1.890205025672912598e+00,5.000000000000000000e+00,1.787725210189819336e+00,1.758293867111206055e+00,1.756686449050903320e+00,1.782422065734863281e+00,4.172441959381103516e+00,4.031074047088623047e+00,3.898971557617187500e+00,3.775252342224121094e+00,3.659143447875976562e+00,3.549963235855102539e+00,3.447109460830688477e+00,3.350048303604125977e+00,3.258303165435791016e+00,3.171448945999145508e+00,3.089105129241943359e+00,3.010929107666015625e+00,2.936612367630004883e+00,2.865875720977783203e+00,2.798466682434082031e+00,2.734155654907226562e+00,2.672734498977661133e+00,2.614012241363525391e+00,2.557814598083496094e+00,2.503982543945312500e+00,2.452369689941406250e+00,2.402841567993164062e+00,2.355274438858032227e+00,2.309554100036621094e+00,2.265574693679809570e+00,2.223239183425903320e+00,2.182456970214843750e+00,2.143143892288208008e+00,2.105221986770629883e+00,2.068618774414062500e+00,2.033266782760620117e+00,1.999102473258972168e+00,1.966067671775817871e+00,1.934106826782226562e+00,1.903168201446533203e+00,1.873204112052917480e+00,1.844168663024902344e+00
5.000000000000000000e+00,4.776836872100830078e+00,4.823309898376464844e+00,4.858715057373046875e+00,4.903329372406005859e+00,4.899158954620361328e+00,5.000000000000000000e+00,5.000000000000000000e+00,5.000000000000000000e+00,5.000000000000000000e+00,5.000000000000000000e+00,5.000000000000000000e+00,5.000000000000000000e+00,5.000000000000000000e+00,5.000000000000000000e+00,5.000000000000000000e+00,5.000000000000000000e+00,5.000000000000000000e+00,5.000000000000000000e+00,5.000000000000000000e+00,5.000000000000000000e+00,5.000000000000000000e+00,5.000000000000000000e+00,5.000000000000000000e+00,5.000000000000000000e+00,5.000000000000000000e+00,5.000000000000000000e+00,5.000000000000000000e+00,5.000000000000000000e+00,5.000000000000000000e+00,5.000000000000000000e+00,5.000000000000000000e+00,5.000000000000000000e+00,5.000000000000000000e+00,1.872764348983764648e+00,1.848193764686584473e+00,1.862366676330566406e+00,1.896203398704528809e+00,5.000000000000000000e+00,1.796406745910644531e+00,1.767933011054992676e+00,1.765532612800598145e+00,1.803581476211547852e+00,4.172544002532958984e+00,4.031168937683105469e+00,3.899060249328613281e+00,3.775335550308227539e+00,3.659221887588500977e+00,3.550037145614624023e+00,3.447179079055786133e+00,3.350113868713378906e+00,3.258365154266357422e+00,3.171508073806762695e+00,3.089161157608032227e+00,3.010982275009155273e+00,2.936662912368774414e+00,2.865923643112182617e+00,2.798512458801269531e+00,2.734199762344360352e+00,2.672776460647583008e+00,2.614052057266235352e+00,2.557852745056152344e+00,2.504019021987915039e+00,2.452404975891113281e+00,2.402875423431396484e+00,2.355306863784790039e+00,2.309585094451904297e+00,2.265604734420776367e+00,2.223268270492553711e+00,2.182484865188598633e+00,2.143170833587646484e+00,2.105247974395751953e+00,2.068643808364868164e+00,2.033290863037109375e+00,1.999126076698303223e+00,1.966090321540832520e+00,1.934128642082214355e+00,1.903189420700073242e+00,1.873224616050720215e+00,1.844188690185546875e+00
5.000000000000000000e+00,4.725454330444335938e+00,4.814177036285400391e+00,4.843348503112792969e+00,4.884158611297607422e+00,4.878966808319091797e+00,5.000000000000000000e+00,5.000000000000000000e+00,5.000000000000000000e+00,5.000000000000000000e+00,5.000000000000000000e+00,5.000000000000000000e+00,5.000000000000000000e+00,5.000000000000000000e+00,5.000000000000000000e+00,5.000000000000000000e+00,5.000000000000000000e+00,5.000000000000000000e+00,5.000000000000000000e+00,5.000000000000000000e+00,5.000000000000000000e+00,5.000000000000000000e+00,5.000000000000000000e+00,5.000000000000000000e+00,5.000000000000000000e+00,5.000000000000000000e+00,5.000000000000000000e+00,5.000000000000000000e+00,5.000000000000000000e+00,5.000000000000000000e+00,5.000000000000000000e+00,5.000000000000000000e+00,5.000000000000000000e+00,5.000000000000000000e+00,1.921383380889892578e+00,1.857245922088623047e+00,1.870485663414001465e+00,1.905188083648681641e+00,5.000000000000000000e+00,1.809900045394897461e+00,1.781019687652587891e+00,1.777130603790283203e+00,4.324305057525634766e+00,4.172646045684814453e+00,4.031264305114746094e+00,3.899149656295776367e+00,3.775419235229492188e+00,3.659300088882446289e+00,3.550110816955566406e+00,3.447248697280883789e+00,3.350179672241210938e+00,3.258427381515502930e+00,3.171566724777221680e+00,3.089216947555541992e+00,3.011035203933715820e+00,2.936713457107543945e+00,2.865971803665161133e+00,2.798558473587036133e+00,2.734243392944335938e+00,2.672818183898925781e+00,2.614092111587524414e+00,2.557891130447387695e+00,2.504055976867675781e+00,2.452440023422241211e+00,2.402909040451049805e+00,2.355339288711547852e+00,2.309616565704345703e+00,2.265635013580322266e+00,2.223297119140625000e+00,2.182512760162353516e+00,2.143197536468505859e+00,2.105273962020874023e+00,2.068668842315673828e+00,2.033315181732177734e+00,1.999149441719055176e+00,1.966112852096557617e+00,1.934150457382202148e+00,1.903210759162902832e+00,1.873245120048522949e+00,1.844208598136901855e+00
5.000000000000000000e+00,5.000000000000000000e+00,4.812402248382568359e+00,4.842455863952636719e+00,4.871096134185791016e+00,4.862919330596923828e+00,5.000000000000000000e+00,5.000000000000000000e+00,5.000000000000000000e+00,5.000000000000000000e+00,5.000000000000000000e+00,5.000000000000000000e+00,5.000000000000000000e+00,5.000000000000000000e+00,5.000000000000000000e+00,5.000000000000000000e+00,5.000000000000000000e+00,5.000000000000000000e+00,5.000000000000000000e+00,5.000000000000000000e+00,5.000000000000000000e+00,5.000000000000000000e+00,5.000000000000000000e+00,5.000000000000000000e+00,5.000000000000000000e+00,5.000000000000000000e+00,5.000000000000000000e+00,5.000000000000000000e+00,5.000000000000000000e+00,5.000000000000000000e+00,5.000000000000000000e+00,5.000000000000000000e+00,5.000000000000000000e+00,5.000000000000000000e+00,1.923168540000915527e+00,1.873820662498474121e+00,1.887752294540405273e+00,5.000000000000000000e+00,5.000000000000000000e+00,1.816248893737792969e+00,1.796432375907897949e+00,1.789860129356384277e+00,4.324414730072021484e+00,4.172747611999511719e+00,4.031359195709228516e+00,3.899238348007202148e+00,3.775502443313598633e+00,3.659378767013549805e+00,3.550184726715087891e+00,3.447318315505981445e+00,3.350245237350463867e+00,3.258489608764648438e+00,3.171625852584838867e+00,3.089272975921630859e+00,3.011088609695434570e+00,2.936763763427734375e+00,2.866019964218139648e+00,2.798604249954223633e+00,2.734287261962890625e+00,2.672860145568847656e+00,2.614132165908813477e+00,2.557929515838623047e+00,2.504092454910278320e+00,2.452475309371948242e+00,2.402942895889282227e+00,2.355371952056884766e+00,2.309647560119628906e+00,2.265664815902709961e+00,2.223326206207275391e+00,2.182540655136108398e+00,2.143224477767944336e+00,2.105299711227416992e+00,2.068693876266479492e+00,2.033339262008666992e+00,1.999172806739807129e+00,1.966135621070861816e+00,1.934172391891479492e+00,1.903231978416442871e+00,1.873265624046325684e+00,1.844228506088256836e+00
5.000000000000000000e+00,5.000000000000000000e+00,4.807408809661865234e+00,4.840941905975341797e+00,4.849425792694091797e+00,4.846584796905517578e+00,5.000000000000000000e+00,5.000000000000000000e+00,5.000000000000000000e+00,5.000000000000000000e+00,5.000000000000000000e+00,5.000000000000000000e+00,5.000000000000000000e+00,5.000000000000000000e+00,5.000000000000000000e+00,5.000000000000000000e+00,5.000000000000000000e+00,5.000000000000000000e+00,5.000000000000000000e+00,5.000000000000000000e+00,5.000000000000000000e+00,5.000000000000000000e+00,5.000000000000000000e+00,5.000000000000000000e+00,5.000000000000000000e+00,5.000000000000000000e+00,5.000000000000000000e+00,5.000000000000000000e+00,5.000000000000000000e+00,5.000000000000000000e+00,5.000000000000000000e+00,5.000000000000000000e+00,5.000000000000000000e+00,5.000000000000000000e+00,1.971924662590026855e+00,1.918369770050048828e+00,1.943204760551452637e+00,5.000000000000000000e+00,5.000000000000000000e+00,1.821835994720458984e+00,1.810235023498535156e+00,1.810115456581115723e+00,4.324523925781250000e+00,4.172849655151367188e+00,4.031454563140869141e+00,3.899327754974365234e+00,3.775586128234863281e+00,3.659456968307495117e+00,3.550258398056030273e+00,3.447387695312500000e+00,3.350311040878295898e+00,3.258551836013793945e+00,3.171684741973876953e+00,3.089328765869140625e+00,3.011141538619995117e+00,2.936814546585083008e+00,2.866068124771118164e+00,2.798650026321411133e+00,2.734330892562866211e+00,2.672901868820190430e+00,2.614172220230102539e+00,2.557967901229858398e+00,2.504129409790039062e+00,2.452510595321655273e+00,2.402976751327514648e+00,2.355404376983642578e+00,2.309679031372070312e+00,2.265695095062255859e+00,2.223355054855346680e+00,2.182568550109863281e+00,2.143251419067382812e+00,2.105325937271118164e+00,2.068718910217285156e+00,2.033363580703735352e+00,1.999196052551269531e+00,1.966158270835876465e+00,1.934194445610046387e+00,1.903253078460693359e+00,1.873286247253417969e+00,1.844248294830322266e+00
5.000000000000000000e+00,5.000000000000000000e+00,4.809744358062744141e+00,4.834936618804931641e+00,4.848464012145996094e+00,4.841509819030761719e+00,5.000000000000000000e+00,5.000000000000000000e+00,5.000000000000000000e+00,5.000000000000000000e+00,5.000000000000000000e+00,5.000000000000000000e+00,5.000000000000000000e+00,5.000000000000000000e+00,5.000000000000000000e+00,5.000000000000000000e+00,5.000000000000000000e+00,5.000000000000000000e+00,5.000000000000000000e+00,5.000000000000000000e+00,5.000000000000000000e+00,5.000000000000000000e+00,5.000000000000000000e+00,5.000000000000000000e+00,5.000000000000000000e+00,5.000000000000000000e+00,5.000000000000000000e+00,5.000000000000000000e+00,5.000000000000000000e+00,5.000000000000000000e+00,5.000000000000000000e+00,5.000000000000000000e+00,5.000000000000000000e+00,5.000000000000000000e+00,2.027621746063232422e+00,1.996311068534851074e+00,2.044040203094482422e+00,5.000000000000000000e+00,5.000000000000000000e+00,1.822577357292175293e+00,1.811767578125000000e+00,1.813237428665161133e+00,4.324633598327636719e+00,4.172951698303222656e+00,4.031549930572509766e+00,3.899416446685791016e+00,3.775669574737548828e+00,3.659535646438598633e+00,3.550332307815551758e+00,3.447457551956176758e+00,3.350376605987548828e+00,3.258613824844360352e+00,3.171743631362915039e+00,3.089384794235229492e+00,3.011194705963134766e+00,2.936864852905273438e+00,2.866116046905517578e+00,2.798695802688598633e+00,2.734374761581420898e+00,2.672943592071533203e+00,2.614212274551391602e+00,2.558006048202514648e+00,2.504165887832641602e+00,2.452545881271362305e+00,2.403010606765747070e+00,2.355436801910400391e+00,2.309710025787353516e+00,2.265724897384643555e+00,2.223384141921997070e+00,2.182596445083618164e+00,2.143278360366821289e+00,2.105351686477661133e+00,2.068743944168090820e+00,2.033387660980224609e+00,1.999219655990600586e+00,1.966180801391601562e+00,1.934216260910034180e+00,1.903274297714233398e+00,1.873306751251220703e+00,1.844268441200256348e+00
5.000000000000000000e+00,5.000000000000000000e+00,4.899234771728515625e+00,4.884150505065917969e+00,4.885124206542968750e+00,4.882670402526855469e+00,5.000000000000000000e+00,5.000000000000000000e+00,5.000000000000000000e+00,5.000000000000000000e+00,5.000000000000000000e+00,5.000000000000000000e+00,5.000000000000000000e+00,5.000000000000000000e+00,5.000000000000000000e+00,5.000000000000000000e+00,5.000000000000000000e+00,5.000000000000000000e+00,5.000000000000000000e+00,5.000000000000000000e+00,5.000000000000000000e+00,5.000000000000000000e+00,5.000000000000000000e+00,5.000000000000000000e+00,5.000000000000000000e+00,5.000000000000000000e+00,5.000000000000000000e+00,5.000000000000000000e+00,5.000000000000000000e+00,5.000000000000000000e+00,5.000000000000000000e+00,5.000000000000000000e+00,5.000000000000000000e+00,5.000000000000000000e+00,2.074569702148437500e+00,2.053659439086914062e+00,2.094872713088989258e+00,5.000000000000000000e+00,5.000000000000000000e+00,1.823319554328918457e+00,1.813302874565124512e+00,1.815889000892639160e+00,4.324743270874023438e+00,4.173053741455078125e+00,4.031644821166992188e+00,3.899505853652954102e+00,3.775753259658813477e+00,3.659613847732543945e+00,3.550405979156494141e+00,3.447527408599853516e+00,3.350442647933959961e+00,3.258676290512084961e+00,3.171802520751953125e+00,3.089440584182739258e+00,3.011247634887695312e+00,2.936915397644042969e+00,2.866164207458496094e+00,2.798741817474365234e+00,2.734418392181396484e+00,2.672985553741455078e+00,2.614252328872680664e+00,2.558044433593750000e+00,2.504202842712402344e+00,2.452580928802490234e+00,2.403044462203979492e+00,2.355469465255737305e+00,2.309741497039794922e+00,2.265755176544189453e+00,2.223412990570068359e+00,2.182624340057373047e+00,2.143305063247680664e+00,2.105377674102783203e+00,2.068768978118896484e+00,2.033411979675292969e+00,1.999243021011352539e+00,1.966203451156616211e+00,1.934238195419311523e+00,1.903295636177062988e+00,1.873327255249023438e+00,1.844288229942321777e+00
5.000000000000000000e+00,5.000000000000000000e+00,5.000000000000000000e+00,5.000000000000000000e+00,4.882437705993652344e+00,4.897436141967773438e+00,5.000000000000000000e+00,5.000000000000000000e+00,5.000000000000000000e+00,5.000000000000000000e+00,5.000000000000000000e+00,5.000000000000000000e+00,5.000000000000000000e+00,5.000000000000000000e+00,5.000000000000000000e+00,5.000000000000000000e+00,5.000000000000000000e+00,5.000000000000000000e+00,5.000000000000000000e+00,5.000000000000000000e+00,5.000000000000000000e+00,5.000000000000000000e+00,5.000000000000000000e+00,5.000000000000000000e+00,5.000000000000000000e+00,5.000000000000000000e+00,5.000000000000000000e+00,5.000000000000000000e+00,5.000000000000000000e+00,5.000000000000000000e+00,5.000000000000000000e+00,5.000000000000000000e+00,5.000000000000000000e+00,5.000000000000000000e+00,2.127099037170410156e+00,2.107172012329101562e+00,5.000000000000000000e+00,5.000000000000000000e+00,5.000000000000000000e+00,1.824062108993530273e+00,1.814437747001647949e+00,1.819501757621765137e+00,4.324852466583251953e+00,4.173155784606933594e+00,4.031740188598632812e+00,3.899594545364379883e+00,3.775836467742919922e+00,3.659692525863647461e+00,3.550479888916015625e+00,3.447596788406372070e+00,3.350508213043212891e+00,3.258738279342651367e+00,3.171861648559570312e+00,3.089496612548828125e+00,3.011300802230834961e+00,2.936965942382812500e+00,2.866212368011474609e+00,2.798787832260131836e+00,2.734462261199951172e+00,2.673027276992797852e+00,2.614292144775390625e+00,2.558082818984985352e+00,2.504239559173583984e+00,2.452616214752197266e+00,2.403078317642211914e+00,2.355501890182495117e+00,2.309772729873657227e+00,2.265785217285156250e+00,2.223442077636718750e+00,2.182652235031127930e+00,2.143332242965698242e+00,2.105403661727905273e+00,2.068794012069702148e+00,2.033436298370361328e+00,1.999266386032104492e+00,1.966226220130920410e+00,1.934260010719299316e+00,1.903316855430603027e+00,1.873347759246826172e+00,1.844308137893676758e+00
5.000000000000000000e+00,5.000000000000000000e+00,5.000000000000000000e+00,5.000000000000000000e+00,4.884466648101806641e+00,4.915906429290771484e+00,5.000000000000000000e+00,5.000000000000000000e+00,5.000000000000000000e+00,5.000000000000000000e+00,5.000000000000000000e+00,5.000000000000000000e+00,5.000000000000000000e+00,5.000000000000000000e+00,5.000000000000000000e+00,5.000000000000000000e+00,5.000000000000000000e+00,5.000000000000000000e+00,5.000000000000000000e+00,5.000000000000000000e+00,5.000000000000000000e+00,5.000000000000000000e+00,5.000000000000000000e+00,5.000000000000000000e+00,5.000000000000000000e+00,5.000000000000000000e+00,5.000000000000000000e+00,5.000000000000000000e+00,5.000000000000000000e+00,5.000000000000000000e+00,5.000000000000000000e+00,5.000000000000000000e+00,5.000000000000000000e+00,5.000000000000000000e+00,2.197032928466796875e+00,2.165558338165283203e+00,5.000000000000000000e+00,5.000000000000000000e+00,5.000000000000000000e+00,1.824937701225280762e+00,1.815173029899597168e+00,1.827865004539489746e+00,4.324962139129638672e+00,4.173257827758789062e+00,4.031835079193115234e+00,3.899683952331542969e+00,3.775920152664184570e+00,3.659770727157592773e+00,3.550553560256958008e+00,3.447666645050048828e+00,3.350574016571044922e+00,3.258800506591796875e+00,3.171920299530029297e+00,3.089552402496337891e+00,3.011353969573974609e+00,2.937016487121582031e+00,2.866260528564453125e+00,2.798833608627319336e+00,2.734506130218505859e+00,2.673069238662719727e+00,2.614332437515258789e+00,2.558121204376220703e+00,2.504276275634765625e+00,2.452651500701904297e+00,2.403111934661865234e+00,2.355534553527832031e+00,2.309803962707519531e+00,2.265815258026123047e+00,2.223470926284790039e+00,2.182680130004882812e+00,2.143358945846557617e+00,2.105429649353027344e+00,2.068819284439086914e+00,2.033460378646850586e+00,1.999289751052856445e+00,1.966248750686645508e+00,1.934282064437866211e+00,1.903337955474853516e+00,1.873368501663208008e+00,1.844328045845031738e+00
5.000000000000000000e+00,5.000000000000000000e+00,5.000000000000000000e+00,5.000000000000000000e+00,4.894059181213378906e+00,4.954704284667968750e+00,5.000000000000000000e+00,5.000000000000000000e+00,5.000000000000000000e+00,5.000000000000000000e+00,5.000000000000000000e+00,5.000000000000000000e+00,5.000000000000000000e+00,5.000000000000000000e+00,5.000000000000000000e+00,5.000000000000000000e+00,5.000000000000000000e+00,5.000000000000000000e+00,5.000000000000000000e+00,5.000000000000000000e+00,5.000000000000000000e+00,5.000000000000000000e+00,5.000000000000000000e+00,5.000000000000000000e+00,5.000000000000000000e+00,5.000000000000000000e+00,5.000000000000000000e+00,5.000000000000000000e+00,5.000000000000000000e+00,5.000000000000000000e+00,5.000000000000000000e+00,5.000000000000000000e+00,5.000000000000000000e+00,5.000000000000000000e+00,2.278212308883666992e+00,2.228010416030883789e+00,5.000000000000000000e+00,5.000000000000000000e+00,5.000000000000000000e+00,1.826668143272399902e+00,1.816776394844055176e+00,1.843859314918518066e+00,4.325071334838867188e+00,4.173359870910644531e+00,4.031930446624755859e+00,3.899772644042968750e+00,3.776003360748291016e+00,3.659849405288696289e+00,3.550627708435058594e+00,3.447736024856567383e+00,3.350639581680297852e+00,3.258862733840942383e+00,3.171979427337646484e+00,3.089608430862426758e+00,3.011407136917114258e+00,2.937067031860351562e+00,2.866308450698852539e+00,2.798879623413085938e+00,2.734549999237060547e+00,2.673110961914062500e+00,2.614372253417968750e+00,2.558159351348876953e+00,2.504312992095947266e+00,2.452686786651611328e+00,2.403145790100097656e+00,2.355566978454589844e+00,2.309835195541381836e+00,2.265845298767089844e+00,2.223500013351440430e+00,2.182708024978637695e+00,2.143385887145996094e+00,2.105455636978149414e+00,2.068844079971313477e+00,2.033484697341918945e+00,1.999313354492187500e+00,1.966271400451660156e+00,1.934303879737854004e+00,1.903359174728393555e+00,1.873389005661010742e+00,1.844348073005676270e+00
5.000000000000000000e+00,5.000000000000000000e+00,5.000000000000000000e+00,5.000000000000000000e+00,4.880800247192382812e+00,5.000000000000000000e+00,5.000000000000000000e+00,5.000000000000000000e+00,5.000000000000000000e+00,5.000000000000000000e+00,5.000000000000000000e+00,5.000000000000000000e+00,5.000000000000000000e+00,5.000000000000000000e+00,5.000000000000000000e+00,5.000000000000000000e+00,5.000000000000000000e+00,5.000000000000000000e+00,5.000000000000000000e+00,5.000000000000000000e+00,5.000000000000000000e+00,5.000000000000000000e+00,5.000000000000000000e+00,5.000000000000000000e+00,5.000000000000000000e+00,5.000000000000000000e+00,5.000000000000000000e+00,5.000000000000000000e+00,5.000000000000000000e+00,5.000000000000000000e+00,5.000000000000000000e+00,5.000000000000000000e+00,5.000000000000000000e+00,5.000000000000000000e+00,2.295513868331909180e+00,2.278286695480346680e+00,5.000000000000000000e+00,5.000000000000000000e+00,5.000000000000000000e+00,1.829501032829284668e+00,1.818487286567687988e+00,1.869358658790588379e+00,4.325180530548095703e+00,4.173461914062500000e+00,4.032025814056396484e+00,3.899862051010131836e+00,3.776087284088134766e+00,3.659927606582641602e+00,3.550701379776000977e+00,3.447805881500244141e+00,3.350705623626708984e+00,3.258924961090087891e+00,3.172038078308105469e+00,3.089663982391357422e+00,3.011460065841674805e+00,2.937117576599121094e+00,2.866356849670410156e+00,2.798925399780273438e+00,2.734593629837036133e+00,2.673152923583984375e+00,2.614412307739257812e+00,2.558197736740112305e+00,2.504349708557128906e+00,2.452721834182739258e+00,2.403179645538330078e+00,2.355599403381347656e+00,2.309866428375244141e+00,2.265875339508056641e+00,2.223528861999511719e+00,2.182735919952392578e+00,2.143412828445434570e+00,2.105481624603271484e+00,2.068869352340698242e+00,2.033508777618408203e+00,1.999336600303649902e+00,1.966293931007385254e+00,1.934325814247131348e+00,1.903380513191223145e+00,1.873409509658813477e+00,1.844367980957031250e+00
4.875741004943847656e+00,4.874530315399169922e+00,4.873320579528808594e+00,4.872111320495605469e+00,4.870902538299560547e+00,4.869694232940673828e+00,4.868486881256103516e+00,4.867280006408691406e+00,4.866073608398437500e+00,4.864868164062500000e+00,4.863662719726562500e+00,4.862458229064941406e+00,4.861254215240478516e+00,4.860051155090332031e+00,4.858848571777343750e+00,4.857646465301513672e+00,4.856444835662841797e+00,4.855244159698486328e+00,4.854043960571289062e+00,4.852844238281250000e+00,4.851644992828369141e+00,4.850446224212646484e+00,4.849248409271240234e+00,4.848051071166992188e+00,4.846854209899902344e+00,4.845658302307128906e+00,4.844462394714355469e+00,4.843267440795898438e+00,4.842072963714599609e+00,4.840878963470458984e+00,4.839685916900634766e+00,4.838493347167968750e+00,4.837301254272460938e+00,4.836109638214111328e+00,2.301372766494750977e+00,2.289750576019287109e+00,4.832538604736328125e+00,4.831349372863769531e+00,4.830160617828369141e+00,1.832342982292175293e+00,1.825586080551147461e+00,4.488465309143066406e+00,4.325290203094482422e+00,4.173563480377197266e+00,4.032120704650878906e+00,3.899950981140136719e+00,3.776170492172241211e+00,3.660006284713745117e+00,3.550775289535522461e+00,3.447875261306762695e+00,3.350771188735961914e+00,3.258986949920654297e+00,3.172097206115722656e+00,3.089720010757446289e+00,3.011513233184814453e+00,2.937167882919311523e+00,2.866404771804809570e+00,2.798971414566040039e+00,2.734637498855590820e+00,2.673194885253906250e+00,2.614452362060546875e+00,2.558236122131347656e+00,2.504386425018310547e+00,2.452757120132446289e+00,2.403213500976562500e+00,2.355631828308105469e+00,2.309897661209106445e+00,2.265905380249023438e+00,2.223557710647583008e+00,2.182763814926147461e+00,2.143439769744873047e+00,2.105507612228393555e+00,2.068894386291503906e+00,2.033533096313476562e+00,1.999359965324401855e+00,1.966316819190979004e+00,1.934347629547119141e+00,1.903401613235473633e+00,1.873430013656616211e+00,1.844387888908386230e+00
3.778576612472534180e+00,3.777849435806274414e+00,3.777122735977172852e+00,3.776396274566650391e+00,3.775670051574707031e+00,3.774944067001342773e+00,3.774218320846557617e+00,3.773493051528930664e+00,3.772767782211303711e+00,3.772042989730834961e+00,3.771318435668945312e+00,3.770594358444213867e+00,3.769870281219482422e+00,3.769146442413330078e+00,3.768423080444335938e+00,3.767699956893920898e+00,3.766977071762084961e+00,3.766254425048828125e+00,3.765532255172729492e+00,3.764810323715209961e+00,3.764088392257690430e+00,3.763366937637329102e+00,3.762645721435546875e+00,3.761925220489501953e+00,3.761204481124877930e+00,3.760484218597412109e+00,3.759763956069946289e+00,3.759044170379638672e+00,3.758324623107910156e+00,3.757605314254760742e+00,3.756886482238769531e+00,3.756167650222778320e+00,3.755449295043945312e+00,3.754730939865112305e+00,2.303022623062133789e+00,2.298047065734863281e+00,3.752578258514404297e+00,3.751861095428466797e+00,3.751144170761108398e+00,1.835193514823913574e+00,1.832954764366149902e+00,3.748995542526245117e+00,3.748279809951782227e+00,3.747564315795898438e+00,3.746849060058593750e+00,3.746134281158447266e+00,3.745419502258300781e+00,3.660084486007690430e+00,3.550848960876464844e+00,3.447944879531860352e+00,3.350836992263793945e+00,3.259049415588378906e+00,3.172156095504760742e+00,3.089775800704956055e+00,3.011566400527954102e+00,2.937218666076660156e+00,2.866452932357788086e+00,2.799017190933227539e+00,2.734681129455566406e+00,2.673236608505249023e+00,2.614492416381835938e+00,2.558274507522583008e+00,2.504423141479492188e+00,2.452792406082153320e+00,2.403247356414794922e+00,2.355664491653442383e+00,2.309928894042968750e+00,2.265935659408569336e+00,2.223586797714233398e+00,2.182791709899902344e+00,2.143466472625732422e+00,2.105533599853515625e+00,2.068919420242309570e+00,2.033557176589965820e+00,1.999383330345153809e+00,1.966339349746704102e+00,1.934369683265686035e+00,1.903422832489013672e+00,1.873450756072998047e+00,1.844407677650451660e+00
3.084488868713378906e+00,3.084004163742065430e+00,3.083519935607910156e+00,3.083035707473754883e+00,3.082551717758178711e+00,3.082068204879760742e+00,3.081584453582763672e+00,3.081100702285766602e+00,3.080617427825927734e+00,3.080134153366088867e+00,3.079650878906250000e+00,3.079168081283569336e+00,3.078685283660888672e+00,3.078202486038208008e+00,3.077719926834106445e+00,3.077237606048583984e+00,3.076755285263061523e+00,3.076273202896118164e+00,3.075791358947753906e+00,3.075309514999389648e+00,3.074827909469604492e+00,3.074346542358398438e+00,3.073865175247192383e+00,3.073384046554565430e+00,3.072902917861938477e+00,3.072422027587890625e+00,3.071941375732421875e+00,3.071460723876953125e+00,3.070980310440063477e+00,3.070500135421752930e+00,3.070019960403442383e+00,3.069540023803710938e+00,3.069060325622558594e+00,3.068580627441406250e+00,3.068101167678833008e+00,2.301596403121948242e+00,3.067142486572265625e+00,3.066663503646850586e+00,3.066184520721435547e+00,1.851690888404846191e+00,1.856212973594665527e+00,3.064748764038085938e+00,3.064270496368408203e+00,3.063792228698730469e+00,3.063314199447631836e+00,3.062836408615112305e+00,3.062358617782592773e+00,3.061881065368652344e+00,3.061403751373291016e+00,3.060926437377929688e+00,3.060449361801147461e+00,3.059972286224365234e+00,3.059495449066162109e+00,3.059019088745117188e+00,3.011619567871093750e+00,2.937268972396850586e+00,2.866501092910766602e+00,2.799063205718994141e+00,2.734724998474121094e+00,2.673278570175170898e+00,2.614532470703125000e+00,2.558312654495239258e+00,2.504459857940673828e+00,2.452827692031860352e+00,2.403281211853027344e+00,2.355696916580200195e+00,2.309960126876831055e+00,2.265965461730957031e+00,2.223615646362304688e+00,2.182819604873657227e+00,2.143493652343750000e+00,2.105559349060058594e+00,2.068944454193115234e+00,2.033581495285034180e+00,1.999406933784484863e+00,1.966361999511718750e+00,1.934391617774963379e+00,1.903443932533264160e+00,1.873471260070800781e+00,1.844427824020385742e+00
2.605824470520019531e+00,2.605478525161743164e+00,2.605132818222045898e+00,2.604787349700927734e+00,2.604441642761230469e+00,2.604096412658691406e+00,2.603750944137573242e+00,2.603405714035034180e+00,2.603060483932495117e+00,2.602715492248535156e+00,2.602370500564575195e+00,2.602025747299194336e+00,2.601680755615234375e+00,2.601336240768432617e+00,2.600991487503051758e+00,2.600646972656250000e+00,2.600302696228027344e+00,2.599958181381225586e+00,2.599613904953002930e+00,2.599269866943359375e+00,2.598925828933715820e+00,2.598581790924072266e+00,2.598237991333007812e+00,2.597894191741943359e+00,2.597550392150878906e+00,2.597206830978393555e+00,2.596863269805908203e+00,2.596519947052001953e+00,2.596176624298095703e+00,2.595833301544189453e+00,2.595490217208862305e+00,2.595147132873535156e+00,2.594804048538208008e+00,2.594461202621459961e+00,2.594118356704711914e+00,2.593775987625122070e+00,2.593433380126953125e+00,2.593090772628784180e+00,2.592748403549194336e+00,1.826157212257385254e+00,1.840947508811950684e+00,2.591721534729003906e+00,2.591379642486572266e+00,2.591037511825561523e+00,2.590695619583129883e+00,2.590353965759277344e+00,2.590012073516845703e+00,2.589670658111572266e+00,2.589329004287719727e+00,2.588987588882446289e+00,2.588646173477172852e+00,2.588304996490478516e+00,2.587963819503784180e+00,2.587622880935668945e+00,2.587281703948974609e+00,2.586941003799438477e+00,2.586600065231323242e+00,2.586259365081787109e+00,2.585918664932250977e+00,2.585578203201293945e+00,2.585237741470336914e+00,2.558351039886474609e+00,2.504496574401855469e+00,2.452862739562988281e+00,2.403314828872680664e+00,2.355729341506958008e+00,2.309991359710693359e+00,2.265995740890502930e+00,2.223644495010375977e+00,2.182847499847412109e+00,2.143520593643188477e+00,2.105585336685180664e+00,2.068969488143920898e+00,2.033605575561523438e+00,1.999430298805236816e+00,1.966384530067443848e+00,1.934413433074951172e+00,1.903465390205383301e+00,1.873491764068603516e+00,1.844447612762451172e+00
2.255764245986938477e+00,2.255505323410034180e+00,2.255246162414550781e+00,2.254987239837646484e+00,2.254728078842163086e+00,2.254469394683837891e+00,2.254210710525512695e+00,2.253951787948608398e+00,2.253693103790283203e+00,2.253434419631958008e+00,2.253175973892211914e+00,2.252917528152465820e+00,2.252659082412719727e+00,2.252400636672973633e+00,2.252142190933227539e+00,2.251883983612060547e+00,2.251625776290893555e+00,2.251367568969726562e+00,2.251109600067138672e+00,2.250851392745971680e+00,2.250593423843383789e+00,2.250335693359375000e+00,2.250077724456787109e+00,2.249819993972778320e+00,2.249562025070190430e+00,2.249304533004760742e+00,2.249046802520751953e+00,2.248789072036743164e+00,2.248531579971313477e+00,2.248274087905883789e+00,2.248016834259033203e+00,2.247759342193603516e+00,2.247502088546752930e+00,2.247244834899902344e+00,2.246987581253051758e+00,2.246730566024780273e+00,2.246473550796508789e+00,2.246216535568237305e+00,2.245959520339965820e+00,1.779054999351501465e+00,1.799810290336608887e+00,2.245188951492309570e+00,2.244932174682617188e+00,2.244675636291503906e+00,2.244419097900390625e+00,2.244162559509277344e+00,2.243906021118164062e+00,2.243649482727050781e+00,2.243393182754516602e+00,2.243136882781982422e+00,2.242880582809448242e+00,2.242624521255493164e+00,2.242368459701538086e+00,2.242112398147583008e+00,2.241856336593627930e+00,2.241600275039672852e+00,2.241344451904296875e+00,2.241088628768920898e+00,2.240832805633544922e+00,2.240577220916748047e+00,2.240321397781372070e+00,2.240065813064575195e+00,2.239810228347778320e+00,2.239554882049560547e+00,2.239299297332763672e+00,2.239044189453125000e+00,2.238788843154907227e+00,2.238533735275268555e+00,2.223673582077026367e+00,2.182875394821166992e+00,2.143547296524047852e+00,2.105611324310302734e+00,2.068994522094726562e+00,2.033629894256591797e+00,1.999453663825988770e+00,1.966407299041748047e+00,1.934435248374938965e+00,1.903486490249633789e+00,1.873512387275695801e+00,1.844467520713806152e+00
1.988616943359375000e+00,1.988415718078613281e+00,1.988214254379272461e+00,1.988013029098510742e+00,1.987811923027038574e+00,1.987610578536987305e+00,1.987409472465515137e+00,1.987208127975463867e+00,1.987007260322570801e+00,1.986806273460388184e+00,1.986605048179626465e+00,1.986404180526733398e+00,1.986203193664550781e+00,1.986002445220947266e+00,1.985801696777343750e+00,1.985600709915161133e+00,1.985400080680847168e+00,1.985199213027954102e+00,1.984998583793640137e+00,1.984798073768615723e+00,1.984597325325012207e+00,1.984396815299987793e+00,1.984196186065673828e+00,1.983995795249938965e+00,1.983795404434204102e+00,1.983594894409179688e+00,1.983394622802734375e+00,1.983194231986999512e+00,1.982994079589843750e+00,1.982793927192687988e+00,1.982593536376953125e+00,1.982393503189086914e+00,1.982193231582641602e+00,1.981993317604064941e+00,1.981793284416198730e+00,1.981593251228332520e+00,1.981393337249755859e+00,1.981193304061889648e+00,1.980993509292602539e+00,1.725904583930969238e+00,1.736080408096313477e+00,1.783570051193237305e+00,1.980194330215454102e+00,1.979994773864746094e+00,1.979795217514038086e+00,1.979595541954040527e+00,1.979395985603332520e+00,1.979196429252624512e+00,1.978996992111206055e+00,1.978797674179077148e+00,1.978598117828369141e+00,1.978398919105529785e+00,1.978199362754821777e+00,1.978000283241271973e+00,1.977801084518432617e+00,1.977601766586303711e+00,1.977402687072753906e+00,1.977203488349914551e+00,1.977004528045654297e+00,1.976805567741394043e+00,1.976606369018554688e+00,1.976407527923583984e+00,1.976208567619323730e+00,1.976009726524353027e+00,1.975811004638671875e+00,1.975612044334411621e+00,1.975413441658020020e+00,1.975214600563049316e+00,1.975015997886657715e+00,1.974817395210266113e+00,1.974618673324584961e+00,1.974420309066772461e+00,1.974221587181091309e+00,1.974023222923278809e+00,1.973824858665466309e+00,1.966429948806762695e+00,1.934457421302795410e+00,1.903507709503173828e+00,1.873532891273498535e+00,1.844487428665161133e+00
1.778045296669006348e+00,1.777884364128112793e+00,1.777723312377929688e+00,1.777562499046325684e+00,1.777401685714721680e+00,1.777240633964538574e+00,1.777079939842224121e+00,1.776919007301330566e+00,1.776758313179016113e+00,1.776597619056701660e+00,1.776436805725097656e+00,1.776276111602783203e+00,1.776115417480468750e+00,1.775954842567443848e+00,1.775794267654418945e+00,1.775633573532104492e+00,1.775473117828369141e+00,1.775312542915344238e+00,1.775152087211608887e+00,1.774991750717163086e+00,1.774831175804138184e+00,1.774670839309692383e+00,1.774510383605957031e+00,1.774350047111511230e+00,1.774189829826354980e+00,1.774029374122619629e+00,1.773869276046752930e+00,1.773708939552307129e+00,1.773548722267150879e+00,1.773388624191284180e+00,1.773228406906127930e+00,1.773068308830261230e+00,1.772908210754394531e+00,1.772748231887817383e+00,1.772588253021240234e+00,1.772428154945373535e+00,1.772268176078796387e+00,1.772108197212219238e+00,1.771948337554931641e+00,1.771788477897644043e+00,1.771628499031066895e+00,1.771468758583068848e+00,1.771308898925781250e+00,1.771149158477783203e+00,1.770989537239074707e+00,1.770829677581787109e+00,1.770670056343078613e+00,1.770510315895080566e+00,1.770350813865661621e+00,1.770191192626953125e+00,1.770031571388244629e+00,1.769872069358825684e+00,1.769712448120117188e+00,1.769553065299987793e+00,1.769393682479858398e+00,1.769234180450439453e+00,1.769074797630310059e+00,1.768915295600891113e+00,1.768756031990051270e+00,1.768596887588500977e+00,1.768437504768371582e+00,1.768278241157531738e+00,1.768118977546691895e+00,1.767959833145141602e+00,1.767800688743591309e+00,1.767641425132751465e+00,1.767482399940490723e+00,1.767323255538940430e+00,1.767164230346679688e+00,1.767005324363708496e+00,1.766846179962158203e+00,1.766687393188476562e+00,1.766528248786926270e+00,1.766369462013244629e+00,1.766210675239562988e+00,1.766051650047302246e+00,1.765892982482910156e+00,1.765734076499938965e+00,1.765575408935546875e+00,1.765416741371154785e+00
1.607797980308532715e+00,1.607666373252868652e+00,1.607534885406494141e+00,1.607403159141540527e+00,1.607271671295166016e+00,1.607140064239501953e+00,1.607008576393127441e+00,1.606877088546752930e+00,1.606745600700378418e+00,1.606614112854003906e+00,1.606482625007629395e+00,1.606351256370544434e+00,1.606219887733459473e+00,1.606088519096374512e+00,1.605957150459289551e+00,1.605825781822204590e+00,1.605694532394409180e+00,1.605563282966613770e+00,1.605431914329528809e+00,1.605300784111022949e+00,1.605169415473937988e+00,1.605038285255432129e+00,1.604907155036926270e+00,1.604775905609130859e+00,1.604644775390625000e+00,1.604513645172119141e+00,1.604382514953613281e+00,1.604251503944396973e+00,1.604120373725891113e+00,1.603989481925964355e+00,1.603858351707458496e+00,1.603727459907531738e+00,1.603596448898315430e+00,1.603465437889099121e+00,1.603334546089172363e+00,1.603203654289245605e+00,1.603072762489318848e+00,1.602941989898681641e+00,1.602811098098754883e+00,1.602680325508117676e+00,1.602549433708190918e+00,1.602418661117553711e+00,1.602288007736206055e+00,1.602157115936279297e+00,1.602026462554931641e+00,1.601895689964294434e+00,1.601765155792236328e+00,1.601634502410888672e+00,1.601503849029541016e+00,1.601373314857482910e+00,1.601242661476135254e+00,1.601112127304077148e+00,1.600981593132019043e+00,1.600851058959960938e+00,1.600720524787902832e+00,1.600589990615844727e+00,1.600459575653076172e+00,1.600329279899597168e+00,1.600198745727539062e+00,1.600068449974060059e+00,1.599937915802001953e+00,1.599807620048522949e+00,1.599677324295043945e+00,1.599546909332275391e+00,1.599416732788085938e+00,1.599286317825317383e+00,1.599156141281127930e+00,1.599026083946228027e+00,1.598895788192749023e+00,1.598765611648559570e+00,1.598635315895080566e+00,1.598505258560180664e+00,1.598375201225280762e+00,1.598245024681091309e+00,1.598115086555480957e+00,1.597984910011291504e+00,1.597854971885681152e+00,1.597725033760070801e+00,1.597594857215881348e+00,1.597465038299560547e+00
1.467304110527038574e+00,1.467194437980651855e+00,1.467084884643554688e+00,1.466975212097167969e+00,1.466865658760070801e+00,1.466756105422973633e+00,1.466646552085876465e+00,1.466537117958068848e+00,1.466427445411682129e+00,1.466318011283874512e+00,1.466208457946777344e+00,1.466099023818969727e+00,1.465989589691162109e+00,1.465880155563354492e+00,1.465770721435546875e+00,1.465661287307739258e+00,1.465551853179931641e+00,1.465442538261413574e+00,1.465333104133605957e+00,1.465223908424377441e+00,1.465114474296569824e+00,1.465005159378051758e+00,1.464895963668823242e+00,1.464786648750305176e+00,1.464677333831787109e+00,1.464568018913269043e+00,1.464458942413330078e+00,1.464349746704101562e+00,1.464240431785583496e+00,1.464131355285644531e+00,1.464022040367126465e+00,1.463912963867187500e+00,1.463803887367248535e+00,1.463694691658020020e+00,1.463585734367370605e+00,1.463476538658142090e+00,1.463367462158203125e+00,1.463258504867553711e+00,1.463149428367614746e+00,1.463040471076965332e+00,1.462931394577026367e+00,1.462822437286376953e+00,1.462713479995727539e+00,1.462604522705078125e+00,1.462495565414428711e+00,1.462386608123779297e+00,1.462277770042419434e+00,1.462168931961059570e+00,1.462059974670410156e+00,1.461951255798339844e+00,1.461842298507690430e+00,1.461733579635620117e+00,1.461624741554260254e+00,1.461515903472900391e+00,1.461407184600830078e+00,1.461298346519470215e+00,1.461189627647399902e+00,1.461081027984619141e+00,1.460972189903259277e+00,1.460863590240478516e+00,1.460754871368408203e+00,1.460646271705627441e+00,1.460537672042846680e+00,1.460428953170776367e+00,1.460320353507995605e+00,1.460211753845214844e+00,1.460103154182434082e+00,1.459994673728942871e+00,1.459886074066162109e+00,1.459777593612670898e+00,1.459668993949890137e+00,1.459560513496398926e+00,1.459452152252197266e+00,1.459343552589416504e+00,1.459235191345214844e+00,1.459126710891723633e+00,1.459018349647521973e+00,1.458909988403320312e+00,1.458801507949829102e+00,1.458693146705627441e+00
1.349390625953674316e+00,1.349297761917114258e+00,1.349205136299133301e+00,1.349112391471862793e+00,1.349019765853881836e+00,1.348927140235900879e+00,1.348834395408630371e+00,1.348741769790649414e+00,1.348649024963378906e+00,1.348556518554687500e+00,1.348463892936706543e+00,1.348371267318725586e+00,1.348278760910034180e+00,1.348186135292053223e+00,1.348093628883361816e+00,1.348001122474670410e+00,1.347908496856689453e+00,1.347815990447998047e+00,1.347723484039306641e+00,1.347630977630615234e+00,1.347538590431213379e+00,1.347445964813232422e+00,1.347353577613830566e+00,1.347261071205139160e+00,1.347168684005737305e+00,1.347076416015625000e+00,1.346983909606933594e+00,1.346891522407531738e+00,1.346799135208129883e+00,1.346706748008728027e+00,1.346614480018615723e+00,1.346522092819213867e+00,1.346429824829101562e+00,1.346337437629699707e+00,1.346245169639587402e+00,1.346152901649475098e+00,1.346060514450073242e+00,1.345968365669250488e+00,1.345875978469848633e+00,1.345783829689025879e+00,1.345691680908203125e+00,1.345599293708801270e+00,1.345507144927978516e+00,1.345414876937866211e+00,1.345322847366333008e+00,1.345230698585510254e+00,1.345138430595397949e+00,1.345046401023864746e+00,1.344954133033752441e+00,1.344862103462219238e+00,1.344770073890686035e+00,1.344677925109863281e+00,1.344585895538330078e+00,1.344493746757507324e+00,1.344401717185974121e+00,1.344309687614440918e+00,1.344217658042907715e+00,1.344125628471374512e+00,1.344033598899841309e+00,1.343941688537597656e+00,1.343849658966064453e+00,1.343757629394531250e+00,1.343665719032287598e+00,1.343573808670043945e+00,1.343481898307800293e+00,1.343389987945556641e+00,1.343298077583312988e+00,1.343206167221069336e+00,1.343114256858825684e+00,1.343022465705871582e+00,1.342930674552917480e+00,1.342838764190673828e+00,1.342746973037719727e+00,1.342655062675476074e+00,1.342563271522521973e+00,1.342471599578857422e+00,1.342379689216613770e+00,1.342288017272949219e+00,1.342196226119995117e+00,1.342104434967041016e+00
1.249018549919128418e+00,1.248939037322998047e+00,1.248859643936157227e+00,1.248780369758605957e+00,1.248700857162475586e+00,1.248621463775634766e+00,1.248542070388793945e+00,1.248462677001953125e+00,1.248383402824401855e+00,1.248303890228271484e+00,1.248224616050720215e+00,1.248145222663879395e+00,1.248065948486328125e+00,1.247986674308776855e+00,1.247907280921936035e+00,1.247828006744384766e+00,1.247748613357543945e+00,1.247669458389282227e+00,1.247590184211730957e+00,1.247510910034179688e+00,1.247431635856628418e+00,1.247352361679077148e+00,1.247273206710815430e+00,1.247193932533264160e+00,1.247114777565002441e+00,1.247035503387451172e+00,1.246956348419189453e+00,1.246877193450927734e+00,1.246798038482666016e+00,1.246718764305114746e+00,1.246639728546142578e+00,1.246560454368591309e+00,1.246481418609619141e+00,1.246402382850646973e+00,1.246323108673095703e+00,1.246244072914123535e+00,1.246164917945861816e+00,1.246085882186889648e+00,1.246006846427917480e+00,1.245927810668945312e+00,1.245848774909973145e+00,1.245769619941711426e+00,1.245690703392028809e+00,1.245611667633056641e+00,1.245532631874084473e+00,1.245453596115112305e+00,1.245374560356140137e+00,1.245295643806457520e+00,1.245216727256774902e+00,1.245137691497802734e+00,1.245058774948120117e+00,1.244979858398437500e+00,1.244900941848754883e+00,1.244822025299072266e+00,1.244743108749389648e+00,1.244664192199707031e+00,1.244585275650024414e+00,1.244506478309631348e+00,1.244427561759948730e+00,1.244348645210266113e+00,1.244269847869873047e+00,1.244190931320190430e+00,1.244112133979797363e+00,1.244033336639404297e+00,1.243954539299011230e+00,1.243875741958618164e+00,1.243796944618225098e+00,1.243718147277832031e+00,1.243639469146728516e+00,1.243560671806335449e+00,1.243481874465942383e+00,1.243403077125549316e+00,1.243324398994445801e+00,1.243245720863342285e+00,1.243167042732238770e+00,1.243088364601135254e+00,1.243009567260742188e+00,1.242930889129638672e+00,1.242852330207824707e+00,1.242773652076721191e+00
1.162544846534729004e+00,1.162475943565368652e+00,1.162407159805297852e+00,1.162338376045227051e+00,1.162269473075866699e+00,1.162200808525085449e+00,1.162131905555725098e+00,1.162063241004943848e+00,1.161994457244873047e+00,1.161925673484802246e+00,1.161856889724731445e+00,1.161788105964660645e+00,1.161719441413879395e+00,1.161650776863098145e+00,1.161581993103027344e+00,1.161513328552246094e+00,1.161444544792175293e+00,1.161375880241394043e+00,1.161307215690612793e+00,1.161238551139831543e+00,1.161169886589050293e+00,1.161101222038269043e+00,1.161032557487487793e+00,1.160963892936706543e+00,1.160895228385925293e+00,1.160826683044433594e+00,1.160758018493652344e+00,1.160689353942871094e+00,1.160620808601379395e+00,1.160552144050598145e+00,1.160483598709106445e+00,1.160415053367614746e+00,1.160346508026123047e+00,1.160277962684631348e+00,1.160209298133850098e+00,1.160140752792358398e+00,1.160072207450866699e+00,1.160003662109375000e+00,1.159935235977172852e+00,1.159866690635681152e+00,1.159798145294189453e+00,1.159729599952697754e+00,1.159661173820495605e+00,1.159592747688293457e+00,1.159524202346801758e+00,1.159455776214599609e+00,1.159387230873107910e+00,1.159318804740905762e+00,1.159250378608703613e+00,1.159181952476501465e+00,1.159113526344299316e+00,1.159045100212097168e+00,1.158976674079895020e+00,1.158908367156982422e+00,1.158839941024780273e+00,1.158771514892578125e+00,1.158703088760375977e+00,1.158634781837463379e+00,1.158566474914550781e+00,1.158498048782348633e+00,1.158429741859436035e+00,1.158361315727233887e+00,1.158293008804321289e+00,1.158224821090698242e+00,1.158156394958496094e+00,1.158088088035583496e+00,1.158019781112670898e+00,1.157951593399047852e+00,1.157883286476135254e+00,1.157814979553222656e+00,1.157746791839599609e+00,1.157678484916687012e+00,1.157610177993774414e+00,1.157541990280151367e+00,1.157473683357238770e+00,1.157405495643615723e+00,1.157337307929992676e+00,1.157269120216369629e+00,1.157200932502746582e+00,1.157132744789123535e+00
1.087269425392150879e+00,1.087209224700927734e+00,1.087149024009704590e+00,1.087088823318481445e+00,1.087028622627258301e+00,1.086968421936035156e+00,1.086908340454101562e+00,1.086848139762878418e+00,1.086788058280944824e+00,1.086727857589721680e+00,1.086667656898498535e+00,1.086607575416564941e+00,1.086547493934631348e+00,1.086487293243408203e+00,1.086427211761474609e+00,1.086367130279541016e+00,1.086307048797607422e+00,1.086246967315673828e+00,1.086186885833740234e+00,1.086126685142517090e+00,1.086066722869873047e+00,1.086006641387939453e+00,1.085946559906005859e+00,1.085886478424072266e+00,1.085826396942138672e+00,1.085766434669494629e+00,1.085706472396850586e+00,1.085646390914916992e+00,1.085586428642272949e+00,1.085526347160339355e+00,1.085466384887695312e+00,1.085406422615051270e+00,1.085346341133117676e+00,1.085286378860473633e+00,1.085226297378540039e+00,1.085166454315185547e+00,1.085106492042541504e+00,1.085046529769897461e+00,1.084986567497253418e+00,1.084926605224609375e+00,1.084866642951965332e+00,1.084806799888610840e+00,1.084746837615966797e+00,1.084686875343322754e+00,1.084626913070678711e+00,1.084567070007324219e+00,1.084507107734680176e+00,1.084447264671325684e+00,1.084387421607971191e+00,1.084327459335327148e+00,1.084267616271972656e+00,1.084207773208618164e+00,1.084147810935974121e+00,1.084088087081909180e+00,1.084028124809265137e+00,1.083968281745910645e+00,1.083908557891845703e+00,1.083848714828491211e+00,1.083788871765136719e+00,1.083729028701782227e+00,1.083669185638427734e+00,1.083609461784362793e+00,1.083549618721008301e+00,1.083489894866943359e+00,1.083430051803588867e+00,1.083370327949523926e+00,1.083310604095458984e+00,1.083250761032104492e+00,1.083191037178039551e+00,1.083131194114685059e+00,1.083071470260620117e+00,1.083011865615844727e+00,1.082952022552490234e+00,1.082892298698425293e+00,1.082832574844360352e+00,1.082772850990295410e+00,1.082713246345520020e+00,1.082653522491455078e+00,1.082593798637390137e+00,1.082534074783325195e+00
1.021149516105651855e+00,1.021096348762512207e+00,1.021043300628662109e+00,1.020990133285522461e+00,1.020937085151672363e+00,1.020884037017822266e+00,1.020830988883972168e+00,1.020777821540832520e+00,1.020724773406982422e+00,1.020671844482421875e+00,1.020618677139282227e+00,1.020565629005432129e+00,1.020512580871582031e+00,1.020459651947021484e+00,1.020406603813171387e+00,1.020353555679321289e+00,1.020300507545471191e+00,1.020247459411621094e+00,1.020194530487060547e+00,1.020141482353210449e+00,1.020088553428649902e+00,1.020035505294799805e+00,1.019982576370239258e+00,1.019929528236389160e+00,1.019876599311828613e+00,1.019823670387268066e+00,1.019770622253417969e+00,1.019717693328857422e+00,1.019664764404296875e+00,1.019611835479736328e+00,1.019558906555175781e+00,1.019505977630615234e+00,1.019452929496765137e+00,1.019400119781494141e+00,1.019347190856933594e+00,1.019294261932373047e+00,1.019241333007812500e+00,1.019188404083251953e+00,1.019135594367980957e+00,1.019082665443420410e+00,1.019029736518859863e+00,1.018976926803588867e+00,1.018923997879028320e+00,1.018871188163757324e+00,1.018818259239196777e+00,1.018765449523925781e+00,1.018712639808654785e+00,1.018659710884094238e+00,1.018606901168823242e+00,1.018554091453552246e+00,1.018501162528991699e+00,1.018448352813720703e+00,1.018395543098449707e+00,1.018342733383178711e+00,1.018289923667907715e+00,1.018237113952636719e+00,1.018184304237365723e+00,1.018131494522094727e+00,1.018078804016113281e+00,1.018025994300842285e+00,1.017973184585571289e+00,1.017920494079589844e+00,1.017867684364318848e+00,1.017814874649047852e+00,1.017762184143066406e+00,1.017709374427795410e+00,1.017656683921813965e+00,1.017603874206542969e+00,1.017551183700561523e+00,1.017498493194580078e+00,1.017445802688598633e+00,1.017392992973327637e+00,1.017340302467346191e+00,1.017287611961364746e+00,1.017234921455383301e+00,1.017182230949401855e+00,1.017129540443420410e+00,1.017076849937438965e+00,1.017024159431457520e+00,1.016971588134765625e+00
9.626104831695556641e-01,9.625632762908935547e-01,9.625160098075866699e-01,9.624688625335693359e-01,9.624217152595520020e-01,9.623745679855346680e-01,9.623274207115173340e-01,9.622801542282104492e-01,9.622330069541931152e-01,9.621859192848205566e-01,9.621387720108032227e-01,9.620916843414306641e-01,9.620444178581237793e-01,9.619973301887512207e-01,9.619502425193786621e-01,9.619031548500061035e-01,9.618560075759887695e-01,9.618088603019714355e-01,9.617617726325988770e-01,9.617146849632263184e-01,9.616675972938537598e-01,9.616205096244812012e-01,9.615733623504638672e-01,9.615262746810913086e-01,9.614792466163635254e-01,9.614321589469909668e-01,9.613851308822631836e-01,9.613379836082458496e-01,9.612908959388732910e-01,9.612438678741455078e-01,9.611968398094177246e-01,9.611498117446899414e-01,9.611027240753173828e-01,9.610556960105895996e-01,9.610086679458618164e-01,9.609616398811340332e-01,9.609146714210510254e-01,9.608675837516784668e-01,9.608205556869506836e-01,9.607735872268676758e-01,9.607265591621398926e-01,9.606795907020568848e-01,9.606325030326843262e-01,9.605855345726013184e-01,9.605385661125183105e-01,9.604915976524353027e-01,9.604446887969970703e-01,9.603976011276245117e-01,9.603506326675415039e-01,9.603037238121032715e-01,9.602567553520202637e-01,9.602098464965820312e-01,9.601628184318542480e-01,9.601158499717712402e-01,9.600689411163330078e-01,9.600220322608947754e-01,9.599751234054565430e-01,9.599280953407287598e-01,9.598811864852905273e-01,9.598342776298522949e-01,9.597874283790588379e-01,9.597405195236206055e-01,9.596935510635375977e-01,9.596466422080993652e-01,9.595997929573059082e-01,9.595528841018676758e-01,9.595060348510742188e-01,9.594590663909912109e-01,9.594122171401977539e-01,9.593653678894042969e-01,9.593185186386108398e-01,9.592716693878173828e-01,9.592247009277343750e-01,9.591778516769409180e-01,9.591310620307922363e-01,9.590842127799987793e-01,9.590374231338500977e-01,9.589904546737670898e-01,9.589436650276184082e-01,9.588968753814697266e-01
9.104191064834594727e-01,9.103769063949584961e-01,9.103347063064575195e-01,9.102925658226013184e-01,9.102503657341003418e-01,9.102081060409545898e-01,9.101659059524536133e-01,9.101237654685974121e-01,9.100816249847412109e-01,9.100394248962402344e-01,9.099971652030944824e-01,9.099550247192382812e-01,9.099128842353820801e-01,9.098707437515258789e-01,9.098286032676696777e-01,9.097864031791687012e-01,9.097442626953125000e-01,9.097021222114562988e-01,9.096599817276000977e-01,9.096179008483886719e-01,9.095756411552429199e-01,9.095335602760314941e-01,9.094914197921752930e-01,9.094493389129638672e-01,9.094072580337524414e-01,9.093650579452514648e-01,9.093229770660400391e-01,9.092808961868286133e-01,9.092388153076171875e-01,9.091967344284057617e-01,9.091545343399047852e-01,9.091124534606933594e-01,9.090703725814819336e-01,9.090283513069152832e-01,9.089862704277038574e-01,9.089441299438476562e-01,9.089020490646362305e-01,9.088600277900695801e-01,9.088179469108581543e-01,9.087759256362915039e-01,9.087337851524353027e-01,9.086917638778686523e-01,9.086497426033020020e-01,9.086077213287353516e-01,9.085657000541687012e-01,9.085235595703125000e-01,9.084815382957458496e-01,9.084395766258239746e-01,9.083975553512573242e-01,9.083555340766906738e-01,9.083134531974792480e-01,9.082714319229125977e-01,9.082294702529907227e-01,9.081875085830688477e-01,9.081454873085021973e-01,9.081034064292907715e-01,9.080614447593688965e-01,9.080194830894470215e-01,9.079775214195251465e-01,9.079355597496032715e-01,9.078934788703918457e-01,9.078515172004699707e-01,9.078095555305480957e-01,9.077676534652709961e-01,9.077256917953491211e-01,9.076836705207824707e-01,9.076417088508605957e-01,9.075998067855834961e-01,9.075578451156616211e-01,9.075159430503845215e-01,9.074739217758178711e-01,9.074320197105407715e-01,9.073900580406188965e-01,9.073481559753417969e-01,9.073062539100646973e-01,9.072642922401428223e-01,9.072223901748657227e-01,9.071804881095886230e-01,9.071385860443115234e-01,9.070966839790344238e-01
8.635962605476379395e-01,8.635582923889160156e-01,8.635203242301940918e-01,8.634822964668273926e-01,8.634443283081054688e-01,8.634064197540283203e-01,8.633684515953063965e-01,8.633305430412292480e-01,8.632925152778625488e-01,8.632545471191406250e-01,8.632166385650634766e-01,8.631787300109863281e-01,8.631407618522644043e-01,8.631027936935424805e-01,8.630648255348205566e-01,8.630269169807434082e-01,8.629890084266662598e-01,8.629510998725891113e-01,8.629131317138671875e-01,8.628752231597900391e-01,8.628373146057128906e-01,8.627994060516357422e-01,8.627615571022033691e-01,8.627235889434814453e-01,8.626856803894042969e-01,8.626477718353271484e-01,8.626099228858947754e-01,8.625720143318176270e-01,8.625341057777404785e-01,8.624961972236633301e-01,8.624583482742309570e-01,8.624204993247985840e-01,8.623826503753662109e-01,8.623446822166442871e-01,8.623068332672119141e-01,8.622689843177795410e-01,8.622311353683471680e-01,8.621932864189147949e-01,8.621553778648376465e-01,8.621175289154052734e-01,8.620796799659729004e-01,8.620418906211853027e-01,8.620040416717529297e-01,8.619661331176757812e-01,8.619283437728881836e-01,8.618904948234558105e-01,8.618527054786682129e-01,8.618149161338806152e-01,8.617770075798034668e-01,8.617392182350158691e-01,8.617013692855834961e-01,8.616635799407958984e-01,8.616257905960083008e-01,8.615879416465759277e-01,8.615501523017883301e-01,8.615123629570007324e-01,8.614745736122131348e-01,8.614367842674255371e-01,8.613989353179931641e-01,8.613612055778503418e-01,8.613234162330627441e-01,8.612856268882751465e-01,8.612478971481323242e-01,8.612100481986999512e-01,8.611723184585571289e-01,8.611345291137695312e-01,8.610967993736267090e-01,8.610590696334838867e-01,8.610212206840515137e-01,8.609834909439086914e-01,8.609457612037658691e-01,8.609080314636230469e-01,8.608703017234802246e-01,8.608325123786926270e-01,8.607947826385498047e-01,8.607570528984069824e-01,8.607193827629089355e-01,8.606816530227661133e-01,8.606438636779785156e-01,8.606061339378356934e-01
8.213540315628051758e-01,8.213196396827697754e-01,8.212853074073791504e-01,8.212509751319885254e-01,8.212166428565979004e-01,8.211823105812072754e-01,8.211479187011718750e-01,8.211135864257812500e-01,8.210792541503906250e-01,8.210449218750000000e-01,8.210106492042541504e-01,8.209762573242187500e-01,8.209419250488281250e-01,8.209076523780822754e-01,8.208733201026916504e-01,8.208390474319458008e-01,8.208046555519104004e-01,8.207703828811645508e-01,8.207360506057739258e-01,8.207017779350280762e-01,8.206675052642822266e-01,8.206331729888916016e-01,8.205989003181457520e-01,8.205645680427551270e-01,8.205303549766540527e-01,8.204960823059082031e-01,8.204616904258728027e-01,8.204274773597717285e-01,8.203932046890258789e-01,8.203589320182800293e-01,8.203246593475341797e-01,8.202903270721435547e-01,8.202561140060424805e-01,8.202218413352966309e-01,8.201876282691955566e-01,8.201533555984497070e-01,8.201190233230590820e-01,8.200848102569580078e-01,8.200505971908569336e-01,8.200163245201110840e-01,8.199821114540100098e-01,8.199478387832641602e-01,8.199136257171630859e-01,8.198793530464172363e-01,8.198451399803161621e-01,8.198109269142150879e-01,8.197766542434692383e-01,8.197424411773681641e-01,8.197082281112670898e-01,8.196740746498107910e-01,8.196398615837097168e-01,8.196055889129638672e-01,8.195713758468627930e-01,8.195372223854064941e-01,8.195030093193054199e-01,8.194687962532043457e-01,8.194345831871032715e-01,8.194003701210021973e-01,8.193662166595458984e-01,8.193320631980895996e-01,8.192978501319885254e-01,8.192636370658874512e-01,8.192294836044311523e-01,8.191952705383300781e-01,8.191611170768737793e-01,8.191269636154174805e-01,8.190927505493164062e-01,8.190585970878601074e-01,8.190244436264038086e-01,8.189902901649475098e-01,8.189561367034912109e-01,8.189219236373901367e-01,8.188878297805786133e-01,8.188536763191223145e-01,8.188195228576660156e-01,8.187854290008544922e-01,8.187512159347534180e-01,8.187171220779418945e-01,8.186829686164855957e-01,8.186488747596740723e-01
7.830515503883361816e-01,7.830203175544738770e-01,7.829891443252563477e-01,7.829579114913940430e-01,7.829266786575317383e-01,7.828954458236694336e-01,7.828642725944519043e-01,7.828330397605895996e-01,7.828018665313720703e-01,7.827705740928649902e-01,7.827394008636474609e-01,7.827082276344299316e-01,7.826770544052124023e-01,7.826458811759948730e-01,7.826145887374877930e-01,7.825834155082702637e-01,7.825522422790527344e-01,7.825210690498352051e-01,7.824898958206176758e-01,7.824586629867553711e-01,7.824274897575378418e-01,7.823963761329650879e-01,7.823652029037475586e-01,7.823340296745300293e-01,7.823027968406677246e-01,7.822716832160949707e-01,7.822405099868774414e-01,7.822093963623046875e-01,7.821782231330871582e-01,7.821469902992248535e-01,7.821158766746520996e-01,7.820847630500793457e-01,7.820535898208618164e-01,7.820224761962890625e-01,7.819912433624267578e-01,7.819601297378540039e-01,7.819290161132812500e-01,7.818979024887084961e-01,7.818667888641357422e-01,7.818356156349182129e-01,7.818045020103454590e-01,7.817733883857727051e-01,7.817422747611999512e-01,7.817111611366271973e-01,7.816799879074096680e-01,7.816488742828369141e-01,7.816177606582641602e-01,7.815866470336914062e-01,7.815555930137634277e-01,7.815244197845458984e-01,7.814933061599731445e-01,7.814622521400451660e-01,7.814311385154724121e-01,7.814000844955444336e-01,7.813689112663269043e-01,7.813378572463989258e-01,7.813067436218261719e-01,7.812756896018981934e-01,7.812446355819702148e-01,7.812134623527526855e-01,7.811824083328247070e-01,7.811513543128967285e-01,7.811203002929687500e-01,7.810892462730407715e-01,7.810581326484680176e-01,7.810270786285400391e-01,7.809960246086120605e-01,7.809649705886840820e-01,7.809339165687561035e-01,7.809028029441833496e-01,7.808717489242553711e-01,7.808407545089721680e-01,7.808097004890441895e-01,7.807786464691162109e-01,7.807475328445434570e-01,7.807165384292602539e-01,7.806854844093322754e-01,7.806544899940490723e-01,7.806234955787658691e-01,7.805923819541931152e-01
7.481622695922851562e-01,7.481337189674377441e-01,7.481052279472351074e-01,7.480767369270324707e-01,7.480482459068298340e-01,7.480198144912719727e-01,7.479912638664245605e-01,7.479627728462219238e-01,7.479342818260192871e-01,7.479057908058166504e-01,7.478773593902587891e-01,7.478488087654113770e-01,7.478203177452087402e-01,7.477918863296508789e-01,7.477633953094482422e-01,7.477349638938903809e-01,7.477064132690429688e-01,7.476779818534851074e-01,7.476494908332824707e-01,7.476210594177246094e-01,7.475926280021667480e-01,7.475640773773193359e-01,7.475356459617614746e-01,7.475072145462036133e-01,7.474787831306457520e-01,7.474503517150878906e-01,7.474218010902404785e-01,7.473933696746826172e-01,7.473649382591247559e-01,7.473365068435668945e-01,7.473080754280090332e-01,7.472795844078063965e-01,7.472511529922485352e-01,7.472227811813354492e-01,7.471943497657775879e-01,7.471659183502197266e-01,7.471374273300170898e-01,7.471089959144592285e-01,7.470806241035461426e-01,7.470521926879882812e-01,7.470238208770751953e-01,7.469953298568725586e-01,7.469668984413146973e-01,7.469385266304016113e-01,7.469100952148437500e-01,7.468817234039306641e-01,7.468532919883728027e-01,7.468248605728149414e-01,7.467964887619018555e-01,7.467681169509887695e-01,7.467396855354309082e-01,7.467112541198730469e-01,7.466828823089599609e-01,7.466545104980468750e-01,7.466261386871337891e-01,7.465977668762207031e-01,7.465693354606628418e-01,7.465409636497497559e-01,7.465125918388366699e-01,7.464842200279235840e-01,7.464558482170104980e-01,7.464274168014526367e-01,7.463990449905395508e-01,7.463706731796264648e-01,7.463423609733581543e-01,7.463139891624450684e-01,7.462855577468872070e-01,7.462572455406188965e-01,7.462288737297058105e-01,7.462005019187927246e-01,7.461721897125244141e-01,7.461437582969665527e-01,7.461154460906982422e-01,7.460870742797851562e-01,7.460587620735168457e-01,7.460304498672485352e-01,7.460020184516906738e-01,7.459737062454223633e-01,7.459453940391540527e-01,7.459170818328857422e-01
7.162493467330932617e-01,7.162232398986816406e-01,7.161971330642700195e-01,7.161710262298583984e-01,7.161448597908020020e-01,7.161187529563903809e-01,7.160926461219787598e-01,7.160665392875671387e-01,7.160404324531555176e-01,7.160143256187438965e-01,7.159882187843322754e-01,7.159621119499206543e-01,7.159360051155090332e-01,7.159099578857421875e-01,7.158837914466857910e-01,7.158576846122741699e-01,7.158316373825073242e-01,7.158055305480957031e-01,7.157794237136840820e-01,7.157533168792724609e-01,7.157272100448608398e-01,7.157011628150939941e-01,7.156751155853271484e-01,7.156490087509155273e-01,7.156229019165039062e-01,7.155967950820922852e-01,7.155707478523254395e-01,7.155447006225585938e-01,7.155186533927917480e-01,7.154924869537353516e-01,7.154664397239685059e-01,7.154403924942016602e-01,7.154143452644348145e-01,7.153882980346679688e-01,7.153621912002563477e-01,7.153361439704895020e-01,7.153100967407226562e-01,7.152840495109558105e-01,7.152580022811889648e-01,7.152318954467773438e-01,7.152058482170104980e-01,7.151798009872436523e-01,7.151538133621215820e-01,7.151277661323547363e-01,7.151016592979431152e-01,7.150756716728210449e-01,7.150496244430541992e-01,7.150235772132873535e-01,7.149975895881652832e-01,7.149714827537536621e-01,7.149454951286315918e-01,7.149194478988647461e-01,7.148934602737426758e-01,7.148674130439758301e-01,7.148413658142089844e-01,7.148153185844421387e-01,7.147893309593200684e-01,7.147633433341979980e-01,7.147372961044311523e-01,7.147112488746643066e-01,7.146852612495422363e-01,7.146592736244201660e-01,7.146332859992980957e-01,7.146072387695312500e-01,7.145811915397644043e-01,7.145552039146423340e-01,7.145292162895202637e-01,7.145032286643981934e-01,7.144772410392761230e-01,7.144511938095092773e-01,7.144252061843872070e-01,7.143992781639099121e-01,7.143732905387878418e-01,7.143473029136657715e-01,7.143212556838989258e-01,7.142952680587768555e-01,7.142693400382995605e-01,7.142433524131774902e-01,7.142173647880554199e-01,7.141913771629333496e-01
