5.000000000000000000e+00,5.000000000000000000e+00,5.000000000000000000e+00,5.000000000000000000e+00,5.000000000000000000e+00,5.000000000000000000e+00,5.000000000000000000e+00,5.000000000000000000e+00,5.000000000000000000e+00,5.000000000000000000e+00,5.000000000000000000e+00,5.000000000000000000e+00,5.000000000000000000e+00,5.000000000000000000e+00,5.000000000000000000e+00,5.000000000000000000e+00,5.000000000000000000e+00,5.000000000000000000e+00,5.000000000000000000e+00,5.000000000000000000e+00,5.000000000000000000e+00,5.000000000000000000e+00,5.000000000000000000e+00,5.000000000000000000e+00,5.000000000000000000e+00,5.000000000000000000e+00,5.000000000000000000e+00,5.000000000000000000e+00,5.000000000000000000e+00,5.000000000000000000e+00,5.000000000000000000e+00,5.000000000000000000e+00,5.000000000000000000e+00,5.000000000000000000e+00,5.000000000000000000e+00,5.000000000000000000e+00,5.000000000000000000e+00,5.000000000000000000e+00,5.000000000000000000e+00,4.859879493713378906e+00,4.669097423553466797e+00,4.492728710174560547e+00,4.329198837280273438e+00,4.177155494689941406e+00,4.035429477691650391e+00,3.903005599975585938e+00,3.778995990753173828e+00,3.662624597549438477e+00,3.553205728530883789e+00,3.450134992599487305e+00,3.352875471115112305e+00,3.260949134826660156e+00,3.173928737640380859e+00,3.091432332992553711e+00,3.013115644454956055e+00,2.938669204711914062e+00,2.867812395095825195e+00,2.800292253494262695e+00,2.735878467559814453e+00,2.674361467361450195e+00,2.615550041198730469e+00,2.559269666671752930e+00,2.505360126495361328e+00,2.453675031661987305e+00,2.404079198837280273e+00,2.356448650360107422e+00,2.310668706893920898e+00,2.266633749008178711e+00,2.224245786666870117e+00,2.183414220809936523e+00,2.144054412841796875e+00,2.106088876724243164e+00,2.069444179534912109e+00,2.034053087234497070e+00,1.999852180480957031e+00,1.966782212257385254e+00,1.934788227081298828e+00,1.903818488121032715e+00,1.873824357986450195e+00,1.844761013984680176e+00
5.000000000000000000e+00,5.000000000000000000e+00,5.000000000000000000e+00,5.000000000000000000e+00,5.000000000000000000e+00,5.000000000000000000e+00,5.000000000000000000e+00,5.000000000000000000e+00,5.000000000000000000e+00,5.000000000000000000e+00,5.000000000000000000e+00,5.000000000000000000e+00,5.000000000000000000e+00,5.000000000000000000e+00,5.000000000000000000e+00,5.000000000000000000e+00,5.000000000000000000e+00,5.000000000000000000e+00,5.000000000000000000e+00,5.000000000000000000e+00,5.000000000000000000e+00,5.000000000000000000e+00,5.000000000000000000e+00,5.000000000000000000e+00,5.000000000000000000e+00,5.000000000000000000e+00,5.000000000000000000e+00,5.000000000000000000e+00,5.000000000000000000e+00,5.000000000000000000e+00,5.000000000000000000e+00,5.000000000000000000e+00,5.000000000000000000e+00,5.000000000000000000e+00,5.000000000000000000e+00,5.000000000000000000e+00,5.000000000000000000e+00,5.000000000000000000e+00,5.000000000000000000e+00,4.860017776489257812e+00,4.669225215911865234e+00,4.492846965789794922e+00,4.329308509826660156e+00,4.177258014678955078e+00,4.035525321960449219e+00,3.903095006942749023e+00,3.779079914093017578e+00,3.662703037261962891e+00,3.553279876708984375e+00,3.450204849243164062e+00,3.352941274642944336e+00,3.261011600494384766e+00,3.173987865447998047e+00,3.091488599777221680e+00,3.013168811798095703e+00,2.938719511032104492e+00,2.867860794067382812e+00,2.800338268280029297e+00,2.735922336578369141e+00,2.674403429031372070e+00,2.615590095520019531e+00,2.559308052062988281e+00,2.505396842956542969e+00,2.453710079193115234e+00,2.404113054275512695e+00,2.356481313705444336e+00,2.310699939727783203e+00,2.266663789749145508e+00,2.224274635314941406e+00,2.183442115783691406e+00,2.144081354141235352e+00,2.106114864349365234e+00,2.069469213485717773e+00,2.034077405929565430e+00,1.999875545501708984e+00,1.966804981231689453e+00,1.934810042381286621e+00,1.903839707374572754e+00,1.873845100402832031e+00,1.844780921936035156e+00
5.000000000000000000e+00,5.000000000000000000e+00,5.000000000000000000e+00,5.000000000000000000e+00,5.000000000000000000e+00,5.000000000000000000e+00,5.000000000000000000e+00,5.000000000000000000e+00,5.000000000000000000e+00,5.000000000000000000e+00,5.000000000000000000e+00,5.000000000000000000e+00,5.000000000000000000e+00,5.000000000000000000e+00,5.000000000000000000e+00,5.000000000000000000e+00,5.000000000000000000e+00,5.000000000000000000e+00,5.000000000000000000e+00,5.000000000000000000e+00,5.000000000000000000e+00,5.000000000000000000e+00,5.000000000000000000e+00,5.000000000000000000e+00,5.000000000000000000e+00,5.000000000000000000e+00,5.000000000000000000e+00,5.000000000000000000e+00,5.000000000000000000e+00,5.000000000000000000e+00,5.000000000000000000e+00,5.000000000000000000e+00,5.000000000000000000e+00,5.000000000000000000e+00,5.000000000000000000e+00,5.000000000000000000e+00,5.000000000000000000e+00,5.000000000000000000e+00,5.000000000000000000e+00,4.860156536102294922e+00,4.669353008270263672e+00,4.492965221405029297e+00,4.329418659210205078e+00,4.177360534667968750e+00,4.035620689392089844e+00,3.903184175491333008e+00,3.779163837432861328e+00,3.662781715393066406e+00,3.553353548049926758e+00,3.450274705886840820e+00,3.353007316589355469e+00,3.261073827743530273e+00,3.174046993255615234e+00,3.091544389724731445e+00,3.013222217559814453e+00,2.938770294189453125e+00,2.867908716201782227e+00,2.800384283065795898e+00,2.735966205596923828e+00,2.674445390701293945e+00,2.615630388259887695e+00,2.559346199035644531e+00,2.505433797836303711e+00,2.453745365142822266e+00,2.404146909713745117e+00,2.356513738632202148e+00,2.310731410980224609e+00,2.266694068908691406e+00,2.224303722381591797e+00,2.183470010757446289e+00,2.144108295440673828e+00,2.106140851974487305e+00,2.069494247436523438e+00,2.034101724624633789e+00,1.999898910522460938e+00,1.966827630996704102e+00,1.934832215309143066e+00,1.903860926628112793e+00,1.873865604400634766e+00,1.844800949096679688e+00
5.000000000000000000e+00,5.000000000000000000e+00,5.000000000000000000e+00,5.000000000000000000e+00,5.000000000000000000e+00,5.000000000000000000e+00,5.000000000000000000e+00,5.000000000000000000e+00,5.000000000000000000e+00,5.000000000000000000e+00,5.000000000000000000e+00,5.000000000000000000e+00,5.000000000000000000e+00,5.000000000000000000e+00,5.000000000000000000e+00,5.000000000000000000e+00,5.000000000000000000e+00,5.000000000000000000e+00,5.000000000000000000e+00,5.000000000000000000e+00,5.000000000000000000e+00,5.000000000000000000e+00,5.000000000000000000e+00,5.000000000000000000e+00,5.000000000000000000e+00,5.000000000000000000e+00,5.000000000000000000e+00,5.000000000000000000e+00,5.000000000000000000e+00,5.000000000000000000e+00,5.000000000000000000e+00,5.000000000000000000e+00,5.000000000000000000e+00,5.000000000000000000e+00,5.000000000000000000e+00,5.000000000000000000e+00,5.000000000000000000e+00,5.000000000000000000e+00,5.000000000000000000e+00,4.860294818878173828e+00,4.669480800628662109e+00,4.493083477020263672e+00,4.329528331756591797e+00,4.177462577819824219e+00,4.035716056823730469e+00,3.903273582458496094e+00,3.779247283935546875e+00,3.662860393524169922e+00,3.553427696228027344e+00,3.450344324111938477e+00,3.353073120117187500e+00,3.261136054992675781e+00,3.174106121063232422e+00,3.091600418090820312e+00,3.013275146484375000e+00,2.938821077346801758e+00,2.867957115173339844e+00,2.800430059432983398e+00,2.736010074615478516e+00,2.674487352371215820e+00,2.615670442581176758e+00,2.559384822845458984e+00,2.505470514297485352e+00,2.453780889511108398e+00,2.404180765151977539e+00,2.356546163558959961e+00,2.310762643814086914e+00,2.266724109649658203e+00,2.224332809448242188e+00,2.183497905731201172e+00,2.144135236740112305e+00,2.106166839599609375e+00,2.069519519805908203e+00,2.034125804901123047e+00,1.999922513961791992e+00,1.966850161552429199e+00,1.934854030609130859e+00,1.903882265090942383e+00,1.873886108398437500e+00,1.844820857048034668e+00
5.000000000000000000e+00,5.000000000000000000e+00,5.000000000000000000e+00,5.000000000000000000e+00,5.000000000000000000e+00,5.000000000000000000e+00,5.000000000000000000e+00,5.000000000000000000e+00,5.000000000000000000e+00,5.000000000000000000e+00,5.000000000000000000e+00,5.000000000000000000e+00,5.000000000000000000e+00,5.000000000000000000e+00,5.000000000000000000e+00,5.000000000000000000e+00,5.000000000000000000e+00,5.000000000000000000e+00,5.000000000000000000e+00,5.000000000000000000e+00,5.000000000000000000e+00,5.000000000000000000e+00,5.000000000000000000e+00,5.000000000000000000e+00,5.000000000000000000e+00,4.085218429565429688e+00,5.000000000000000000e+00,5.000000000000000000e+00,5.000000000000000000e+00,5.000000000000000000e+00,5.000000000000000000e+00,5.000000000000000000e+00,5.000000000000000000e+00,5.000000000000000000e+00,5.000000000000000000e+00,5.000000000000000000e+00,5.000000000000000000e+00,5.000000000000000000e+00,5.000000000000000000e+00,4.860433101654052734e+00,4.669608592987060547e+00,4.493202209472656250e+00,4.329638481140136719e+00,4.177564620971679688e+00,4.035811424255371094e+00,3.903362989425659180e+00,3.779330968856811523e+00,3.662938833236694336e+00,3.553501844406127930e+00,3.450414180755615234e+00,3.353139162063598633e+00,3.261198520660400391e+00,3.174165010452270508e+00,3.091656446456909180e+00,3.013328552246093750e+00,2.938871383666992188e+00,2.868005275726318359e+00,2.800476312637329102e+00,2.736054182052612305e+00,2.674529314041137695e+00,2.615710496902465820e+00,2.559423208236694336e+00,2.505507230758666992e+00,2.453815937042236328e+00,2.404214620590209961e+00,2.356578826904296875e+00,2.310794115066528320e+00,2.266754150390625000e+00,2.224361658096313477e+00,2.183526039123535156e+00,2.144162178039550781e+00,2.106192827224731445e+00,2.069544553756713867e+00,2.034150123596191406e+00,1.999945878982543945e+00,1.966873049736022949e+00,1.934875845909118652e+00,1.903903484344482422e+00,1.873906850814819336e+00,1.844840645790100098e+00
5.000000000000000000e+00,5.000000000000000000e+00,5.000000000000000000e+00,5.000000000000000000e+00,5.000000000000000000e+00,5.000000000000000000e+00,5.000000000000000000e+00,5.000000000000000000e+00,5.000000000000000000e+00,5.000000000000000000e+00,5.000000000000000000e+00,5.000000000000000000e+00,5.000000000000000000e+00,5.000000000000000000e+00,5.000000000000000000e+00,5.000000000000000000e+00,5.000000000000000000e+00,5.000000000000000000e+00,5.000000000000000000e+00,5.000000000000000000e+00,5.000000000000000000e+00,5.000000000000000000e+00,5.000000000000000000e+00,5.000000000000000000e+00,5.000000000000000000e+00,4.088284015655517578e+00,4.171932697296142578e+00,5.000000000000000000e+00,5.000000000000000000e+00,5.000000000000000000e+00,5.000000000000000000e+00,5.000000000000000000e+00,5.000000000000000000e+00,5.000000000000000000e+00,5.000000000000000000e+00,5.000000000000000000e+00,5.000000000000000000e+00,5.000000000000000000e+00,5.000000000000000000e+00,4.860571861267089844e+00,4.669736385345458984e+00,4.493320465087890625e+00,4.329748153686523438e+00,4.177667140960693359e+00,4.035907268524169922e+00,3.903451919555664062e+00,3.779414892196655273e+00,3.663017511367797852e+00,3.553575992584228516e+00,3.450484037399291992e+00,3.353204965591430664e+00,3.261260986328125000e+00,3.174224138259887695e+00,3.091712474822998047e+00,3.013381958007812500e+00,2.938922166824340820e+00,2.868053674697875977e+00,2.800522327423095703e+00,2.736097812652587891e+00,2.674571275711059570e+00,2.615750551223754883e+00,2.559461355209350586e+00,2.505544185638427734e+00,2.453851461410522461e+00,2.404248714447021484e+00,2.356611490249633789e+00,2.310825109481811523e+00,2.266784429550170898e+00,2.224390745162963867e+00,2.183553695678710938e+00,2.144189119338989258e+00,2.106218814849853516e+00,2.069569826126098633e+00,2.034174442291259766e+00,1.999969244003295898e+00,1.966895580291748047e+00,1.934898018836975098e+00,1.903924584388732910e+00,1.873927354812622070e+00,1.844860792160034180e+00
5.000000000000000000e+00,5.000000000000000000e+00,5.000000000000000000e+00,5.000000000000000000e+00,5.000000000000000000e+00,5.000000000000000000e+00,5.000000000000000000e+00,5.000000000000000000e+00,5.000000000000000000e+00,5.000000000000000000e+00,5.000000000000000000e+00,5.000000000000000000e+00,5.000000000000000000e+00,5.000000000000000000e+00,5.000000000000000000e+00,5.000000000000000000e+00,5.000000000000000000e+00,5.000000000000000000e+00,5.000000000000000000e+00,5.000000000000000000e+00,5.000000000000000000e+00,5.000000000000000000e+00,5.000000000000000000e+00,5.000000000000000000e+00,5.000000000000000000e+00,4.089232921600341797e+00,4.207808017730712891e+00,5.000000000000000000e+00,5.000000000000000000e+00,5.000000000000000000e+00,5.000000000000000000e+00,5.000000000000000000e+00,5.000000000000000000e+00,5.000000000000000000e+00,5.000000000000000000e+00,5.000000000000000000e+00,5.000000000000000000e+00,5.000000000000000000e+00,5.000000000000000000e+00,4.860710144042968750e+00,4.669864177703857422e+00,4.493438720703125000e+00,4.329858303070068359e+00,4.177769184112548828e+00,4.036002635955810547e+00,3.903541326522827148e+00,3.779498338699340820e+00,3.663096427917480469e+00,3.553649902343750000e+00,3.450553894042968750e+00,3.353271007537841797e+00,3.261322975158691406e+00,3.174283266067504883e+00,3.091768503189086914e+00,3.013434886932373047e+00,2.938972949981689453e+00,2.868101596832275391e+00,2.800568342208862305e+00,2.736141920089721680e+00,2.674612998962402344e+00,2.615790843963623047e+00,2.559499979019165039e+00,2.505580902099609375e+00,2.453886747360229492e+00,2.404282331466674805e+00,2.356644153594970703e+00,2.310856580734252930e+00,2.266814470291137695e+00,2.224419832229614258e+00,2.183581829071044922e+00,2.144216060638427734e+00,2.106244802474975586e+00,2.069594860076904297e+00,2.034198760986328125e+00,1.999992847442626953e+00,1.966918230056762695e+00,1.934919834136962891e+00,1.903946042060852051e+00,1.873947858810424805e+00,1.844880700111389160e+00
5.000000000000000000e+00,5.000000000000000000e+00,5.000000000000000000e+00,5.000000000000000000e+00,5.000000000000000000e+00,5.000000000000000000e+00,5.000000000000000000e+00,5.000000000000000000e+00,5.000000000000000000e+00,5.000000000000000000e+00,5.000000000000000000e+00,5.000000000000000000e+00,5.000000000000000000e+00,5.000000000000000000e+00,5.000000000000000000e+00,5.000000000000000000e+00,5.000000000000000000e+00,5.000000000000000000e+00,5.000000000000000000e+00,5.000000000000000000e+00,5.000000000000000000e+00,5.000000000000000000e+00,5.000000000000000000e+00,5.000000000000000000e+00,5.000000000000000000e+00,4.161519050598144531e+00,4.153326034545898438e+00,5.000000000000000000e+00,5.000000000000000000e+00,5.000000000000000000e+00,5.000000000000000000e+00,5.000000000000000000e+00,5.000000000000000000e+00,5.000000000000000000e+00,5.000000000000000000e+00,5.000000000000000000e+00,5.000000000000000000e+00,5.000000000000000000e+00,5.000000000000000000e+00,4.860848903656005859e+00,4.669991970062255859e+00,4.493556976318359375e+00,4.329967975616455078e+00,4.177871704101562500e+00,4.036098003387451172e+00,3.903630971908569336e+00,3.779582262039184570e+00,3.663175106048583984e+00,3.553724050521850586e+00,3.450623512268066406e+00,3.353337049484252930e+00,3.261385440826416016e+00,3.174342155456542969e+00,3.091824531555175781e+00,3.013488292694091797e+00,2.939023494720458984e+00,2.868149995803833008e+00,2.800614118576049805e+00,2.736185789108276367e+00,2.674654960632324219e+00,2.615830659866333008e+00,2.559538364410400391e+00,2.505617618560791016e+00,2.453922033309936523e+00,2.404316425323486328e+00,2.356676578521728516e+00,2.310887813568115234e+00,2.266844511032104492e+00,2.224448680877685547e+00,2.183609724044799805e+00,2.144243001937866211e+00,2.106270790100097656e+00,2.069619894027709961e+00,2.034222841262817383e+00,2.000016212463378906e+00,1.966940999031066895e+00,1.934941768646240234e+00,1.903967142105102539e+00,1.873968601226806641e+00,1.844900727272033691e+00
5.000000000000000000e+00,5.000000000000000000e+00,5.000000000000000000e+00,5.000000000000000000e+00,5.000000000000000000e+00,5.000000000000000000e+00,5.000000000000000000e+00,5.000000000000000000e+00,5.000000000000000000e+00,5.000000000000000000e+00,5.000000000000000000e+00,5.000000000000000000e+00,5.000000000000000000e+00,5.000000000000000000e+00,5.000000000000000000e+00,5.000000000000000000e+00,5.000000000000000000e+00,5.000000000000000000e+00,5.000000000000000000e+00,5.000000000000000000e+00,5.000000000000000000e+00,5.000000000000000000e+00,4.103375434875488281e+00,4.096010208129882812e+00,4.090466499328613281e+00,4.091724395751953125e+00,4.106776714324951172e+00,4.136512279510498047e+00,4.161157608032226562e+00,5.000000000000000000e+00,5.000000000000000000e+00,5.000000000000000000e+00,5.000000000000000000e+00,5.000000000000000000e+00,5.000000000000000000e+00,5.000000000000000000e+00,5.000000000000000000e+00,5.000000000000000000e+00,5.000000000000000000e+00,4.860987186431884766e+00,4.670120239257812500e+00,4.493675708770751953e+00,4.330078125000000000e+00,4.177974224090576172e+00,4.036193370819091797e+00,3.903720378875732422e+00,3.779666185379028320e+00,3.663253545761108398e+00,3.553798198699951172e+00,3.450693368911743164e+00,3.353402614593505859e+00,3.261447906494140625e+00,3.174401283264160156e+00,3.091880798339843750e+00,3.013541460037231445e+00,2.939074039459228516e+00,2.868198394775390625e+00,2.800660133361816406e+00,2.736229419708251953e+00,2.674696922302246094e+00,2.615870952606201172e+00,2.559576749801635742e+00,2.505654573440551758e+00,2.453957319259643555e+00,2.404350280761718750e+00,2.356709003448486328e+00,2.310919046401977539e+00,2.266874790191650391e+00,2.224477767944335938e+00,2.183637857437133789e+00,2.144270181655883789e+00,2.106296777725219727e+00,2.069644927978515625e+00,2.034247159957885742e+00,2.000039577484130859e+00,1.966963648796081543e+00,1.934963822364807129e+00,1.903988599777221680e+00,1.873989105224609375e+00,1.844920635223388672e+00
5.000000000000000000e+00,5.000000000000000000e+00,5.000000000000000000e+00,5.000000000000000000e+00,5.000000000000000000e+00,5.000000000000000000e+00,5.000000000000000000e+00,5.000000000000000000e+00,5.000000000000000000e+00,5.000000000000000000e+00,5.000000000000000000e+00,5.000000000000000000e+00,5.000000000000000000e+00,5.000000000000000000e+00,5.000000000000000000e+00,5.000000000000000000e+00,5.000000000000000000e+00,5.000000000000000000e+00,5.000000000000000000e+00,5.000000000000000000e+00,5.000000000000000000e+00,5.000000000000000000e+00,4.110239028930664062e+00,4.076719284057617188e+00,4.049134254455566406e+00,4.056480407714843750e+00,4.075492382049560547e+00,4.134027004241943359e+00,4.181878566741943359e+00,5.000000000000000000e+00,5.000000000000000000e+00,5.000000000000000000e+00,5.000000000000000000e+00,5.000000000000000000e+00,5.000000000000000000e+00,5.000000000000000000e+00,5.000000000000000000e+00,5.000000000000000000e+00,5.000000000000000000e+00,4.861125469207763672e+00,4.670248031616210938e+00,4.493793964385986328e+00,4.330188274383544922e+00,4.178076267242431641e+00,4.036289215087890625e+00,3.903809309005737305e+00,3.779749870300292969e+00,3.663332223892211914e+00,3.553871870040893555e+00,3.450763225555419922e+00,3.353468656539916992e+00,3.261510133743286133e+00,3.174460649490356445e+00,3.091936588287353516e+00,3.013594865798950195e+00,2.939124822616577148e+00,2.868246316909790039e+00,2.800706148147583008e+00,2.736273527145385742e+00,2.674738883972167969e+00,2.615911006927490234e+00,2.559615135192871094e+00,2.505691289901733398e+00,2.453992605209350586e+00,2.404384136199951172e+00,2.356741666793823242e+00,2.310950517654418945e+00,2.266904830932617188e+00,2.224506855010986328e+00,2.183665513992309570e+00,2.144297122955322266e+00,2.106322765350341797e+00,2.069669961929321289e+00,2.034271478652954102e+00,2.000063180923461914e+00,1.966986298561096191e+00,1.934985756874084473e+00,1.904009699821472168e+00,1.874009847640991211e+00,1.844940543174743652e+00
5.000000000000000000e+00,5.000000000000000000e+00,5.000000000000000000e+00,5.000000000000000000e+00,5.000000000000000000e+00,5.000000000000000000e+00,5.000000000000000000e+00,5.000000000000000000e+00,5.000000000000000000e+00,5.000000000000000000e+00,5.000000000000000000e+00,5.000000000000000000e+00,5.000000000000000000e+00,5.000000000000000000e+00,5.000000000000000000e+00,5.000000000000000000e+00,5.000000000000000000e+00,5.000000000000000000e+00,5.000000000000000000e+00,5.000000000000000000e+00,5.000000000000000000e+00,5.000000000000000000e+00,4.118238925933837891e+00,4.092323303222656250e+00,4.053656101226806641e+00,4.050613880157470703e+00,4.080598354339599609e+00,4.147844314575195312e+00,4.201777458190917969e+00,5.000000000000000000e+00,5.000000000000000000e+00,5.000000000000000000e+00,5.000000000000000000e+00,5.000000000000000000e+00,5.000000000000000000e+00,5.000000000000000000e+00,5.000000000000000000e+00,5.000000000000000000e+00,5.000000000000000000e+00,4.861264228820800781e+00,4.670375823974609375e+00,4.493912220001220703e+00,4.330297946929931641e+00,4.178178787231445312e+00,4.036384582519531250e+00,3.903898954391479492e+00,3.779833555221557617e+00,3.663411140441894531e+00,3.553946018218994141e+00,3.450832843780517578e+00,3.353534698486328125e+00,3.261572599411010742e+00,3.174519777297973633e+00,3.091992616653442383e+00,3.013647794723510742e+00,2.939175605773925781e+00,2.868294715881347656e+00,2.800752162933349609e+00,2.736317396163940430e+00,2.674780845642089844e+00,2.615951299667358398e+00,2.559653520584106445e+00,2.505728006362915039e+00,2.454027891159057617e+00,2.404417991638183594e+00,2.356774091720581055e+00,2.310981750488281250e+00,2.266934871673583984e+00,2.224535942077636719e+00,2.183693647384643555e+00,2.144323825836181641e+00,2.106348991394042969e+00,2.069695234298706055e+00,2.034295558929443359e+00,2.000086545944213867e+00,1.967009067535400391e+00,1.935007810592651367e+00,1.904030919075012207e+00,1.874030351638793945e+00,1.844960570335388184e+00
5.000000000000000000e+00,5.000000000000000000e+00,5.000000000000000000e+00,5.000000000000000000e+00,5.000000000000000000e+00,5.000000000000000000e+00,5.000000000000000000e+00,5.000000000000000000e+00,5.000000000000000000e+00,5.000000000000000000e+00,5.000000000000000000e+00,5.000000000000000000e+00,5.000000000000000000e+00,5.000000000000000000e+00,5.000000000000000000e+00,5.000000000000000000e+00,5.000000000000000000e+00,5.000000000000000000e+00,5.000000000000000000e+00,5.000000000000000000e+00,5.000000000000000000e+00,5.000000000000000000e+00,4.117189407348632812e+00,4.126033782958984375e+00,4.052199840545654297e+00,4.049704074859619141e+00,4.074037075042724609e+00,4.161663532257080078e+00,4.207998752593994141e+00,5.000000000000000000e+00,5.000000000000000000e+00,5.000000000000000000e+00,5.000000000000000000e+00,5.000000000000000000e+00,5.000000000000000000e+00,5.000000000000000000e+00,5.000000000000000000e+00,5.000000000000000000e+00,5.000000000000000000e+00,4.861402511596679688e+00,4.670503616333007812e+00,4.494030475616455078e+00,4.330408096313476562e+00,4.178280830383300781e+00,4.036479949951171875e+00,3.903988361358642578e+00,3.779917240142822266e+00,3.663489580154418945e+00,3.554020166397094727e+00,3.450902700424194336e+00,3.353600740432739258e+00,3.261635065078735352e+00,3.174578666687011719e+00,3.092048883438110352e+00,3.013701200485229492e+00,2.939225912094116211e+00,2.868342876434326172e+00,2.800798177719116211e+00,2.736361265182495117e+00,2.674822807312011719e+00,2.615991115570068359e+00,2.559692144393920898e+00,2.505764961242675781e+00,2.454063177108764648e+00,2.404451847076416016e+00,2.356806755065917969e+00,2.311013221740722656e+00,2.266965150833129883e+00,2.224564790725708008e+00,2.183721542358398438e+00,2.144351005554199219e+00,2.106374740600585938e+00,2.069720268249511719e+00,2.034319877624511719e+00,2.000110149383544922e+00,1.967031717300415039e+00,1.935029625892639160e+00,1.904052257537841797e+00,1.874050855636596680e+00,1.844980478286743164e+00
5.000000000000000000e+00,5.000000000000000000e+00,5.000000000000000000e+00,5.000000000000000000e+00,5.000000000000000000e+00,5.000000000000000000e+00,5.000000000000000000e+00,5.000000000000000000e+00,5.000000000000000000e+00,5.000000000000000000e+00,5.000000000000000000e+00,5.000000000000000000e+00,5.000000000000000000e+00,5.000000000000000000e+00,5.000000000000000000e+00,5.000000000000000000e+00,5.000000000000000000e+00,5.000000000000000000e+00,5.000000000000000000e+00,5.000000000000000000e+00,5.000000000000000000e+00,5.000000000000000000e+00,4.122037410736083984e+00,4.136834144592285156e+00,4.043833255767822266e+00,4.045791149139404297e+00,4.062058925628662109e+00,4.142175197601318359e+00,4.231228351593017578e+00,5.000000000000000000e+00,5.000000000000000000e+00,5.000000000000000000e+00,5.000000000000000000e+00,5.000000000000000000e+00,5.000000000000000000e+00,5.000000000000000000e+00,5.000000000000000000e+00,5.000000000000000000e+00,5.000000000000000000e+00,4.861541271209716797e+00,4.670631408691406250e+00,4.494149208068847656e+00,4.330517768859863281e+00,4.178383350372314453e+00,4.036575317382812500e+00,3.904077291488647461e+00,3.780001163482666016e+00,3.663568258285522461e+00,3.554094076156616211e+00,3.450972557067871094e+00,3.353666305541992188e+00,3.261697530746459961e+00,3.174637794494628906e+00,3.092104673385620117e+00,3.013754606246948242e+00,2.939276695251464844e+00,2.868391036987304688e+00,2.800844192504882812e+00,2.736405134201049805e+00,2.674864768981933594e+00,2.616031408309936523e+00,2.559730291366577148e+00,2.505801677703857422e+00,2.454098463058471680e+00,2.404485702514648438e+00,2.356839418411254883e+00,2.311044454574584961e+00,2.266995191574096680e+00,2.224593877792358398e+00,2.183749437332153320e+00,2.144377946853637695e+00,2.106400966644287109e+00,2.069745302200317383e+00,2.034344196319580078e+00,2.000133514404296875e+00,1.967054486274719238e+00,1.935051560401916504e+00,1.904073476791381836e+00,1.874071598052978516e+00,1.845000386238098145e+00
5.000000000000000000e+00,5.000000000000000000e+00,5.000000000000000000e+00,5.000000000000000000e+00,5.000000000000000000e+00,5.000000000000000000e+00,5.000000000000000000e+00,5.000000000000000000e+00,5.000000000000000000e+00,5.000000000000000000e+00,5.000000000000000000e+00,5.000000000000000000e+00,5.000000000000000000e+00,5.000000000000000000e+00,5.000000000000000000e+00,5.000000000000000000e+00,5.000000000000000000e+00,5.000000000000000000e+00,5.000000000000000000e+00,5.000000000000000000e+00,5.000000000000000000e+00,5.000000000000000000e+00,4.083201885223388672e+00,4.123920440673828125e+00,4.052044391632080078e+00,4.048186302185058594e+00,4.072024345397949219e+00,4.143699645996093750e+00,4.235077381134033203e+00,5.000000000000000000e+00,5.000000000000000000e+00,5.000000000000000000e+00,5.000000000000000000e+00,5.000000000000000000e+00,5.000000000000000000e+00,5.000000000000000000e+00,5.000000000000000000e+00,5.000000000000000000e+00,5.000000000000000000e+00,4.861680030822753906e+00,4.670759201049804688e+00,4.494267463684082031e+00,4.330627441406250000e+00,4.178485870361328125e+00,4.036671161651611328e+00,3.904166936874389648e+00,3.780084609985351562e+00,3.663647174835205078e+00,3.554168224334716797e+00,3.451042652130126953e+00,3.353732347488403320e+00,3.261759519577026367e+00,3.174696922302246094e+00,3.092160940170288086e+00,3.013807535171508789e+00,2.939327478408813477e+00,2.868439197540283203e+00,2.800890207290649414e+00,2.736449003219604492e+00,2.674906730651855469e+00,2.616071701049804688e+00,2.559768676757812500e+00,2.505838394165039062e+00,2.454133749008178711e+00,2.404519557952880859e+00,2.356872081756591797e+00,2.311075687408447266e+00,2.267025232315063477e+00,2.224622964859008789e+00,2.183777570724487305e+00,2.144404888153076172e+00,2.106426954269409180e+00,2.069770574569702148e+00,2.034368515014648438e+00,2.000156879425048828e+00,1.967077136039733887e+00,1.935073614120483398e+00,1.904094696044921875e+00,1.874092102050781250e+00,1.845020413398742676e+00
5.000000000000000000e+00,5.000000000000000000e+00,5.000000000000000000e+00,5.000000000000000000e+00,5.000000000000000000e+00,5.000000000000000000e+00,5.000000000000000000e+00,5.000000000000000000e+00,5.000000000000000000e+00,5.000000000000000000e+00,5.000000000000000000e+00,5.000000000000000000e+00,5.000000000000000000e+00,5.000000000000000000e+00,5.000000000000000000e+00,5.000000000000000000e+00,5.000000000000000000e+00,5.000000000000000000e+00,5.000000000000000000e+00,5.000000000000000000e+00,5.000000000000000000e+00,5.000000000000000000e+00,4.029444694519042969e+00,4.093837261199951172e+00,4.068384170532226562e+00,4.074319362640380859e+00,4.062328815460205078e+00,4.126077175140380859e+00,4.226390838623046875e+00,5.000000000000000000e+00,5.000000000000000000e+00,5.000000000000000000e+00,5.000000000000000000e+00,5.000000000000000000e+00,5.000000000000000000e+00,5.000000000000000000e+00,5.000000000000000000e+00,5.000000000000000000e+00,5.000000000000000000e+00,4.861818790435791016e+00,4.670886993408203125e+00,4.494385719299316406e+00,4.330737590789794922e+00,4.178588390350341797e+00,4.036766529083251953e+00,3.904256343841552734e+00,3.780168533325195312e+00,3.663725852966308594e+00,3.554242372512817383e+00,3.451112270355224609e+00,3.353798389434814453e+00,3.261821985244750977e+00,3.174755811691284180e+00,3.092216968536376953e+00,3.013860940933227539e+00,2.939378023147583008e+00,2.868487596511840820e+00,2.800935983657836914e+00,2.736493110656738281e+00,2.674948692321777344e+00,2.616111516952514648e+00,2.559807300567626953e+00,2.505875349044799805e+00,2.454169273376464844e+00,2.404553651809692383e+00,2.356904506683349609e+00,2.311107158660888672e+00,2.267055511474609375e+00,2.224651813507080078e+00,2.183805465698242188e+00,2.144431829452514648e+00,2.106452941894531250e+00,2.069795608520507812e+00,2.034392595291137695e+00,2.000180482864379883e+00,1.967099666595458984e+00,1.935095548629760742e+00,1.904116034507751465e+00,1.874112606048583984e+00,1.845040321350097656e+00
5.000000000000000000e+00,5.000000000000000000e+00,5.000000000000000000e+00,5.000000000000000000e+00,5.000000000000000000e+00,5.000000000000000000e+00,5.000000000000000000e+00,5.000000000000000000e+00,5.000000000000000000e+00,5.000000000000000000e+00,5.000000000000000000e+00,5.000000000000000000e+00,5.000000000000000000e+00,5.000000000000000000e+00,5.000000000000000000e+00,5.000000000000000000e+00,5.000000000000000000e+00,5.000000000000000000e+00,5.000000000000000000e+00,5.000000000000000000e+00,5.000000000000000000e+00,5.000000000000000000e+00,4.019264221191406250e+00,4.094051361083984375e+00,4.083237171173095703e+00,4.018094539642333984e+00,4.003793239593505859e+00,4.067886829376220703e+00,4.222821712493896484e+00,5.000000000000000000e+00,5.000000000000000000e+00,5.000000000000000000e+00,5.000000000000000000e+00,5.000000000000000000e+00,5.000000000000000000e+00,5.000000000000000000e+00,5.000000000000000000e+00,5.000000000000000000e+00,5.000000000000000000e+00,4.861957073211669922e+00,4.671015262603759766e+00,4.494503974914550781e+00,4.330847740173339844e+00,4.178690433502197266e+00,4.036862373352050781e+00,3.904345273971557617e+00,3.780252456665039062e+00,3.663804292678833008e+00,3.554316520690917969e+00,3.451182126998901367e+00,3.353864192962646484e+00,3.261884450912475586e+00,3.174814939498901367e+00,3.092272758483886719e+00,3.013914346694946289e+00,2.939428567886352539e+00,2.868535995483398438e+00,2.800981998443603516e+00,2.736536741256713867e+00,2.674990653991699219e+00,2.616151809692382812e+00,2.559845447540283203e+00,2.505912303924560547e+00,2.454204320907592773e+00,2.404587507247924805e+00,2.356937170028686523e+00,2.311138391494750977e+00,2.267085552215576172e+00,2.224680900573730469e+00,2.183833360671997070e+00,2.144458770751953125e+00,2.106478929519653320e+00,2.069820880889892578e+00,2.034416913986206055e+00,2.000203847885131836e+00,1.967122554779052734e+00,1.935117363929748535e+00,1.904137253761291504e+00,1.874133348464965820e+00,1.845060229301452637e+00
5.000000000000000000e+00,5.000000000000000000e+00,5.000000000000000000e+00,5.000000000000000000e+00,5.000000000000000000e+00,5.000000000000000000e+00,5.000000000000000000e+00,5.000000000000000000e+00,5.000000000000000000e+00,5.000000000000000000e+00,5.000000000000000000e+00,5.000000000000000000e+00,5.000000000000000000e+00,5.000000000000000000e+00,5.000000000000000000e+00,5.000000000000000000e+00,5.000000000000000000e+00,5.000000000000000000e+00,5.000000000000000000e+00,5.000000000000000000e+00,5.000000000000000000e+00,3.948518991470336914e+00,5.000000000000000000e+00,4.103605747222900391e+00,4.085093975067138672e+00,3.984006166458129883e+00,3.976835727691650391e+00,4.063054084777832031e+00,4.210184097290039062e+00,5.000000000000000000e+00,5.000000000000000000e+00,5.000000000000000000e+00,5.000000000000000000e+00,5.000000000000000000e+00,5.000000000000000000e+00,5.000000000000000000e+00,5.000000000000000000e+00,5.000000000000000000e+00,5.000000000000000000e+00,4.862095355987548828e+00,4.671143054962158203e+00,4.494622707366943359e+00,4.330957889556884766e+00,4.178792953491210938e+00,4.036957740783691406e+00,3.904434919357299805e+00,3.780336380004882812e+00,3.663883209228515625e+00,3.554390192031860352e+00,3.451251983642578125e+00,3.353930234909057617e+00,3.261946678161621094e+00,3.174874067306518555e+00,3.092329025268554688e+00,3.013967514038085938e+00,2.939479351043701172e+00,2.868583917617797852e+00,2.801028251647949219e+00,2.736580848693847656e+00,2.675032377243041992e+00,2.616191864013671875e+00,2.559884071350097656e+00,2.505949020385742188e+00,2.454239845275878906e+00,2.404621362686157227e+00,2.356969594955444336e+00,2.311169624328613281e+00,2.267115592956542969e+00,2.224709987640380859e+00,2.183861255645751953e+00,2.144485712051391602e+00,2.106504917144775391e+00,2.069845914840698242e+00,2.034441232681274414e+00,2.000227212905883789e+00,1.967145204544067383e+00,1.935139417648315430e+00,1.904158473014831543e+00,1.874153852462768555e+00,1.845080256462097168e+00
5.000000000000000000e+00,5.000000000000000000e+00,5.000000000000000000e+00,5.000000000000000000e+00,5.000000000000000000e+00,5.000000000000000000e+00,5.000000000000000000e+00,5.000000000000000000e+00,5.000000000000000000e+00,5.000000000000000000e+00,5.000000000000000000e+00,5.000000000000000000e+00,5.000000000000000000e+00,5.000000000000000000e+00,5.000000000000000000e+00,5.000000000000000000e+00,5.000000000000000000e+00,5.000000000000000000e+00,5.000000000000000000e+00,5.000000000000000000e+00,5.000000000000000000e+00,3.970650911331176758e+00,5.000000000000000000e+00,4.129145145416259766e+00,4.101633071899414062e+00,3.950116395950317383e+00,3.950009107589721680e+00,5.000000000000000000e+00,5.000000000000000000e+00,5.000000000000000000e+00,5.000000000000000000e+00,5.000000000000000000e+00,5.000000000000000000e+00,5.000000000000000000e+00,5.000000000000000000e+00,5.000000000000000000e+00,5.000000000000000000e+00,5.000000000000000000e+00,5.000000000000000000e+00,4.862234115600585938e+00,4.671271324157714844e+00,4.494740962982177734e+00,4.331067562103271484e+00,4.178895473480224609e+00,4.037053585052490234e+00,3.904524326324462891e+00,3.780419826507568359e+00,3.663961887359619141e+00,3.554464340209960938e+00,3.451321601867675781e+00,3.353996276855468750e+00,3.262009143829345703e+00,3.174933433532714844e+00,3.092385053634643555e+00,3.014020681381225586e+00,2.939530134201049805e+00,2.868632316589355469e+00,2.801074028015136719e+00,2.736624717712402344e+00,2.675074577331542969e+00,2.616232156753540039e+00,2.559922456741333008e+00,2.505985736846923828e+00,2.454275131225585938e+00,2.404655218124389648e+00,2.357002019882202148e+00,2.311201095581054688e+00,2.267145872116088867e+00,2.224739074707031250e+00,2.183889389038085938e+00,2.144512653350830078e+00,2.106530904769897461e+00,2.069870948791503906e+00,2.034465551376342773e+00,2.000250816345214844e+00,1.967167735099792480e+00,1.935161352157592773e+00,1.904179811477661133e+00,1.874174356460571289e+00,1.845100164413452148e+00
5.000000000000000000e+00,5.000000000000000000e+00,5.000000000000000000e+00,5.000000000000000000e+00,5.000000000000000000e+00,5.000000000000000000e+00,5.000000000000000000e+00,5.000000000000000000e+00,5.000000000000000000e+00,5.000000000000000000e+00,5.000000000000000000e+00,5.000000000000000000e+00,5.000000000000000000e+00,5.000000000000000000e+00,5.000000000000000000e+00,5.000000000000000000e+00,5.000000000000000000e+00,5.000000000000000000e+00,5.000000000000000000e+00,5.000000000000000000e+00,5.000000000000000000e+00,5.000000000000000000e+00,5.000000000000000000e+00,5.000000000000000000e+00,4.121895313262939453e+00,3.912995338439941406e+00,3.925671815872192383e+00,5.000000000000000000e+00,5.000000000000000000e+00,5.000000000000000000e+00,5.000000000000000000e+00,5.000000000000000000e+00,5.000000000000000000e+00,5.000000000000000000e+00,5.000000000000000000e+00,5.000000000000000000e+00,5.000000000000000000e+00,5.000000000000000000e+00,5.000000000000000000e+00,4.862372875213623047e+00,4.671399116516113281e+00,4.494859695434570312e+00,4.331177234649658203e+00,4.178997516632080078e+00,4.037148952484130859e+00,3.904613971710205078e+00,3.780503749847412109e+00,3.664040327072143555e+00,3.554538488388061523e+00,3.451391458511352539e+00,3.354062080383300781e+00,3.262071609497070312e+00,3.174992322921752930e+00,3.092441320419311523e+00,3.014074087142944336e+00,2.939580440521240234e+00,2.868680715560913086e+00,2.801120042800903320e+00,2.736668348312377930e+00,2.675116539001464844e+00,2.616272211074829102e+00,2.559960842132568359e+00,2.506022691726684570e+00,2.454310178756713867e+00,2.404689311981201172e+00,2.357034683227539062e+00,2.311232089996337891e+00,2.267175912857055664e+00,2.224767923355102539e+00,2.183917284011840820e+00,2.144539594650268555e+00,2.106556892395019531e+00,2.069896221160888672e+00,2.034489870071411133e+00,2.000274181365966797e+00,1.967190623283386230e+00,1.935183167457580566e+00,1.904201030731201172e+00,1.874195098876953125e+00,1.845120072364807129e+00
5.000000000000000000e+00,5.000000000000000000e+00,5.000000000000000000e+00,5.000000000000000000e+00,5.000000000000000000e+00,5.000000000000000000e+00,5.000000000000000000e+00,5.000000000000000000e+00,5.000000000000000000e+00,5.000000000000000000e+00,5.000000000000000000e+00,5.000000000000000000e+00,5.000000000000000000e+00,5.000000000000000000e+00,5.000000000000000000e+00,5.000000000000000000e+00,5.000000000000000000e+00,5.000000000000000000e+00,5.000000000000000000e+00,5.000000000000000000e+00,5.000000000000000000e+00,5.000000000000000000e+00,5.000000000000000000e+00,5.000000000000000000e+00,4.139927387237548828e+00,3.894111871719360352e+00,3.920590639114379883e+00,5.000000000000000000e+00,5.000000000000000000e+00,5.000000000000000000e+00,5.000000000000000000e+00,5.000000000000000000e+00,5.000000000000000000e+00,5.000000000000000000e+00,5.000000000000000000e+00,5.000000000000000000e+00,5.000000000000000000e+00,5.000000000000000000e+00,5.000000000000000000e+00,4.862511634826660156e+00,4.671526908874511719e+00,4.494977951049804688e+00,4.331287384033203125e+00,4.179100036621093750e+00,4.037244319915771484e+00,3.904702901840209961e+00,3.780587673187255859e+00,3.664119243621826172e+00,3.554612398147583008e+00,3.451461553573608398e+00,3.354128122329711914e+00,3.262134075164794922e+00,3.175051450729370117e+00,3.092497110366821289e+00,3.014127254486083984e+00,2.939631223678588867e+00,2.868728637695312500e+00,2.801166057586669922e+00,2.736712455749511719e+00,2.675158500671386719e+00,2.616312265396118164e+00,2.559999227523803711e+00,2.506059408187866211e+00,2.454345703125000000e+00,2.404722929000854492e+00,2.357067346572875977e+00,2.311263561248779297e+00,2.267206192016601562e+00,2.224797010421752930e+00,2.183945178985595703e+00,2.144566535949707031e+00,2.106582880020141602e+00,2.069921255111694336e+00,2.034513950347900391e+00,2.000297546386718750e+00,1.967213153839111328e+00,1.935205340385437012e+00,1.904222130775451660e+00,1.874215602874755859e+00,1.845140218734741211e+00
5.000000000000000000e+00,5.000000000000000000e+00,5.000000000000000000e+00,5.000000000000000000e+00,5.000000000000000000e+00,5.000000000000000000e+00,5.000000000000000000e+00,5.000000000000000000e+00,5.000000000000000000e+00,5.000000000000000000e+00,5.000000000000000000e+00,5.000000000000000000e+00,5.000000000000000000e+00,5.000000000000000000e+00,5.000000000000000000e+00,5.000000000000000000e+00,5.000000000000000000e+00,5.000000000000000000e+00,5.000000000000000000e+00,5.000000000000000000e+00,5.000000000000000000e+00,5.000000000000000000e+00,5.000000000000000000e+00,5.000000000000000000e+00,4.158407688140869141e+00,3.916366577148437500e+00,3.931844711303710938e+00,5.000000000000000000e+00,5.000000000000000000e+00,5.000000000000000000e+00,5.000000000000000000e+00,5.000000000000000000e+00,5.000000000000000000e+00,5.000000000000000000e+00,5.000000000000000000e+00,5.000000000000000000e+00,5.000000000000000000e+00,5.000000000000000000e+00,5.000000000000000000e+00,4.862649917602539062e+00,4.671654701232910156e+00,4.495096683502197266e+00,4.331397533416748047e+00,4.179202556610107422e+00,4.037340164184570312e+00,3.904792547225952148e+00,3.780671119689941406e+00,3.664197921752929688e+00,3.554686546325683594e+00,3.451531410217285156e+00,3.354194164276123047e+00,3.262196302413940430e+00,3.175110578536987305e+00,3.092553377151489258e+00,3.014180421829223633e+00,2.939682006835937500e+00,2.868777036666870117e+00,2.801212072372436523e+00,2.736756324768066406e+00,2.675200223922729492e+00,2.616352558135986328e+00,2.560037612915039062e+00,2.506096124649047852e+00,2.454380989074707031e+00,2.404757022857666016e+00,2.357100009918212891e+00,2.311295032501220703e+00,2.267236232757568359e+00,2.224826097488403320e+00,2.183973073959350586e+00,2.144593477249145508e+00,2.106609106063842773e+00,2.069946289062500000e+00,2.034538269042968750e+00,2.000321149826049805e+00,1.967235803604125977e+00,1.935227155685424805e+00,1.904243588447570801e+00,1.874236226081848145e+00,1.845160007476806641e+00
5.000000000000000000e+00,5.000000000000000000e+00,5.000000000000000000e+00,5.000000000000000000e+00,5.000000000000000000e+00,5.000000000000000000e+00,5.000000000000000000e+00,5.000000000000000000e+00,5.000000000000000000e+00,5.000000000000000000e+00,5.000000000000000000e+00,5.000000000000000000e+00,5.000000000000000000e+00,5.000000000000000000e+00,5.000000000000000000e+00,5.000000000000000000e+00,5.000000000000000000e+00,5.000000000000000000e+00,5.000000000000000000e+00,5.000000000000000000e+00,5.000000000000000000e+00,5.000000000000000000e+00,5.000000000000000000e+00,5.000000000000000000e+00,4.269572257995605469e+00,3.941444873809814453e+00,3.942098379135131836e+00,5.000000000000000000e+00,5.000000000000000000e+00,5.000000000000000000e+00,5.000000000000000000e+00,5.000000000000000000e+00,5.000000000000000000e+00,5.000000000000000000e+00,5.000000000000000000e+00,5.000000000000000000e+00,5.000000000000000000e+00,5.000000000000000000e+00,5.000000000000000000e+00,4.862788200378417969e+00,4.671782493591308594e+00,4.495214939117431641e+00,4.331507682800292969e+00,4.179304599761962891e+00,4.037435531616210938e+00,3.904881954193115234e+00,3.780755043029785156e+00,3.664276361465454102e+00,3.554760694503784180e+00,3.451601028442382812e+00,3.354260206222534180e+00,3.262258768081665039e+00,3.175169467926025391e+00,3.092609405517578125e+00,3.014233827590942383e+00,2.939732551574707031e+00,2.868825435638427734e+00,2.801258087158203125e+00,2.736800432205200195e+00,2.675242424011230469e+00,2.616392374038696289e+00,2.560076236724853516e+00,2.506133079528808594e+00,2.454416275024414062e+00,2.404790878295898438e+00,2.357132434844970703e+00,2.311326265335083008e+00,2.267266511917114258e+00,2.224854946136474609e+00,2.184001207351684570e+00,2.144620418548583984e+00,2.106634855270385742e+00,2.069971561431884766e+00,2.034562587738037109e+00,2.000344514846801758e+00,1.967258691787719727e+00,1.935249090194702148e+00,1.904264807701110840e+00,1.874256849288940430e+00,1.845179915428161621e+00
5.000000000000000000e+00,5.000000000000000000e+00,5.000000000000000000e+00,5.000000000000000000e+00,5.000000000000000000e+00,5.000000000000000000e+00,5.000000000000000000e+00,5.000000000000000000e+00,5.000000000000000000e+00,5.000000000000000000e+00,5.000000000000000000e+00,5.000000000000000000e+00,5.000000000000000000e+00,5.000000000000000000e+00,5.000000000000000000e+00,5.000000000000000000e+00,5.000000000000000000e+00,5.000000000000000000e+00,5.000000000000000000e+00,5.000000000000000000e+00,5.000000000000000000e+00,5.000000000000000000e+00,5.000000000000000000e+00,5.000000000000000000e+00,5.000000000000000000e+00,3.935904026031494141e+00,3.945583820343017578e+00,5.000000000000000000e+00,5.000000000000000000e+00,5.000000000000000000e+00,5.000000000000000000e+00,5.000000000000000000e+00,5.000000000000000000e+00,5.000000000000000000e+00,5.000000000000000000e+00,5.000000000000000000e+00,5.000000000000000000e+00,5.000000000000000000e+00,5.000000000000000000e+00,4.862926483154296875e+00,4.671910285949707031e+00,4.495333194732666016e+00,4.331617355346679688e+00,4.179407119750976562e+00,4.037530899047851562e+00,3.904971122741699219e+00,3.780838966369628906e+00,3.664355278015136719e+00,3.554834842681884766e+00,3.451670885086059570e+00,3.354325771331787109e+00,3.262321233749389648e+00,3.175228595733642578e+00,3.092665195465087891e+00,3.014286994934082031e+00,2.939783096313476562e+00,2.868873596191406250e+00,2.801304101943969727e+00,2.736844062805175781e+00,2.675284385681152344e+00,2.616432666778564453e+00,2.560114383697509766e+00,2.506170034408569336e+00,2.454451560974121094e+00,2.404824733734130859e+00,2.357165098190307617e+00,2.311357498168945312e+00,2.267296552658081055e+00,2.224884033203125000e+00,2.184029102325439453e+00,2.144647598266601562e+00,2.106661081314086914e+00,2.069996595382690430e+00,2.034586906433105469e+00,2.000367879867553711e+00,1.967281222343444824e+00,1.935271143913269043e+00,1.904285907745361328e+00,1.874277472496032715e+00,1.845200061798095703e+00
5.000000000000000000e+00,5.000000000000000000e+00,5.000000000000000000e+00,5.000000000000000000e+00,5.000000000000000000e+00,5.000000000000000000e+00,5.000000000000000000e+00,5.000000000000000000e+00,5.000000000000000000e+00,5.000000000000000000e+00,5.000000000000000000e+00,5.000000000000000000e+00,5.000000000000000000e+00,5.000000000000000000e+00,5.000000000000000000e+00,5.000000000000000000e+00,5.000000000000000000e+00,5.000000000000000000e+00,5.000000000000000000e+00,5.000000000000000000e+00,5.000000000000000000e+00,5.000000000000000000e+00,5.000000000000000000e+00,5.000000000000000000e+00,5.000000000000000000e+00,3.930718898773193359e+00,3.953035354614257812e+00,5.000000000000000000e+00,5.000000000000000000e+00,5.000000000000000000e+00,5.000000000000000000e+00,5.000000000000000000e+00,5.000000000000000000e+00,5.000000000000000000e+00,5.000000000000000000e+00,5.000000000000000000e+00,5.000000000000000000e+00,5.000000000000000000e+00,5.000000000000000000e+00,4.863064289093017578e+00,4.672037601470947266e+00,4.495451450347900391e+00,4.331727504730224609e+00,4.179509639739990234e+00,4.037626743316650391e+00,3.905060529708862305e+00,3.780922889709472656e+00,3.664434194564819336e+00,3.554908752441406250e+00,3.451740980148315430e+00,3.354391813278198242e+00,3.262383460998535156e+00,3.175287961959838867e+00,3.092721462249755859e+00,3.014340400695800781e+00,2.939833879470825195e+00,2.868921756744384766e+00,2.801350116729736328e+00,2.736888170242309570e+00,2.675326108932495117e+00,2.616472721099853516e+00,2.560153007507324219e+00,2.506206750869750977e+00,2.454486846923828125e+00,2.404858589172363281e+00,2.357197761535644531e+00,2.311388969421386719e+00,2.267326593399047852e+00,2.224913120269775391e+00,2.184056997299194336e+00,2.144674539566040039e+00,2.106687068939208984e+00,2.070021629333496094e+00,2.034611225128173828e+00,2.000391483306884766e+00,1.967303872108459473e+00,1.935293078422546387e+00,1.904307365417480469e+00,1.874298095703125000e+00,1.845219969749450684e+00
5.000000000000000000e+00,5.000000000000000000e+00,5.000000000000000000e+00,5.000000000000000000e+00,5.000000000000000000e+00,5.000000000000000000e+00,5.000000000000000000e+00,5.000000000000000000e+00,5.000000000000000000e+00,5.000000000000000000e+00,5.000000000000000000e+00,5.000000000000000000e+00,5.000000000000000000e+00,5.000000000000000000e+00,5.000000000000000000e+00,5.000000000000000000e+00,5.000000000000000000e+00,5.000000000000000000e+00,5.000000000000000000e+00,5.000000000000000000e+00,5.000000000000000000e+00,5.000000000000000000e+00,5.000000000000000000e+00,5.000000000000000000e+00,5.000000000000000000e+00,3.927215099334716797e+00,3.962398052215576172e+00,5.000000000000000000e+00,5.000000000000000000e+00,5.000000000000000000e+00,5.000000000000000000e+00,5.000000000000000000e+00,5.000000000000000000e+00,5.000000000000000000e+00,5.000000000000000000e+00,5.000000000000000000e+00,5.000000000000000000e+00,5.000000000000000000e+00,5.000000000000000000e+00,4.863202571868896484e+00,4.672165393829345703e+00,4.495569705963134766e+00,4.331837654113769531e+00,4.179612159729003906e+00,4.037722110748291016e+00,3.905150175094604492e+00,3.781006336212158203e+00,3.664512872695922852e+00,3.554982900619506836e+00,3.451810598373413086e+00,3.354457855224609375e+00,3.262445926666259766e+00,3.175346851348876953e+00,3.092777729034423828e+00,3.014393568038940430e+00,2.939884662628173828e+00,2.868970155715942383e+00,2.801395893096923828e+00,2.736932039260864258e+00,2.675368070602416992e+00,2.616512775421142578e+00,2.560191392898559570e+00,2.506243467330932617e+00,2.454522371292114258e+00,2.404892683029174805e+00,2.357230186462402344e+00,2.311420202255249023e+00,2.267356872558593750e+00,2.224941968917846680e+00,2.184085130691528320e+00,2.144701480865478516e+00,2.106713056564331055e+00,2.070046901702880859e+00,2.034635305404663086e+00,2.000415086746215820e+00,1.967326641082763672e+00,1.935314893722534180e+00,1.904328465461730957e+00,1.874318718910217285e+00,1.845239996910095215e+00
5.000000000000000000e+00,5.000000000000000000e+00,5.000000000000000000e+00,5.000000000000000000e+00,5.000000000000000000e+00,5.000000000000000000e+00,5.000000000000000000e+00,5.000000000000000000e+00,5.000000000000000000e+00,5.000000000000000000e+00,5.000000000000000000e+00,5.000000000000000000e+00,5.000000000000000000e+00,5.000000000000000000e+00,5.000000000000000000e+00,5.000000000000000000e+00,5.000000000000000000e+00,5.000000000000000000e+00,5.000000000000000000e+00,5.000000000000000000e+00,5.000000000000000000e+00,5.000000000000000000e+00,5.000000000000000000e+00,5.000000000000000000e+00,5.000000000000000000e+00,3.952038526535034180e+00,5.000000000000000000e+00,5.000000000000000000e+00,5.000000000000000000e+00,5.000000000000000000e+00,5.000000000000000000e+00,5.000000000000000000e+00,5.000000000000000000e+00,5.000000000000000000e+00,5.000000000000000000e+00,5.000000000000000000e+00,5.000000000000000000e+00,5.000000000000000000e+00,5.000000000000000000e+00,4.863340377807617188e+00,4.672292709350585938e+00,4.495687961578369141e+00,4.331947326660156250e+00,4.179714679718017578e+00,4.037817955017089844e+00,3.905239582061767578e+00,3.781090497970581055e+00,3.664591312408447266e+00,3.555057048797607422e+00,3.451880455017089844e+00,3.354523658752441406e+00,3.262508392333984375e+00,3.175405979156494141e+00,3.092833757400512695e+00,3.014446735382080078e+00,2.939935207366943359e+00,2.869018316268920898e+00,2.801442146301269531e+00,2.736975908279418945e+00,2.675410270690917969e+00,2.616553068161010742e+00,2.560230016708374023e+00,2.506280422210693359e+00,2.454557418823242188e+00,2.404926538467407227e+00,2.357262849807739258e+00,2.311451435089111328e+00,2.267386913299560547e+00,2.224971055984497070e+00,2.184113025665283203e+00,2.144728422164916992e+00,2.106739044189453125e+00,2.070071935653686523e+00,2.034659624099731445e+00,2.000438451766967773e+00,1.967349290847778320e+00,1.935337066650390625e+00,1.904349923133850098e+00,1.874339222908020020e+00,1.845259904861450195e+00
4.875272750854492188e+00,4.874061584472656250e+00,4.872851371765136719e+00,4.871641635894775391e+00,4.870431900024414062e+00,4.869223594665527344e+00,4.868015289306640625e+00,4.866807937622070312e+00,4.865601062774658203e+00,4.864394664764404297e+00,4.863189220428466797e+00,4.861984252929687500e+00,4.860779762268066406e+00,4.859575748443603516e+00,4.858372688293457031e+00,4.857170104980468750e+00,4.855967998504638672e+00,4.854766368865966797e+00,4.853565216064453125e+00,4.852365016937255859e+00,4.851165771484375000e+00,4.849966526031494141e+00,4.848767757415771484e+00,4.847569942474365234e+00,4.846372604370117188e+00,3.856592416763305664e+00,4.843979835510253906e+00,4.842783927917480469e+00,4.841588973999023438e+00,4.840394973754882812e+00,4.839200973510742188e+00,4.838007450103759766e+00,4.836814880371093750e+00,4.835623264312744141e+00,4.834431648254394531e+00,4.833240985870361328e+00,4.832050323486328125e+00,4.830860614776611328e+00,4.829671859741210938e+00,4.828483581542968750e+00,4.672420024871826172e+00,4.495805740356445312e+00,4.332056522369384766e+00,4.179816722869873047e+00,4.037913322448730469e+00,3.905328750610351562e+00,3.781174421310424805e+00,3.664670228958129883e+00,3.555130958557128906e+00,3.451950311660766602e+00,3.354589700698852539e+00,3.262570619583129883e+00,3.175465106964111328e+00,3.092889547348022461e+00,3.014500141143798828e+00,2.939985990524291992e+00,2.869066476821899414e+00,2.801488161087036133e+00,2.737019777297973633e+00,2.675451993942260742e+00,2.616593122482299805e+00,2.560268163681030273e+00,2.506317138671875000e+00,2.454592943191528320e+00,2.404960393905639648e+00,2.357295274734497070e+00,2.311482906341552734e+00,2.267416954040527344e+00,2.225000143051147461e+00,2.184140920639038086e+00,2.144755363464355469e+00,2.106765031814575195e+00,2.070096969604492188e+00,2.034683942794799805e+00,2.000461816787719727e+00,1.967371940612792969e+00,1.935358881950378418e+00,1.904371142387390137e+00,1.874359965324401855e+00,1.845279812812805176e+00
3.778067588806152344e+00,3.777340412139892578e+00,3.776613473892211914e+00,3.775886297225952148e+00,3.775159835815429688e+00,3.774433612823486328e+00,3.773707628250122070e+00,3.772982120513916016e+00,3.772256851196289062e+00,3.771531820297241211e+00,3.770807027816772461e+00,3.770082473754882812e+00,3.769357919692993164e+00,3.768633842468261719e+00,3.767910242080688477e+00,3.767186880111694336e+00,3.766463756561279297e+00,3.765741109848022461e+00,3.765018463134765625e+00,3.764296054840087891e+00,3.763574123382568359e+00,3.762851953506469727e+00,3.762130498886108398e+00,3.761409521102905273e+00,3.760688543319702148e+00,3.759968042373657227e+00,3.759247779846191406e+00,3.758527517318725586e+00,3.757807731628417969e+00,3.757088422775268555e+00,3.756368637084960938e+00,3.755649805068969727e+00,3.754930973052978516e+00,3.754212617874145508e+00,3.753494501113891602e+00,3.752776622772216797e+00,3.752058982849121094e+00,3.751341819763183594e+00,3.750624656677246094e+00,3.749907493591308594e+00,3.749191045761108398e+00,3.748474836349487305e+00,3.747758865356445312e+00,3.747043371200561523e+00,3.746327877044677734e+00,3.745612859725952148e+00,3.744897842407226562e+00,3.664749145507812500e+00,3.555205106735229492e+00,3.452019929885864258e+00,3.354655742645263672e+00,3.262633085250854492e+00,3.175524473190307617e+00,3.092945814132690430e+00,3.014553308486938477e+00,2.940036773681640625e+00,2.869114875793457031e+00,2.801533937454223633e+00,2.737063884735107422e+00,2.675493955612182617e+00,2.616633415222167969e+00,2.560306787490844727e+00,2.506353855133056641e+00,2.454628229141235352e+00,2.404994249343872070e+00,2.357327938079833984e+00,2.311514139175415039e+00,2.267447233200073242e+00,2.225029230117797852e+00,2.184169054031372070e+00,2.144782304763793945e+00,2.106791257858276367e+00,2.070122241973876953e+00,2.034708023071289062e+00,2.000485420227050781e+00,1.967394709587097168e+00,1.935381054878234863e+00,1.904392242431640625e+00,1.874380469322204590e+00,1.845299839973449707e+00
3.083997964859008789e+00,3.083513498306274414e+00,3.083028793334960938e+00,3.082544326782226562e+00,3.082060098648071289e+00,3.081576108932495117e+00,3.081092357635498047e+00,3.080608606338500977e+00,3.080125093460083008e+00,3.079641580581665039e+00,3.079158306121826172e+00,3.078675031661987305e+00,3.078191995620727539e+00,3.077709197998046875e+00,3.077226638793945312e+00,3.076744079589843750e+00,3.076261758804321289e+00,3.075779438018798828e+00,3.075297355651855469e+00,3.074815511703491211e+00,3.074333429336547852e+00,3.073852062225341797e+00,3.073370456695556641e+00,3.072889089584350586e+00,3.072407960891723633e+00,3.071927070617675781e+00,3.071446180343627930e+00,3.070965528488159180e+00,3.070484876632690430e+00,3.070004224777221680e+00,3.069524049758911133e+00,3.069043874740600586e+00,3.068563938140869141e+00,3.068084239959716797e+00,3.067604541778564453e+00,3.067125082015991211e+00,3.066645860671997070e+00,3.066166639328002930e+00,3.065687417984008789e+00,3.065208435058593750e+00,3.064729690551757812e+00,3.064251184463500977e+00,3.063772678375244141e+00,3.063294410705566406e+00,3.062816381454467773e+00,3.062338352203369141e+00,3.061860561370849609e+00,3.061382532119750977e+00,3.060904979705810547e+00,3.060427665710449219e+00,3.059950351715087891e+00,3.059473276138305664e+00,3.058996200561523438e+00,3.058519363403320312e+00,3.014606714248657227e+00,2.940087080001831055e+00,2.869163036346435547e+00,2.801580190658569336e+00,2.737107753753662109e+00,2.675536155700683594e+00,2.616673469543457031e+00,2.560345172882080078e+00,2.506390810012817383e+00,2.454663515090942383e+00,2.405028343200683594e+00,2.357360363006591797e+00,2.311545610427856445e+00,2.267477273941040039e+00,2.225058078765869141e+00,2.184196949005126953e+00,2.144809246063232422e+00,2.106817007064819336e+00,2.070147275924682617e+00,2.034732341766357422e+00,2.000508785247802734e+00,1.967417359352111816e+00,1.935402870178222656e+00,1.904413700103759766e+00,1.874400973320007324e+00,1.845319747924804688e+00
2.605365753173828125e+00,2.605019569396972656e+00,2.604673862457275391e+00,2.604328155517578125e+00,2.603982448577880859e+00,2.603636980056762695e+00,2.603291511535644531e+00,2.602946281433105469e+00,2.602601051330566406e+00,2.602255821228027344e+00,2.601910591125488281e+00,2.601565599441528320e+00,2.601220846176147461e+00,2.600876092910766602e+00,2.600531339645385742e+00,2.600186824798583984e+00,2.599842309951782227e+00,2.599497795104980469e+00,2.599153518676757812e+00,2.598809003829956055e+00,2.598464965820312500e+00,2.598120927810668945e+00,2.597776889801025391e+00,2.597433090209960938e+00,2.597089290618896484e+00,2.596745491027832031e+00,2.596401929855346680e+00,2.596058368682861328e+00,2.595714807510375977e+00,2.595371484756469727e+00,2.595028162002563477e+00,2.594685077667236328e+00,2.594341993331909180e+00,2.593999147415161133e+00,2.593656301498413086e+00,2.593313455581665039e+00,2.592970848083496094e+00,2.592628002166748047e+00,2.592285394668579102e+00,2.591943025588989258e+00,2.591600656509399414e+00,2.591258525848388672e+00,2.590916395187377930e+00,2.590574264526367188e+00,2.590232372283935547e+00,2.589890480041503906e+00,2.589548349380493164e+00,2.589206695556640625e+00,2.588865280151367188e+00,2.588523626327514648e+00,2.588182210922241211e+00,2.587840795516967773e+00,2.587499618530273438e+00,2.587158441543579102e+00,2.586817502975463867e+00,2.586476325988769531e+00,2.586135387420654297e+00,2.585794687271118164e+00,2.585453987121582031e+00,2.585113286972045898e+00,2.584772825241088867e+00,2.560383558273315430e+00,2.506427764892578125e+00,2.454698801040649414e+00,2.405061960220336914e+00,2.357393026351928711e+00,2.311576843261718750e+00,2.267507553100585938e+00,2.225087165832519531e+00,2.184224843978881836e+00,2.144836187362670898e+00,2.106843233108520508e+00,2.070172309875488281e+00,2.034756660461425781e+00,2.000532150268554688e+00,1.967440247535705566e+00,1.935424804687500000e+00,1.904434919357299805e+00,1.874421715736389160e+00,1.845339655876159668e+00
2.255364179611206055e+00,2.255103826522827148e+00,2.254843473434448242e+00,2.254583358764648438e+00,2.254323244094848633e+00,2.254063367843627930e+00,2.253803253173828125e+00,2.253543376922607422e+00,2.253283500671386719e+00,2.253023624420166016e+00,2.252763986587524414e+00,2.252504348754882812e+00,2.252244472503662109e+00,2.251985073089599609e+00,2.251725435256958008e+00,2.251466035842895508e+00,2.251206874847412109e+00,2.250947237014770508e+00,2.250688076019287109e+00,2.250428915023803711e+00,2.250169754028320312e+00,2.249910831451416016e+00,2.249651670455932617e+00,2.249393224716186523e+00,2.249135494232177734e+00,2.248877763748168945e+00,2.248620033264160156e+00,2.248362064361572266e+00,2.248104572296142578e+00,2.247847080230712891e+00,2.247589588165283203e+00,2.247332096099853516e+00,2.247074842453002930e+00,2.246817588806152344e+00,2.246560335159301758e+00,2.246303081512451172e+00,2.246045827865600586e+00,2.245788812637329102e+00,2.245531797409057617e+00,2.245274782180786133e+00,2.245018005371093750e+00,2.244760990142822266e+00,2.244504213333129883e+00,2.244247674942016602e+00,2.243990898132324219e+00,2.243734121322631836e+00,2.243477582931518555e+00,2.243221282958984375e+00,2.242964744567871094e+00,2.242708444595336914e+00,2.242452144622802734e+00,2.242195844650268555e+00,2.241939783096313477e+00,2.241683721542358398e+00,2.241427421569824219e+00,2.241171360015869141e+00,2.240915536880493164e+00,2.240659475326538086e+00,2.240403652191162109e+00,2.240148067474365234e+00,2.239892244338989258e+00,2.239636659622192383e+00,2.239380836486816406e+00,2.239125251770019531e+00,2.238869905471801758e+00,2.238614320755004883e+00,2.238358974456787109e+00,2.238103866577148438e+00,2.225116252899169922e+00,2.184252738952636719e+00,2.144863128662109375e+00,2.106869220733642578e+00,2.070197582244873047e+00,2.034780979156494141e+00,2.000555753707885742e+00,1.967462778091430664e+00,1.935446858406066895e+00,1.904456019401550293e+00,1.874442219734191895e+00,1.845359802246093750e+00
1.988310575485229492e+00,1.988108396530151367e+00,1.987906098365783691e+00,1.987704038619995117e+00,1.987501740455627441e+00,1.987299561500549316e+00,1.987097620964050293e+00,1.986895442008972168e+00,1.986693501472473145e+00,1.986491441726684570e+00,1.986289501190185547e+00,1.986087679862976074e+00,1.985885858535766602e+00,1.985684156417846680e+00,1.985482335090637207e+00,1.985280752182006836e+00,1.985078930854797363e+00,1.984877228736877441e+00,1.984675765037536621e+00,1.984474062919616699e+00,1.984272718429565430e+00,1.984071135520935059e+00,1.983869552612304688e+00,1.983668327331542969e+00,1.983466863632202148e+00,1.983265757560729980e+00,1.983064293861389160e+00,1.982863068580627441e+00,1.982661962509155273e+00,1.982460737228393555e+00,1.982259750366210938e+00,1.982058644294738770e+00,1.981857419013977051e+00,1.981656670570373535e+00,1.981455564498901367e+00,1.981254816055297852e+00,1.981053829193115234e+00,1.980852961540222168e+00,1.980652332305908203e+00,1.980451464653015137e+00,1.980250954627990723e+00,1.980050086975097656e+00,1.979849457740783691e+00,1.979648947715759277e+00,1.979448318481445312e+00,1.979247927665710449e+00,1.979047417640686035e+00,1.978846907615661621e+00,1.978646636009216309e+00,1.978446245193481445e+00,1.978246092796325684e+00,1.978045701980590820e+00,1.977845430374145508e+00,1.977645397186279297e+00,1.977445125579833984e+00,1.977245211601257324e+00,1.977045059204101562e+00,1.976844906806945801e+00,1.976645112037658691e+00,1.976445078849792480e+00,1.976245284080505371e+00,1.976045370101928711e+00,1.975845456123352051e+00,1.975645780563354492e+00,1.975445985794067383e+00,1.975246429443359375e+00,1.975046634674072266e+00,1.974846959114074707e+00,1.974647521972656250e+00,1.974447965621948242e+00,1.974248528480529785e+00,1.974048972129821777e+00,1.973849534988403320e+00,1.973650336265563965e+00,1.973450899124145508e+00,1.967485427856445312e+00,1.935468792915344238e+00,1.904477477073669434e+00,1.874462723731994629e+00,1.845379710197448730e+00
1.777804374694824219e+00,1.777642488479614258e+00,1.777480959892272949e+00,1.777319192886352539e+00,1.777157425880432129e+00,1.776996016502380371e+00,1.776834368705749512e+00,1.776672840118408203e+00,1.776511311531066895e+00,1.776349663734436035e+00,1.776188373565673828e+00,1.776026844978332520e+00,1.775865554809570312e+00,1.775704026222229004e+00,1.775542616844177246e+00,1.775381445884704590e+00,1.775220036506652832e+00,1.775058984756469727e+00,1.774897575378417969e+00,1.774736285209655762e+00,1.774575233459472656e+00,1.774414062500000000e+00,1.774253010749816895e+00,1.774091839790344238e+00,1.773930788040161133e+00,1.773769855499267578e+00,1.773608803749084473e+00,1.773447871208190918e+00,1.773286938667297363e+00,1.773125886917114258e+00,1.772965073585510254e+00,1.772804141044616699e+00,1.772643446922302246e+00,1.772482633590698242e+00,1.772321820259094238e+00,1.772161126136779785e+00,1.772000312805175781e+00,1.771839737892150879e+00,1.771679043769836426e+00,1.771518349647521973e+00,1.771357893943786621e+00,1.771197199821472168e+00,1.771036863327026367e+00,1.770876169204711914e+00,1.770715713500976562e+00,1.770555377006530762e+00,1.770394802093505859e+00,1.770234584808349609e+00,1.770074129104614258e+00,1.769913673400878906e+00,1.769753575325012207e+00,1.769593238830566406e+00,1.769433021545410156e+00,1.769272804260253906e+00,1.769112467765808105e+00,1.768952488899230957e+00,1.768792271614074707e+00,1.768632292747497559e+00,1.768472075462341309e+00,1.768311977386474609e+00,1.768152117729187012e+00,1.767992019653320312e+00,1.767832159996032715e+00,1.767672181129455566e+00,1.767512202262878418e+00,1.767352461814880371e+00,1.767192602157592773e+00,1.767032861709594727e+00,1.766873002052307129e+00,1.766713142395019531e+00,1.766553640365600586e+00,1.766393780708312988e+00,1.766234278678894043e+00,1.766074538230895996e+00,1.765915036201477051e+00,1.765755414962768555e+00,1.765595793724060059e+00,1.765436410903930664e+00,1.765276908874511719e+00,1.765117526054382324e+00
1.607604026794433594e+00,1.607471942901611328e+00,1.607339620590209961e+00,1.607207298278808594e+00,1.607075214385986328e+00,1.606943011283874512e+00,1.606810927391052246e+00,1.606678843498229980e+00,1.606546640396118164e+00,1.606414675712585449e+00,1.606282472610473633e+00,1.606150627136230469e+00,1.606018543243408203e+00,1.605886459350585938e+00,1.605754613876342773e+00,1.605622649192810059e+00,1.605490803718566895e+00,1.605358839035034180e+00,1.605226874351501465e+00,1.605095028877258301e+00,1.604963183403015137e+00,1.604831457138061523e+00,1.604699611663818359e+00,1.604567766189575195e+00,1.604436159133911133e+00,1.604304313659667969e+00,1.604172706604003906e+00,1.604040980339050293e+00,1.603909254074096680e+00,1.603777647018432617e+00,1.603646039962768555e+00,1.603514552116394043e+00,1.603382825851440430e+00,1.603251218795776367e+00,1.603119850158691406e+00,1.602988243103027344e+00,1.602856874465942383e+00,1.602725267410278320e+00,1.602593779563903809e+00,1.602462410926818848e+00,1.602331042289733887e+00,1.602199673652648926e+00,1.602068305015563965e+00,1.601936817169189453e+00,1.601805686950683594e+00,1.601674318313598633e+00,1.601543068885803223e+00,1.601411819458007812e+00,1.601280450820922852e+00,1.601149439811706543e+00,1.601018190383911133e+00,1.600887060165405273e+00,1.600755810737609863e+00,1.600624680519104004e+00,1.600493669509887695e+00,1.600362539291381836e+00,1.600231528282165527e+00,1.600100517272949219e+00,1.599969387054443359e+00,1.599838376045227051e+00,1.599707365036010742e+00,1.599576592445373535e+00,1.599445581436157227e+00,1.599314570426940918e+00,1.599183797836303711e+00,1.599052906036376953e+00,1.598922133445739746e+00,1.598791241645812988e+00,1.598660349845886230e+00,1.598529696464538574e+00,1.598398804664611816e+00,1.598268151283264160e+00,1.598137378692626953e+00,1.598006606101989746e+00,1.597876071929931641e+00,1.597745418548583984e+00,1.597614765167236328e+00,1.597484111785888672e+00,1.597353458404541016e+00,1.597223043441772461e+00
1.467145085334777832e+00,1.467035055160522461e+00,1.466924786567687988e+00,1.466814756393432617e+00,1.466704607009887695e+00,1.466594457626342773e+00,1.466484546661376953e+00,1.466374397277832031e+00,1.466264486312866211e+00,1.466154336929321289e+00,1.466044306755065918e+00,1.465934395790100098e+00,1.465824365615844727e+00,1.465714454650878906e+00,1.465604543685913086e+00,1.465494513511657715e+00,1.465384721755981445e+00,1.465274810791015625e+00,1.465165019035339355e+00,1.465055108070373535e+00,1.464945197105407715e+00,1.464835405349731445e+00,1.464725613594055176e+00,1.464615941047668457e+00,1.464506030082702637e+00,1.464396238327026367e+00,1.464286565780639648e+00,1.464176774024963379e+00,1.464067220687866211e+00,1.463957428932189941e+00,1.463847756385803223e+00,1.463738203048706055e+00,1.463628411293029785e+00,1.463518857955932617e+00,1.463409304618835449e+00,1.463299632072448730e+00,1.463190078735351562e+00,1.463080525398254395e+00,1.462971091270446777e+00,1.462861418724060059e+00,1.462751865386962891e+00,1.462642550468444824e+00,1.462532997131347656e+00,1.462423563003540039e+00,1.462314128875732422e+00,1.462204575538635254e+00,1.462095260620117188e+00,1.461985826492309570e+00,1.461876511573791504e+00,1.461767196655273438e+00,1.461657762527465820e+00,1.461548566818237305e+00,1.461439132690429688e+00,1.461329936981201172e+00,1.461220622062683105e+00,1.461111426353454590e+00,1.461002111434936523e+00,1.460892796516418457e+00,1.460783720016479492e+00,1.460674405097961426e+00,1.460565328598022461e+00,1.460456132888793945e+00,1.460346937179565430e+00,1.460237860679626465e+00,1.460128664970397949e+00,1.460019707679748535e+00,1.459910511970520020e+00,1.459801435470581055e+00,1.459692478179931641e+00,1.459583401679992676e+00,1.459474444389343262e+00,1.459365367889404297e+00,1.459256410598754883e+00,1.459147453308105469e+00,1.459038496017456055e+00,1.458929657936096191e+00,1.458820581436157227e+00,1.458711624145507812e+00,1.458602905273437500e+00,1.458493947982788086e+00
1.349258303642272949e+00,1.349165081977844238e+00,1.349071979522705078e+00,1.348978877067565918e+00,1.348885655403137207e+00,1.348792672157287598e+00,1.348699450492858887e+00,1.348606467247009277e+00,1.348513364791870117e+00,1.348420262336730957e+00,1.348327279090881348e+00,1.348234176635742188e+00,1.348141193389892578e+00,1.348048210144042969e+00,1.347955107688903809e+00,1.347862243652343750e+00,1.347769260406494141e+00,1.347676277160644531e+00,1.347583293914794922e+00,1.347490429878234863e+00,1.347397565841674805e+00,1.347304582595825195e+00,1.347211837768554688e+00,1.347118854522705078e+00,1.347025990486145020e+00,1.346933126449584961e+00,1.346840262413024902e+00,1.346747517585754395e+00,1.346654653549194336e+00,1.346561789512634277e+00,1.346469163894653320e+00,1.346376299858093262e+00,1.346283555030822754e+00,1.346190810203552246e+00,1.346098065376281738e+00,1.346005320549011230e+00,1.345912575721740723e+00,1.345819950103759766e+00,1.345727205276489258e+00,1.345634579658508301e+00,1.345541954040527344e+00,1.345449209213256836e+00,1.345356702804565430e+00,1.345263957977294922e+00,1.345171332359313965e+00,1.345078825950622559e+00,1.344986200332641602e+00,1.344893693923950195e+00,1.344801068305969238e+00,1.344708442687988281e+00,1.344616055488586426e+00,1.344523429870605469e+00,1.344431042671203613e+00,1.344338417053222656e+00,1.344245910644531250e+00,1.344153523445129395e+00,1.344061017036437988e+00,1.343968629837036133e+00,1.343876242637634277e+00,1.343783736228942871e+00,1.343691349029541016e+00,1.343598961830139160e+00,1.343506574630737305e+00,1.343414187431335449e+00,1.343321800231933594e+00,1.343229532241821289e+00,1.343137145042419434e+00,1.343044877052307129e+00,1.342952609062194824e+00,1.342860221862792969e+00,1.342767953872680664e+00,1.342675685882568359e+00,1.342583537101745605e+00,1.342491269111633301e+00,1.342399001121520996e+00,1.342306733131408691e+00,1.342214584350585938e+00,1.342122435569763184e+00,1.342030167579650879e+00,1.341938018798828125e+00
1.248907089233398438e+00,1.248827219009399414e+00,1.248747467994689941e+00,1.248667716979980469e+00,1.248587965965270996e+00,1.248508095741271973e+00,1.248428344726562500e+00,1.248348593711853027e+00,1.248268842697143555e+00,1.248189091682434082e+00,1.248109340667724609e+00,1.248029589653015137e+00,1.247949957847595215e+00,1.247870206832885742e+00,1.247790575027465820e+00,1.247710943222045898e+00,1.247631192207336426e+00,1.247551560401916504e+00,1.247471928596496582e+00,1.247392296791076660e+00,1.247312664985656738e+00,1.247233033180236816e+00,1.247153520584106445e+00,1.247073888778686523e+00,1.246994256973266602e+00,1.246914744377136230e+00,1.246835112571716309e+00,1.246755599975585938e+00,1.246675968170166016e+00,1.246596574783325195e+00,1.246516942977905273e+00,1.246437430381774902e+00,1.246357917785644531e+00,1.246278405189514160e+00,1.246199011802673340e+00,1.246119499206542969e+00,1.246039986610412598e+00,1.245960593223571777e+00,1.245881080627441406e+00,1.245801806449890137e+00,1.245722293853759766e+00,1.245642900466918945e+00,1.245563507080078125e+00,1.245484113693237305e+00,1.245404720306396484e+00,1.245325326919555664e+00,1.245246052742004395e+00,1.245166659355163574e+00,1.245087265968322754e+00,1.245007991790771484e+00,1.244928598403930664e+00,1.244849324226379395e+00,1.244770050048828125e+00,1.244690656661987305e+00,1.244611501693725586e+00,1.244532227516174316e+00,1.244452953338623047e+00,1.244373679161071777e+00,1.244294404983520508e+00,1.244215250015258789e+00,1.244135975837707520e+00,1.244056820869445801e+00,1.243977546691894531e+00,1.243898391723632812e+00,1.243819236755371094e+00,1.243740081787109375e+00,1.243660926818847656e+00,1.243581771850585938e+00,1.243502616882324219e+00,1.243423461914062500e+00,1.243344306945800781e+00,1.243265271186828613e+00,1.243186116218566895e+00,1.243107080459594727e+00,1.243028044700622559e+00,1.242948889732360840e+00,1.242869853973388672e+00,1.242790818214416504e+00,1.242711782455444336e+00,1.242632746696472168e+00
1.162449836730957031e+00,1.162380695343017578e+00,1.162311553955078125e+00,1.162242412567138672e+00,1.162173271179199219e+00,1.162104129791259766e+00,1.162035107612609863e+00,1.161965966224670410e+00,1.161896944046020508e+00,1.161827802658081055e+00,1.161758661270141602e+00,1.161689639091491699e+00,1.161620616912841797e+00,1.161551594734191895e+00,1.161482453346252441e+00,1.161413431167602539e+00,1.161344408988952637e+00,1.161275386810302734e+00,1.161206483840942383e+00,1.161137461662292480e+00,1.161068439483642578e+00,1.160999417304992676e+00,1.160930395126342773e+00,1.160861492156982422e+00,1.160792469978332520e+00,1.160723567008972168e+00,1.160654664039611816e+00,1.160585641860961914e+00,1.160516738891601562e+00,1.160447835922241211e+00,1.160378932952880859e+00,1.160310029983520508e+00,1.160241127014160156e+00,1.160172224044799805e+00,1.160103321075439453e+00,1.160034418106079102e+00,1.159965634346008301e+00,1.159896731376647949e+00,1.159827947616577148e+00,1.159759044647216797e+00,1.159690141677856445e+00,1.159621357917785645e+00,1.159552574157714844e+00,1.159483790397644043e+00,1.159415006637573242e+00,1.159346103668212891e+00,1.159277439117431641e+00,1.159208655357360840e+00,1.159139871597290039e+00,1.159071087837219238e+00,1.159002304077148438e+00,1.158933639526367188e+00,1.158864855766296387e+00,1.158796191215515137e+00,1.158727407455444336e+00,1.158658742904663086e+00,1.158590078353881836e+00,1.158521294593811035e+00,1.158452630043029785e+00,1.158383965492248535e+00,1.158315300941467285e+00,1.158246636390686035e+00,1.158177971839904785e+00,1.158109426498413086e+00,1.158040761947631836e+00,1.157972097396850586e+00,1.157903552055358887e+00,1.157834887504577637e+00,1.157766342163085938e+00,1.157697677612304688e+00,1.157629132270812988e+00,1.157560586929321289e+00,1.157491922378540039e+00,1.157423377037048340e+00,1.157354831695556641e+00,1.157286286354064941e+00,1.157217741012573242e+00,1.157149195671081543e+00,1.157080769538879395e+00,1.157012224197387695e+00
1.087187767028808594e+00,1.087127327919006348e+00,1.087066769599914551e+00,1.087006330490112305e+00,1.086945891380310059e+00,1.086885452270507812e+00,1.086825013160705566e+00,1.086764454841613770e+00,1.086704134941101074e+00,1.086643695831298828e+00,1.086583256721496582e+00,1.086522817611694336e+00,1.086462378501892090e+00,1.086402058601379395e+00,1.086341619491577148e+00,1.086281180381774902e+00,1.086220860481262207e+00,1.086160421371459961e+00,1.086100101470947266e+00,1.086039662361145020e+00,1.085979342460632324e+00,1.085919022560119629e+00,1.085858583450317383e+00,1.085798382759094238e+00,1.085737943649291992e+00,1.085677742958068848e+00,1.085617303848266602e+00,1.085557103157043457e+00,1.085496783256530762e+00,1.085436463356018066e+00,1.085376143455505371e+00,1.085315823554992676e+00,1.085255622863769531e+00,1.085195302963256836e+00,1.085134983062744141e+00,1.085074782371520996e+00,1.085014581680297852e+00,1.084954380989074707e+00,1.084894061088562012e+00,1.084833860397338867e+00,1.084773659706115723e+00,1.084713339805603027e+00,1.084653258323669434e+00,1.084592938423156738e+00,1.084532737731933594e+00,1.084472656250000000e+00,1.084412336349487305e+00,1.084352254867553711e+00,1.084292054176330566e+00,1.084231853485107422e+00,1.084171772003173828e+00,1.084111571311950684e+00,1.084051489830017090e+00,1.083991289138793945e+00,1.083931207656860352e+00,1.083871126174926758e+00,1.083810925483703613e+00,1.083750844001770020e+00,1.083690762519836426e+00,1.083630561828613281e+00,1.083570599555969238e+00,1.083510398864746094e+00,1.083450436592102051e+00,1.083390355110168457e+00,1.083330154418945312e+00,1.083270192146301270e+00,1.083210110664367676e+00,1.083150148391723633e+00,1.083090066909790039e+00,1.083029985427856445e+00,1.082970023155212402e+00,1.082909941673278809e+00,1.082849979400634766e+00,1.082789897918701172e+00,1.082729935646057129e+00,1.082669973373413086e+00,1.082610011100769043e+00,1.082550048828125000e+00,1.082489967346191406e+00,1.082430005073547363e+00
1.021078705787658691e+00,1.021025300025939941e+00,1.020972013473510742e+00,1.020918726921081543e+00,1.020865321159362793e+00,1.020812034606933594e+00,1.020758628845214844e+00,1.020705342292785645e+00,1.020652055740356445e+00,1.020598769187927246e+00,1.020545482635498047e+00,1.020492076873779297e+00,1.020438909530639648e+00,1.020385503768920898e+00,1.020332336425781250e+00,1.020279049873352051e+00,1.020225763320922852e+00,1.020172476768493652e+00,1.020119190216064453e+00,1.020066022872924805e+00,1.020012736320495605e+00,1.019959449768066406e+00,1.019906282424926758e+00,1.019852995872497559e+00,1.019799828529357910e+00,1.019746541976928711e+00,1.019693374633789062e+00,1.019640207290649414e+00,1.019586920738220215e+00,1.019533753395080566e+00,1.019480586051940918e+00,1.019427299499511719e+00,1.019374251365661621e+00,1.019320964813232422e+00,1.019267916679382324e+00,1.019214630126953125e+00,1.019161462783813477e+00,1.019108414649963379e+00,1.019055247306823730e+00,1.019002079963684082e+00,1.018948912620544434e+00,1.018895745277404785e+00,1.018842697143554688e+00,1.018789529800415039e+00,1.018736481666564941e+00,1.018683314323425293e+00,1.018630146980285645e+00,1.018577098846435547e+00,1.018524050712585449e+00,1.018471002578735352e+00,1.018417835235595703e+00,1.018364787101745605e+00,1.018311738967895508e+00,1.018258690834045410e+00,1.018205642700195312e+00,1.018152594566345215e+00,1.018099427223205566e+00,1.018046498298645020e+00,1.017993450164794922e+00,1.017940402030944824e+00,1.017887353897094727e+00,1.017834305763244629e+00,1.017781376838684082e+00,1.017728328704833984e+00,1.017675280570983887e+00,1.017622351646423340e+00,1.017569303512573242e+00,1.017516374588012695e+00,1.017463326454162598e+00,1.017410397529602051e+00,1.017357349395751953e+00,1.017304420471191406e+00,1.017251491546630859e+00,1.017198443412780762e+00,1.017145633697509766e+00,1.017092585563659668e+00,1.017039656639099121e+00,1.016986727714538574e+00,1.016933798789978027e+00,1.016880869865417480e+00
9.625487327575683594e-01,9.625013470649719238e-01,9.624538421630859375e-01,9.624064564704895020e-01,9.623590707778930664e-01,9.623116254806518555e-01,9.622642397880554199e-01,9.622169137001037598e-01,9.621695876121520996e-01,9.621221423149108887e-01,9.620747566223144531e-01,9.620274305343627930e-01,9.619799852371215820e-01,9.619327187538146973e-01,9.618853926658630371e-01,9.618379473686218262e-01,9.617906212806701660e-01,9.617433547973632812e-01,9.616960287094116211e-01,9.616486430168151855e-01,9.616013169288635254e-01,9.615540504455566406e-01,9.615066647529602051e-01,9.614593982696533203e-01,9.614121317863464355e-01,9.613647460937500000e-01,9.613174796104431152e-01,9.612702131271362305e-01,9.612229466438293457e-01,9.611756205558776855e-01,9.611283540725708008e-01,9.610811471939086914e-01,9.610337615013122559e-01,9.609865546226501465e-01,9.609392881393432617e-01,9.608919620513916016e-01,9.608447551727294922e-01,9.607975482940673828e-01,9.607503414154052734e-01,9.607030153274536133e-01,9.606558680534362793e-01,9.606086611747741699e-01,9.605613350868225098e-01,9.605141878128051758e-01,9.604669809341430664e-01,9.604197144508361816e-01,9.603725075721740723e-01,9.603253602981567383e-01,9.602782130241394043e-01,9.602309465408325195e-01,9.601837992668151855e-01,9.601366519927978516e-01,9.600893855094909668e-01,9.600422382354736328e-01,9.599950909614562988e-01,9.599478840827941895e-01,9.599007368087768555e-01,9.598536491394042969e-01,9.598065018653869629e-01,9.597592949867248535e-01,9.597122073173522949e-01,9.596650600433349609e-01,9.596179127693176270e-01,9.595707654953002930e-01,9.595236778259277344e-01,9.594765305519104004e-01,9.594294428825378418e-01,9.593823552131652832e-01,9.593352675437927246e-01,9.592881202697753906e-01,9.592410326004028320e-01,9.591940045356750488e-01,9.591468572616577148e-01,9.590997695922851562e-01,9.590527415275573730e-01,9.590055942535400391e-01,9.589585661888122559e-01,9.589115381240844727e-01,9.588645100593566895e-01,9.588174223899841309e-01
9.103649854660034180e-01,9.103224873542785645e-01,9.102801084518432617e-01,9.102377295494079590e-01,9.101952910423278809e-01,9.101529121398925781e-01,9.101105332374572754e-01,9.100680947303771973e-01,9.100257158279418945e-01,9.099833965301513672e-01,9.099410176277160645e-01,9.098985791206359863e-01,9.098562598228454590e-01,9.098139405250549316e-01,9.097715020179748535e-01,9.097291827201843262e-01,9.096868038177490234e-01,9.096444249153137207e-01,9.096021056175231934e-01,9.095597863197326660e-01,9.095174670219421387e-01,9.094750881195068359e-01,9.094327688217163086e-01,9.093905091285705566e-01,9.093480706214904785e-01,9.093058109283447266e-01,9.092635512351989746e-01,9.092211723327636719e-01,9.091788530349731445e-01,9.091365933418273926e-01,9.090943336486816406e-01,9.090519547462463379e-01,9.090096950531005859e-01,9.089674353599548340e-01,9.089251160621643066e-01,9.088828563690185547e-01,9.088405966758728027e-01,9.087982773780822754e-01,9.087560176849365234e-01,9.087138175964355469e-01,9.086715579032897949e-01,9.086292386054992676e-01,9.085870385169982910e-01,9.085448384284973145e-01,9.085025191307067871e-01,9.084603190422058105e-01,9.084181189537048340e-01,9.083757996559143066e-01,9.083335995674133301e-01,9.082913994789123535e-01,9.082492589950561523e-01,9.082069396972656250e-01,9.081647396087646484e-01,9.081225991249084473e-01,9.080803394317626953e-01,9.080381393432617188e-01,9.079959988594055176e-01,9.079537391662597656e-01,9.079115390777587891e-01,9.078693985939025879e-01,9.078272581100463867e-01,9.077849984169006348e-01,9.077428579330444336e-01,9.077007174491882324e-01,9.076585173606872559e-01,9.076163768768310547e-01,9.075742363929748535e-01,9.075321555137634277e-01,9.074898958206176758e-01,9.074478149414062500e-01,9.074056744575500488e-01,9.073634743690490723e-01,9.073213934898376465e-01,9.072793126106262207e-01,9.072371125221252441e-01,9.071950316429138184e-01,9.071528911590576172e-01,9.071108102798461914e-01,9.070686697959899902e-01,9.070265889167785645e-01
8.635483384132385254e-01,8.635101914405822754e-01,8.634721040725708008e-01,8.634338378906250000e-01,8.633957505226135254e-01,8.633576035499572754e-01,8.633193969726562500e-01,8.632813096046447754e-01,8.632431626319885254e-01,8.632050752639770508e-01,8.631668686866760254e-01,8.631287813186645508e-01,8.630906939506530762e-01,8.630524873733520508e-01,8.630144000053405762e-01,8.629763126373291016e-01,8.629381656646728516e-01,8.629000782966613770e-01,8.628619909286499023e-01,8.628239035606384277e-01,8.627857565879821777e-01,8.627476692199707031e-01,8.627096414566040039e-01,8.626714944839477539e-01,8.626334071159362793e-01,8.625953793525695801e-01,8.625572323799133301e-01,8.625192046165466309e-01,8.624811172485351562e-01,8.624430894851684570e-01,8.624049425125122070e-01,8.623669147491455078e-01,8.623288869857788086e-01,8.622907996177673340e-01,8.622527718544006348e-01,8.622147440910339355e-01,8.621766567230224609e-01,8.621386289596557617e-01,8.621006011962890625e-01,8.620626330375671387e-01,8.620244860649108887e-01,8.619865179061889648e-01,8.619484901428222656e-01,8.619104623794555664e-01,8.618724346160888672e-01,8.618344664573669434e-01,8.617963790893554688e-01,8.617584109306335449e-01,8.617204427719116211e-01,8.616824746131896973e-01,8.616443872451782227e-01,8.616064190864562988e-01,8.615684509277343750e-01,8.615304231643676758e-01,8.614924550056457520e-01,8.614544868469238281e-01,8.614164590835571289e-01,8.613784909248352051e-01,8.613405823707580566e-01,8.613026142120361328e-01,8.612645864486694336e-01,8.612266778945922852e-01,8.611887693405151367e-01,8.611507415771484375e-01,8.611128330230712891e-01,8.610748648643493652e-01,8.610368967056274414e-01,8.609989881515502930e-01,8.609610795974731445e-01,8.609231710433959961e-01,8.608851432800292969e-01,8.608472347259521484e-01,8.608093857765197754e-01,8.607713580131530762e-01,8.607335090637207031e-01,8.606956005096435547e-01,8.606576323509216309e-01,8.606197834014892578e-01,8.605818748474121094e-01,8.605440258979797363e-01
8.213114738464355469e-01,8.212770223617553711e-01,8.212424516677856445e-01,8.212079405784606934e-01,8.211734294891357422e-01,8.211389183998107910e-01,8.211044073104858398e-01,8.210699558258056641e-01,8.210353851318359375e-01,8.210009336471557617e-01,8.209664225578308105e-01,8.209319710731506348e-01,8.208974599838256836e-01,8.208629488945007324e-01,8.208284974098205566e-01,8.207939863204956055e-01,8.207595348358154297e-01,8.207250833511352539e-01,8.206905722618103027e-01,8.206561207771301270e-01,8.206216692924499512e-01,8.205872178077697754e-01,8.205527067184448242e-01,8.205183148384094238e-01,8.204838633537292480e-01,8.204493522644042969e-01,8.204149603843688965e-01,8.203805088996887207e-01,8.203459978103637695e-01,8.203116059303283691e-01,8.202772140502929688e-01,8.202427625656127930e-01,8.202083110809326172e-01,8.201739192008972168e-01,8.201394677162170410e-01,8.201050162315368652e-01,8.200706243515014648e-01,8.200362324714660645e-01,8.200017809867858887e-01,8.199673891067504883e-01,8.199329972267150879e-01,8.198986053466796875e-01,8.198641538619995117e-01,8.198297619819641113e-01,8.197954297065734863e-01,8.197609782218933105e-01,8.197265863418579102e-01,8.196922540664672852e-01,8.196578621864318848e-01,8.196234107017517090e-01,8.195890784263610840e-01,8.195547461509704590e-01,8.195202946662902832e-01,8.194859623908996582e-01,8.194516301155090332e-01,8.194171786308288574e-01,8.193828463554382324e-01,8.193485140800476074e-01,8.193141818046569824e-01,8.192797899246215820e-01,8.192454576492309570e-01,8.192111253738403320e-01,8.191767334938049316e-01,8.191424012184143066e-01,8.191081285476684570e-01,8.190737366676330566e-01,8.190394043922424316e-01,8.190050721168518066e-01,8.189707994461059570e-01,8.189364075660705566e-01,8.189021348953247070e-01,8.188678026199340820e-01,8.188334703445434570e-01,8.187991380691528320e-01,8.187648653984069824e-01,8.187305331230163574e-01,8.186962604522705078e-01,8.186619877815246582e-01,8.186277151107788086e-01,8.185933232307434082e-01
7.830137014389038086e-01,7.829822897911071777e-01,7.829509377479553223e-01,7.829195857048034668e-01,7.828881740570068359e-01,7.828568220138549805e-01,7.828254699707031250e-01,7.827940583229064941e-01,7.827627062797546387e-01,7.827313542366027832e-01,7.827000617980957031e-01,7.826686501502990723e-01,7.826372981071472168e-01,7.826060056686401367e-01,7.825745940208435059e-01,7.825433015823364258e-01,7.825119495391845703e-01,7.824805974960327148e-01,7.824492454528808594e-01,7.824179530143737793e-01,7.823866605758666992e-01,7.823552489280700684e-01,7.823239564895629883e-01,7.822926640510559082e-01,7.822613120079040527e-01,7.822300195693969727e-01,7.821987271308898926e-01,7.821673750877380371e-01,7.821360826492309570e-01,7.821047902107238770e-01,7.820734977722167969e-01,7.820421457290649414e-01,7.820108532905578613e-01,7.819796204566955566e-01,7.819482684135437012e-01,7.819169759750366211e-01,7.818857431411743164e-01,7.818543910980224609e-01,7.818230986595153809e-01,7.817918658256530762e-01,7.817606329917907715e-01,7.817292809486389160e-01,7.816980481147766113e-01,7.816668152809143066e-01,7.816354632377624512e-01,7.816042304039001465e-01,7.815729975700378418e-01,7.815416455268859863e-01,7.815104126930236816e-01,7.814791798591613770e-01,7.814479470252990723e-01,7.814166545867919922e-01,7.813854217529296875e-01,7.813541889190673828e-01,7.813228964805603027e-01,7.812917232513427734e-01,7.812604904174804688e-01,7.812291979789733887e-01,7.811979651451110840e-01,7.811667919158935547e-01,7.811355590820312500e-01,7.811042666435241699e-01,7.810730934143066406e-01,7.810419201850891113e-01,7.810106277465820312e-01,7.809794545173645020e-01,7.809482216835021973e-01,7.809169888496398926e-01,7.808858156204223633e-01,7.808545827865600586e-01,7.808234095573425293e-01,7.807921767234802246e-01,7.807610034942626953e-01,7.807298302650451660e-01,7.806985974311828613e-01,7.806674242019653320e-01,7.806362509727478027e-01,7.806050181388854980e-01,7.805738449096679688e-01,7.805426716804504395e-01
7.481283545494079590e-01,7.480996847152709961e-01,7.480710744857788086e-01,7.480424046516418457e-01,7.480137944221496582e-01,7.479851841926574707e-01,7.479565143585205078e-01,7.479279041290283203e-01,7.478992938995361328e-01,7.478706240653991699e-01,7.478420138359069824e-01,7.478134036064147949e-01,7.477847933769226074e-01,7.477561235427856445e-01,7.477275729179382324e-01,7.476989626884460449e-01,7.476702928543090820e-01,7.476417422294616699e-01,7.476131319999694824e-01,7.475844621658325195e-01,7.475559115409851074e-01,7.475273013114929199e-01,7.474987506866455078e-01,7.474700808525085449e-01,7.474415302276611328e-01,7.474129796028137207e-01,7.473843097686767578e-01,7.473557591438293457e-01,7.473272085189819336e-01,7.472986578941345215e-01,7.472699880599975586e-01,7.472414374351501465e-01,7.472128868103027344e-01,7.471842765808105469e-01,7.471557259559631348e-01,7.471271753311157227e-01,7.470985651016235352e-01,7.470700144767761230e-01,7.470414638519287109e-01,7.470129728317260742e-01,7.469843626022338867e-01,7.469558119773864746e-01,7.469272613525390625e-01,7.468987107276916504e-01,7.468701601028442383e-01,7.468416094779968262e-01,7.468130588531494141e-01,7.467845082283020020e-01,7.467560172080993652e-01,7.467274665832519531e-01,7.466989159584045410e-01,7.466703653335571289e-01,7.466418743133544922e-01,7.466133236885070801e-01,7.465847730636596680e-01,7.465562820434570312e-01,7.465277314186096191e-01,7.464992403984069824e-01,7.464706897735595703e-01,7.464421987533569336e-01,7.464136481285095215e-01,7.463851571083068848e-01,7.463566660881042480e-01,7.463281154632568359e-01,7.462996244430541992e-01,7.462711334228515625e-01,7.462426424026489258e-01,7.462141513824462891e-01,7.461856603622436523e-01,7.461571693420410156e-01,7.461286187171936035e-01,7.461001873016357422e-01,7.460716962814331055e-01,7.460432052612304688e-01,7.460147142410278320e-01,7.459862232208251953e-01,7.459577322006225586e-01,7.459292411804199219e-01,7.459008097648620605e-01,7.458723783493041992e-01
7.162188887596130371e-01,7.161926627159118652e-01,7.161663770675659180e-01,7.161401510238647461e-01,7.161139249801635742e-01,7.160876393318176270e-01,7.160614132881164551e-01,7.160351872444152832e-01,7.160089015960693359e-01,7.159827351570129395e-01,7.159565091133117676e-01,7.159302830696105957e-01,7.159039974212646484e-01,7.158777713775634766e-01,7.158516049385070801e-01,7.158253192901611328e-01,7.157990932464599609e-01,7.157729268074035645e-01,7.157466411590576172e-01,7.157204747200012207e-01,7.156942486763000488e-01,7.156680822372436523e-01,7.156417965888977051e-01,7.156156301498413086e-01,7.155894041061401367e-01,7.155631780624389648e-01,7.155370116233825684e-01,7.155108451843261719e-01,7.154845595359802246e-01,7.154583930969238281e-01,7.154322266578674316e-01,7.154060602188110352e-01,7.153798341751098633e-01,7.153536677360534668e-01,7.153275012969970703e-01,7.153012752532958984e-01,7.152750492095947266e-01,7.152489423751831055e-01,7.152227163314819336e-01,7.151965498924255371e-01,7.151703834533691406e-01,7.151442170143127441e-01,7.151179909706115723e-01,7.150918245315551758e-01,7.150657176971435547e-01,7.150394916534423828e-01,7.150133252143859863e-01,7.149872183799743652e-01,7.149609923362731934e-01,7.149348855018615723e-01,7.149087190628051758e-01,7.148826122283935547e-01,7.148563861846923828e-01,7.148302793502807617e-01,7.148041129112243652e-01,7.147779464721679688e-01,7.147518396377563477e-01,7.147256731986999512e-01,7.146995067596435547e-01,7.146733999252319336e-01,7.146472334861755371e-01,7.146211266517639160e-01,7.145949602127075195e-01,7.145688533782958984e-01,7.145427465438842773e-01,7.145165801048278809e-01,7.144904732704162598e-01,7.144643664360046387e-01,7.144381999969482422e-01,7.144120931625366211e-01,7.143859863281250000e-01,7.143598794937133789e-01,7.143337130546569824e-01,7.143076658248901367e-01,7.142815589904785156e-01,7.142553925514221191e-01,7.142292857170104980e-01,7.142032384872436523e-01,7.141770720481872559e-01,7.141509652137756348e-01
