5.000000000000000000e+00,5.000000000000000000e+00,5.000000000000000000e+00,5.000000000000000000e+00,5.000000000000000000e+00,5.000000000000000000e+00,5.000000000000000000e+00,5.000000000000000000e+00,5.000000000000000000e+00,5.000000000000000000e+00,5.000000000000000000e+00,5.000000000000000000e+00,5.000000000000000000e+00,5.000000000000000000e+00,5.000000000000000000e+00,5.000000000000000000e+00,5.000000000000000000e+00,5.000000000000000000e+00,5.000000000000000000e+00,5.000000000000000000e+00,5.000000000000000000e+00,5.000000000000000000e+00,5.000000000000000000e+00,5.000000000000000000e+00,5.000000000000000000e+00,5.000000000000000000e+00,5.000000000000000000e+00,5.000000000000000000e+00,5.000000000000000000e+00,5.000000000000000000e+00,5.000000000000000000e+00,5.000000000000000000e+00,5.000000000000000000e+00,5.000000000000000000e+00,5.000000000000000000e+00,5.000000000000000000e+00,5.000000000000000000e+00,5.000000000000000000e+00,5.000000000000000000e+00,4.867255687713623047e+00,4.675856590270996094e+00,4.498941898345947266e+00,4.334925651550292969e+00,4.182447910308837891e+00,4.040332794189453125e+00,3.907557725906372070e+00,3.783231735229492188e+00,3.666573286056518555e+00,3.556893587112426758e+00,3.453585386276245117e+00,3.356109142303466797e+00,3.263983726501464844e+00,3.176781415939331055e+00,3.094117164611816406e+00,3.015645980834960938e+00,2.941056251525878906e+00,2.870067596435546875e+00,2.802425146102905273e+00,2.737897396087646484e+00,2.676274776458740234e+00,2.617364883422851562e+00,2.560992479324340820e+00,2.506997108459472656e+00,2.455231666564941406e+00,2.405560731887817383e+00,2.357859849929809570e+00,2.312013626098632812e+00,2.267916440963745117e+00,2.225469827651977539e+00,2.184582948684692383e+00,2.145171403884887695e+00,2.107156515121459961e+00,2.070465564727783203e+00,2.035030603408813477e+00,2.000787973403930664e+00,1.967679023742675781e+00,1.935647606849670410e+00,1.904642462730407715e+00,1.874614953994750977e+00,1.845519542694091797e+00
5.000000000000000000e+00,5.000000000000000000e+00,5.000000000000000000e+00,5.000000000000000000e+00,5.000000000000000000e+00,5.000000000000000000e+00,5.000000000000000000e+00,5.000000000000000000e+00,5.000000000000000000e+00,5.000000000000000000e+00,5.000000000000000000e+00,5.000000000000000000e+00,5.000000000000000000e+00,5.000000000000000000e+00,5.000000000000000000e+00,5.000000000000000000e+00,5.000000000000000000e+00,5.000000000000000000e+00,5.000000000000000000e+00,5.000000000000000000e+00,5.000000000000000000e+00,5.000000000000000000e+00,5.000000000000000000e+00,5.000000000000000000e+00,5.000000000000000000e+00,5.000000000000000000e+00,5.000000000000000000e+00,5.000000000000000000e+00,5.000000000000000000e+00,5.000000000000000000e+00,5.000000000000000000e+00,5.000000000000000000e+00,5.000000000000000000e+00,5.000000000000000000e+00,5.000000000000000000e+00,5.000000000000000000e+00,5.000000000000000000e+00,5.000000000000000000e+00,5.000000000000000000e+00,4.867395401000976562e+00,4.675985813140869141e+00,4.499061107635498047e+00,4.335037231445312500e+00,4.182551383972167969e+00,4.040429115295410156e+00,3.907648086547851562e+00,3.783316135406494141e+00,3.666652441024780273e+00,3.556968688964843750e+00,3.453655719757080078e+00,3.356175422668457031e+00,3.264046907424926758e+00,3.176841020584106445e+00,3.094173669815063477e+00,3.015699625015258789e+00,2.941107273101806641e+00,2.870116233825683594e+00,2.802471637725830078e+00,2.737941980361938477e+00,2.676317214965820312e+00,2.617405414581298828e+00,2.561031341552734375e+00,2.507034301757812500e+00,2.455267429351806641e+00,2.405595064163208008e+00,2.357892513275146484e+00,2.312045097351074219e+00,2.267946720123291016e+00,2.225498914718627930e+00,2.184611082077026367e+00,2.145198583602905273e+00,2.107182741165161133e+00,2.070490837097167969e+00,2.035055160522460938e+00,2.000811815261840820e+00,1.967701792716979980e+00,1.935669779777526855e+00,1.904664039611816406e+00,1.874635696411132812e+00,1.845539569854736328e+00
5.000000000000000000e+00,5.000000000000000000e+00,5.000000000000000000e+00,5.000000000000000000e+00,5.000000000000000000e+00,5.000000000000000000e+00,5.000000000000000000e+00,5.000000000000000000e+00,5.000000000000000000e+00,5.000000000000000000e+00,5.000000000000000000e+00,5.000000000000000000e+00,5.000000000000000000e+00,5.000000000000000000e+00,5.000000000000000000e+00,5.000000000000000000e+00,5.000000000000000000e+00,5.000000000000000000e+00,5.000000000000000000e+00,5.000000000000000000e+00,5.000000000000000000e+00,5.000000000000000000e+00,5.000000000000000000e+00,5.000000000000000000e+00,5.000000000000000000e+00,5.000000000000000000e+00,5.000000000000000000e+00,5.000000000000000000e+00,5.000000000000000000e+00,5.000000000000000000e+00,5.000000000000000000e+00,5.000000000000000000e+00,5.000000000000000000e+00,5.000000000000000000e+00,5.000000000000000000e+00,5.000000000000000000e+00,5.000000000000000000e+00,5.000000000000000000e+00,5.000000000000000000e+00,4.867535591125488281e+00,4.676115036010742188e+00,4.499180793762207031e+00,4.335147857666015625e+00,4.182654857635498047e+00,4.040525436401367188e+00,3.907738208770751953e+00,3.783400774002075195e+00,3.666731834411621094e+00,3.557043313980102539e+00,3.453726530075073242e+00,3.356241941452026367e+00,3.264109849929809570e+00,3.176900863647460938e+00,3.094230175018310547e+00,3.015753269195556641e+00,2.941158771514892578e+00,2.870164871215820312e+00,2.802517890930175781e+00,2.737986326217651367e+00,2.676359415054321289e+00,2.617445707321166992e+00,2.561069965362548828e+00,2.507071256637573242e+00,2.455302953720092773e+00,2.405629158020019531e+00,2.357925415039062500e+00,2.312076807022094727e+00,2.267977237701416016e+00,2.225528478622436523e+00,2.184639453887939453e+00,2.145225763320922852e+00,2.107208967208862305e+00,2.070516109466552734e+00,2.035079479217529297e+00,2.000835418701171875e+00,1.967724680900573730e+00,1.935691833496093750e+00,1.904685497283935547e+00,1.874656438827514648e+00,1.845559716224670410e+00
5.000000000000000000e+00,5.000000000000000000e+00,5.000000000000000000e+00,5.000000000000000000e+00,5.000000000000000000e+00,5.000000000000000000e+00,5.000000000000000000e+00,5.000000000000000000e+00,5.000000000000000000e+00,5.000000000000000000e+00,5.000000000000000000e+00,5.000000000000000000e+00,5.000000000000000000e+00,5.000000000000000000e+00,5.000000000000000000e+00,5.000000000000000000e+00,5.000000000000000000e+00,5.000000000000000000e+00,5.000000000000000000e+00,5.000000000000000000e+00,5.000000000000000000e+00,5.000000000000000000e+00,5.000000000000000000e+00,5.000000000000000000e+00,5.000000000000000000e+00,5.000000000000000000e+00,5.000000000000000000e+00,5.000000000000000000e+00,5.000000000000000000e+00,5.000000000000000000e+00,5.000000000000000000e+00,5.000000000000000000e+00,5.000000000000000000e+00,5.000000000000000000e+00,5.000000000000000000e+00,5.000000000000000000e+00,5.000000000000000000e+00,5.000000000000000000e+00,5.000000000000000000e+00,4.867675304412841797e+00,4.676244258880615234e+00,4.499300479888916016e+00,4.335258960723876953e+00,4.182758331298828125e+00,4.040621757507324219e+00,3.907828330993652344e+00,3.783485651016235352e+00,3.666811227798461914e+00,3.557117938995361328e+00,3.453796863555908203e+00,3.356308460235595703e+00,3.264172792434692383e+00,3.176960229873657227e+00,3.094286680221557617e+00,3.015806913375854492e+00,2.941209793090820312e+00,2.870213747024536133e+00,2.802564382553100586e+00,2.738030433654785156e+00,2.676401853561401367e+00,2.617486238479614258e+00,2.561108589172363281e+00,2.507108688354492188e+00,2.455338478088378906e+00,2.405663251876831055e+00,2.357958316802978516e+00,2.312108278274536133e+00,2.268007516860961914e+00,2.225557565689086914e+00,2.184667587280273438e+00,2.145252943038940430e+00,2.107235193252563477e+00,2.070541620254516602e+00,2.035104036331176758e+00,2.000859022140502930e+00,1.967747569084167480e+00,1.935714006423950195e+00,1.904706835746765137e+00,1.874677181243896484e+00,1.845579862594604492e+00
5.000000000000000000e+00,5.000000000000000000e+00,5.000000000000000000e+00,5.000000000000000000e+00,5.000000000000000000e+00,5.000000000000000000e+00,5.000000000000000000e+00,5.000000000000000000e+00,5.000000000000000000e+00,5.000000000000000000e+00,5.000000000000000000e+00,5.000000000000000000e+00,5.000000000000000000e+00,5.000000000000000000e+00,5.000000000000000000e+00,5.000000000000000000e+00,5.000000000000000000e+00,5.000000000000000000e+00,5.000000000000000000e+00,5.000000000000000000e+00,5.000000000000000000e+00,5.000000000000000000e+00,5.000000000000000000e+00,5.000000000000000000e+00,5.000000000000000000e+00,5.000000000000000000e+00,5.000000000000000000e+00,5.000000000000000000e+00,5.000000000000000000e+00,5.000000000000000000e+00,5.000000000000000000e+00,5.000000000000000000e+00,5.000000000000000000e+00,5.000000000000000000e+00,5.000000000000000000e+00,5.000000000000000000e+00,5.000000000000000000e+00,5.000000000000000000e+00,5.000000000000000000e+00,4.867815494537353516e+00,4.676373481750488281e+00,4.499419689178466797e+00,4.335370063781738281e+00,4.182861804962158203e+00,4.040718555450439453e+00,3.907918453216552734e+00,3.783570051193237305e+00,3.666890859603881836e+00,3.557192564010620117e+00,3.453867435455322266e+00,3.356375217437744141e+00,3.264235496520996094e+00,3.177019834518432617e+00,3.094343423843383789e+00,3.015860557556152344e+00,2.941260814666748047e+00,2.870262384414672852e+00,2.802610635757446289e+00,2.738074779510498047e+00,2.676444053649902344e+00,2.617526769638061523e+00,2.561147451400756836e+00,2.507145643234252930e+00,2.455374240875244141e+00,2.405697345733642578e+00,2.357991218566894531e+00,2.312139987945556641e+00,2.268037796020507812e+00,2.225586891174316406e+00,2.184695720672607422e+00,2.145280122756958008e+00,2.107261419296264648e+00,2.070566892623901367e+00,2.035128355026245117e+00,2.000882625579833984e+00,1.967770457267761230e+00,1.935736298561096191e+00,1.904728293418884277e+00,1.874697923660278320e+00,1.845600128173828125e+00
5.000000000000000000e+00,5.000000000000000000e+00,5.000000000000000000e+00,5.000000000000000000e+00,5.000000000000000000e+00,5.000000000000000000e+00,5.000000000000000000e+00,5.000000000000000000e+00,5.000000000000000000e+00,5.000000000000000000e+00,5.000000000000000000e+00,5.000000000000000000e+00,5.000000000000000000e+00,5.000000000000000000e+00,5.000000000000000000e+00,5.000000000000000000e+00,5.000000000000000000e+00,5.000000000000000000e+00,5.000000000000000000e+00,5.000000000000000000e+00,5.000000000000000000e+00,5.000000000000000000e+00,5.000000000000000000e+00,5.000000000000000000e+00,5.000000000000000000e+00,5.000000000000000000e+00,5.000000000000000000e+00,5.000000000000000000e+00,5.000000000000000000e+00,5.000000000000000000e+00,5.000000000000000000e+00,5.000000000000000000e+00,5.000000000000000000e+00,5.000000000000000000e+00,5.000000000000000000e+00,5.000000000000000000e+00,5.000000000000000000e+00,5.000000000000000000e+00,5.000000000000000000e+00,4.867955207824707031e+00,4.676502704620361328e+00,4.499539852142333984e+00,4.335480690002441406e+00,4.182965278625488281e+00,4.040814876556396484e+00,3.908008575439453125e+00,3.783654451370239258e+00,3.666970252990722656e+00,3.557267189025878906e+00,3.453937768936157227e+00,3.356441736221313477e+00,3.264298677444458008e+00,3.177079439163208008e+00,3.094399929046630859e+00,3.015914440155029297e+00,2.941311836242675781e+00,2.870311021804809570e+00,2.802657127380371094e+00,2.738119125366210938e+00,2.676486492156982422e+00,2.617567300796508789e+00,2.561186075210571289e+00,2.507182836532592773e+00,2.455409765243530273e+00,2.405731678009033203e+00,2.358023881912231445e+00,2.312171459197998047e+00,2.268068313598632812e+00,2.225615978240966797e+00,2.184724092483520508e+00,2.145307302474975586e+00,2.107287645339965820e+00,2.070592164993286133e+00,2.035152912139892578e+00,2.000906229019165039e+00,1.967793226242065430e+00,1.935758352279663086e+00,1.904749631881713867e+00,1.874718666076660156e+00,1.845620274543762207e+00
5.000000000000000000e+00,5.000000000000000000e+00,5.000000000000000000e+00,5.000000000000000000e+00,5.000000000000000000e+00,5.000000000000000000e+00,5.000000000000000000e+00,5.000000000000000000e+00,5.000000000000000000e+00,5.000000000000000000e+00,5.000000000000000000e+00,5.000000000000000000e+00,5.000000000000000000e+00,5.000000000000000000e+00,5.000000000000000000e+00,5.000000000000000000e+00,5.000000000000000000e+00,5.000000000000000000e+00,5.000000000000000000e+00,5.000000000000000000e+00,5.000000000000000000e+00,5.000000000000000000e+00,5.000000000000000000e+00,5.000000000000000000e+00,5.000000000000000000e+00,5.000000000000000000e+00,5.000000000000000000e+00,5.000000000000000000e+00,5.000000000000000000e+00,5.000000000000000000e+00,5.000000000000000000e+00,5.000000000000000000e+00,5.000000000000000000e+00,5.000000000000000000e+00,5.000000000000000000e+00,5.000000000000000000e+00,5.000000000000000000e+00,5.000000000000000000e+00,5.000000000000000000e+00,4.868095397949218750e+00,4.676631927490234375e+00,4.499659061431884766e+00,4.335592269897460938e+00,4.183068275451660156e+00,4.040911197662353516e+00,3.908099174499511719e+00,3.783739089965820312e+00,3.667049646377563477e+00,3.557342290878295898e+00,3.454008102416992188e+00,3.356508255004882812e+00,3.264361619949340820e+00,3.177139043807983398e+00,3.094456434249877930e+00,3.015968084335327148e+00,2.941363096237182617e+00,2.870359659194946289e+00,2.802703619003295898e+00,2.738163471221923828e+00,2.676528692245483398e+00,2.617607593536376953e+00,2.561224937438964844e+00,2.507220029830932617e+00,2.455445289611816406e+00,2.405766010284423828e+00,2.358056783676147461e+00,2.312203168869018555e+00,2.268098831176757812e+00,2.225645303726196289e+00,2.184752225875854492e+00,2.145334482192993164e+00,2.107314109802246094e+00,2.070617437362670898e+00,2.035177469253540039e+00,2.000930070877075195e+00,1.967816114425659180e+00,1.935780525207519531e+00,1.904771089553833008e+00,1.874739408493041992e+00,1.845640301704406738e+00
5.000000000000000000e+00,5.000000000000000000e+00,5.000000000000000000e+00,5.000000000000000000e+00,5.000000000000000000e+00,5.000000000000000000e+00,5.000000000000000000e+00,5.000000000000000000e+00,5.000000000000000000e+00,5.000000000000000000e+00,5.000000000000000000e+00,5.000000000000000000e+00,5.000000000000000000e+00,5.000000000000000000e+00,5.000000000000000000e+00,5.000000000000000000e+00,5.000000000000000000e+00,5.000000000000000000e+00,5.000000000000000000e+00,5.000000000000000000e+00,5.000000000000000000e+00,5.000000000000000000e+00,5.000000000000000000e+00,5.000000000000000000e+00,5.000000000000000000e+00,5.000000000000000000e+00,5.000000000000000000e+00,5.000000000000000000e+00,5.000000000000000000e+00,5.000000000000000000e+00,5.000000000000000000e+00,5.000000000000000000e+00,5.000000000000000000e+00,5.000000000000000000e+00,5.000000000000000000e+00,5.000000000000000000e+00,5.000000000000000000e+00,5.000000000000000000e+00,5.000000000000000000e+00,4.868235588073730469e+00,4.676761150360107422e+00,4.499778747558593750e+00,4.335702896118164062e+00,4.183171749114990234e+00,4.041007995605468750e+00,3.908189296722412109e+00,3.783823966979980469e+00,3.667129039764404297e+00,3.557416915893554688e+00,3.454078912734985352e+00,3.356574773788452148e+00,3.264424562454223633e+00,3.177198886871337891e+00,3.094512939453125000e+00,3.016021966934204102e+00,2.941414117813110352e+00,2.870408296585083008e+00,2.802749872207641602e+00,2.738207817077636719e+00,2.676570892333984375e+00,2.617648124694824219e+00,2.561263799667358398e+00,2.507257223129272461e+00,2.455481052398681641e+00,2.405800104141235352e+00,2.358089685440063477e+00,2.312234640121459961e+00,2.268129110336303711e+00,2.225674629211425781e+00,2.184780359268188477e+00,2.145361661911010742e+00,2.107340097427368164e+00,2.070642709732055664e+00,2.035201787948608398e+00,2.000953674316406250e+00,1.967839002609252930e+00,1.935802578926086426e+00,1.904792547225952148e+00,1.874760389328002930e+00,1.845660448074340820e+00
5.000000000000000000e+00,5.000000000000000000e+00,5.000000000000000000e+00,5.000000000000000000e+00,5.000000000000000000e+00,5.000000000000000000e+00,5.000000000000000000e+00,5.000000000000000000e+00,5.000000000000000000e+00,5.000000000000000000e+00,5.000000000000000000e+00,5.000000000000000000e+00,5.000000000000000000e+00,5.000000000000000000e+00,5.000000000000000000e+00,5.000000000000000000e+00,5.000000000000000000e+00,5.000000000000000000e+00,5.000000000000000000e+00,5.000000000000000000e+00,5.000000000000000000e+00,5.000000000000000000e+00,5.000000000000000000e+00,5.000000000000000000e+00,5.000000000000000000e+00,5.000000000000000000e+00,5.000000000000000000e+00,5.000000000000000000e+00,5.000000000000000000e+00,5.000000000000000000e+00,5.000000000000000000e+00,5.000000000000000000e+00,5.000000000000000000e+00,5.000000000000000000e+00,5.000000000000000000e+00,5.000000000000000000e+00,5.000000000000000000e+00,5.000000000000000000e+00,5.000000000000000000e+00,4.868375301361083984e+00,4.676890373229980469e+00,4.499898433685302734e+00,4.335814476013183594e+00,4.183275222778320312e+00,4.041104316711425781e+00,3.908279418945312500e+00,3.783908367156982422e+00,3.667208433151245117e+00,3.557491540908813477e+00,3.454149246215820312e+00,3.356641530990600586e+00,3.264487504959106445e+00,3.177258491516113281e+00,3.094569683074951172e+00,3.016075611114501953e+00,2.941465139389038086e+00,2.870457172393798828e+00,2.802796363830566406e+00,2.738251924514770508e+00,2.676613330841064453e+00,2.617688655853271484e+00,2.561302423477172852e+00,2.507294178009033203e+00,2.455516576766967773e+00,2.405834197998046875e+00,2.358122587203979492e+00,2.312266349792480469e+00,2.268159389495849609e+00,2.225703954696655273e+00,2.184808731079101562e+00,2.145388841629028320e+00,2.107366323471069336e+00,2.070668220520019531e+00,2.035226345062255859e+00,2.000977277755737305e+00,1.967862010002136230e+00,1.935824751853942871e+00,1.904813885688781738e+00,1.874781131744384766e+00,1.845680475234985352e+00
5.000000000000000000e+00,5.000000000000000000e+00,5.000000000000000000e+00,5.000000000000000000e+00,5.000000000000000000e+00,5.000000000000000000e+00,5.000000000000000000e+00,5.000000000000000000e+00,5.000000000000000000e+00,5.000000000000000000e+00,5.000000000000000000e+00,5.000000000000000000e+00,5.000000000000000000e+00,5.000000000000000000e+00,5.000000000000000000e+00,5.000000000000000000e+00,5.000000000000000000e+00,5.000000000000000000e+00,5.000000000000000000e+00,5.000000000000000000e+00,5.000000000000000000e+00,5.000000000000000000e+00,5.000000000000000000e+00,5.000000000000000000e+00,5.000000000000000000e+00,5.000000000000000000e+00,5.000000000000000000e+00,5.000000000000000000e+00,5.000000000000000000e+00,5.000000000000000000e+00,5.000000000000000000e+00,5.000000000000000000e+00,5.000000000000000000e+00,5.000000000000000000e+00,5.000000000000000000e+00,5.000000000000000000e+00,5.000000000000000000e+00,5.000000000000000000e+00,5.000000000000000000e+00,4.868515491485595703e+00,4.677019596099853516e+00,4.500018119812011719e+00,4.335925102233886719e+00,4.183378219604492188e+00,4.041200637817382812e+00,3.908369541168212891e+00,3.783993005752563477e+00,3.667288064956665039e+00,3.557566404342651367e+00,3.454219818115234375e+00,3.356708049774169922e+00,3.264550209045410156e+00,3.177318096160888672e+00,3.094626188278198242e+00,3.016129255294799805e+00,2.941516399383544922e+00,2.870505809783935547e+00,2.802842855453491211e+00,2.738296270370483398e+00,2.676655769348144531e+00,2.617729187011718750e+00,2.561341047286987305e+00,2.507331371307373047e+00,2.455552339553833008e+00,2.405868291854858398e+00,2.358155250549316406e+00,2.312297821044921875e+00,2.268189907073974609e+00,2.225733041763305664e+00,2.184836864471435547e+00,2.145416021347045898e+00,2.107392549514770508e+00,2.070693492889404297e+00,2.035250902175903320e+00,2.001000881195068359e+00,1.967884898185729980e+00,1.935846805572509766e+00,1.904835343360900879e+00,1.874801874160766602e+00,1.845700621604919434e+00
5.000000000000000000e+00,5.000000000000000000e+00,5.000000000000000000e+00,5.000000000000000000e+00,5.000000000000000000e+00,5.000000000000000000e+00,5.000000000000000000e+00,5.000000000000000000e+00,5.000000000000000000e+00,5.000000000000000000e+00,5.000000000000000000e+00,5.000000000000000000e+00,5.000000000000000000e+00,5.000000000000000000e+00,5.000000000000000000e+00,5.000000000000000000e+00,5.000000000000000000e+00,5.000000000000000000e+00,5.000000000000000000e+00,5.000000000000000000e+00,5.000000000000000000e+00,5.000000000000000000e+00,5.000000000000000000e+00,5.000000000000000000e+00,5.000000000000000000e+00,5.000000000000000000e+00,5.000000000000000000e+00,5.000000000000000000e+00,5.000000000000000000e+00,5.000000000000000000e+00,5.000000000000000000e+00,5.000000000000000000e+00,5.000000000000000000e+00,5.000000000000000000e+00,5.000000000000000000e+00,5.000000000000000000e+00,5.000000000000000000e+00,5.000000000000000000e+00,5.000000000000000000e+00,4.868655204772949219e+00,4.677148818969726562e+00,4.500137805938720703e+00,4.336036205291748047e+00,4.183481693267822266e+00,4.041296958923339844e+00,3.908460140228271484e+00,3.784077405929565430e+00,3.667367458343505859e+00,3.557641267776489258e+00,3.454290151596069336e+00,3.356774568557739258e+00,3.264613389968872070e+00,3.177377700805664062e+00,3.094682693481445312e+00,3.016183137893676758e+00,2.941567420959472656e+00,2.870554447174072266e+00,2.802889108657836914e+00,2.738340377807617188e+00,2.676697969436645508e+00,2.617769718170166016e+00,2.561380147933959961e+00,2.507368564605712891e+00,2.455587863922119141e+00,2.405902624130249023e+00,2.358188152313232422e+00,2.312329530715942383e+00,2.268220424652099609e+00,2.225762367248535156e+00,2.184864997863769531e+00,2.145443201065063477e+00,2.107418775558471680e+00,2.070718765258789062e+00,2.035275459289550781e+00,2.001024484634399414e+00,1.967907786369323730e+00,1.935868978500366211e+00,1.904856920242309570e+00,1.874822616577148438e+00,1.845720767974853516e+00
5.000000000000000000e+00,5.000000000000000000e+00,5.000000000000000000e+00,5.000000000000000000e+00,5.000000000000000000e+00,5.000000000000000000e+00,5.000000000000000000e+00,5.000000000000000000e+00,5.000000000000000000e+00,5.000000000000000000e+00,5.000000000000000000e+00,5.000000000000000000e+00,5.000000000000000000e+00,5.000000000000000000e+00,5.000000000000000000e+00,5.000000000000000000e+00,5.000000000000000000e+00,5.000000000000000000e+00,5.000000000000000000e+00,5.000000000000000000e+00,5.000000000000000000e+00,5.000000000000000000e+00,5.000000000000000000e+00,5.000000000000000000e+00,5.000000000000000000e+00,5.000000000000000000e+00,5.000000000000000000e+00,5.000000000000000000e+00,5.000000000000000000e+00,5.000000000000000000e+00,5.000000000000000000e+00,5.000000000000000000e+00,5.000000000000000000e+00,5.000000000000000000e+00,5.000000000000000000e+00,5.000000000000000000e+00,5.000000000000000000e+00,5.000000000000000000e+00,5.000000000000000000e+00,4.868795394897460938e+00,4.677278041839599609e+00,4.500257015228271484e+00,4.336147308349609375e+00,4.183585166931152344e+00,4.041393756866455078e+00,3.908550262451171875e+00,3.784161806106567383e+00,3.667446851730346680e+00,3.557716131210327148e+00,3.454360485076904297e+00,3.356841087341308594e+00,3.264676332473754883e+00,3.177437543869018555e+00,3.094739198684692383e+00,3.016236782073974609e+00,2.941618680953979492e+00,2.870603084564208984e+00,2.802935600280761719e+00,2.738384962081909180e+00,2.676740169525146484e+00,2.617810010910034180e+00,2.561418771743774414e+00,2.507405519485473633e+00,2.455623388290405273e+00,2.405936956405639648e+00,2.358221054077148438e+00,2.312361001968383789e+00,2.268250703811645508e+00,2.225791692733764648e+00,2.184893131256103516e+00,2.145470380783081055e+00,2.107445240020751953e+00,2.070744037628173828e+00,2.035299777984619141e+00,2.001048326492309570e+00,1.967930555343627930e+00,1.935891032218933105e+00,1.904878377914428711e+00,1.874843358993530273e+00,1.845740795135498047e+00
5.000000000000000000e+00,5.000000000000000000e+00,5.000000000000000000e+00,5.000000000000000000e+00,5.000000000000000000e+00,5.000000000000000000e+00,5.000000000000000000e+00,5.000000000000000000e+00,5.000000000000000000e+00,5.000000000000000000e+00,5.000000000000000000e+00,5.000000000000000000e+00,5.000000000000000000e+00,5.000000000000000000e+00,5.000000000000000000e+00,5.000000000000000000e+00,5.000000000000000000e+00,5.000000000000000000e+00,5.000000000000000000e+00,5.000000000000000000e+00,5.000000000000000000e+00,5.000000000000000000e+00,5.000000000000000000e+00,5.000000000000000000e+00,5.000000000000000000e+00,5.000000000000000000e+00,5.000000000000000000e+00,5.000000000000000000e+00,5.000000000000000000e+00,5.000000000000000000e+00,5.000000000000000000e+00,5.000000000000000000e+00,5.000000000000000000e+00,5.000000000000000000e+00,5.000000000000000000e+00,5.000000000000000000e+00,5.000000000000000000e+00,5.000000000000000000e+00,5.000000000000000000e+00,4.868935585021972656e+00,4.677407264709472656e+00,4.500377178192138672e+00,4.336258411407470703e+00,4.183688640594482422e+00,4.041490077972412109e+00,3.908640623092651367e+00,3.784246921539306641e+00,3.667526245117187500e+00,3.557790756225585938e+00,3.454431295394897461e+00,3.356907606124877930e+00,3.264739274978637695e+00,3.177497148513793945e+00,3.094795703887939453e+00,3.016290664672851562e+00,2.941669702529907227e+00,2.870651483535766602e+00,2.802981853485107422e+00,2.738429069519042969e+00,2.676782846450805664e+00,2.617850542068481445e+00,2.561457395553588867e+00,2.507442951202392578e+00,2.455659151077270508e+00,2.405971050262451172e+00,2.358253955841064453e+00,2.312392473220825195e+00,2.268280982971191406e+00,2.225821018218994141e+00,2.184921264648437500e+00,2.145497560501098633e+00,2.107471466064453125e+00,2.070769309997558594e+00,2.035324335098266602e+00,2.001071929931640625e+00,1.967953443527221680e+00,1.935913205146789551e+00,1.904899835586547852e+00,1.874864101409912109e+00,1.845760941505432129e+00
5.000000000000000000e+00,5.000000000000000000e+00,5.000000000000000000e+00,5.000000000000000000e+00,5.000000000000000000e+00,5.000000000000000000e+00,5.000000000000000000e+00,5.000000000000000000e+00,5.000000000000000000e+00,5.000000000000000000e+00,5.000000000000000000e+00,5.000000000000000000e+00,5.000000000000000000e+00,5.000000000000000000e+00,5.000000000000000000e+00,5.000000000000000000e+00,5.000000000000000000e+00,5.000000000000000000e+00,5.000000000000000000e+00,5.000000000000000000e+00,5.000000000000000000e+00,5.000000000000000000e+00,5.000000000000000000e+00,5.000000000000000000e+00,5.000000000000000000e+00,5.000000000000000000e+00,5.000000000000000000e+00,5.000000000000000000e+00,5.000000000000000000e+00,5.000000000000000000e+00,5.000000000000000000e+00,5.000000000000000000e+00,5.000000000000000000e+00,5.000000000000000000e+00,5.000000000000000000e+00,5.000000000000000000e+00,5.000000000000000000e+00,5.000000000000000000e+00,5.000000000000000000e+00,4.869075775146484375e+00,4.677536487579345703e+00,4.500496387481689453e+00,4.336369514465332031e+00,4.183792114257812500e+00,4.041586399078369141e+00,3.908730745315551758e+00,3.784331321716308594e+00,3.667605876922607422e+00,3.557865381240844727e+00,3.454501628875732422e+00,3.356974363327026367e+00,3.264802217483520508e+00,3.177556514739990234e+00,3.094852685928344727e+00,3.016344308853149414e+00,2.941720724105834961e+00,2.870700359344482422e+00,2.803028345108032227e+00,2.738473415374755859e+00,2.676825046539306641e+00,2.617891073226928711e+00,2.561496257781982422e+00,2.507479906082153320e+00,2.455694913864135742e+00,2.406005144119262695e+00,2.358286857604980469e+00,2.312424182891845703e+00,2.268311500549316406e+00,2.225850105285644531e+00,2.184949636459350586e+00,2.145524740219116211e+00,2.107497692108154297e+00,2.070794820785522461e+00,2.035348653793334961e+00,2.001095533370971680e+00,1.967976331710815430e+00,1.935935258865356445e+00,1.904921174049377441e+00,1.874884843826293945e+00,1.845781207084655762e+00
5.000000000000000000e+00,5.000000000000000000e+00,5.000000000000000000e+00,5.000000000000000000e+00,5.000000000000000000e+00,5.000000000000000000e+00,5.000000000000000000e+00,5.000000000000000000e+00,5.000000000000000000e+00,5.000000000000000000e+00,5.000000000000000000e+00,5.000000000000000000e+00,5.000000000000000000e+00,5.000000000000000000e+00,5.000000000000000000e+00,5.000000000000000000e+00,5.000000000000000000e+00,5.000000000000000000e+00,5.000000000000000000e+00,5.000000000000000000e+00,5.000000000000000000e+00,5.000000000000000000e+00,5.000000000000000000e+00,5.000000000000000000e+00,5.000000000000000000e+00,5.000000000000000000e+00,5.000000000000000000e+00,5.000000000000000000e+00,5.000000000000000000e+00,5.000000000000000000e+00,5.000000000000000000e+00,5.000000000000000000e+00,5.000000000000000000e+00,5.000000000000000000e+00,5.000000000000000000e+00,5.000000000000000000e+00,5.000000000000000000e+00,5.000000000000000000e+00,5.000000000000000000e+00,4.869215488433837891e+00,4.677665710449218750e+00,4.500616550445556641e+00,4.336480617523193359e+00,4.183895111083984375e+00,4.041683197021484375e+00,3.908820867538452148e+00,3.784415960311889648e+00,3.667685270309448242e+00,3.557940244674682617e+00,3.454572200775146484e+00,3.357040882110595703e+00,3.264865159988403320e+00,3.177616119384765625e+00,3.094909191131591797e+00,3.016398191452026367e+00,2.941771745681762695e+00,2.870748996734619141e+00,2.803074836730957031e+00,2.738517761230468750e+00,2.676867246627807617e+00,2.617931604385375977e+00,2.561534881591796875e+00,2.507517099380493164e+00,2.455730438232421875e+00,2.406039237976074219e+00,2.358319520950317383e+00,2.312455892562866211e+00,2.268341779708862305e+00,2.225879430770874023e+00,2.184977769851684570e+00,2.145552158355712891e+00,2.107523679733276367e+00,2.070820093154907227e+00,2.035373210906982422e+00,2.001119136810302734e+00,1.967999100685119629e+00,1.935957670211791992e+00,1.904942631721496582e+00,1.874905586242675781e+00,1.845801353454589844e+00
5.000000000000000000e+00,5.000000000000000000e+00,5.000000000000000000e+00,5.000000000000000000e+00,5.000000000000000000e+00,5.000000000000000000e+00,5.000000000000000000e+00,5.000000000000000000e+00,5.000000000000000000e+00,5.000000000000000000e+00,5.000000000000000000e+00,5.000000000000000000e+00,5.000000000000000000e+00,5.000000000000000000e+00,5.000000000000000000e+00,5.000000000000000000e+00,5.000000000000000000e+00,5.000000000000000000e+00,5.000000000000000000e+00,5.000000000000000000e+00,5.000000000000000000e+00,5.000000000000000000e+00,5.000000000000000000e+00,5.000000000000000000e+00,5.000000000000000000e+00,5.000000000000000000e+00,5.000000000000000000e+00,5.000000000000000000e+00,5.000000000000000000e+00,5.000000000000000000e+00,5.000000000000000000e+00,5.000000000000000000e+00,5.000000000000000000e+00,5.000000000000000000e+00,5.000000000000000000e+00,5.000000000000000000e+00,5.000000000000000000e+00,5.000000000000000000e+00,5.000000000000000000e+00,4.869355678558349609e+00,4.677794933319091797e+00,4.500735759735107422e+00,4.336591720581054688e+00,4.183999061584472656e+00,4.041779518127441406e+00,3.908911466598510742e+00,3.784500360488891602e+00,3.667764663696289062e+00,3.558015108108520508e+00,3.454642534255981445e+00,3.357107400894165039e+00,3.264928340911865234e+00,3.177675724029541016e+00,3.094965696334838867e+00,3.016451835632324219e+00,2.941823005676269531e+00,2.870797634124755859e+00,2.803121328353881836e+00,2.738562107086181641e+00,2.676909685134887695e+00,2.617972135543823242e+00,2.561573743820190430e+00,2.507554292678833008e+00,2.455765962600708008e+00,2.406073570251464844e+00,2.358352422714233398e+00,2.312487363815307617e+00,2.268372297286987305e+00,2.225908756256103516e+00,2.185005903244018555e+00,2.145579099655151367e+00,2.107549905776977539e+00,2.070845365524291992e+00,2.035397768020629883e+00,2.001142978668212891e+00,1.968021988868713379e+00,1.935979723930358887e+00,1.904963970184326172e+00,1.874926328659057617e+00,1.845821499824523926e+00
5.000000000000000000e+00,5.000000000000000000e+00,5.000000000000000000e+00,5.000000000000000000e+00,5.000000000000000000e+00,5.000000000000000000e+00,5.000000000000000000e+00,5.000000000000000000e+00,5.000000000000000000e+00,5.000000000000000000e+00,5.000000000000000000e+00,5.000000000000000000e+00,5.000000000000000000e+00,5.000000000000000000e+00,5.000000000000000000e+00,5.000000000000000000e+00,5.000000000000000000e+00,5.000000000000000000e+00,5.000000000000000000e+00,5.000000000000000000e+00,5.000000000000000000e+00,5.000000000000000000e+00,5.000000000000000000e+00,5.000000000000000000e+00,5.000000000000000000e+00,5.000000000000000000e+00,5.000000000000000000e+00,5.000000000000000000e+00,5.000000000000000000e+00,5.000000000000000000e+00,5.000000000000000000e+00,5.000000000000000000e+00,5.000000000000000000e+00,5.000000000000000000e+00,5.000000000000000000e+00,5.000000000000000000e+00,5.000000000000000000e+00,5.000000000000000000e+00,5.000000000000000000e+00,4.869495868682861328e+00,4.677924156188964844e+00,4.500855922698974609e+00,4.336702823638916016e+00,4.184102058410644531e+00,4.041876316070556641e+00,3.909001588821411133e+00,3.784584999084472656e+00,3.667844057083129883e+00,3.558089971542358398e+00,3.454713344573974609e+00,3.357173919677734375e+00,3.264991283416748047e+00,3.177735567092895508e+00,3.095022201538085938e+00,3.016505479812622070e+00,2.941874265670776367e+00,2.870846271514892578e+00,2.803167581558227539e+00,2.738606452941894531e+00,2.676951885223388672e+00,2.618012428283691406e+00,2.561612606048583984e+00,2.507591247558593750e+00,2.455801486968994141e+00,2.406107902526855469e+00,2.358385324478149414e+00,2.312518835067749023e+00,2.268402576446533203e+00,2.225938081741333008e+00,2.185034036636352539e+00,2.145606279373168945e+00,2.107576370239257812e+00,2.070870876312255859e+00,2.035422086715698242e+00,2.001166582107543945e+00,1.968044877052307129e+00,1.936001896858215332e+00,1.904985427856445312e+00,1.874947071075439453e+00,1.845841526985168457e+00
5.000000000000000000e+00,5.000000000000000000e+00,5.000000000000000000e+00,5.000000000000000000e+00,5.000000000000000000e+00,5.000000000000000000e+00,5.000000000000000000e+00,5.000000000000000000e+00,5.000000000000000000e+00,5.000000000000000000e+00,5.000000000000000000e+00,5.000000000000000000e+00,5.000000000000000000e+00,5.000000000000000000e+00,5.000000000000000000e+00,5.000000000000000000e+00,5.000000000000000000e+00,5.000000000000000000e+00,5.000000000000000000e+00,5.000000000000000000e+00,5.000000000000000000e+00,5.000000000000000000e+00,5.000000000000000000e+00,5.000000000000000000e+00,5.000000000000000000e+00,5.000000000000000000e+00,5.000000000000000000e+00,5.000000000000000000e+00,5.000000000000000000e+00,5.000000000000000000e+00,5.000000000000000000e+00,5.000000000000000000e+00,5.000000000000000000e+00,5.000000000000000000e+00,5.000000000000000000e+00,5.000000000000000000e+00,5.000000000000000000e+00,5.000000000000000000e+00,5.000000000000000000e+00,4.869635581970214844e+00,4.678053379058837891e+00,4.500975131988525391e+00,4.336813449859619141e+00,4.184205532073974609e+00,4.041972637176513672e+00,3.909091711044311523e+00,3.784669876098632812e+00,3.667923450469970703e+00,3.558164596557617188e+00,3.454783678054809570e+00,3.357240438461303711e+00,3.265053987503051758e+00,3.177795171737670898e+00,3.095078945159912109e+00,3.016559362411499023e+00,2.941925287246704102e+00,2.870895147323608398e+00,2.803214073181152344e+00,2.738650560379028320e+00,2.676994323730468750e+00,2.618052959442138672e+00,2.561651229858398438e+00,2.507628679275512695e+00,2.455837249755859375e+00,2.406141996383666992e+00,2.358418226242065430e+00,2.312550544738769531e+00,2.268433094024658203e+00,2.225967407226562500e+00,2.185062408447265625e+00,2.145633459091186523e+00,2.107602596282958984e+00,2.070896148681640625e+00,2.035446643829345703e+00,2.001190185546875000e+00,1.968067884445190430e+00,1.936023950576782227e+00,1.905006885528564453e+00,1.874968051910400391e+00,1.845861673355102539e+00
5.000000000000000000e+00,5.000000000000000000e+00,5.000000000000000000e+00,5.000000000000000000e+00,5.000000000000000000e+00,5.000000000000000000e+00,5.000000000000000000e+00,5.000000000000000000e+00,5.000000000000000000e+00,5.000000000000000000e+00,5.000000000000000000e+00,5.000000000000000000e+00,5.000000000000000000e+00,5.000000000000000000e+00,5.000000000000000000e+00,5.000000000000000000e+00,5.000000000000000000e+00,5.000000000000000000e+00,5.000000000000000000e+00,5.000000000000000000e+00,5.000000000000000000e+00,5.000000000000000000e+00,5.000000000000000000e+00,5.000000000000000000e+00,5.000000000000000000e+00,5.000000000000000000e+00,5.000000000000000000e+00,5.000000000000000000e+00,5.000000000000000000e+00,5.000000000000000000e+00,5.000000000000000000e+00,5.000000000000000000e+00,5.000000000000000000e+00,5.000000000000000000e+00,5.000000000000000000e+00,5.000000000000000000e+00,5.000000000000000000e+00,5.000000000000000000e+00,5.000000000000000000e+00,4.869776248931884766e+00,4.678182601928710938e+00,4.501094818115234375e+00,4.336925029754638672e+00,4.184309005737304688e+00,4.042069435119628906e+00,3.909181833267211914e+00,3.784754276275634766e+00,3.668003320693969727e+00,3.558239221572875977e+00,3.454854249954223633e+00,3.357307195663452148e+00,3.265116930007934570e+00,3.177854776382446289e+00,3.095135450363159180e+00,3.016613006591796875e+00,2.941976308822631836e+00,2.870943784713745117e+00,2.803260326385498047e+00,2.738694906234741211e+00,2.677036762237548828e+00,2.618093490600585938e+00,2.561689853668212891e+00,2.507665634155273438e+00,2.455873012542724609e+00,2.406176090240478516e+00,2.358451128005981445e+00,2.312582254409790039e+00,2.268463373184204102e+00,2.225996494293212891e+00,2.185090541839599609e+00,2.145660638809204102e+00,2.107628822326660156e+00,2.070921421051025391e+00,2.035470962524414062e+00,2.001213788986206055e+00,1.968090772628784180e+00,1.936046123504638672e+00,1.905028223991394043e+00,1.874988794326782227e+00,1.845881819725036621e+00
5.000000000000000000e+00,5.000000000000000000e+00,5.000000000000000000e+00,5.000000000000000000e+00,5.000000000000000000e+00,5.000000000000000000e+00,5.000000000000000000e+00,5.000000000000000000e+00,5.000000000000000000e+00,5.000000000000000000e+00,5.000000000000000000e+00,5.000000000000000000e+00,5.000000000000000000e+00,5.000000000000000000e+00,5.000000000000000000e+00,5.000000000000000000e+00,5.000000000000000000e+00,5.000000000000000000e+00,5.000000000000000000e+00,5.000000000000000000e+00,5.000000000000000000e+00,5.000000000000000000e+00,5.000000000000000000e+00,5.000000000000000000e+00,5.000000000000000000e+00,5.000000000000000000e+00,5.000000000000000000e+00,5.000000000000000000e+00,5.000000000000000000e+00,5.000000000000000000e+00,5.000000000000000000e+00,5.000000000000000000e+00,5.000000000000000000e+00,5.000000000000000000e+00,5.000000000000000000e+00,5.000000000000000000e+00,5.000000000000000000e+00,5.000000000000000000e+00,5.000000000000000000e+00,4.869915485382080078e+00,4.678311824798583984e+00,4.501214504241943359e+00,4.337036132812500000e+00,4.184412479400634766e+00,4.042165756225585938e+00,3.909272193908691406e+00,3.784838914871215820e+00,3.668082714080810547e+00,3.558314085006713867e+00,3.454924583435058594e+00,3.357373714447021484e+00,3.265180110931396484e+00,3.177914381027221680e+00,3.095191955566406250e+00,3.016666889190673828e+00,2.942027568817138672e+00,2.870992422103881836e+00,2.803307056427001953e+00,2.738739252090454102e+00,2.677078962326049805e+00,2.618134021759033203e+00,2.561728715896606445e+00,2.507702827453613281e+00,2.455908536911010742e+00,2.406210422515869141e+00,2.358483791351318359e+00,2.312613725662231445e+00,2.268493890762329102e+00,2.226025819778442383e+00,2.185118675231933594e+00,2.145688056945800781e+00,2.107655048370361328e+00,2.070946693420410156e+00,2.035495519638061523e+00,2.001237392425537109e+00,1.968113660812377930e+00,1.936068177223205566e+00,1.905049681663513184e+00,1.875009536743164062e+00,1.845901846885681152e+00
5.000000000000000000e+00,5.000000000000000000e+00,5.000000000000000000e+00,5.000000000000000000e+00,5.000000000000000000e+00,5.000000000000000000e+00,5.000000000000000000e+00,5.000000000000000000e+00,5.000000000000000000e+00,5.000000000000000000e+00,5.000000000000000000e+00,5.000000000000000000e+00,5.000000000000000000e+00,5.000000000000000000e+00,5.000000000000000000e+00,5.000000000000000000e+00,5.000000000000000000e+00,5.000000000000000000e+00,5.000000000000000000e+00,5.000000000000000000e+00,5.000000000000000000e+00,5.000000000000000000e+00,5.000000000000000000e+00,5.000000000000000000e+00,5.000000000000000000e+00,5.000000000000000000e+00,5.000000000000000000e+00,5.000000000000000000e+00,5.000000000000000000e+00,5.000000000000000000e+00,5.000000000000000000e+00,5.000000000000000000e+00,5.000000000000000000e+00,5.000000000000000000e+00,5.000000000000000000e+00,5.000000000000000000e+00,5.000000000000000000e+00,5.000000000000000000e+00,5.000000000000000000e+00,4.870055198669433594e+00,4.678441047668457031e+00,4.501334190368652344e+00,4.337147235870361328e+00,4.184515953063964844e+00,4.042262077331542969e+00,3.909362792968750000e+00,3.784923315048217773e+00,3.668162107467651367e+00,3.558389186859130859e+00,3.454995155334472656e+00,3.357440233230590820e+00,3.265243053436279297e+00,3.177973985671997070e+00,3.095248699188232422e+00,3.016720533370971680e+00,2.942078828811645508e+00,2.871041059494018555e+00,2.803353309631347656e+00,2.738783597946166992e+00,2.677121162414550781e+00,2.618174552917480469e+00,2.561767578125000000e+00,2.507739782333374023e+00,2.455944061279296875e+00,2.406244754791259766e+00,2.358516693115234375e+00,2.312645435333251953e+00,2.268524169921875000e+00,2.226055145263671875e+00,2.185147047042846680e+00,2.145715236663818359e+00,2.107681274414062500e+00,2.070972204208374023e+00,2.035520076751708984e+00,2.001261234283447266e+00,1.968136548995971680e+00,1.936090350151062012e+00,1.905071377754211426e+00,1.875030279159545898e+00,1.845921993255615234e+00
5.000000000000000000e+00,5.000000000000000000e+00,5.000000000000000000e+00,5.000000000000000000e+00,5.000000000000000000e+00,5.000000000000000000e+00,5.000000000000000000e+00,5.000000000000000000e+00,5.000000000000000000e+00,5.000000000000000000e+00,5.000000000000000000e+00,5.000000000000000000e+00,5.000000000000000000e+00,5.000000000000000000e+00,5.000000000000000000e+00,5.000000000000000000e+00,5.000000000000000000e+00,5.000000000000000000e+00,5.000000000000000000e+00,5.000000000000000000e+00,5.000000000000000000e+00,5.000000000000000000e+00,5.000000000000000000e+00,5.000000000000000000e+00,5.000000000000000000e+00,5.000000000000000000e+00,5.000000000000000000e+00,5.000000000000000000e+00,5.000000000000000000e+00,5.000000000000000000e+00,5.000000000000000000e+00,5.000000000000000000e+00,5.000000000000000000e+00,5.000000000000000000e+00,5.000000000000000000e+00,5.000000000000000000e+00,5.000000000000000000e+00,5.000000000000000000e+00,5.000000000000000000e+00,4.870194911956787109e+00,4.678569793701171875e+00,4.501453876495361328e+00,4.337258338928222656e+00,4.184619426727294922e+00,4.042358875274658203e+00,3.909452915191650391e+00,3.785008430480957031e+00,3.668241500854492188e+00,3.558463811874389648e+00,3.455065965652465820e+00,3.357506752014160156e+00,3.265305995941162109e+00,3.178033828735351562e+00,3.095305204391479492e+00,3.016774415969848633e+00,2.942129850387573242e+00,2.871089696884155273e+00,2.803399801254272461e+00,2.738827943801879883e+00,2.677163600921630859e+00,2.618214845657348633e+00,2.561806440353393555e+00,2.507777214050292969e+00,2.455979585647583008e+00,2.406278848648071289e+00,2.358549594879150391e+00,2.312676906585693359e+00,2.268554687500000000e+00,2.226084470748901367e+00,2.185175180435180664e+00,2.145742416381835938e+00,2.107707500457763672e+00,2.070997476577758789e+00,2.035544395446777344e+00,2.001284837722778320e+00,1.968159317970275879e+00,1.936112523078918457e+00,1.905092716217041016e+00,1.245848655700683594e+00,1.219653844833374023e+00
5.000000000000000000e+00,5.000000000000000000e+00,5.000000000000000000e+00,5.000000000000000000e+00,5.000000000000000000e+00,5.000000000000000000e+00,5.000000000000000000e+00,5.000000000000000000e+00,5.000000000000000000e+00,5.000000000000000000e+00,5.000000000000000000e+00,5.000000000000000000e+00,5.000000000000000000e+00,5.000000000000000000e+00,5.000000000000000000e+00,5.000000000000000000e+00,5.000000000000000000e+00,5.000000000000000000e+00,5.000000000000000000e+00,5.000000000000000000e+00,5.000000000000000000e+00,5.000000000000000000e+00,5.000000000000000000e+00,5.000000000000000000e+00,5.000000000000000000e+00,5.000000000000000000e+00,5.000000000000000000e+00,5.000000000000000000e+00,5.000000000000000000e+00,5.000000000000000000e+00,5.000000000000000000e+00,5.000000000000000000e+00,5.000000000000000000e+00,5.000000000000000000e+00,5.000000000000000000e+00,5.000000000000000000e+00,5.000000000000000000e+00,5.000000000000000000e+00,5.000000000000000000e+00,4.870334625244140625e+00,4.678698539733886719e+00,4.501573562622070312e+00,4.337369441986083984e+00,4.184722900390625000e+00,4.042455196380615234e+00,3.909543037414550781e+00,3.785092830657958984e+00,3.668320894241333008e+00,3.558538675308227539e+00,3.455136299133300781e+00,3.357573509216308594e+00,3.265368938446044922e+00,3.178093433380126953e+00,3.095361948013305664e+00,3.016828060150146484e+00,2.942180871963500977e+00,2.871138572692871094e+00,2.803446054458618164e+00,2.738872289657592773e+00,2.677206039428710938e+00,2.618255376815795898e+00,2.561845064163208008e+00,2.507814407348632812e+00,2.456015348434448242e+00,2.406312942504882812e+00,2.358582496643066406e+00,2.312708616256713867e+00,2.268584966659545898e+00,2.226113796234130859e+00,2.185203552246093750e+00,2.145769596099853516e+00,2.107733726501464844e+00,2.071022748947143555e+00,2.035568952560424805e+00,2.001308441162109375e+00,1.968182206153869629e+00,1.936134576797485352e+00,1.905114173889160156e+00,1.226257801055908203e+00,1.210125923156738281e+00
5.000000000000000000e+00,5.000000000000000000e+00,5.000000000000000000e+00,5.000000000000000000e+00,5.000000000000000000e+00,5.000000000000000000e+00,5.000000000000000000e+00,5.000000000000000000e+00,5.000000000000000000e+00,5.000000000000000000e+00,5.000000000000000000e+00,5.000000000000000000e+00,5.000000000000000000e+00,5.000000000000000000e+00,5.000000000000000000e+00,5.000000000000000000e+00,5.000000000000000000e+00,5.000000000000000000e+00,5.000000000000000000e+00,5.000000000000000000e+00,5.000000000000000000e+00,5.000000000000000000e+00,5.000000000000000000e+00,5.000000000000000000e+00,5.000000000000000000e+00,5.000000000000000000e+00,5.000000000000000000e+00,5.000000000000000000e+00,5.000000000000000000e+00,5.000000000000000000e+00,5.000000000000000000e+00,5.000000000000000000e+00,5.000000000000000000e+00,5.000000000000000000e+00,5.000000000000000000e+00,5.000000000000000000e+00,5.000000000000000000e+00,5.000000000000000000e+00,5.000000000000000000e+00,4.870473861694335938e+00,4.678827762603759766e+00,4.501692295074462891e+00,4.337480068206787109e+00,4.184826374053955078e+00,4.042551994323730469e+00,3.909633398056030273e+00,3.785177469253540039e+00,3.668400764465332031e+00,3.558613300323486328e+00,3.455206871032714844e+00,3.357640027999877930e+00,3.265431880950927734e+00,3.178153038024902344e+00,3.095418453216552734e+00,3.016881704330444336e+00,2.942232131958007812e+00,2.871187210083007812e+00,2.803492784500122070e+00,2.738916397094726562e+00,2.677248239517211914e+00,2.618296146392822266e+00,2.561883687973022461e+00,2.507851362228393555e+00,2.456051111221313477e+00,2.406347274780273438e+00,2.358615398406982422e+00,2.312740087509155273e+00,2.268615484237670898e+00,2.226143121719360352e+00,2.185231685638427734e+00,2.145796775817871094e+00,2.107759952545166016e+00,2.071048259735107422e+00,2.035593509674072266e+00,2.001332044601440430e+00,1.968205094337463379e+00,1.936156868934631348e+00,1.905135512351989746e+00,1.224871277809143066e+00,1.204430460929870605e+00
5.000000000000000000e+00,5.000000000000000000e+00,5.000000000000000000e+00,5.000000000000000000e+00,5.000000000000000000e+00,5.000000000000000000e+00,5.000000000000000000e+00,5.000000000000000000e+00,5.000000000000000000e+00,5.000000000000000000e+00,5.000000000000000000e+00,5.000000000000000000e+00,5.000000000000000000e+00,5.000000000000000000e+00,5.000000000000000000e+00,5.000000000000000000e+00,5.000000000000000000e+00,5.000000000000000000e+00,5.000000000000000000e+00,5.000000000000000000e+00,5.000000000000000000e+00,5.000000000000000000e+00,5.000000000000000000e+00,5.000000000000000000e+00,5.000000000000000000e+00,5.000000000000000000e+00,5.000000000000000000e+00,5.000000000000000000e+00,5.000000000000000000e+00,5.000000000000000000e+00,5.000000000000000000e+00,5.000000000000000000e+00,5.000000000000000000e+00,5.000000000000000000e+00,5.000000000000000000e+00,5.000000000000000000e+00,5.000000000000000000e+00,5.000000000000000000e+00,5.000000000000000000e+00,4.870613574981689453e+00,4.678956508636474609e+00,4.501811504364013672e+00,4.337591171264648438e+00,4.184929370880126953e+00,4.042648315429687500e+00,3.909723997116088867e+00,3.785262107849121094e+00,3.668480157852172852e+00,3.558688402175903320e+00,3.455277204513549805e+00,3.357706546783447266e+00,3.265495061874389648e+00,3.178212642669677734e+00,3.095474958419799805e+00,3.016935825347900391e+00,2.942283153533935547e+00,2.871236085891723633e+00,2.803539037704467773e+00,2.738960742950439453e+00,2.677290678024291992e+00,2.618336439132690430e+00,2.561922788619995117e+00,2.507888555526733398e+00,2.456086635589599609e+00,2.406381607055664062e+00,2.358648061752319336e+00,2.312771797180175781e+00,2.268646001815795898e+00,2.226172208786010742e+00,2.185259819030761719e+00,2.145823955535888672e+00,2.107786178588867188e+00,2.071073532104492188e+00,2.035618066787719727e+00,2.001355648040771484e+00,1.968227982521057129e+00,1.936179041862487793e+00,1.905156970024108887e+00,1.875113248825073242e+00,1.200053334236145020e+00
4.875094413757324219e+00,4.873882770538330078e+00,4.872672080993652344e+00,4.871461868286132812e+00,4.870252132415771484e+00,4.869042873382568359e+00,4.867834091186523438e+00,4.866626262664794922e+00,4.865418910980224609e+00,4.864212512969970703e+00,4.863006114959716797e+00,4.861800670623779297e+00,4.860595703125000000e+00,4.859391212463378906e+00,4.858187675476074219e+00,4.856984138488769531e+00,4.855782032012939453e+00,4.854579925537109375e+00,4.853378772735595703e+00,4.852177619934082031e+00,4.850977420806884766e+00,4.849778175354003906e+00,4.848578929901123047e+00,4.847380638122558594e+00,4.846182823181152344e+00,4.844985961914062500e+00,4.843789100646972656e+00,4.842592716217041016e+00,4.841397285461425781e+00,4.840202331542968750e+00,4.839008331298828125e+00,4.837814807891845703e+00,4.836621761322021484e+00,4.835429191589355469e+00,4.834237098693847656e+00,4.833045482635498047e+00,4.831854820251464844e+00,4.830665111541748047e+00,4.829475402832031250e+00,4.828286170959472656e+00,4.679085254669189453e+00,4.501930713653564453e+00,4.337701797485351562e+00,4.185032844543457031e+00,4.042745113372802734e+00,3.909814119338989258e+00,3.785346508026123047e+00,3.668559551239013672e+00,3.558763027191162109e+00,3.455347537994384766e+00,3.357773065567016602e+00,3.265558004379272461e+00,3.178272724151611328e+00,3.095531463623046875e+00,3.016989469528198242e+00,2.942334413528442383e+00,2.871284723281860352e+00,2.803585529327392578e+00,2.739005088806152344e+00,2.677332878112792969e+00,2.618376970291137695e+00,2.561961412429809570e+00,2.507925748825073242e+00,2.456122159957885742e+00,2.406415700912475586e+00,2.358680963516235352e+00,2.312803268432617188e+00,2.268676280975341797e+00,2.226201534271240234e+00,2.185287952423095703e+00,2.145851135253906250e+00,2.107812643051147461e+00,2.071098804473876953e+00,2.035642385482788086e+00,2.001379489898681641e+00,1.968250751495361328e+00,1.936201214790344238e+00,1.905178427696228027e+00,1.875133991241455078e+00,1.197185993194580078e+00
3.777854919433593750e+00,3.777127265930175781e+00,3.776400089263916016e+00,3.775673389434814453e+00,3.774946451187133789e+00,3.774219989776611328e+00,3.773493766784667969e+00,3.772767782211303711e+00,3.772042274475097656e+00,3.771316766738891602e+00,3.770591735839843750e+00,3.769866943359375000e+00,3.769142389297485352e+00,3.768418073654174805e+00,3.767693996429443359e+00,3.766970396041870117e+00,3.766247272491455078e+00,3.765524148941040039e+00,3.764801263809204102e+00,3.764078617095947266e+00,3.763356447219848633e+00,3.762634277343750000e+00,3.761912584304809570e+00,3.761191129684448242e+00,3.760469913482666016e+00,3.759748935699462891e+00,3.759028196334838867e+00,3.758307933807373047e+00,3.757587671279907227e+00,3.756867885589599609e+00,3.756148815155029297e+00,3.755429506301879883e+00,3.754710435867309570e+00,3.753991603851318359e+00,3.753273248672485352e+00,3.752555131912231445e+00,3.751837015151977539e+00,3.751119613647460938e+00,3.750402212142944336e+00,3.749685049057006836e+00,3.748968124389648438e+00,3.748251676559448242e+00,3.747535467147827148e+00,3.746819496154785156e+00,3.746104001998901367e+00,3.745388746261596680e+00,3.744673490524291992e+00,3.668638944625854492e+00,3.558837890625000000e+00,3.455418348312377930e+00,3.357839584350585938e+00,3.265620946884155273e+00,3.178332328796386719e+00,3.095588207244873047e+00,3.017043113708496094e+00,2.942385435104370117e+00,2.871333599090576172e+00,2.803631782531738281e+00,2.739049434661865234e+00,2.677375316619873047e+00,2.618417501449584961e+00,2.562000274658203125e+00,2.507962942123413086e+00,2.456157922744750977e+00,2.406449794769287109e+00,2.358714103698730469e+00,2.312834739685058594e+00,2.268706560134887695e+00,2.226230859756469727e+00,2.185316085815429688e+00,2.145878314971923828e+00,2.107838869094848633e+00,2.071124315261840820e+00,2.035666942596435547e+00,2.001403093338012695e+00,1.968273878097534180e+00,1.936223268508911133e+00,1.905199766159057617e+00,1.875154972076416016e+00,1.196661949157714844e+00
3.083786010742187500e+00,3.083301305770874023e+00,3.082816600799560547e+00,3.082332372665405273e+00,3.081847906112670898e+00,3.081363677978515625e+00,3.080879688262939453e+00,3.080395698547363281e+00,3.079911947250366211e+00,3.079428195953369141e+00,3.078944683074951172e+00,3.078461408615112305e+00,3.077978372573852539e+00,3.077495336532592773e+00,3.077012300491333008e+00,3.076529741287231445e+00,3.076047420501708984e+00,3.075564861297607422e+00,3.075082778930664062e+00,3.074600696563720703e+00,3.074118614196777344e+00,3.073636770248413086e+00,3.073155164718627930e+00,3.072673559188842773e+00,3.072192192077636719e+00,3.071711063385009766e+00,3.071229934692382812e+00,3.070749044418334961e+00,3.070268392562866211e+00,3.069787740707397461e+00,3.069307565689086914e+00,3.068827390670776367e+00,3.068347215652465820e+00,3.067867040634155273e+00,3.067387342453002930e+00,3.066907644271850586e+00,3.066427946090698242e+00,3.065948724746704102e+00,3.065469503402709961e+00,3.064990282058715820e+00,3.064511537551879883e+00,3.064032554626464844e+00,3.063554048538208008e+00,3.063075542449951172e+00,3.062597513198852539e+00,3.062119245529174805e+00,3.061641216278076172e+00,3.061163187026977539e+00,3.060685396194458008e+00,3.060207843780517578e+00,3.059730529785156250e+00,3.059253215789794922e+00,3.058775901794433594e+00,3.058298826217651367e+00,3.017096996307373047e+00,2.942436695098876953e+00,2.871382236480712891e+00,2.803678274154663086e+00,2.739093780517578125e+00,2.677417755126953125e+00,2.618457794189453125e+00,2.562038898468017578e+00,2.508000135421752930e+00,2.456193685531616211e+00,2.406484127044677734e+00,2.358746767044067383e+00,2.312866687774658203e+00,2.268737077713012695e+00,2.226260185241699219e+00,2.185344457626342773e+00,2.145905494689941406e+00,2.107864856719970703e+00,2.071149587631225586e+00,2.035691261291503906e+00,2.001426696777343750e+00,1.968296766281127930e+00,1.936245441436767578e+00,1.905221223831176758e+00,1.875175714492797852e+00,1.846062898635864258e+00
2.605164289474487305e+00,2.604818105697631836e+00,2.604472160339355469e+00,2.604126691818237305e+00,2.603780984878540039e+00,2.603435277938842773e+00,2.603089570999145508e+00,2.602744102478027344e+00,2.602398872375488281e+00,2.602053403854370117e+00,2.601708173751831055e+00,2.601363182067871094e+00,2.601018190383911133e+00,2.600673198699951172e+00,2.600328445434570312e+00,2.599983692169189453e+00,2.599639177322387695e+00,2.599294662475585938e+00,2.598950147628784180e+00,2.598605632781982422e+00,2.598261356353759766e+00,2.597917318344116211e+00,2.597573041915893555e+00,2.597229242324829102e+00,2.596885204315185547e+00,2.596541404724121094e+00,2.596197605133056641e+00,2.595854043960571289e+00,2.595510482788085938e+00,2.595166921615600586e+00,2.594823837280273438e+00,2.594480514526367188e+00,2.594137191772460938e+00,2.593794107437133789e+00,2.593451261520385742e+00,2.593108177185058594e+00,2.592765331268310547e+00,2.592422723770141602e+00,2.592080116271972656e+00,2.591737508773803711e+00,2.591394901275634766e+00,2.591052532196044922e+00,2.590710401535034180e+00,2.590368032455444336e+00,2.590026140213012695e+00,2.589684247970581055e+00,2.589342117309570312e+00,2.589000463485717773e+00,2.588658571243286133e+00,2.588316917419433594e+00,2.587975502014160156e+00,2.587633848190307617e+00,2.587292671203613281e+00,2.586951255798339844e+00,2.586610078811645508e+00,2.586268901824951172e+00,2.585927963256835938e+00,2.585587024688720703e+00,2.585246324539184570e+00,2.584905624389648438e+00,2.584564924240112305e+00,2.562077760696411133e+00,2.508037090301513672e+00,2.456229209899902344e+00,2.406518220901489258e+00,2.358779668807983398e+00,2.312898159027099609e+00,2.268767356872558594e+00,2.226289272308349609e+00,2.185372591018676758e+00,2.145932912826538086e+00,2.107891082763671875e+00,2.071174860000610352e+00,2.035715818405151367e+00,2.001450300216674805e+00,1.968319654464721680e+00,1.936267495155334473e+00,1.905242681503295898e+00,1.875196456909179688e+00,1.846083045005798340e+00
2.255186080932617188e+00,2.254925251007080078e+00,2.254664659500122070e+00,2.254403829574584961e+00,2.254142999649047852e+00,2.253882408142089844e+00,2.253622055053710938e+00,2.253361463546752930e+00,2.253101110458374023e+00,2.252840757369995117e+00,2.252580404281616211e+00,2.252320051193237305e+00,2.252059936523437500e+00,2.251799821853637695e+00,2.251539945602416992e+00,2.251279830932617188e+00,2.251019716262817383e+00,2.250759840011596680e+00,2.250500202178955078e+00,2.250240325927734375e+00,2.249980688095092773e+00,2.249721050262451172e+00,2.249461412429809570e+00,2.249202966690063477e+00,2.248944997787475586e+00,2.248687267303466797e+00,2.248429298400878906e+00,2.248171567916870117e+00,2.247913837432861328e+00,2.247656345367431641e+00,2.247398853302001953e+00,2.247141361236572266e+00,2.246883869171142578e+00,2.246626377105712891e+00,2.246369123458862305e+00,2.246111869812011719e+00,2.245854616165161133e+00,2.245597362518310547e+00,2.245340347290039062e+00,2.245083332061767578e+00,2.244826316833496094e+00,2.244569301605224609e+00,2.244312524795532227e+00,2.244055747985839844e+00,2.243798971176147461e+00,2.243542432785034180e+00,2.243285655975341797e+00,2.243029117584228516e+00,2.242772579193115234e+00,2.242516040802001953e+00,2.242259740829467773e+00,2.242003440856933594e+00,2.241747140884399414e+00,2.241490840911865234e+00,2.241234779357910156e+00,2.240978717803955078e+00,2.240722656250000000e+00,2.240466594696044922e+00,2.240210771560668945e+00,2.239954948425292969e+00,2.239699125289916992e+00,2.239443302154541016e+00,2.239187717437744141e+00,2.238931894302368164e+00,2.238676309585571289e+00,2.238420963287353516e+00,2.238165378570556641e+00,2.237910032272338867e+00,2.226318597793579102e+00,2.185400962829589844e+00,2.145960092544555664e+00,2.107917308807373047e+00,2.071200132369995117e+00,2.035740375518798828e+00,2.001474142074584961e+00,1.968342423439025879e+00,1.936289668083190918e+00,1.905264258384704590e+00,1.875217199325561523e+00,1.846103191375732422e+00
1.988172769546508789e+00,1.987970113754272461e+00,1.987767338752746582e+00,1.987564802169799805e+00,1.987362146377563477e+00,1.987159490585327148e+00,1.986957073211669922e+00,1.986754536628723145e+00,1.986552119255065918e+00,1.986349701881408691e+00,1.986147165298461914e+00,1.985944986343383789e+00,1.985742688179016113e+00,1.985540509223937988e+00,1.985338211059570312e+00,1.985136032104492188e+00,1.984934091567993164e+00,1.984731912612915039e+00,1.984529972076416016e+00,1.984327793121337891e+00,1.984125733375549316e+00,1.983924031257629395e+00,1.983722090721130371e+00,1.983520388603210449e+00,1.983318448066711426e+00,1.983116626739501953e+00,1.982915043830871582e+00,1.982713341712951660e+00,1.982511758804321289e+00,1.982310175895690918e+00,1.982108473777770996e+00,1.981907129287719727e+00,1.981705546379089355e+00,1.981504201889038086e+00,1.981302738189697266e+00,1.981101393699645996e+00,1.980900168418884277e+00,1.980698823928833008e+00,1.980497717857360840e+00,1.980296492576599121e+00,1.980095505714416504e+00,1.979894280433654785e+00,1.979693174362182617e+00,1.979492187500000000e+00,1.979291200637817383e+00,1.979090332984924316e+00,1.978889346122741699e+00,1.978688478469848633e+00,1.978487730026245117e+00,1.978286862373352051e+00,1.978086352348327637e+00,1.977885484695434570e+00,1.977684736251831055e+00,1.977484345436096191e+00,1.977283596992492676e+00,1.977083206176757812e+00,1.976882696151733398e+00,1.976682066917419434e+00,1.976481795310974121e+00,1.976281404495239258e+00,1.976081252098083496e+00,1.975880742073059082e+00,1.975680470466613770e+00,1.975480437278747559e+00,1.975280165672302246e+00,1.975080132484436035e+00,1.974879980087280273e+00,1.974679827690124512e+00,1.974480032920837402e+00,1.974279880523681641e+00,1.974080085754394531e+00,1.973880171775817871e+00,1.973680257797241211e+00,1.973480582237243652e+00,1.973280787467956543e+00,1.968365311622619629e+00,1.936311841011047363e+00,1.905285716056823730e+00,1.875237941741943359e+00,1.846123218536376953e+00
1.777694344520568848e+00,1.777532339096069336e+00,1.777370214462280273e+00,1.777208089828491211e+00,1.777046203613281250e+00,1.776884198188781738e+00,1.776722311973571777e+00,1.776560425758361816e+00,1.776398420333862305e+00,1.776236653327941895e+00,1.776074767112731934e+00,1.775913119316101074e+00,1.775751233100891113e+00,1.775589585304260254e+00,1.775427818298339844e+00,1.775266051292419434e+00,1.775104522705078125e+00,1.774942874908447266e+00,1.774781346321105957e+00,1.774619817733764648e+00,1.774458169937133789e+00,1.774296760559082031e+00,1.774135231971740723e+00,1.773973941802978516e+00,1.773812413215637207e+00,1.773651003837585449e+00,1.773489713668823242e+00,1.773328304290771484e+00,1.773167133331298828e+00,1.773005843162536621e+00,1.772844433784484863e+00,1.772683382034301758e+00,1.772522091865539551e+00,1.772361040115356445e+00,1.772199869155883789e+00,1.772038698196411133e+00,1.771877765655517578e+00,1.771716713905334473e+00,1.771555781364440918e+00,1.771394729614257812e+00,1.771233677864074707e+00,1.771072864532470703e+00,1.770911931991577148e+00,1.770751237869262695e+00,1.770590305328369141e+00,1.770429372787475586e+00,1.770268797874450684e+00,1.770107984542846680e+00,1.769947290420532227e+00,1.769786596298217773e+00,1.769626021385192871e+00,1.769465327262878418e+00,1.769304633140563965e+00,1.769144177436828613e+00,1.768983602523803711e+00,1.768823266029357910e+00,1.768662691116333008e+00,1.768502116203308105e+00,1.768341779708862305e+00,1.768181324005126953e+00,1.768021106719970703e+00,1.767860651016235352e+00,1.767700314521789551e+00,1.767540216445922852e+00,1.767379879951477051e+00,1.767219781875610352e+00,1.767059445381164551e+00,1.766899228096008301e+00,1.766739249229431152e+00,1.766579031944274902e+00,1.766419172286987305e+00,1.766258955001831055e+00,1.766098856925964355e+00,1.765938997268676758e+00,1.765779018402099609e+00,1.765619158744812012e+00,1.765459299087524414e+00,1.765299320220947266e+00,1.765139579772949219e+00,1.764979720115661621e+00
1.607514381408691406e+00,1.607381939888000488e+00,1.607249379158020020e+00,1.607116818428039551e+00,1.606984376907348633e+00,1.606851935386657715e+00,1.606719613075256348e+00,1.606587052345275879e+00,1.606454610824584961e+00,1.606322407722473145e+00,1.606189966201782227e+00,1.606057763099670410e+00,1.605925321578979492e+00,1.605792999267578125e+00,1.605660796165466309e+00,1.605528593063354492e+00,1.605396389961242676e+00,1.605264186859130859e+00,1.605131983757019043e+00,1.604999899864196777e+00,1.604867696762084961e+00,1.604735732078552246e+00,1.604603528976440430e+00,1.604471445083618164e+00,1.604339480400085449e+00,1.604207396507263184e+00,1.604075431823730469e+00,1.603943467140197754e+00,1.603811621665954590e+00,1.603679537773132324e+00,1.603547573089599609e+00,1.603415846824645996e+00,1.603283882141113281e+00,1.603152155876159668e+00,1.603020191192626953e+00,1.602888345718383789e+00,1.602756738662719727e+00,1.602624893188476562e+00,1.602493166923522949e+00,1.602361440658569336e+00,1.602229714393615723e+00,1.602098107337951660e+00,1.601966381072998047e+00,1.601834893226623535e+00,1.601703166961669922e+00,1.601571559906005859e+00,1.601440072059631348e+00,1.601308465003967285e+00,1.601177096366882324e+00,1.601045489311218262e+00,1.600914001464843750e+00,1.600782632827758789e+00,1.600651144981384277e+00,1.600519776344299316e+00,1.600388288497924805e+00,1.600256919860839844e+00,1.600125670433044434e+00,1.599994182586669922e+00,1.599862933158874512e+00,1.599731683731079102e+00,1.599600315093994141e+00,1.599469184875488281e+00,1.599337935447692871e+00,1.599206805229187012e+00,1.599075555801391602e+00,1.598944544792175293e+00,1.598813295364379883e+00,1.598682165145874023e+00,1.598551154136657715e+00,1.598420023918151855e+00,1.598289012908935547e+00,1.598158001899719238e+00,1.598026871681213379e+00,1.597895979881286621e+00,1.597764968872070312e+00,1.597634196281433105e+00,1.597503185272216797e+00,1.597372174263000488e+00,1.597241401672363281e+00,1.597110509872436523e+00
1.467070698738098145e+00,1.466960310935974121e+00,1.466849923133850098e+00,1.466739535331726074e+00,1.466629266738891602e+00,1.466518878936767578e+00,1.466408610343933105e+00,1.466298222541809082e+00,1.466187953948974609e+00,1.466077804565429688e+00,1.465967416763305664e+00,1.465857267379760742e+00,1.465746998786926270e+00,1.465636849403381348e+00,1.465526700019836426e+00,1.465416431427001953e+00,1.465306401252746582e+00,1.465196251869201660e+00,1.465086102485656738e+00,1.464976072311401367e+00,1.464865922927856445e+00,1.464755892753601074e+00,1.464645862579345703e+00,1.464535713195800781e+00,1.464425802230834961e+00,1.464315772056579590e+00,1.464205861091613770e+00,1.464095830917358398e+00,1.463985800743103027e+00,1.463876008987426758e+00,1.463765978813171387e+00,1.463656187057495117e+00,1.463546276092529297e+00,1.463436365127563477e+00,1.463326573371887207e+00,1.463216662406921387e+00,1.463106870651245117e+00,1.462997078895568848e+00,1.462887406349182129e+00,1.462777495384216309e+00,1.462667703628540039e+00,1.462558150291442871e+00,1.462448358535766602e+00,1.462338685989379883e+00,1.462229013442993164e+00,1.462119221687316895e+00,1.462009668350219727e+00,1.461899995803833008e+00,1.461790442466735840e+00,1.461680769920349121e+00,1.461571216583251953e+00,1.461461663246154785e+00,1.461352109909057617e+00,1.461242675781250000e+00,1.461133003234863281e+00,1.461023449897766113e+00,1.460914134979248047e+00,1.460804581642150879e+00,1.460695147514343262e+00,1.460585713386535645e+00,1.460476279258728027e+00,1.460366845130920410e+00,1.460257411003112793e+00,1.460148215293884277e+00,1.460038781166076660e+00,1.459929347038269043e+00,1.459820151329040527e+00,1.459710717201232910e+00,1.459601521492004395e+00,1.459492206573486328e+00,1.459382891654968262e+00,1.459273695945739746e+00,1.459164500236511230e+00,1.459055304527282715e+00,1.458946108818054199e+00,1.458837032318115234e+00,1.458727836608886719e+00,1.458618640899658203e+00,1.458509564399719238e+00,1.458400368690490723e+00
1.349195480346679688e+00,1.349102020263671875e+00,1.349008798599243164e+00,1.348915338516235352e+00,1.348822116851806641e+00,1.348728775978088379e+00,1.348635435104370117e+00,1.348542213439941406e+00,1.348448872566223145e+00,1.348355650901794434e+00,1.348262310028076172e+00,1.348169207572937012e+00,1.348075866699218750e+00,1.347982645034790039e+00,1.347889542579650879e+00,1.347796320915222168e+00,1.347703218460083008e+00,1.347609996795654297e+00,1.347516775131225586e+00,1.347423672676086426e+00,1.347330570220947266e+00,1.347237586975097656e+00,1.347144365310668945e+00,1.347051262855529785e+00,1.346958279609680176e+00,1.346865177154541016e+00,1.346772193908691406e+00,1.346679091453552246e+00,1.346585988998413086e+00,1.346493124961853027e+00,1.346400022506713867e+00,1.346307158470153809e+00,1.346214175224304199e+00,1.346121191978454590e+00,1.346028208732604980e+00,1.345935225486755371e+00,1.345842480659484863e+00,1.345749497413635254e+00,1.345656514167785645e+00,1.345563769340515137e+00,1.345470786094665527e+00,1.345378041267395020e+00,1.345285177230834961e+00,1.345192313194274902e+00,1.345099568367004395e+00,1.345006704330444336e+00,1.344913959503173828e+00,1.344821095466613770e+00,1.344728469848632812e+00,1.344635605812072754e+00,1.344542860984802246e+00,1.344450235366821289e+00,1.344357490539550781e+00,1.344264745712280273e+00,1.344172120094299316e+00,1.344079375267028809e+00,1.343986749649047852e+00,1.343894004821777344e+00,1.343801498413085938e+00,1.343708872795104980e+00,1.343616127967834473e+00,1.343523621559143066e+00,1.343430995941162109e+00,1.343338489532470703e+00,1.343245863914489746e+00,1.343153238296508789e+00,1.343060851097106934e+00,1.342968225479125977e+00,1.342875838279724121e+00,1.342783212661743164e+00,1.342690706253051758e+00,1.342598319053649902e+00,1.342505812644958496e+00,1.342413425445556641e+00,1.342320919036865234e+00,1.342228531837463379e+00,1.342136144638061523e+00,1.342043757438659668e+00,1.341951370239257812e+00,1.341858983039855957e+00
1.248853445053100586e+00,1.248773455619812012e+00,1.248693466186523438e+00,1.248613476753234863e+00,1.248533606529235840e+00,1.248453617095947266e+00,1.248373627662658691e+00,1.248293757438659668e+00,1.248213768005371094e+00,1.248133897781372070e+00,1.248053908348083496e+00,1.247974038124084473e+00,1.247894167900085449e+00,1.247814297676086426e+00,1.247734427452087402e+00,1.247654557228088379e+00,1.247574687004089355e+00,1.247494935989379883e+00,1.247415065765380859e+00,1.247335314750671387e+00,1.247255444526672363e+00,1.247175574302673340e+00,1.247095942497253418e+00,1.247016072273254395e+00,1.246936321258544922e+00,1.246856570243835449e+00,1.246776938438415527e+00,1.246697187423706055e+00,1.246617436408996582e+00,1.246537685394287109e+00,1.246457934379577637e+00,1.246378302574157715e+00,1.246298670768737793e+00,1.246218919754028320e+00,1.246139287948608398e+00,1.246059656143188477e+00,1.245980024337768555e+00,1.245900392532348633e+00,1.245820760726928711e+00,1.245741128921508789e+00,1.245661497116088867e+00,1.245581984519958496e+00,1.245502352714538574e+00,1.245422720909118652e+00,1.245343208312988281e+00,1.245263695716857910e+00,1.245184183120727539e+00,1.245104670524597168e+00,1.245025038719177246e+00,1.244945645332336426e+00,1.244866132736206055e+00,1.244786620140075684e+00,1.244707107543945312e+00,1.244627594947814941e+00,1.244548201560974121e+00,1.244468808174133301e+00,1.244389414787292480e+00,1.244309902191162109e+00,1.244230508804321289e+00,1.244151115417480469e+00,1.244071722030639648e+00,1.243992328643798828e+00,1.243912935256958008e+00,1.243833661079406738e+00,1.243754267692565918e+00,1.243674874305725098e+00,1.243595600128173828e+00,1.243516206741333008e+00,1.243436932563781738e+00,1.243357658386230469e+00,1.243278264999389648e+00,1.243198990821838379e+00,1.243119716644287109e+00,1.243040561676025391e+00,1.242961287498474121e+00,1.242882013320922852e+00,1.242802739143371582e+00,1.242723584175109863e+00,1.242644429206848145e+00,1.242565155029296875e+00
1.162403464317321777e+00,1.162334203720092773e+00,1.162264943122863770e+00,1.162195563316345215e+00,1.162126421928405762e+00,1.162057042121887207e+00,1.161987781524658203e+00,1.161918520927429199e+00,1.161849260330200195e+00,1.161780118942260742e+00,1.161710858345031738e+00,1.161641597747802734e+00,1.161572456359863281e+00,1.161503195762634277e+00,1.161434054374694824e+00,1.161364793777465820e+00,1.161295533180236816e+00,1.161226511001586914e+00,1.161157250404357910e+00,1.161088109016418457e+00,1.161018967628479004e+00,1.160949826240539551e+00,1.160880684852600098e+00,1.160811543464660645e+00,1.160742521286010742e+00,1.160673379898071289e+00,1.160604238510131836e+00,1.160535216331481934e+00,1.160466074943542480e+00,1.160397052764892578e+00,1.160327911376953125e+00,1.160258769989013672e+00,1.160189867019653320e+00,1.160120725631713867e+00,1.160051703453063965e+00,1.159982681274414062e+00,1.159913778305053711e+00,1.159844636917114258e+00,1.159775614738464355e+00,1.159706711769104004e+00,1.159637689590454102e+00,1.159568786621093750e+00,1.159499764442443848e+00,1.159430742263793945e+00,1.159361839294433594e+00,1.159292936325073242e+00,1.159224033355712891e+00,1.159155011177062988e+00,1.159086108207702637e+00,1.159017205238342285e+00,1.158948302268981934e+00,1.158879399299621582e+00,1.158810496330261230e+00,1.158741593360900879e+00,1.158672809600830078e+00,1.158603906631469727e+00,1.158535122871398926e+00,1.158466219902038574e+00,1.158397316932678223e+00,1.158328533172607422e+00,1.158259749412536621e+00,1.158190965652465820e+00,1.158122062683105469e+00,1.158053278923034668e+00,1.157984614372253418e+00,1.157915711402893066e+00,1.157847046852111816e+00,1.157778263092041016e+00,1.157709479331970215e+00,1.157640695571899414e+00,1.157571911811828613e+00,1.157503247261047363e+00,1.157434582710266113e+00,1.157365918159484863e+00,1.157297134399414062e+00,1.157228350639343262e+00,1.157159805297851562e+00,1.157091021537780762e+00,1.157022476196289062e+00,1.156953692436218262e+00
1.087147355079650879e+00,1.087086677551269531e+00,1.087026119232177734e+00,1.086965560913085938e+00,1.086904883384704590e+00,1.086844325065612793e+00,1.086783766746520996e+00,1.086723208427429199e+00,1.086662530899047852e+00,1.086602091789245605e+00,1.086541414260864258e+00,1.086480855941772461e+00,1.086420416831970215e+00,1.086359858512878418e+00,1.086299300193786621e+00,1.086238741874694824e+00,1.086178183555603027e+00,1.086117744445800781e+00,1.086057186126708984e+00,1.085996747016906738e+00,1.085936188697814941e+00,1.085875749588012695e+00,1.085815310478210449e+00,1.085754752159118652e+00,1.085694313049316406e+00,1.085633873939514160e+00,1.085573315620422363e+00,1.085512995719909668e+00,1.085452556610107422e+00,1.085392117500305176e+00,1.085331678390502930e+00,1.085271239280700684e+00,1.085210800170898438e+00,1.085150361061096191e+00,1.085090041160583496e+00,1.085029602050781250e+00,1.084969162940979004e+00,1.084908843040466309e+00,1.084848523139953613e+00,1.084788203239440918e+00,1.084727764129638672e+00,1.084667325019836426e+00,1.084607124328613281e+00,1.084546685218811035e+00,1.084486365318298340e+00,1.084426045417785645e+00,1.084365725517272949e+00,1.084305405616760254e+00,1.084245085716247559e+00,1.084184885025024414e+00,1.084124565124511719e+00,1.084064245223999023e+00,1.084003925323486328e+00,1.083943724632263184e+00,1.083883404731750488e+00,1.083823204040527344e+00,1.083763003349304199e+00,1.083702683448791504e+00,1.083642482757568359e+00,1.083582282066345215e+00,1.083521962165832520e+00,1.083461761474609375e+00,1.083401560783386230e+00,1.083341360092163086e+00,1.083281159400939941e+00,1.083220958709716797e+00,1.083160758018493652e+00,1.083100557327270508e+00,1.083040356636047363e+00,1.082980275154113770e+00,1.082920074462890625e+00,1.082859992980957031e+00,1.082799792289733887e+00,1.082739591598510742e+00,1.082679510116577148e+00,1.082619428634643555e+00,1.082559347152709961e+00,1.082499146461486816e+00,1.082439064979553223e+00,1.082378983497619629e+00
1.021043181419372559e+00,1.020989656448364258e+00,1.020936250686645508e+00,1.020882725715637207e+00,1.020829319953918457e+00,1.020775914192199707e+00,1.020722389221191406e+00,1.020668983459472656e+00,1.020615577697753906e+00,1.020562052726745605e+00,1.020508646965026855e+00,1.020455241203308105e+00,1.020401835441589355e+00,1.020348429679870605e+00,1.020295023918151855e+00,1.020241618156433105e+00,1.020188212394714355e+00,1.020134925842285156e+00,1.020081520080566406e+00,1.020028114318847656e+00,1.019974708557128906e+00,1.019921422004699707e+00,1.019868016242980957e+00,1.019814729690551758e+00,1.019761323928833008e+00,1.019708037376403809e+00,1.019654631614685059e+00,1.019601345062255859e+00,1.019548058509826660e+00,1.019494771957397461e+00,1.019441366195678711e+00,1.019388079643249512e+00,1.019334793090820312e+00,1.019281506538391113e+00,1.019228219985961914e+00,1.019174933433532715e+00,1.019121646881103516e+00,1.019068360328674316e+00,1.019015073776245117e+00,1.018961906433105469e+00,1.018908619880676270e+00,1.018855333328247070e+00,1.018802046775817871e+00,1.018748879432678223e+00,1.018695592880249023e+00,1.018642425537109375e+00,1.018589138984680176e+00,1.018535971641540527e+00,1.018482685089111328e+00,1.018429517745971680e+00,1.018376350402832031e+00,1.018323063850402832e+00,1.018269896507263184e+00,1.018216729164123535e+00,1.018163561820983887e+00,1.018110394477844238e+00,1.018057227134704590e+00,1.018004059791564941e+00,1.017950892448425293e+00,1.017897844314575195e+00,1.017844676971435547e+00,1.017791509628295898e+00,1.017738342285156250e+00,1.017685174942016602e+00,1.017632126808166504e+00,1.017578959465026855e+00,1.017525911331176758e+00,1.017472743988037109e+00,1.017419695854187012e+00,1.017366528511047363e+00,1.017313480377197266e+00,1.017260432243347168e+00,1.017207264900207520e+00,1.017154216766357422e+00,1.017101168632507324e+00,1.017048120498657227e+00,1.016995072364807129e+00,1.016942024230957031e+00,1.016888976097106934e+00,1.016835927963256836e+00
9.625172615051269531e-01,9.624696373939514160e-01,9.624221324920654297e-01,9.623746275901794434e-01,9.623270630836486816e-01,9.622796177864074707e-01,9.622321724891662598e-01,9.621846675872802734e-01,9.621371030807495117e-01,9.620896577835083008e-01,9.620422124862670898e-01,9.619947075843811035e-01,9.619472622871398926e-01,9.618998169898986816e-01,9.618523120880126953e-01,9.618048667907714844e-01,9.617574214935302734e-01,9.617100358009338379e-01,9.616625308990478516e-01,9.616151452064514160e-01,9.615676999092102051e-01,9.615201950073242188e-01,9.614728093147277832e-01,9.614254236221313477e-01,9.613779783248901367e-01,9.613305926322937012e-01,9.612832069396972656e-01,9.612358212471008301e-01,9.611883759498596191e-01,9.611410498619079590e-01,9.610936641693115234e-01,9.610462188720703125e-01,9.609988927841186523e-01,9.609515666961669922e-01,9.609041810035705566e-01,9.608567953109741211e-01,9.608094692230224609e-01,9.607621431350708008e-01,9.607146978378295898e-01,9.606673717498779297e-01,9.606201052665710449e-01,9.605726599693298340e-01,9.605253934860229492e-01,9.604780673980712891e-01,9.604308009147644043e-01,9.603834152221679688e-01,9.603361487388610840e-01,9.602888822555541992e-01,9.602414965629577637e-01,9.601942300796508789e-01,9.601469635963439941e-01,9.600995779037475586e-01,9.600523710250854492e-01,9.600051045417785645e-01,9.599578976631164551e-01,9.599105119705200195e-01,9.598633050918579102e-01,9.598160982131958008e-01,9.597687125205993652e-01,9.597215056419372559e-01,9.596742987632751465e-01,9.596269726753234863e-01,9.595798254013061523e-01,9.595326185226440430e-01,9.594854116439819336e-01,9.594380855560302734e-01,9.593909382820129395e-01,9.593437314033508301e-01,9.592964649200439453e-01,9.592492580413818359e-01,9.592021107673645020e-01,9.591549634933471680e-01,9.591076970100402832e-01,9.590605497360229492e-01,9.590134024620056152e-01,9.589661359786987305e-01,9.589189887046813965e-01,9.588718414306640625e-01,9.588246345520019531e-01,9.587774872779846191e-01
9.103367924690246582e-01,9.102943539619445801e-01,9.102517366409301758e-01,9.102092981338500977e-01,9.101668000221252441e-01,9.101243615150451660e-01,9.100818037986755371e-01,9.100393652915954590e-01,9.099968671798706055e-01,9.099543690681457520e-01,9.099119305610656738e-01,9.098694920539855957e-01,9.098270535469055176e-01,9.097844958305358887e-01,9.097420573234558105e-01,9.096996784210205078e-01,9.096571207046508789e-01,9.096147418022155762e-01,9.095723032951354980e-01,9.095298051834106445e-01,9.094874262809753418e-01,9.094449877738952637e-01,9.094026088714599609e-01,9.093601107597351074e-01,9.093177318572998047e-01,9.092753529548645020e-01,9.092328548431396484e-01,9.091904759407043457e-01,9.091481566429138184e-01,9.091056585311889648e-01,9.090632796287536621e-01,9.090209603309631348e-01,9.089785814285278320e-01,9.089361429214477539e-01,9.088937640190124512e-01,9.088514447212219238e-01,9.088090062141418457e-01,9.087666869163513184e-01,9.087243676185607910e-01,9.086819291114807129e-01,9.086396098136901855e-01,9.085972905158996582e-01,9.085549712181091309e-01,9.085125327110290527e-01,9.084702730178833008e-01,9.084279537200927734e-01,9.083855748176574707e-01,9.083432555198669434e-01,9.083009362220764160e-01,9.082586765289306641e-01,9.082162976264953613e-01,9.081740379333496094e-01,9.081317186355590820e-01,9.080893397331237793e-01,9.080470800399780273e-01,9.080048203468322754e-01,9.079625010490417480e-01,9.079202413558959961e-01,9.078779816627502441e-01,9.078357219696044922e-01,9.077933430671691895e-01,9.077511429786682129e-01,9.077088832855224609e-01,9.076665639877319336e-01,9.076243042945861816e-01,9.075821042060852051e-01,9.075397849082946777e-01,9.074975848197937012e-01,9.074553847312927246e-01,9.074131250381469727e-01,9.073708653450012207e-01,9.073286652565002441e-01,9.072864651679992676e-01,9.072441458702087402e-01,9.072019457817077637e-01,9.071598052978515625e-01,9.071174860000610352e-01,9.070753455162048340e-01,9.070331454277038574e-01,9.069910049438476562e-01
8.635231852531433105e-01,8.634848594665527344e-01,8.634466528892517090e-01,8.634084463119506836e-01,8.633701801300048828e-01,8.633319139480590820e-01,8.632937669754028320e-01,8.632554411888122559e-01,8.632172346115112305e-01,8.631790280342102051e-01,8.631408810615539551e-01,8.631026148796081543e-01,8.630644083023071289e-01,8.630262017250061035e-01,8.629879355430603027e-01,8.629497885704040527e-01,8.629115819931030273e-01,8.628734350204467773e-01,8.628351688385009766e-01,8.627970218658447266e-01,8.627588748931884766e-01,8.627206087112426758e-01,8.626824617385864258e-01,8.626443147659301758e-01,8.626061081886291504e-01,8.625679612159729004e-01,8.625298142433166504e-01,8.624916672706604004e-01,8.624534606933593750e-01,8.624153137207031250e-01,8.623772263526916504e-01,8.623390197753906250e-01,8.623008728027343750e-01,8.622627854347229004e-01,8.622245788574218750e-01,8.621864914894104004e-01,8.621483445167541504e-01,8.621102571487426758e-01,8.620721101760864258e-01,8.620340228080749512e-01,8.619958758354187012e-01,8.619577288627624512e-01,8.619196414947509766e-01,8.618815541267395020e-01,8.618434071540832520e-01,8.618053197860717773e-01,8.617672324180603027e-01,8.617292046546936035e-01,8.616910576820373535e-01,8.616529703140258789e-01,8.616149425506591797e-01,8.615767955780029297e-01,8.615387082099914551e-01,8.615006804466247559e-01,8.614626526832580566e-01,8.614245057106018066e-01,8.613864779472351074e-01,8.613484501838684082e-01,8.613103032112121582e-01,8.612723350524902344e-01,8.612343072891235352e-01,8.611961603164672852e-01,8.611581325531005859e-01,8.611201643943786621e-01,8.610821366310119629e-01,8.610440492630004883e-01,8.610060214996337891e-01,8.609680533409118652e-01,8.609299659729003906e-01,8.608919382095336914e-01,8.608539700508117676e-01,8.608158826828002930e-01,8.607779145240783691e-01,8.607399463653564453e-01,8.607019782066345215e-01,8.606638908386230469e-01,8.606259226799011230e-01,8.605879545211791992e-01,8.605499267578125000e-01,8.605119585990905762e-01
8.212887644767761230e-01,8.212541937828063965e-01,8.212195038795471191e-01,8.211849331855773926e-01,8.211503624916076660e-01,8.211158514022827148e-01,8.210811614990234375e-01,8.210466504096984863e-01,8.210120797157287598e-01,8.209774494171142578e-01,8.209428787231445312e-01,8.209083676338195801e-01,8.208737373352050781e-01,8.208391666412353516e-01,8.208046555519104004e-01,8.207701444625854492e-01,8.207355141639709473e-01,8.207010030746459961e-01,8.206664919853210449e-01,8.206318616867065430e-01,8.205973505973815918e-01,8.205628395080566406e-01,8.205282688140869141e-01,8.204937577247619629e-01,8.204592466354370117e-01,8.204247355461120605e-01,8.203901648521423340e-01,8.203556537628173828e-01,8.203211426734924316e-01,8.202865719795227051e-01,8.202520608901977539e-01,8.202176094055175781e-01,8.201830983161926270e-01,8.201485276222229004e-01,8.201140761375427246e-01,8.200796246528625488e-01,8.200450539588928223e-01,8.200106024742126465e-01,8.199760913848876953e-01,8.199415802955627441e-01,8.199071288108825684e-01,8.198726177215576172e-01,8.198381662368774414e-01,8.198036551475524902e-01,8.197692036628723145e-01,8.197347521781921387e-01,8.197002410888671875e-01,8.196657896041870117e-01,8.196313381195068359e-01,8.195968270301818848e-01,8.195624351501464844e-01,8.195279836654663086e-01,8.194935321807861328e-01,8.194590806961059570e-01,8.194246292114257812e-01,8.193902373313903809e-01,8.193557262420654297e-01,8.193213343620300293e-01,8.192868828773498535e-01,8.192524313926696777e-01,8.192180395126342773e-01,8.191835880279541016e-01,8.191491961479187012e-01,8.191147446632385254e-01,8.190803527832031250e-01,8.190459609031677246e-01,8.190115094184875488e-01,8.189771175384521484e-01,8.189427256584167480e-01,8.189083337783813477e-01,8.188738822937011719e-01,8.188395500183105469e-01,8.188051581382751465e-01,8.187707066535949707e-01,8.187363743782043457e-01,8.187019824981689453e-01,8.186675310134887695e-01,8.186331987380981445e-01,8.185988664627075195e-01,8.185644745826721191e-01
7.829930186271667480e-01,7.829616069793701172e-01,7.829301357269287109e-01,7.828987240791320801e-01,7.828672528266906738e-01,7.828358411788940430e-01,7.828044295310974121e-01,7.827729582786560059e-01,7.827415466308593750e-01,7.827101349830627441e-01,7.826787233352661133e-01,7.826472520828247070e-01,7.826158404350280762e-01,7.825844287872314453e-01,7.825530171394348145e-01,7.825216054916381836e-01,7.824901938438415527e-01,7.824587821960449219e-01,7.824273705482482910e-01,7.823960185050964355e-01,7.823646068572998047e-01,7.823331952095031738e-01,7.823017835617065430e-01,7.822704315185546875e-01,7.822389602661132812e-01,7.822076082229614258e-01,7.821762561798095703e-01,7.821448445320129395e-01,7.821134924888610840e-01,7.820821404457092285e-01,7.820507884025573730e-01,7.820193171501159668e-01,7.819879651069641113e-01,7.819566726684570312e-01,7.819252014160156250e-01,7.818939089775085449e-01,7.818625569343566895e-01,7.818311452865600586e-01,7.817997932434082031e-01,7.817685008049011230e-01,7.817371487617492676e-01,7.817057371139526367e-01,7.816744446754455566e-01,7.816430926322937012e-01,7.816117405891418457e-01,7.815803885459899902e-01,7.815490961074829102e-01,7.815178036689758301e-01,7.814863920211791992e-01,7.814550995826721191e-01,7.814238071441650391e-01,7.813924551010131836e-01,7.813611030578613281e-01,7.813298106193542480e-01,7.812984585762023926e-01,7.812671661376953125e-01,7.812358736991882324e-01,7.812045812606811523e-01,7.811732292175292969e-01,7.811419963836669922e-01,7.811107039451599121e-01,7.810793519020080566e-01,7.810480594635009766e-01,7.810168266296386719e-01,7.809854745864868164e-01,7.809541821479797363e-01,7.809229493141174316e-01,7.808916568756103516e-01,7.808603644371032715e-01,7.808290719985961914e-01,7.807978391647338867e-01,7.807665467262268066e-01,7.807352542877197266e-01,7.807040214538574219e-01,7.806727290153503418e-01,7.806414961814880371e-01,7.806102633476257324e-01,7.805790305137634277e-01,7.805476784706115723e-01,7.805165052413940430e-01
7.481095790863037109e-01,7.480809092521667480e-01,7.480521202087402344e-01,7.480234503746032715e-01,7.479947805404663086e-01,7.479660511016845703e-01,7.479373812675476074e-01,7.479087114334106445e-01,7.478800415992736816e-01,7.478512525558471680e-01,7.478225827217102051e-01,7.477939128875732422e-01,7.477651834487915039e-01,7.477365732192993164e-01,7.477079033851623535e-01,7.476792335510253906e-01,7.476505041122436523e-01,7.476218342781066895e-01,7.475932240486145020e-01,7.475644946098327637e-01,7.475358247756958008e-01,7.475072145462036133e-01,7.474784851074218750e-01,7.474498748779296875e-01,7.474212050437927246e-01,7.473925948143005371e-01,7.473638653755187988e-01,7.473352551460266113e-01,7.473066449165344238e-01,7.472779154777526855e-01,7.472493052482604980e-01,7.472206950187683105e-01,7.471920251846313477e-01,7.471634149551391602e-01,7.471347451210021973e-01,7.471061348915100098e-01,7.470774650573730469e-01,7.470488548278808594e-01,7.470202445983886719e-01,7.469915747642517090e-01,7.469630241394042969e-01,7.469344139099121094e-01,7.469057440757751465e-01,7.468771338462829590e-01,7.468485236167907715e-01,7.468199729919433594e-01,7.467913031578063965e-01,7.467626929283142090e-01,7.467341423034667969e-01,7.467054724693298340e-01,7.466769218444824219e-01,7.466483116149902344e-01,7.466197609901428223e-01,7.465910911560058594e-01,7.465625405311584473e-01,7.465339899063110352e-01,7.465053200721740723e-01,7.464767694473266602e-01,7.464482188224792480e-01,7.464195489883422852e-01,7.463909983634948730e-01,7.463624477386474609e-01,7.463338971138000488e-01,7.463052868843078613e-01,7.462767362594604492e-01,7.462481856346130371e-01,7.462195754051208496e-01,7.461910247802734375e-01,7.461624741554260254e-01,7.461338639259338379e-01,7.461053729057312012e-01,7.460768222808837891e-01,7.460482716560363770e-01,7.460196614265441895e-01,7.459911704063415527e-01,7.459626197814941406e-01,7.459340691566467285e-01,7.459055185317993164e-01,7.458770275115966797e-01,7.458484172821044922e-01
7.162017226219177246e-01,7.161754369735717773e-01,7.161491513252258301e-01,7.161228656768798828e-01,7.160965204238891602e-01,7.160702347755432129e-01,7.160439491271972656e-01,7.160176038742065430e-01,7.159913182258605957e-01,7.159650325775146484e-01,7.159386873245239258e-01,7.159124612808227539e-01,7.158861756324768066e-01,7.158598899841308594e-01,7.158335447311401367e-01,7.158073186874389648e-01,7.157810330390930176e-01,7.157546877861022949e-01,7.157284617424011230e-01,7.157021760940551758e-01,7.156758904457092285e-01,7.156496047973632812e-01,7.156233787536621094e-01,7.155971527099609375e-01,7.155708074569702148e-01,7.155445814132690430e-01,7.155183553695678711e-01,7.154920101165771484e-01,7.154657840728759766e-01,7.154395580291748047e-01,7.154133319854736328e-01,7.153869867324829102e-01,7.153607606887817383e-01,7.153345346450805664e-01,7.153082489967346191e-01,7.152820229530334473e-01,7.152557969093322754e-01,7.152295112609863281e-01,7.152032852172851562e-01,7.151770591735839844e-01,7.151508927345275879e-01,7.151246070861816406e-01,7.150983810424804688e-01,7.150721549987792969e-01,7.150458693504333496e-01,7.150197029113769531e-01,7.149934768676757812e-01,7.149671912193298340e-01,7.149410247802734375e-01,7.149147987365722656e-01,7.148886322975158691e-01,7.148623466491699219e-01,7.148361802101135254e-01,7.148099541664123535e-01,7.147837281227111816e-01,7.147575616836547852e-01,7.147313356399536133e-01,7.147051095962524414e-01,7.146789431571960449e-01,7.146527171134948730e-01,7.146265506744384766e-01,7.146003246307373047e-01,7.145741581916809082e-01,7.145479917526245117e-01,7.145217657089233398e-01,7.144955992698669434e-01,7.144694328308105469e-01,7.144432663917541504e-01,7.144170403480529785e-01,7.143908739089965820e-01,7.143647074699401855e-01,7.143384814262390137e-01,7.143123149871826172e-01,7.142861485481262207e-01,7.142599821090698242e-01,7.142338156700134277e-01,7.142076492309570312e-01,7.141814827919006348e-01,7.141553163528442383e-01,7.141291499137878418e-01
6.869044303894042969e-01,6.868802309036254883e-01,6.868560314178466797e-01,6.868318319320678711e-01,6.868076324462890625e-01,6.867834329605102539e-01,6.867592334747314453e-01,6.867350339889526367e-01,6.867108941078186035e-01,6.866866350173950195e-01,6.866624951362609863e-01,6.866382956504821777e-01,6.866140961647033691e-01,6.865899562835693359e-01,6.865657567977905273e-01,6.865415573120117188e-01,6.865173578262329102e-01,6.864932179450988770e-01,6.864690780639648438e-01,6.864448785781860352e-01,6.864206790924072266e-01,6.863965392112731934e-01,6.863723397254943848e-01,6.863481998443603516e-01,6.863240599632263184e-01,6.862998604774475098e-01,6.862757205963134766e-01,6.862515807151794434e-01,6.862274408340454102e-01,6.862032413482666016e-01,6.861791014671325684e-01,6.861549615859985352e-01,6.861307621002197266e-01,6.861066222190856934e-01,6.860825419425964355e-01,6.860583424568176270e-01,6.860342025756835938e-01,6.860100626945495605e-01,6.859859824180603027e-01,6.859617829322814941e-01,6.859376430511474609e-01,6.859135627746582031e-01,6.858893632888793945e-01,6.858652830123901367e-01,6.858411431312561035e-01,6.858170628547668457e-01,6.857928633689880371e-01,6.857687830924987793e-01,6.857446432113647461e-01,6.857205033302307129e-01,6.856964230537414551e-01,6.856722831726074219e-01,6.856481432914733887e-01,6.856240630149841309e-01,6.855999231338500977e-01,6.855758428573608398e-01,6.855517029762268066e-01,6.855276226997375488e-01,6.855035424232482910e-01,6.854794025421142578e-01,6.854553222656250000e-01,6.854312419891357422e-01,6.854071021080017090e-01,6.853830218315124512e-01,6.853589415550231934e-01,6.853348612785339355e-01,6.853107213973999023e-01,6.852866411209106445e-01,6.852625608444213867e-01,6.852384209632873535e-01,6.852143406867980957e-01,6.851903200149536133e-01,6.851661801338195801e-01,6.851420998573303223e-01,6.851180791854858398e-01,6.850939989089965820e-01,6.850698590278625488e-01,6.850458383560180664e-01,6.850217580795288086e-01,6.849976778030395508e-01
