5.000000000000000000e+00,5.000000000000000000e+00,5.000000000000000000e+00,5.000000000000000000e+00,5.000000000000000000e+00,5.000000000000000000e+00,5.000000000000000000e+00,5.000000000000000000e+00,5.000000000000000000e+00,5.000000000000000000e+00,5.000000000000000000e+00,5.000000000000000000e+00,5.000000000000000000e+00,5.000000000000000000e+00,5.000000000000000000e+00,5.000000000000000000e+00,5.000000000000000000e+00,5.000000000000000000e+00,5.000000000000000000e+00,5.000000000000000000e+00,5.000000000000000000e+00,5.000000000000000000e+00,5.000000000000000000e+00,5.000000000000000000e+00,5.000000000000000000e+00,5.000000000000000000e+00,5.000000000000000000e+00,5.000000000000000000e+00,5.000000000000000000e+00,5.000000000000000000e+00,5.000000000000000000e+00,5.000000000000000000e+00,5.000000000000000000e+00,5.000000000000000000e+00,5.000000000000000000e+00,5.000000000000000000e+00,5.000000000000000000e+00,5.000000000000000000e+00,5.000000000000000000e+00,4.863006114959716797e+00,4.671961784362792969e+00,4.495360851287841797e+00,4.331624031066894531e+00,4.179395675659179688e+00,4.037504196166992188e+00,3.904931068420410156e+00,3.780786514282226562e+00,3.664292812347412109e+00,3.554763317108154297e+00,3.451591730117797852e+00,3.354239940643310547e+00,3.262229204177856445e+00,3.175131320953369141e+00,3.092563629150390625e+00,3.014181137084960938e+00,2.939673900604248047e+00,2.868761301040649414e+00,2.801189184188842773e+00,2.736727237701416016e+00,2.675165176391601562e+00,2.616311788558959961e+00,2.559992313385009766e+00,2.506046533584594727e+00,2.454327344894409180e+00,2.404699802398681641e+00,2.357039213180541992e+00,2.311231136322021484e+00,2.267169952392578125e+00,2.224757194519042969e+00,2.183902025222778320e+00,2.144520521163940430e+00,2.106534004211425781e+00,2.069869518280029297e+00,2.034460067749023438e+00,2.000241518020629883e+00,1.967155098915100098e+00,1.935145258903503418e+00,1.904160618782043457e+00,1.874152183532714844e+00,1.845075249671936035e+00
5.000000000000000000e+00,5.000000000000000000e+00,5.000000000000000000e+00,5.000000000000000000e+00,5.000000000000000000e+00,5.000000000000000000e+00,5.000000000000000000e+00,5.000000000000000000e+00,5.000000000000000000e+00,5.000000000000000000e+00,5.000000000000000000e+00,5.000000000000000000e+00,5.000000000000000000e+00,5.000000000000000000e+00,5.000000000000000000e+00,5.000000000000000000e+00,5.000000000000000000e+00,5.000000000000000000e+00,5.000000000000000000e+00,5.000000000000000000e+00,5.000000000000000000e+00,5.000000000000000000e+00,5.000000000000000000e+00,5.000000000000000000e+00,5.000000000000000000e+00,5.000000000000000000e+00,5.000000000000000000e+00,5.000000000000000000e+00,5.000000000000000000e+00,5.000000000000000000e+00,5.000000000000000000e+00,5.000000000000000000e+00,5.000000000000000000e+00,5.000000000000000000e+00,5.000000000000000000e+00,5.000000000000000000e+00,5.000000000000000000e+00,5.000000000000000000e+00,5.000000000000000000e+00,4.863144874572753906e+00,4.672090053558349609e+00,4.495479106903076172e+00,4.331734180450439453e+00,4.179498195648193359e+00,4.037600040435791016e+00,3.905020475387573242e+00,3.780870437622070312e+00,3.664371728897094727e+00,3.554837465286254883e+00,3.451661825180053711e+00,3.354305982589721680e+00,3.262291669845581055e+00,3.175190448760986328e+00,3.092619657516479492e+00,3.014234542846679688e+00,2.939724683761596680e+00,2.868809700012207031e+00,2.801235437393188477e+00,2.736770868301391602e+00,2.675207138061523438e+00,2.616352081298828125e+00,2.560030937194824219e+00,2.506083488464355469e+00,2.454362630844116211e+00,2.404733657836914062e+00,2.357071876525878906e+00,2.311262607574462891e+00,2.267199993133544922e+00,2.224786281585693359e+00,2.183930158615112305e+00,2.144547462463378906e+00,2.106559991836547852e+00,2.069894790649414062e+00,2.034484386444091797e+00,2.000264883041381836e+00,1.967177629470825195e+00,1.935167193412780762e+00,1.904181718826293945e+00,1.874172925949096680e+00,1.845095276832580566e+00
5.000000000000000000e+00,5.000000000000000000e+00,5.000000000000000000e+00,5.000000000000000000e+00,5.000000000000000000e+00,5.000000000000000000e+00,5.000000000000000000e+00,5.000000000000000000e+00,5.000000000000000000e+00,5.000000000000000000e+00,5.000000000000000000e+00,5.000000000000000000e+00,5.000000000000000000e+00,5.000000000000000000e+00,5.000000000000000000e+00,5.000000000000000000e+00,5.000000000000000000e+00,5.000000000000000000e+00,5.000000000000000000e+00,5.000000000000000000e+00,5.000000000000000000e+00,5.000000000000000000e+00,5.000000000000000000e+00,5.000000000000000000e+00,5.000000000000000000e+00,5.000000000000000000e+00,5.000000000000000000e+00,5.000000000000000000e+00,5.000000000000000000e+00,5.000000000000000000e+00,5.000000000000000000e+00,5.000000000000000000e+00,5.000000000000000000e+00,5.000000000000000000e+00,5.000000000000000000e+00,5.000000000000000000e+00,5.000000000000000000e+00,5.000000000000000000e+00,5.000000000000000000e+00,4.863284111022949219e+00,4.672218322753906250e+00,4.495597839355468750e+00,4.331844329833984375e+00,4.179601192474365234e+00,4.037695407867431641e+00,3.905109643936157227e+00,3.780954360961914062e+00,3.664450645446777344e+00,3.554911851882934570e+00,3.451731681823730469e+00,3.354372024536132812e+00,3.262354135513305664e+00,3.175249814987182617e+00,3.092675924301147461e+00,3.014287948608398438e+00,2.939775466918945312e+00,2.868857860565185547e+00,2.801281452178955078e+00,2.736814975738525391e+00,2.675249099731445312e+00,2.616392135620117188e+00,2.560069322586059570e+00,2.506120204925537109e+00,2.454398155212402344e+00,2.404767513275146484e+00,2.357104539871215820e+00,2.311294078826904297e+00,2.267230272293090820e+00,2.224815130233764648e+00,2.183958053588867188e+00,2.144574403762817383e+00,2.106585979461669922e+00,2.069919824600219727e+00,2.034508705139160156e+00,2.000288486480712891e+00,1.967200517654418945e+00,1.935189247131347656e+00,1.904202938079833984e+00,1.874193429946899414e+00,1.845115184783935547e+00
5.000000000000000000e+00,5.000000000000000000e+00,5.000000000000000000e+00,5.000000000000000000e+00,5.000000000000000000e+00,5.000000000000000000e+00,5.000000000000000000e+00,5.000000000000000000e+00,5.000000000000000000e+00,5.000000000000000000e+00,5.000000000000000000e+00,5.000000000000000000e+00,5.000000000000000000e+00,5.000000000000000000e+00,5.000000000000000000e+00,5.000000000000000000e+00,5.000000000000000000e+00,5.000000000000000000e+00,5.000000000000000000e+00,5.000000000000000000e+00,5.000000000000000000e+00,5.000000000000000000e+00,5.000000000000000000e+00,5.000000000000000000e+00,5.000000000000000000e+00,5.000000000000000000e+00,5.000000000000000000e+00,5.000000000000000000e+00,5.000000000000000000e+00,5.000000000000000000e+00,5.000000000000000000e+00,5.000000000000000000e+00,5.000000000000000000e+00,5.000000000000000000e+00,5.000000000000000000e+00,5.000000000000000000e+00,5.000000000000000000e+00,5.000000000000000000e+00,5.000000000000000000e+00,4.863422870635986328e+00,4.672346591949462891e+00,4.495716571807861328e+00,4.331954479217529297e+00,4.179703712463378906e+00,4.037791252136230469e+00,3.905199289321899414e+00,3.781038284301757812e+00,3.664529323577880859e+00,3.554986000061035156e+00,3.451801538467407227e+00,3.354438304901123047e+00,3.262416601181030273e+00,3.175308942794799805e+00,3.092731952667236328e+00,3.014341115951538086e+00,2.939826250076293945e+00,2.868906259536743164e+00,2.801327466964721680e+00,2.736858844757080078e+00,2.675291061401367188e+00,2.616432428359985352e+00,2.560107707977294922e+00,2.506157159805297852e+00,2.454433441162109375e+00,2.404801607131958008e+00,2.357136964797973633e+00,2.311325311660766602e+00,2.267260313034057617e+00,2.224844217300415039e+00,2.183986186981201172e+00,2.144601345062255859e+00,2.106611967086791992e+00,2.069945096969604492e+00,2.034533023834228516e+00,2.000311851501464844e+00,1.967223048210144043e+00,1.935211181640625000e+00,1.904224395751953125e+00,1.874214172363281250e+00,1.845135331153869629e+00
5.000000000000000000e+00,5.000000000000000000e+00,5.000000000000000000e+00,5.000000000000000000e+00,5.000000000000000000e+00,5.000000000000000000e+00,5.000000000000000000e+00,5.000000000000000000e+00,5.000000000000000000e+00,5.000000000000000000e+00,5.000000000000000000e+00,5.000000000000000000e+00,5.000000000000000000e+00,5.000000000000000000e+00,5.000000000000000000e+00,5.000000000000000000e+00,5.000000000000000000e+00,5.000000000000000000e+00,5.000000000000000000e+00,5.000000000000000000e+00,5.000000000000000000e+00,5.000000000000000000e+00,5.000000000000000000e+00,4.477213382720947266e+00,4.454752922058105469e+00,5.000000000000000000e+00,5.000000000000000000e+00,5.000000000000000000e+00,5.000000000000000000e+00,5.000000000000000000e+00,5.000000000000000000e+00,5.000000000000000000e+00,5.000000000000000000e+00,5.000000000000000000e+00,5.000000000000000000e+00,5.000000000000000000e+00,5.000000000000000000e+00,5.000000000000000000e+00,5.000000000000000000e+00,4.863561630249023438e+00,4.672474384307861328e+00,4.495835304260253906e+00,4.332064628601074219e+00,4.179806232452392578e+00,4.037887096405029297e+00,3.905288696289062500e+00,3.781122446060180664e+00,3.664608240127563477e+00,3.555060148239135742e+00,3.451871633529663086e+00,3.354504346847534180e+00,3.262479305267333984e+00,3.175368070602416992e+00,3.092788219451904297e+00,3.014394521713256836e+00,2.939877033233642578e+00,2.868954658508300781e+00,2.801373481750488281e+00,2.736902952194213867e+00,2.675333261489868164e+00,2.616472721099853516e+00,2.560146331787109375e+00,2.506194114685058594e+00,2.454468727111816406e+00,2.404835462570190430e+00,2.357169628143310547e+00,2.311356782913208008e+00,2.267290592193603516e+00,2.224873304367065430e+00,2.184014081954956055e+00,2.144628524780273438e+00,2.106638193130493164e+00,2.069970130920410156e+00,2.034557342529296875e+00,2.000335454940795898e+00,1.967245936393737793e+00,1.935233235359191895e+00,1.904245495796203613e+00,1.874234676361083984e+00,1.845155239105224609e+00
5.000000000000000000e+00,5.000000000000000000e+00,5.000000000000000000e+00,5.000000000000000000e+00,5.000000000000000000e+00,5.000000000000000000e+00,5.000000000000000000e+00,5.000000000000000000e+00,5.000000000000000000e+00,5.000000000000000000e+00,5.000000000000000000e+00,5.000000000000000000e+00,5.000000000000000000e+00,5.000000000000000000e+00,5.000000000000000000e+00,5.000000000000000000e+00,5.000000000000000000e+00,5.000000000000000000e+00,5.000000000000000000e+00,5.000000000000000000e+00,5.000000000000000000e+00,5.000000000000000000e+00,5.000000000000000000e+00,4.497446060180664062e+00,4.459057331085205078e+00,5.000000000000000000e+00,5.000000000000000000e+00,5.000000000000000000e+00,5.000000000000000000e+00,5.000000000000000000e+00,5.000000000000000000e+00,5.000000000000000000e+00,5.000000000000000000e+00,5.000000000000000000e+00,5.000000000000000000e+00,5.000000000000000000e+00,5.000000000000000000e+00,5.000000000000000000e+00,5.000000000000000000e+00,4.863700389862060547e+00,4.672602653503417969e+00,4.495954036712646484e+00,4.332174777984619141e+00,4.179908752441406250e+00,4.037982940673828125e+00,3.905378341674804688e+00,3.781206369400024414e+00,3.664687156677246094e+00,3.555134296417236328e+00,3.451941490173339844e+00,3.354570388793945312e+00,3.262541294097900391e+00,3.175427198410034180e+00,3.092844247817993164e+00,3.014447927474975586e+00,2.939927816390991211e+00,2.869002819061279297e+00,2.801419734954833984e+00,2.736946821212768555e+00,2.675375223159790039e+00,2.616512775421142578e+00,2.560184717178344727e+00,2.506230831146240234e+00,2.454504251480102539e+00,2.404869318008422852e+00,2.357202291488647461e+00,2.311388015747070312e+00,2.267320871353149414e+00,2.224902391433715820e+00,2.184042215347290039e+00,2.144655466079711914e+00,2.106664180755615234e+00,2.069995403289794922e+00,2.034581661224365234e+00,2.000358819961547852e+00,1.967268586158752441e+00,1.935255050659179688e+00,1.904266953468322754e+00,1.874255418777465820e+00,1.845175266265869141e+00
5.000000000000000000e+00,5.000000000000000000e+00,5.000000000000000000e+00,5.000000000000000000e+00,5.000000000000000000e+00,5.000000000000000000e+00,5.000000000000000000e+00,5.000000000000000000e+00,5.000000000000000000e+00,5.000000000000000000e+00,5.000000000000000000e+00,5.000000000000000000e+00,5.000000000000000000e+00,5.000000000000000000e+00,5.000000000000000000e+00,5.000000000000000000e+00,5.000000000000000000e+00,5.000000000000000000e+00,5.000000000000000000e+00,5.000000000000000000e+00,5.000000000000000000e+00,5.000000000000000000e+00,5.000000000000000000e+00,4.547277450561523438e+00,4.484480381011962891e+00,5.000000000000000000e+00,5.000000000000000000e+00,5.000000000000000000e+00,5.000000000000000000e+00,5.000000000000000000e+00,5.000000000000000000e+00,5.000000000000000000e+00,5.000000000000000000e+00,5.000000000000000000e+00,5.000000000000000000e+00,5.000000000000000000e+00,5.000000000000000000e+00,5.000000000000000000e+00,5.000000000000000000e+00,4.863839626312255859e+00,4.672730922698974609e+00,4.496072769165039062e+00,4.332284927368164062e+00,4.180011272430419922e+00,4.038078308105468750e+00,3.905467748641967773e+00,3.781290292739868164e+00,3.664765834808349609e+00,3.555208683013916016e+00,3.452011585235595703e+00,3.354636430740356445e+00,3.262603759765625000e+00,3.175486564636230469e+00,3.092900514602661133e+00,3.014501333236694336e+00,2.939978361129760742e+00,2.869051218032836914e+00,2.801465749740600586e+00,2.736990690231323242e+00,2.675417184829711914e+00,2.616553068161010742e+00,2.560223340988159180e+00,2.506267786026000977e+00,2.454539537429809570e+00,2.404903173446655273e+00,2.357234954833984375e+00,2.311419486999511719e+00,2.267350912094116211e+00,2.224931478500366211e+00,2.184070110321044922e+00,2.144682407379150391e+00,2.106690168380737305e+00,2.070020437240600586e+00,2.034605741500854492e+00,2.000382423400878906e+00,1.967291355133056641e+00,1.935277223587036133e+00,1.904288053512573242e+00,1.874275922775268555e+00,1.845195174217224121e+00
5.000000000000000000e+00,5.000000000000000000e+00,5.000000000000000000e+00,5.000000000000000000e+00,5.000000000000000000e+00,5.000000000000000000e+00,5.000000000000000000e+00,5.000000000000000000e+00,5.000000000000000000e+00,5.000000000000000000e+00,5.000000000000000000e+00,5.000000000000000000e+00,5.000000000000000000e+00,5.000000000000000000e+00,5.000000000000000000e+00,5.000000000000000000e+00,5.000000000000000000e+00,5.000000000000000000e+00,5.000000000000000000e+00,5.000000000000000000e+00,5.000000000000000000e+00,4.384649276733398438e+00,4.428411006927490234e+00,4.451912879943847656e+00,4.507997512817382812e+00,4.575975894927978516e+00,4.631761550903320312e+00,5.000000000000000000e+00,5.000000000000000000e+00,5.000000000000000000e+00,5.000000000000000000e+00,5.000000000000000000e+00,5.000000000000000000e+00,5.000000000000000000e+00,5.000000000000000000e+00,5.000000000000000000e+00,5.000000000000000000e+00,5.000000000000000000e+00,5.000000000000000000e+00,4.863978385925292969e+00,4.672859191894531250e+00,4.496191501617431641e+00,4.332395076751708984e+00,4.180113792419433594e+00,4.038174152374267578e+00,3.905557394027709961e+00,3.781374216079711914e+00,3.664844751358032227e+00,3.555282831192016602e+00,3.452081441879272461e+00,3.354702472686767578e+00,3.262666463851928711e+00,3.175545692443847656e+00,3.092956542968750000e+00,3.014554500579833984e+00,2.940029144287109375e+00,2.869099617004394531e+00,2.801511764526367188e+00,2.737034797668457031e+00,2.675459146499633789e+00,2.616593122482299805e+00,2.560261726379394531e+00,2.506304740905761719e+00,2.454574823379516602e+00,2.404937267303466797e+00,2.357267618179321289e+00,2.311450719833374023e+00,2.267381191253662109e+00,2.224960565567016602e+00,2.184098243713378906e+00,2.144709348678588867e+00,2.106716394424438477e+00,2.070045709609985352e+00,2.034630060195922852e+00,2.000406026840209961e+00,1.967314004898071289e+00,1.935299038887023926e+00,1.904309511184692383e+00,1.874296665191650391e+00,1.845215201377868652e+00
5.000000000000000000e+00,5.000000000000000000e+00,5.000000000000000000e+00,5.000000000000000000e+00,5.000000000000000000e+00,5.000000000000000000e+00,5.000000000000000000e+00,5.000000000000000000e+00,5.000000000000000000e+00,5.000000000000000000e+00,5.000000000000000000e+00,5.000000000000000000e+00,5.000000000000000000e+00,5.000000000000000000e+00,5.000000000000000000e+00,5.000000000000000000e+00,5.000000000000000000e+00,5.000000000000000000e+00,5.000000000000000000e+00,5.000000000000000000e+00,5.000000000000000000e+00,4.394452571868896484e+00,4.412228107452392578e+00,4.409304618835449219e+00,4.449856281280517578e+00,4.493585109710693359e+00,4.623063087463378906e+00,5.000000000000000000e+00,5.000000000000000000e+00,5.000000000000000000e+00,5.000000000000000000e+00,5.000000000000000000e+00,5.000000000000000000e+00,5.000000000000000000e+00,5.000000000000000000e+00,5.000000000000000000e+00,5.000000000000000000e+00,5.000000000000000000e+00,5.000000000000000000e+00,4.864117145538330078e+00,4.672987461090087891e+00,4.496309757232666016e+00,4.332505226135253906e+00,4.180216312408447266e+00,4.038269996643066406e+00,3.905646800994873047e+00,3.781458139419555664e+00,3.664923667907714844e+00,3.555356979370117188e+00,3.452151536941528320e+00,3.354768514633178711e+00,3.262728929519653320e+00,3.175604820251464844e+00,3.093012809753417969e+00,3.014607906341552734e+00,2.940079927444458008e+00,2.869148015975952148e+00,2.801557540893554688e+00,2.737078666687011719e+00,2.675501346588134766e+00,2.616633415222167969e+00,2.560300111770629883e+00,2.506341695785522461e+00,2.454610347747802734e+00,2.404971122741699219e+00,2.357300281524658203e+00,2.311482191085815430e+00,2.267411231994628906e+00,2.224989652633666992e+00,2.184126138687133789e+00,2.144736289978027344e+00,2.106742382049560547e+00,2.070070981979370117e+00,2.034654378890991211e+00,2.000429391860961914e+00,1.967336893081665039e+00,1.935321211814880371e+00,1.904330730438232422e+00,1.874317169189453125e+00,1.845235109329223633e+00
5.000000000000000000e+00,5.000000000000000000e+00,5.000000000000000000e+00,5.000000000000000000e+00,5.000000000000000000e+00,5.000000000000000000e+00,5.000000000000000000e+00,5.000000000000000000e+00,5.000000000000000000e+00,5.000000000000000000e+00,5.000000000000000000e+00,5.000000000000000000e+00,5.000000000000000000e+00,5.000000000000000000e+00,5.000000000000000000e+00,5.000000000000000000e+00,5.000000000000000000e+00,5.000000000000000000e+00,5.000000000000000000e+00,5.000000000000000000e+00,5.000000000000000000e+00,4.401640415191650391e+00,4.437545299530029297e+00,4.423712730407714844e+00,4.441249847412109375e+00,4.495789527893066406e+00,4.646464347839355469e+00,5.000000000000000000e+00,5.000000000000000000e+00,5.000000000000000000e+00,5.000000000000000000e+00,5.000000000000000000e+00,5.000000000000000000e+00,5.000000000000000000e+00,5.000000000000000000e+00,5.000000000000000000e+00,5.000000000000000000e+00,5.000000000000000000e+00,5.000000000000000000e+00,4.864256381988525391e+00,4.673115730285644531e+00,4.496428489685058594e+00,4.332615375518798828e+00,4.180319309234619141e+00,4.038365364074707031e+00,3.905736446380615234e+00,3.781542062759399414e+00,3.665002584457397461e+00,3.555431127548217773e+00,3.452221393585205078e+00,3.354834556579589844e+00,3.262791395187377930e+00,3.175664186477661133e+00,3.093069076538085938e+00,3.014661312103271484e+00,2.940130710601806641e+00,2.869196176528930664e+00,2.801603794097900391e+00,2.737122774124145508e+00,2.675543308258056641e+00,2.616673707962036133e+00,2.560338735580444336e+00,2.506378412246704102e+00,2.454645633697509766e+00,2.405005216598510742e+00,2.357332706451416016e+00,2.311513423919677734e+00,2.267441511154174805e+00,2.225018739700317383e+00,2.184154272079467773e+00,2.144763231277465820e+00,2.106768369674682617e+00,2.070096015930175781e+00,2.034678697586059570e+00,2.000452995300292969e+00,1.967359423637390137e+00,1.935343027114868164e+00,1.904352068901062012e+00,1.874337911605834961e+00,1.845255255699157715e+00
5.000000000000000000e+00,5.000000000000000000e+00,5.000000000000000000e+00,5.000000000000000000e+00,5.000000000000000000e+00,5.000000000000000000e+00,5.000000000000000000e+00,5.000000000000000000e+00,5.000000000000000000e+00,5.000000000000000000e+00,5.000000000000000000e+00,5.000000000000000000e+00,5.000000000000000000e+00,5.000000000000000000e+00,5.000000000000000000e+00,5.000000000000000000e+00,5.000000000000000000e+00,5.000000000000000000e+00,5.000000000000000000e+00,5.000000000000000000e+00,5.000000000000000000e+00,4.398287296295166016e+00,4.449589252471923828e+00,4.421748161315917969e+00,4.439402580261230469e+00,4.491344451904296875e+00,4.646333217620849609e+00,5.000000000000000000e+00,5.000000000000000000e+00,5.000000000000000000e+00,5.000000000000000000e+00,5.000000000000000000e+00,5.000000000000000000e+00,5.000000000000000000e+00,5.000000000000000000e+00,5.000000000000000000e+00,5.000000000000000000e+00,5.000000000000000000e+00,5.000000000000000000e+00,4.864395141601562500e+00,4.673243999481201172e+00,4.496547222137451172e+00,4.332726001739501953e+00,4.180421829223632812e+00,4.038461208343505859e+00,3.905826091766357422e+00,3.781625986099243164e+00,3.665081262588500977e+00,3.555505514144897461e+00,3.452291250228881836e+00,3.354900598526000977e+00,3.262853860855102539e+00,3.175723314285278320e+00,3.093125104904174805e+00,3.014714717864990234e+00,2.940181493759155273e+00,2.869244575500488281e+00,2.801649808883666992e+00,2.737166643142700195e+00,2.675585269927978516e+00,2.616713762283325195e+00,2.560377120971679688e+00,2.506415367126464844e+00,2.454680919647216797e+00,2.405039072036743164e+00,2.357365369796752930e+00,2.311544895172119141e+00,2.267471790313720703e+00,2.225047826766967773e+00,2.184182167053222656e+00,2.144790410995483398e+00,2.106794357299804688e+00,2.070121288299560547e+00,2.034703016281127930e+00,2.000476360321044922e+00,1.967382311820983887e+00,1.935364961624145508e+00,1.904373288154602051e+00,1.874358415603637695e+00,1.845275163650512695e+00
5.000000000000000000e+00,5.000000000000000000e+00,5.000000000000000000e+00,5.000000000000000000e+00,5.000000000000000000e+00,5.000000000000000000e+00,5.000000000000000000e+00,5.000000000000000000e+00,5.000000000000000000e+00,5.000000000000000000e+00,5.000000000000000000e+00,5.000000000000000000e+00,5.000000000000000000e+00,5.000000000000000000e+00,5.000000000000000000e+00,5.000000000000000000e+00,5.000000000000000000e+00,5.000000000000000000e+00,5.000000000000000000e+00,5.000000000000000000e+00,5.000000000000000000e+00,4.397131919860839844e+00,4.448289394378662109e+00,4.413098335266113281e+00,4.442236423492431641e+00,4.487131118774414062e+00,4.672784328460693359e+00,5.000000000000000000e+00,5.000000000000000000e+00,5.000000000000000000e+00,5.000000000000000000e+00,5.000000000000000000e+00,5.000000000000000000e+00,5.000000000000000000e+00,5.000000000000000000e+00,5.000000000000000000e+00,5.000000000000000000e+00,5.000000000000000000e+00,5.000000000000000000e+00,4.864533901214599609e+00,4.673371791839599609e+00,4.496665954589843750e+00,4.332836151123046875e+00,4.180524349212646484e+00,4.038557052612304688e+00,3.905915498733520508e+00,3.781709909439086914e+00,3.665160179138183594e+00,3.555579662322998047e+00,3.452361345291137695e+00,3.354966878890991211e+00,3.262916326522827148e+00,3.175782442092895508e+00,3.093181371688842773e+00,3.014768123626708984e+00,2.940232276916503906e+00,2.869292974472045898e+00,2.801695823669433594e+00,2.737210750579833984e+00,2.675627470016479492e+00,2.616754055023193359e+00,2.560415744781494141e+00,2.506452322006225586e+00,2.454716205596923828e+00,2.405073165893554688e+00,2.357398033142089844e+00,2.311576366424560547e+00,2.267501831054687500e+00,2.225076913833618164e+00,2.184210062026977539e+00,2.144817352294921875e+00,2.106820583343505859e+00,2.070146322250366211e+00,2.034727334976196289e+00,2.000499963760375977e+00,1.967404842376708984e+00,1.935387015342712402e+00,1.904394626617431641e+00,1.874379158020019531e+00,1.845295190811157227e+00
5.000000000000000000e+00,5.000000000000000000e+00,5.000000000000000000e+00,5.000000000000000000e+00,5.000000000000000000e+00,5.000000000000000000e+00,5.000000000000000000e+00,5.000000000000000000e+00,5.000000000000000000e+00,5.000000000000000000e+00,5.000000000000000000e+00,5.000000000000000000e+00,5.000000000000000000e+00,5.000000000000000000e+00,5.000000000000000000e+00,5.000000000000000000e+00,5.000000000000000000e+00,5.000000000000000000e+00,5.000000000000000000e+00,5.000000000000000000e+00,5.000000000000000000e+00,4.351481914520263672e+00,4.436237335205078125e+00,4.420733928680419922e+00,4.441887855529785156e+00,4.500875473022460938e+00,4.674519062042236328e+00,5.000000000000000000e+00,5.000000000000000000e+00,5.000000000000000000e+00,5.000000000000000000e+00,5.000000000000000000e+00,5.000000000000000000e+00,5.000000000000000000e+00,5.000000000000000000e+00,5.000000000000000000e+00,5.000000000000000000e+00,5.000000000000000000e+00,5.000000000000000000e+00,4.864673137664794922e+00,4.673500061035156250e+00,4.496784687042236328e+00,4.332946300506591797e+00,4.180626869201660156e+00,4.038652896881103516e+00,3.906005144119262695e+00,3.781794071197509766e+00,3.665239095687866211e+00,3.555653810501098633e+00,3.452431201934814453e+00,3.355032444000244141e+00,3.262978792190551758e+00,3.175841808319091797e+00,3.093237400054931641e+00,3.014821529388427734e+00,2.940283060073852539e+00,2.869341135025024414e+00,2.801742076873779297e+00,2.737254619598388672e+00,2.675669431686401367e+00,2.616794109344482422e+00,2.560454130172729492e+00,2.506489038467407227e+00,2.454751729965209961e+00,2.405107021331787109e+00,2.357430696487426758e+00,2.311607599258422852e+00,2.267532110214233398e+00,2.225105762481689453e+00,2.184238195419311523e+00,2.144844293594360352e+00,2.106846570968627930e+00,2.070171594619750977e+00,2.034751653671264648e+00,2.000523328781127930e+00,1.967427730560302734e+00,1.935408949851989746e+00,1.904415845870971680e+00,1.874399662017822266e+00,1.845315098762512207e+00
5.000000000000000000e+00,5.000000000000000000e+00,5.000000000000000000e+00,5.000000000000000000e+00,5.000000000000000000e+00,5.000000000000000000e+00,5.000000000000000000e+00,5.000000000000000000e+00,5.000000000000000000e+00,5.000000000000000000e+00,5.000000000000000000e+00,5.000000000000000000e+00,5.000000000000000000e+00,5.000000000000000000e+00,5.000000000000000000e+00,5.000000000000000000e+00,5.000000000000000000e+00,5.000000000000000000e+00,5.000000000000000000e+00,5.000000000000000000e+00,5.000000000000000000e+00,4.311859607696533203e+00,4.425434112548828125e+00,4.431052684783935547e+00,4.461828231811523438e+00,4.487771034240722656e+00,4.665148258209228516e+00,5.000000000000000000e+00,5.000000000000000000e+00,5.000000000000000000e+00,5.000000000000000000e+00,5.000000000000000000e+00,5.000000000000000000e+00,5.000000000000000000e+00,5.000000000000000000e+00,5.000000000000000000e+00,5.000000000000000000e+00,5.000000000000000000e+00,5.000000000000000000e+00,4.864811897277832031e+00,4.673628330230712891e+00,4.496903419494628906e+00,4.333056449890136719e+00,4.180729389190673828e+00,4.038748741149902344e+00,3.906094789505004883e+00,3.781877994537353516e+00,3.665318012237548828e+00,3.555728197097778320e+00,3.452501296997070312e+00,3.355098724365234375e+00,3.263041496276855469e+00,3.175900936126708984e+00,3.093293666839599609e+00,3.014874696731567383e+00,2.940333604812622070e+00,2.869389533996582031e+00,2.801788091659545898e+00,2.737298727035522461e+00,2.675711393356323242e+00,2.616834402084350586e+00,2.560492753982543945e+00,2.506525993347167969e+00,2.454787015914916992e+00,2.405140876770019531e+00,2.357463359832763672e+00,2.311639070510864258e+00,2.267562389373779297e+00,2.225134849548339844e+00,2.184266090393066406e+00,2.144871473312377930e+00,2.106872558593750000e+00,2.070196628570556641e+00,2.034775972366333008e+00,2.000546932220458984e+00,1.967450380325317383e+00,1.935431003570556641e+00,1.904437303543090820e+00,1.874420404434204102e+00,1.845335245132446289e+00
5.000000000000000000e+00,5.000000000000000000e+00,5.000000000000000000e+00,5.000000000000000000e+00,5.000000000000000000e+00,5.000000000000000000e+00,5.000000000000000000e+00,5.000000000000000000e+00,5.000000000000000000e+00,5.000000000000000000e+00,5.000000000000000000e+00,5.000000000000000000e+00,5.000000000000000000e+00,5.000000000000000000e+00,5.000000000000000000e+00,5.000000000000000000e+00,5.000000000000000000e+00,5.000000000000000000e+00,5.000000000000000000e+00,5.000000000000000000e+00,5.000000000000000000e+00,4.279082298278808594e+00,4.295159339904785156e+00,4.432168960571289062e+00,4.467831611633300781e+00,4.425289630889892578e+00,4.493413925170898438e+00,5.000000000000000000e+00,5.000000000000000000e+00,5.000000000000000000e+00,5.000000000000000000e+00,5.000000000000000000e+00,5.000000000000000000e+00,5.000000000000000000e+00,5.000000000000000000e+00,5.000000000000000000e+00,5.000000000000000000e+00,5.000000000000000000e+00,5.000000000000000000e+00,4.864950656890869141e+00,4.673756599426269531e+00,4.497022151947021484e+00,4.333166599273681641e+00,4.180831909179687500e+00,4.038844108581542969e+00,3.906184434890747070e+00,3.781961917877197266e+00,3.665396928787231445e+00,3.555802345275878906e+00,3.452571153640747070e+00,3.355164766311645508e+00,3.263103961944580078e+00,3.175960302352905273e+00,3.093349933624267578e+00,3.014928102493286133e+00,2.940384387969970703e+00,2.869437694549560547e+00,2.801834106445312500e+00,2.737342596054077148e+00,2.675753355026245117e+00,2.616874694824218750e+00,2.560531139373779297e+00,2.506562948226928711e+00,2.454822301864624023e+00,2.405174970626831055e+00,2.357496023178100586e+00,2.311670303344726562e+00,2.267592430114746094e+00,2.225163936614990234e+00,2.184293985366821289e+00,2.144898414611816406e+00,2.106898784637451172e+00,2.070221900939941406e+00,2.034800291061401367e+00,2.000570297241210938e+00,1.967473149299621582e+00,1.935452938079833984e+00,1.904458403587341309e+00,1.874441027641296387e+00,1.845355153083801270e+00
5.000000000000000000e+00,5.000000000000000000e+00,5.000000000000000000e+00,5.000000000000000000e+00,5.000000000000000000e+00,5.000000000000000000e+00,5.000000000000000000e+00,5.000000000000000000e+00,5.000000000000000000e+00,5.000000000000000000e+00,5.000000000000000000e+00,5.000000000000000000e+00,5.000000000000000000e+00,5.000000000000000000e+00,5.000000000000000000e+00,5.000000000000000000e+00,5.000000000000000000e+00,5.000000000000000000e+00,5.000000000000000000e+00,5.000000000000000000e+00,5.000000000000000000e+00,4.244097709655761719e+00,4.439043045043945312e+00,4.445546150207519531e+00,4.510566234588623047e+00,4.396821975708007812e+00,4.444537162780761719e+00,5.000000000000000000e+00,5.000000000000000000e+00,5.000000000000000000e+00,5.000000000000000000e+00,5.000000000000000000e+00,5.000000000000000000e+00,5.000000000000000000e+00,5.000000000000000000e+00,5.000000000000000000e+00,5.000000000000000000e+00,5.000000000000000000e+00,5.000000000000000000e+00,4.865089893341064453e+00,4.673884391784667969e+00,4.497140884399414062e+00,4.333276748657226562e+00,4.180934906005859375e+00,4.038939952850341797e+00,3.906273841857910156e+00,3.782045841217041016e+00,3.665475606918334961e+00,3.555876493453979492e+00,3.452641248703002930e+00,3.355230808258056641e+00,3.263166427612304688e+00,3.176019430160522461e+00,3.093405961990356445e+00,3.014981508255004883e+00,2.940435171127319336e+00,2.869486093521118164e+00,2.801880121231079102e+00,2.737386703491210938e+00,2.675795555114746094e+00,2.616914749145507812e+00,2.560569763183593750e+00,2.506599664688110352e+00,2.454857826232910156e+00,2.405208826065063477e+00,2.357528686523437500e+00,2.311701774597167969e+00,2.267622709274291992e+00,2.225193023681640625e+00,2.184322118759155273e+00,2.144925355911254883e+00,2.106924772262573242e+00,2.070246934890747070e+00,2.034824609756469727e+00,2.000593900680541992e+00,1.967495799064636230e+00,1.935474991798400879e+00,1.904479861259460449e+00,1.874461650848388672e+00,1.845375180244445801e+00
5.000000000000000000e+00,5.000000000000000000e+00,5.000000000000000000e+00,5.000000000000000000e+00,5.000000000000000000e+00,5.000000000000000000e+00,5.000000000000000000e+00,5.000000000000000000e+00,5.000000000000000000e+00,5.000000000000000000e+00,5.000000000000000000e+00,5.000000000000000000e+00,5.000000000000000000e+00,5.000000000000000000e+00,5.000000000000000000e+00,5.000000000000000000e+00,5.000000000000000000e+00,5.000000000000000000e+00,5.000000000000000000e+00,5.000000000000000000e+00,5.000000000000000000e+00,5.000000000000000000e+00,4.477011203765869141e+00,4.467244625091552734e+00,5.000000000000000000e+00,4.362169742584228516e+00,4.382352828979492188e+00,5.000000000000000000e+00,5.000000000000000000e+00,5.000000000000000000e+00,5.000000000000000000e+00,5.000000000000000000e+00,5.000000000000000000e+00,5.000000000000000000e+00,5.000000000000000000e+00,5.000000000000000000e+00,5.000000000000000000e+00,5.000000000000000000e+00,5.000000000000000000e+00,4.865228652954101562e+00,4.674012660980224609e+00,4.497259616851806641e+00,4.333387374877929688e+00,4.181036949157714844e+00,4.039035797119140625e+00,3.906363487243652344e+00,3.782129764556884766e+00,3.665554523468017578e+00,3.555950880050659180e+00,3.452711343765258789e+00,3.355296850204467773e+00,3.263228893280029297e+00,3.176078557968139648e+00,3.093462228775024414e+00,3.015034914016723633e+00,2.940485954284667969e+00,2.869534254074096680e+00,2.801926374435424805e+00,2.737430572509765625e+00,2.675837516784667969e+00,2.616955041885375977e+00,2.560608148574829102e+00,2.506636619567871094e+00,2.454893112182617188e+00,2.405242919921875000e+00,2.357561111450195312e+00,2.311733245849609375e+00,2.267652750015258789e+00,2.225222110748291016e+00,2.184350013732910156e+00,2.144952297210693359e+00,2.106950759887695312e+00,2.070272207260131836e+00,2.034848928451538086e+00,2.000617265701293945e+00,1.967518448829650879e+00,1.935496926307678223e+00,1.904501080513000488e+00,1.874482274055480957e+00,1.845395088195800781e+00
5.000000000000000000e+00,5.000000000000000000e+00,5.000000000000000000e+00,5.000000000000000000e+00,5.000000000000000000e+00,5.000000000000000000e+00,5.000000000000000000e+00,5.000000000000000000e+00,5.000000000000000000e+00,5.000000000000000000e+00,5.000000000000000000e+00,5.000000000000000000e+00,5.000000000000000000e+00,5.000000000000000000e+00,5.000000000000000000e+00,5.000000000000000000e+00,5.000000000000000000e+00,5.000000000000000000e+00,5.000000000000000000e+00,5.000000000000000000e+00,5.000000000000000000e+00,5.000000000000000000e+00,4.528513908386230469e+00,4.487372398376464844e+00,5.000000000000000000e+00,4.350339889526367188e+00,4.340991020202636719e+00,5.000000000000000000e+00,5.000000000000000000e+00,5.000000000000000000e+00,5.000000000000000000e+00,5.000000000000000000e+00,5.000000000000000000e+00,5.000000000000000000e+00,5.000000000000000000e+00,5.000000000000000000e+00,5.000000000000000000e+00,5.000000000000000000e+00,5.000000000000000000e+00,4.865367889404296875e+00,4.674140930175781250e+00,4.497378349304199219e+00,4.333497524261474609e+00,4.181139945983886719e+00,4.039131641387939453e+00,3.906453132629394531e+00,3.782213926315307617e+00,3.665633440017700195e+00,3.556025028228759766e+00,3.452781200408935547e+00,3.355362892150878906e+00,3.263291358947753906e+00,3.176137924194335938e+00,3.093518495559692383e+00,3.015088319778442383e+00,2.940536737442016602e+00,2.869582653045654297e+00,2.801972389221191406e+00,2.737474679946899414e+00,2.675879478454589844e+00,2.616995334625244141e+00,2.560646533966064453e+00,2.506673336029052734e+00,2.454928636550903320e+00,2.405276775360107422e+00,2.357593774795532227e+00,2.311764478683471680e+00,2.267683029174804688e+00,2.225251197814941406e+00,2.184378147125244141e+00,2.144979476928710938e+00,2.106976985931396484e+00,2.070297241210937500e+00,2.034873247146606445e+00,2.000640869140625000e+00,1.967541217803955078e+00,1.935518980026245117e+00,1.904522418975830078e+00,1.874503016471862793e+00,1.845415234565734863e+00
5.000000000000000000e+00,5.000000000000000000e+00,5.000000000000000000e+00,5.000000000000000000e+00,5.000000000000000000e+00,5.000000000000000000e+00,5.000000000000000000e+00,5.000000000000000000e+00,5.000000000000000000e+00,5.000000000000000000e+00,5.000000000000000000e+00,5.000000000000000000e+00,5.000000000000000000e+00,5.000000000000000000e+00,5.000000000000000000e+00,5.000000000000000000e+00,5.000000000000000000e+00,5.000000000000000000e+00,5.000000000000000000e+00,5.000000000000000000e+00,5.000000000000000000e+00,5.000000000000000000e+00,4.593562602996826172e+00,4.509582042694091797e+00,5.000000000000000000e+00,4.366907119750976562e+00,4.350558280944824219e+00,5.000000000000000000e+00,5.000000000000000000e+00,5.000000000000000000e+00,5.000000000000000000e+00,5.000000000000000000e+00,5.000000000000000000e+00,5.000000000000000000e+00,5.000000000000000000e+00,5.000000000000000000e+00,5.000000000000000000e+00,5.000000000000000000e+00,5.000000000000000000e+00,4.865506172180175781e+00,4.674269199371337891e+00,4.497497081756591797e+00,4.333607673645019531e+00,4.181242465972900391e+00,4.039227485656738281e+00,3.906542778015136719e+00,3.782297849655151367e+00,3.665712356567382812e+00,3.556099414825439453e+00,3.452850818634033203e+00,3.355429172515869141e+00,3.263354063034057617e+00,3.176197052001953125e+00,3.093574523925781250e+00,3.015141725540161133e+00,2.940587520599365234e+00,2.869631052017211914e+00,2.802018404006958008e+00,2.737518548965454102e+00,2.675921678543090820e+00,2.617035388946533203e+00,2.560685157775878906e+00,2.506710290908813477e+00,2.454963922500610352e+00,2.405310869216918945e+00,2.357626438140869141e+00,2.311795949935913086e+00,2.267713308334350586e+00,2.225280284881591797e+00,2.184406042098999023e+00,2.145006418228149414e+00,2.107002973556518555e+00,2.070322513580322266e+00,2.034897565841674805e+00,2.000664472579956055e+00,1.967563867568969727e+00,1.935540914535522461e+00,1.904543638229370117e+00,1.874523520469665527e+00,1.845435023307800293e+00
5.000000000000000000e+00,5.000000000000000000e+00,5.000000000000000000e+00,5.000000000000000000e+00,5.000000000000000000e+00,5.000000000000000000e+00,5.000000000000000000e+00,5.000000000000000000e+00,5.000000000000000000e+00,5.000000000000000000e+00,5.000000000000000000e+00,5.000000000000000000e+00,5.000000000000000000e+00,5.000000000000000000e+00,5.000000000000000000e+00,5.000000000000000000e+00,5.000000000000000000e+00,5.000000000000000000e+00,5.000000000000000000e+00,5.000000000000000000e+00,5.000000000000000000e+00,5.000000000000000000e+00,4.589671134948730469e+00,4.567548751831054688e+00,5.000000000000000000e+00,4.393180370330810547e+00,4.364117622375488281e+00,5.000000000000000000e+00,5.000000000000000000e+00,5.000000000000000000e+00,5.000000000000000000e+00,5.000000000000000000e+00,5.000000000000000000e+00,5.000000000000000000e+00,5.000000000000000000e+00,5.000000000000000000e+00,5.000000000000000000e+00,5.000000000000000000e+00,5.000000000000000000e+00,4.865645408630371094e+00,4.674397468566894531e+00,4.497615814208984375e+00,4.333717823028564453e+00,4.181344985961914062e+00,4.039323329925537109e+00,3.906632184982299805e+00,3.782381772994995117e+00,3.665791273117065430e+00,3.556173563003540039e+00,3.452920913696289062e+00,3.355495214462280273e+00,3.263416528701782227e+00,3.176256418228149414e+00,3.093630790710449219e+00,3.015194892883300781e+00,2.940638303756713867e+00,2.869679450988769531e+00,2.802064657211303711e+00,2.737562656402587891e+00,2.675963640213012695e+00,2.617075681686401367e+00,2.560723543167114258e+00,2.506747245788574219e+00,2.454999208450317383e+00,2.405344724655151367e+00,2.357659101486206055e+00,2.311827182769775391e+00,2.267743349075317383e+00,2.225309371948242188e+00,2.184434175491333008e+00,2.145033359527587891e+00,2.107028961181640625e+00,2.070347547531127930e+00,2.034921884536743164e+00,2.000687837600708008e+00,1.967586755752563477e+00,1.935562968254089355e+00,1.904564976692199707e+00,1.874544262886047363e+00,1.845455169677734375e+00
5.000000000000000000e+00,5.000000000000000000e+00,5.000000000000000000e+00,5.000000000000000000e+00,5.000000000000000000e+00,5.000000000000000000e+00,5.000000000000000000e+00,5.000000000000000000e+00,5.000000000000000000e+00,5.000000000000000000e+00,5.000000000000000000e+00,5.000000000000000000e+00,5.000000000000000000e+00,5.000000000000000000e+00,5.000000000000000000e+00,5.000000000000000000e+00,5.000000000000000000e+00,5.000000000000000000e+00,5.000000000000000000e+00,5.000000000000000000e+00,5.000000000000000000e+00,5.000000000000000000e+00,4.627938270568847656e+00,4.636445045471191406e+00,5.000000000000000000e+00,5.000000000000000000e+00,4.359031677246093750e+00,5.000000000000000000e+00,5.000000000000000000e+00,5.000000000000000000e+00,5.000000000000000000e+00,5.000000000000000000e+00,5.000000000000000000e+00,5.000000000000000000e+00,5.000000000000000000e+00,5.000000000000000000e+00,5.000000000000000000e+00,5.000000000000000000e+00,5.000000000000000000e+00,4.865784645080566406e+00,4.674525737762451172e+00,4.497734546661376953e+00,4.333827972412109375e+00,4.181447505950927734e+00,4.039419174194335938e+00,3.906721830368041992e+00,3.782465934753417969e+00,3.665870189666748047e+00,3.556247711181640625e+00,3.452990770339965820e+00,3.355561256408691406e+00,3.263478994369506836e+00,3.176315546035766602e+00,3.093687057495117188e+00,3.015248298645019531e+00,2.940689086914062500e+00,2.869727849960327148e+00,2.802110671997070312e+00,2.737606763839721680e+00,2.676005601882934570e+00,2.617115974426269531e+00,2.560762166976928711e+00,2.506783962249755859e+00,2.455034732818603516e+00,2.405378818511962891e+00,2.357691764831542969e+00,2.311858654022216797e+00,2.267773628234863281e+00,2.225338220596313477e+00,2.184462070465087891e+00,2.145060539245605469e+00,2.107054948806762695e+00,2.070372819900512695e+00,2.034946203231811523e+00,2.000711441040039062e+00,1.967609286308288574e+00,1.935584902763366699e+00,1.904586195945739746e+00,1.874564766883850098e+00,1.845475077629089355e+00
5.000000000000000000e+00,5.000000000000000000e+00,5.000000000000000000e+00,5.000000000000000000e+00,5.000000000000000000e+00,5.000000000000000000e+00,5.000000000000000000e+00,5.000000000000000000e+00,5.000000000000000000e+00,5.000000000000000000e+00,5.000000000000000000e+00,5.000000000000000000e+00,5.000000000000000000e+00,5.000000000000000000e+00,5.000000000000000000e+00,5.000000000000000000e+00,5.000000000000000000e+00,5.000000000000000000e+00,5.000000000000000000e+00,5.000000000000000000e+00,5.000000000000000000e+00,5.000000000000000000e+00,4.668084621429443359e+00,4.668072223663330078e+00,5.000000000000000000e+00,5.000000000000000000e+00,4.352870941162109375e+00,5.000000000000000000e+00,5.000000000000000000e+00,5.000000000000000000e+00,5.000000000000000000e+00,5.000000000000000000e+00,5.000000000000000000e+00,5.000000000000000000e+00,5.000000000000000000e+00,5.000000000000000000e+00,5.000000000000000000e+00,5.000000000000000000e+00,5.000000000000000000e+00,4.865923881530761719e+00,4.674654483795166016e+00,4.497852802276611328e+00,4.333938598632812500e+00,4.181550502777099609e+00,4.039515018463134766e+00,3.906811475753784180e+00,3.782549858093261719e+00,3.665949106216430664e+00,3.556322097778320312e+00,3.453060865402221680e+00,3.355627298355102539e+00,3.263541460037231445e+00,3.176374673843383789e+00,3.093743085861206055e+00,3.015301704406738281e+00,2.940739631652832031e+00,2.869776010513305664e+00,2.802156686782836914e+00,2.737650632858276367e+00,2.676047801971435547e+00,2.617156028747558594e+00,2.560800552368164062e+00,2.506820917129516602e+00,2.455070018768310547e+00,2.405412673950195312e+00,2.357724428176879883e+00,2.311890125274658203e+00,2.267803907394409180e+00,2.225367307662963867e+00,2.184490203857421875e+00,2.145087480545043945e+00,2.107081174850463867e+00,2.070398092269897461e+00,2.034970521926879883e+00,2.000734806060791016e+00,1.967632174491882324e+00,1.935606956481933594e+00,1.904607653617858887e+00,1.874585509300231934e+00,1.845495104789733887e+00
5.000000000000000000e+00,5.000000000000000000e+00,5.000000000000000000e+00,5.000000000000000000e+00,5.000000000000000000e+00,5.000000000000000000e+00,5.000000000000000000e+00,5.000000000000000000e+00,5.000000000000000000e+00,5.000000000000000000e+00,5.000000000000000000e+00,5.000000000000000000e+00,5.000000000000000000e+00,5.000000000000000000e+00,5.000000000000000000e+00,5.000000000000000000e+00,5.000000000000000000e+00,5.000000000000000000e+00,5.000000000000000000e+00,5.000000000000000000e+00,5.000000000000000000e+00,5.000000000000000000e+00,4.713478088378906250e+00,4.704174518585205078e+00,5.000000000000000000e+00,5.000000000000000000e+00,4.347531318664550781e+00,5.000000000000000000e+00,5.000000000000000000e+00,5.000000000000000000e+00,5.000000000000000000e+00,5.000000000000000000e+00,5.000000000000000000e+00,5.000000000000000000e+00,5.000000000000000000e+00,5.000000000000000000e+00,5.000000000000000000e+00,5.000000000000000000e+00,5.000000000000000000e+00,4.866063117980957031e+00,4.674782752990722656e+00,4.497971534729003906e+00,4.334048271179199219e+00,4.181653022766113281e+00,4.039610385894775391e+00,3.906901121139526367e+00,3.782633781433105469e+00,3.666028022766113281e+00,3.556396245956420898e+00,3.453130960464477539e+00,3.355693578720092773e+00,3.263604164123535156e+00,3.176434040069580078e+00,3.093799352645874023e+00,3.015355110168457031e+00,2.940790414810180664e+00,2.869824409484863281e+00,2.802202939987182617e+00,2.737694740295410156e+00,2.676089763641357422e+00,2.617196321487426758e+00,2.560839176177978516e+00,2.506857872009277344e+00,2.455105543136596680e+00,2.405446767807006836e+00,2.357757091522216797e+00,2.311921358108520508e+00,2.267833948135375977e+00,2.225396394729614258e+00,2.184518098831176758e+00,2.145114421844482422e+00,2.107107162475585938e+00,2.070423126220703125e+00,2.034994840621948242e+00,2.000758171081542969e+00,1.967654824256896973e+00,1.935628890991210938e+00,1.904628872871398926e+00,1.874606013298034668e+00,1.845515012741088867e+00
5.000000000000000000e+00,5.000000000000000000e+00,5.000000000000000000e+00,5.000000000000000000e+00,5.000000000000000000e+00,5.000000000000000000e+00,5.000000000000000000e+00,5.000000000000000000e+00,5.000000000000000000e+00,5.000000000000000000e+00,5.000000000000000000e+00,5.000000000000000000e+00,5.000000000000000000e+00,5.000000000000000000e+00,5.000000000000000000e+00,5.000000000000000000e+00,5.000000000000000000e+00,5.000000000000000000e+00,5.000000000000000000e+00,5.000000000000000000e+00,5.000000000000000000e+00,5.000000000000000000e+00,5.000000000000000000e+00,4.743481159210205078e+00,5.000000000000000000e+00,5.000000000000000000e+00,4.342561721801757812e+00,5.000000000000000000e+00,5.000000000000000000e+00,5.000000000000000000e+00,5.000000000000000000e+00,5.000000000000000000e+00,5.000000000000000000e+00,5.000000000000000000e+00,5.000000000000000000e+00,5.000000000000000000e+00,5.000000000000000000e+00,5.000000000000000000e+00,5.000000000000000000e+00,4.866202354431152344e+00,4.674911499023437500e+00,4.498090744018554688e+00,4.334158897399902344e+00,4.181755065917968750e+00,4.039706230163574219e+00,3.906990766525268555e+00,3.782717943191528320e+00,3.666106939315795898e+00,3.556470632553100586e+00,3.453200817108154297e+00,3.355759620666503906e+00,3.263666629791259766e+00,3.176493167877197266e+00,3.093855619430541992e+00,3.015408515930175781e+00,2.940841197967529297e+00,2.869872808456420898e+00,2.802248954772949219e+00,2.737738609313964844e+00,2.676131725311279297e+00,2.617236614227294922e+00,2.560877561569213867e+00,2.506894826889038086e+00,2.455140829086303711e+00,2.405480623245239258e+00,2.357789754867553711e+00,2.311952829360961914e+00,2.267864227294921875e+00,2.225425481796264648e+00,2.184546232223510742e+00,2.145141601562500000e+00,2.107133150100708008e+00,2.070448398590087891e+00,2.035019159317016602e+00,2.000781774520874023e+00,1.967677593231201172e+00,1.935650944709777832e+00,1.904650211334228516e+00,1.874626755714416504e+00,1.845535159111022949e+00
4.875529289245605469e+00,4.874318599700927734e+00,4.873107433319091797e+00,4.871897697448730469e+00,4.870688438415527344e+00,4.869479656219482422e+00,4.868271350860595703e+00,4.867063522338867188e+00,4.865856647491455078e+00,4.864650249481201172e+00,4.863444328308105469e+00,4.862239360809326172e+00,4.861034870147705078e+00,4.859830856323242188e+00,4.858627319335937500e+00,4.857424259185791016e+00,4.856222152709960938e+00,4.855020999908447266e+00,4.853819370269775391e+00,4.852619171142578125e+00,4.851419448852539062e+00,4.850220203399658203e+00,4.849021434783935547e+00,4.639366149902343750e+00,4.846626281738281250e+00,4.845428943634033203e+00,4.367712020874023438e+00,4.843037128448486328e+00,4.841842174530029297e+00,4.840647220611572266e+00,4.839453697204589844e+00,4.838260173797607422e+00,4.837067604064941406e+00,4.835875034332275391e+00,4.834683418273925781e+00,4.833492755889892578e+00,4.832302093505859375e+00,4.831112384796142578e+00,4.829923152923583984e+00,4.828734397888183594e+00,4.675039768218994141e+00,4.498209953308105469e+00,4.334269046783447266e+00,4.181858062744140625e+00,4.039802074432373047e+00,3.907080411911010742e+00,3.782801866531372070e+00,3.666185855865478516e+00,3.556544780731201172e+00,3.453270912170410156e+00,3.355825662612915039e+00,3.263729095458984375e+00,3.176552534103393555e+00,3.093911647796630859e+00,3.015461921691894531e+00,2.940891981124877930e+00,2.869921207427978516e+00,2.802295207977294922e+00,2.737782716751098633e+00,2.676173925399780273e+00,2.617276668548583984e+00,2.560915946960449219e+00,2.506931543350219727e+00,2.455176353454589844e+00,2.405514717102050781e+00,2.357822418212890625e+00,2.311984062194824219e+00,2.267894506454467773e+00,2.225454568862915039e+00,2.184574127197265625e+00,2.145168542861938477e+00,2.107159376144409180e+00,2.070473432540893555e+00,2.035043478012084961e+00,2.000805139541625977e+00,1.967700242996215820e+00,1.935672879219055176e+00,1.904671430587768555e+00,1.874647259712219238e+00,1.845555067062377930e+00
3.778325796127319336e+00,3.777598619461059570e+00,3.776871442794799805e+00,3.776144504547119141e+00,3.775418043136596680e+00,3.774691820144653320e+00,3.773965358734130859e+00,3.773239612579345703e+00,3.772514104843139648e+00,3.771789073944091797e+00,3.771064281463623047e+00,3.770339488983154297e+00,3.769615411758422852e+00,3.768891334533691406e+00,3.768167018890380859e+00,3.767443656921386719e+00,3.766720533370971680e+00,3.765997648239135742e+00,3.765275001525878906e+00,3.764552354812622070e+00,3.763830423355102539e+00,3.763108253479003906e+00,3.762386560440063477e+00,3.761665344238281250e+00,3.760944366455078125e+00,3.760223865509033203e+00,3.759503364562988281e+00,3.758783102035522461e+00,3.758063316345214844e+00,3.757343292236328125e+00,3.756623983383178711e+00,3.755904912948608398e+00,3.755186080932617188e+00,3.754467725753784180e+00,3.753749370574951172e+00,3.753031492233276367e+00,3.752313375473022461e+00,3.751595973968505859e+00,3.750878810882568359e+00,3.750161886215209961e+00,3.749445438385009766e+00,3.748728990554809570e+00,3.748013019561767578e+00,3.747297286987304688e+00,3.746581315994262695e+00,3.745866060256958008e+00,3.745151281356811523e+00,3.666264772415161133e+00,3.556618690490722656e+00,3.453341007232666016e+00,3.355891942977905273e+00,3.263791561126708984e+00,3.176611661911010742e+00,3.093967914581298828e+00,3.015515327453613281e+00,2.940942764282226562e+00,2.869969606399536133e+00,2.802341222763061523e+00,2.737826585769653320e+00,2.676215887069702148e+00,2.617316961288452148e+00,2.560954570770263672e+00,2.506968498229980469e+00,2.455211639404296875e+00,2.405548572540283203e+00,2.357854843139648438e+00,2.312015533447265625e+00,2.267924547195434570e+00,2.225483655929565430e+00,2.184602260589599609e+00,2.145195484161376953e+00,2.107185363769531250e+00,2.070498704910278320e+00,2.035067796707153320e+00,2.000828742980957031e+00,1.967723131179809570e+00,1.935694932937622070e+00,1.904692769050598145e+00,1.874668002128601074e+00,1.845575094223022461e+00
3.084239482879638672e+00,3.083754777908325195e+00,3.083270311355590820e+00,3.082785844802856445e+00,3.082301616668701172e+00,3.081817626953125000e+00,3.081333398818969727e+00,3.080849647521972656e+00,3.080365896224975586e+00,3.079882383346557617e+00,3.079399108886718750e+00,3.078916072845458984e+00,3.078433036804199219e+00,3.077950000762939453e+00,3.077466964721679688e+00,3.076984405517578125e+00,3.076502084732055664e+00,3.076019763946533203e+00,3.075537681579589844e+00,3.075055599212646484e+00,3.074573755264282227e+00,3.074091911315917969e+00,3.073610305786132812e+00,3.073128938674926758e+00,3.072647809982299805e+00,3.072166681289672852e+00,3.071685791015625000e+00,3.071204900741577148e+00,3.070724487304687500e+00,3.070243597030639648e+00,3.069763422012329102e+00,3.069283246994018555e+00,3.068803071975708008e+00,3.068323373794555664e+00,3.067843675613403320e+00,3.067363977432250977e+00,3.066884279251098633e+00,3.066405057907104492e+00,3.065926074981689453e+00,3.065447092056274414e+00,3.064968347549438477e+00,3.064489603042602539e+00,3.064011096954345703e+00,3.063532829284667969e+00,3.063054323196411133e+00,3.062576055526733398e+00,3.062098264694213867e+00,3.061620473861694336e+00,3.061142921447753906e+00,3.060665369033813477e+00,3.060188055038452148e+00,3.059710979461669922e+00,3.059233665466308594e+00,3.058756589889526367e+00,3.015568733215332031e+00,2.940993547439575195e+00,2.870017766952514648e+00,2.802387237548828125e+00,2.737870693206787109e+00,2.676257848739624023e+00,2.617357254028320312e+00,2.560992956161499023e+00,2.507005453109741211e+00,2.455246925354003906e+00,2.405582666397094727e+00,2.357887506484985352e+00,2.312047004699707031e+00,2.267954587936401367e+00,2.225512742996215820e+00,2.184630155563354492e+00,2.145222663879394531e+00,2.107211351394653320e+00,2.070523738861083984e+00,2.035092115402221680e+00,2.000852346420288086e+00,1.967745661735534668e+00,1.935716867446899414e+00,1.904713988304138184e+00,1.874688506126403809e+00,1.845595002174377441e+00
2.605587720870971680e+00,2.605241775512695312e+00,2.604895830154418945e+00,2.604550123214721680e+00,2.604204416275024414e+00,2.603858947753906250e+00,2.603513240814208984e+00,2.603167772293090820e+00,2.602822542190551758e+00,2.602477312088012695e+00,2.602132081985473633e+00,2.601787090301513672e+00,2.601442337036132812e+00,2.601097345352172852e+00,2.600752353668212891e+00,2.600407838821411133e+00,2.600063323974609375e+00,2.599718809127807617e+00,2.599374294281005859e+00,2.599030017852783203e+00,2.598685741424560547e+00,2.598341464996337891e+00,2.597997426986694336e+00,2.597653627395629883e+00,2.597309827804565430e+00,2.596966028213500977e+00,2.596622467041015625e+00,2.596278905868530273e+00,2.595935344696044922e+00,2.595591783523559570e+00,2.595248460769653320e+00,2.594905138015747070e+00,2.594562053680419922e+00,2.594219207763671875e+00,2.593876123428344727e+00,2.593533277511596680e+00,2.593190431594848633e+00,2.592847824096679688e+00,2.592505216598510742e+00,2.592162609100341797e+00,2.591820240020751953e+00,2.591478109359741211e+00,2.591135740280151367e+00,2.590793609619140625e+00,2.590451478958129883e+00,2.590109586715698242e+00,2.589767694473266602e+00,2.589426040649414062e+00,2.589084386825561523e+00,2.588742733001708984e+00,2.588401317596435547e+00,2.588059902191162109e+00,2.587718486785888672e+00,2.587377071380615234e+00,2.587036132812500000e+00,2.586694955825805664e+00,2.586354017257690430e+00,2.586013317108154297e+00,2.585672378540039062e+00,2.585331678390502930e+00,2.584990978240966797e+00,2.561031579971313477e+00,2.507042407989501953e+00,2.455282449722290039e+00,2.405616521835327148e+00,2.357920169830322266e+00,2.312078237533569336e+00,2.267984867095947266e+00,2.225541830062866211e+00,2.184658288955688477e+00,2.145249605178833008e+00,2.107237577438354492e+00,2.070549011230468750e+00,2.035116434097290039e+00,2.000875711441040039e+00,1.967768549919128418e+00,1.935738921165466309e+00,1.904735445976257324e+00,1.874709248542785645e+00,1.845615148544311523e+00
2.255555152893066406e+00,2.255295515060424805e+00,2.255035877227783203e+00,2.254776000976562500e+00,2.254516363143920898e+00,2.254256963729858398e+00,2.253997325897216797e+00,2.253738164901733398e+00,2.253478765487670898e+00,2.253219366073608398e+00,2.252960205078125000e+00,2.252700805664062500e+00,2.252441644668579102e+00,2.252182722091674805e+00,2.251923561096191406e+00,2.251664876937866211e+00,2.251405954360961914e+00,2.251147031784057617e+00,2.250888347625732422e+00,2.250629425048828125e+00,2.250370979309082031e+00,2.250112295150756836e+00,2.249853610992431641e+00,2.249595642089843750e+00,2.249337673187255859e+00,2.249079942703247070e+00,2.248822212219238281e+00,2.248564481735229492e+00,2.248306751251220703e+00,2.248049020767211914e+00,2.247791528701782227e+00,2.247534275054931641e+00,2.247276782989501953e+00,2.247019529342651367e+00,2.246762037277221680e+00,2.246505022048950195e+00,2.246247529983520508e+00,2.245990514755249023e+00,2.245733499526977539e+00,2.245476484298706055e+00,2.245219469070434570e+00,2.244962692260742188e+00,2.244705915451049805e+00,2.244449138641357422e+00,2.244192123413085938e+00,2.243935585021972656e+00,2.243679046630859375e+00,2.243422508239746094e+00,2.243165969848632812e+00,2.242909669876098633e+00,2.242653369903564453e+00,2.242397069931030273e+00,2.242140531539916992e+00,2.241884469985961914e+00,2.241628408432006836e+00,2.241372346878051758e+00,2.241116285324096680e+00,2.240860462188720703e+00,2.240604400634765625e+00,2.240348577499389648e+00,2.240092754364013672e+00,2.239837169647216797e+00,2.239581346511840820e+00,2.239325761795043945e+00,2.239070415496826172e+00,2.238814830780029297e+00,2.238559484481811523e+00,2.238303899765014648e+00,2.225570917129516602e+00,2.184686183929443359e+00,2.145276546478271484e+00,2.107263565063476562e+00,2.070574045181274414e+00,2.035140752792358398e+00,2.000899314880371094e+00,1.967791199684143066e+00,1.935760855674743652e+00,1.904756665229797363e+00,1.874729752540588379e+00,1.845635056495666504e+00
1.988454580307006836e+00,1.988252639770507812e+00,1.988050699234008789e+00,1.987848877906799316e+00,1.987647056579589844e+00,1.987445473670959473e+00,1.987243771553039551e+00,1.987042069435119629e+00,1.986840367317199707e+00,1.986638784408569336e+00,1.986437201499938965e+00,1.986235857009887695e+00,1.986034393310546875e+00,1.985832929611206055e+00,1.985631465911865234e+00,1.985430121421813965e+00,1.985229015350341797e+00,1.985027790069580078e+00,1.984826445579528809e+00,1.984625220298767090e+00,1.984424114227294922e+00,1.984223127365112305e+00,1.984022021293640137e+00,1.983821034431457520e+00,1.983620047569274902e+00,1.983419060707092285e+00,1.983218312263488770e+00,1.983017444610595703e+00,1.982816576957702637e+00,1.982615828514099121e+00,1.982415080070495605e+00,1.982214570045471191e+00,1.982013821601867676e+00,1.981813192367553711e+00,1.981612682342529297e+00,1.981412053108215332e+00,1.981211543083190918e+00,1.981011271476745605e+00,1.980810880661010742e+00,1.980610489845275879e+00,1.980410099029541016e+00,1.980209708213806152e+00,1.980009675025939941e+00,1.979809522628784180e+00,1.979609251022338867e+00,1.979409098625183105e+00,1.979208946228027344e+00,1.979009151458740234e+00,1.978809118270874023e+00,1.978609085083007812e+00,1.978409171104431152e+00,1.978209257125854492e+00,1.978009581565856934e+00,1.977809667587280273e+00,1.977609872817993164e+00,1.977410197257995605e+00,1.977210402488708496e+00,1.977010965347290039e+00,1.976811408996582031e+00,1.976611733436584473e+00,1.976412177085876465e+00,1.976212739944458008e+00,1.976013422012329102e+00,1.975813984870910645e+00,1.975614666938781738e+00,1.975415229797363281e+00,1.975215911865234375e+00,1.975016951560974121e+00,1.974817633628845215e+00,1.974618434906005859e+00,1.974419355392456055e+00,1.974220275878906250e+00,1.974021196365356445e+00,1.973822355270385742e+00,1.973623394966125488e+00,1.967813968658447266e+00,1.935782909393310547e+00,1.904778003692626953e+00,1.874750494956970215e+00,1.845655202865600586e+00
1.777915358543395996e+00,1.777754068374633789e+00,1.777592658996582031e+00,1.777431249618530273e+00,1.777269840240478516e+00,1.777108550071716309e+00,1.776947379112243652e+00,1.776786088943481445e+00,1.776624917984008789e+00,1.776463627815246582e+00,1.776302456855773926e+00,1.776141524314880371e+00,1.775980353355407715e+00,1.775819301605224609e+00,1.775658249855041504e+00,1.775497198104858398e+00,1.775336384773254395e+00,1.775175333023071289e+00,1.775014400482177734e+00,1.774853467941284180e+00,1.774692654609680176e+00,1.774531722068786621e+00,1.774371027946472168e+00,1.774210333824157715e+00,1.774049520492553711e+00,1.773888707160949707e+00,1.773728013038635254e+00,1.773567557334899902e+00,1.773406863212585449e+00,1.773246169090270996e+00,1.773085594177246094e+00,1.772925019264221191e+00,1.772764682769775391e+00,1.772604107856750488e+00,1.772443652153015137e+00,1.772283196449279785e+00,1.772122740745544434e+00,1.771962523460388184e+00,1.771802186965942383e+00,1.771641850471496582e+00,1.771481513977050781e+00,1.771321177482604980e+00,1.771161198616027832e+00,1.771000862121582031e+00,1.770840764045715332e+00,1.770680546760559082e+00,1.770520448684692383e+00,1.770360469818115234e+00,1.770200371742248535e+00,1.770040273666381836e+00,1.769880294799804688e+00,1.769720315933227539e+00,1.769560337066650391e+00,1.769400596618652344e+00,1.769240617752075195e+00,1.769080758094787598e+00,1.768920898437500000e+00,1.768761157989501953e+00,1.768601536750793457e+00,1.768441796302795410e+00,1.768282055854797363e+00,1.768122315406799316e+00,1.767962574958801270e+00,1.767803192138671875e+00,1.767643570899963379e+00,1.767483949661254883e+00,1.767324328422546387e+00,1.767164826393127441e+00,1.767005562782287598e+00,1.766846060752868652e+00,1.766686558723449707e+00,1.766527175903320312e+00,1.766367793083190918e+00,1.766208648681640625e+00,1.766049265861511230e+00,1.765890002250671387e+00,1.765730738639831543e+00,1.765571475028991699e+00,1.765412330627441406e+00,1.765253305435180664e+00
1.607691645622253418e+00,1.607559680938720703e+00,1.607427835464477539e+00,1.607295870780944824e+00,1.607163906097412109e+00,1.607031941413879395e+00,1.606900095939636230e+00,1.606768369674682617e+00,1.606636524200439453e+00,1.606504678726196289e+00,1.606372833251953125e+00,1.606240987777709961e+00,1.606109380722045898e+00,1.605977654457092285e+00,1.605845928192138672e+00,1.605714201927185059e+00,1.605582475662231445e+00,1.605450987815856934e+00,1.605319261550903320e+00,1.605187654495239258e+00,1.605056047439575195e+00,1.604924440383911133e+00,1.604793071746826172e+00,1.604661583900451660e+00,1.604529976844787598e+00,1.604398488998413086e+00,1.604267001152038574e+00,1.604135751724243164e+00,1.604004263877868652e+00,1.603872895240783691e+00,1.603741526603698730e+00,1.603610157966613770e+00,1.603478789329528809e+00,1.603347659111022949e+00,1.603216290473937988e+00,1.603085041046142578e+00,1.602953791618347168e+00,1.602822542190551758e+00,1.602691411972045898e+00,1.602560281753540039e+00,1.602429032325744629e+00,1.602297902107238770e+00,1.602166771888732910e+00,1.602035880088806152e+00,1.601904749870300293e+00,1.601773738861083984e+00,1.601642608642578125e+00,1.601511597633361816e+00,1.601380825042724609e+00,1.601249814033508301e+00,1.601118803024291992e+00,1.600987911224365234e+00,1.600857019424438477e+00,1.600726246833801270e+00,1.600595355033874512e+00,1.600464463233947754e+00,1.600333690643310547e+00,1.600202918052673340e+00,1.600072264671325684e+00,1.599941372871398926e+00,1.599810719490051270e+00,1.599679946899414062e+00,1.599549293518066406e+00,1.599418520927429199e+00,1.599288105964660645e+00,1.599157452583312988e+00,1.599026799201965332e+00,1.598896145820617676e+00,1.598765611648559570e+00,1.598635196685791016e+00,1.598504662513732910e+00,1.598374128341674805e+00,1.598243713378906250e+00,1.598113179206848145e+00,1.597982883453369141e+00,1.597852468490600586e+00,1.597722053527832031e+00,1.597591638565063477e+00,1.597461342811584473e+00,1.597331166267395020e+00
1.467215538024902344e+00,1.467105627059936523e+00,1.466995716094970703e+00,1.466885805130004883e+00,1.466775894165039062e+00,1.466665983200073242e+00,1.466556191444396973e+00,1.466446399688720703e+00,1.466336607933044434e+00,1.466226816177368164e+00,1.466116905212402344e+00,1.466007113456726074e+00,1.465897440910339355e+00,1.465787768363952637e+00,1.465677976608276367e+00,1.465568304061889648e+00,1.465458631515502930e+00,1.465348839759826660e+00,1.465239286422729492e+00,1.465129733085632324e+00,1.465020060539245605e+00,1.464910387992858887e+00,1.464800834655761719e+00,1.464691281318664551e+00,1.464581727981567383e+00,1.464472174644470215e+00,1.464362621307373047e+00,1.464253067970275879e+00,1.464143753051757812e+00,1.464034199714660645e+00,1.463924765586853027e+00,1.463815331459045410e+00,1.463705897331237793e+00,1.463596582412719727e+00,1.463487148284912109e+00,1.463377714157104492e+00,1.463268399238586426e+00,1.463158965110778809e+00,1.463049769401550293e+00,1.462940454483032227e+00,1.462831139564514160e+00,1.462721824645996094e+00,1.462612509727478027e+00,1.462503314018249512e+00,1.462394118309020996e+00,1.462284922599792480e+00,1.462175726890563965e+00,1.462066531181335449e+00,1.461957335472106934e+00,1.461848258972167969e+00,1.461739182472229004e+00,1.461629986763000488e+00,1.461520910263061523e+00,1.461411833763122559e+00,1.461302876472473145e+00,1.461193799972534180e+00,1.461084723472595215e+00,1.460975646972656250e+00,1.460866689682006836e+00,1.460757732391357422e+00,1.460648775100708008e+00,1.460539817810058594e+00,1.460430860519409180e+00,1.460321903228759766e+00,1.460213065147399902e+00,1.460104227066040039e+00,1.459995269775390625e+00,1.459886431694030762e+00,1.459777593612670898e+00,1.459668874740600586e+00,1.459560036659240723e+00,1.459451198577880859e+00,1.459342360496520996e+00,1.459233641624450684e+00,1.459124922752380371e+00,1.459016203880310059e+00,1.458907485008239746e+00,1.458798766136169434e+00,1.458690166473388672e+00,1.458581447601318359e+00
1.349315524101257324e+00,1.349222540855407715e+00,1.349129557609558105e+00,1.349036693572998047e+00,1.348943829536437988e+00,1.348850846290588379e+00,1.348757863044738770e+00,1.348664999008178711e+00,1.348572254180908203e+00,1.348479270935058594e+00,1.348386406898498535e+00,1.348293542861938477e+00,1.348200678825378418e+00,1.348107933998107910e+00,1.348015189170837402e+00,1.347922325134277344e+00,1.347829580307006836e+00,1.347736716270446777e+00,1.347644090652465820e+00,1.347551345825195312e+00,1.347458600997924805e+00,1.347365856170654297e+00,1.347273111343383789e+00,1.347180366516113281e+00,1.347087860107421875e+00,1.346995115280151367e+00,1.346902489662170410e+00,1.346809864044189453e+00,1.346717119216918945e+00,1.346624612808227539e+00,1.346531987190246582e+00,1.346439361572265625e+00,1.346346855163574219e+00,1.346254229545593262e+00,1.346161723136901855e+00,1.346069216728210449e+00,1.345976591110229492e+00,1.345884084701538086e+00,1.345791578292846680e+00,1.345699191093444824e+00,1.345606684684753418e+00,1.345514178276062012e+00,1.345421671867370605e+00,1.345329284667968750e+00,1.345236897468566895e+00,1.345144510269165039e+00,1.345052123069763184e+00,1.344959616661071777e+00,1.344867229461669922e+00,1.344774961471557617e+00,1.344682574272155762e+00,1.344590306282043457e+00,1.344497919082641602e+00,1.344405531883239746e+00,1.344313263893127441e+00,1.344221115112304688e+00,1.344128727912902832e+00,1.344036459922790527e+00,1.343944191932678223e+00,1.343851923942565918e+00,1.343759775161743164e+00,1.343667626380920410e+00,1.343575358390808105e+00,1.343483209609985352e+00,1.343390941619873047e+00,1.343298912048339844e+00,1.343206763267517090e+00,1.343114614486694336e+00,1.343022465705871582e+00,1.342930316925048828e+00,1.342838287353515625e+00,1.342746138572692871e+00,1.342654109001159668e+00,1.342561960220336914e+00,1.342469930648803711e+00,1.342378020286560059e+00,1.342285990715026855e+00,1.342193961143493652e+00,1.342101931571960449e+00,1.342009902000427246e+00
1.248954296112060547e+00,1.248874664306640625e+00,1.248794913291931152e+00,1.248715281486511230e+00,1.248635768890380859e+00,1.248556137084960938e+00,1.248476505279541016e+00,1.248396873474121094e+00,1.248317360877990723e+00,1.248237848281860352e+00,1.248158216476440430e+00,1.248078703880310059e+00,1.247999072074890137e+00,1.247919559478759766e+00,1.247840046882629395e+00,1.247760534286499023e+00,1.247681021690368652e+00,1.247601509094238281e+00,1.247521996498107910e+00,1.247442603111267090e+00,1.247363090515136719e+00,1.247283697128295898e+00,1.247204184532165527e+00,1.247124671936035156e+00,1.247045397758483887e+00,1.246966004371643066e+00,1.246886491775512695e+00,1.246807098388671875e+00,1.246727705001831055e+00,1.246648430824279785e+00,1.246569037437438965e+00,1.246489644050598145e+00,1.246410250663757324e+00,1.246330976486206055e+00,1.246251583099365234e+00,1.246172308921813965e+00,1.246093034744262695e+00,1.246013760566711426e+00,1.245934367179870605e+00,1.245855093002319336e+00,1.245775938034057617e+00,1.245696663856506348e+00,1.245617389678955078e+00,1.245538115501403809e+00,1.245458960533142090e+00,1.245379805564880371e+00,1.245300531387329102e+00,1.245221376419067383e+00,1.245142102241516113e+00,1.245062947273254395e+00,1.244983911514282227e+00,1.244904756546020508e+00,1.244825601577758789e+00,1.244746446609497070e+00,1.244667291641235352e+00,1.244588255882263184e+00,1.244509100914001465e+00,1.244429945945739746e+00,1.244350910186767578e+00,1.244271755218505859e+00,1.244192838668823242e+00,1.244113683700561523e+00,1.244034647941589355e+00,1.243955612182617188e+00,1.243876576423645020e+00,1.243797540664672852e+00,1.243718624114990234e+00,1.243639588356018066e+00,1.243560671806335449e+00,1.243481636047363281e+00,1.243402719497680664e+00,1.243323802947998047e+00,1.243244886398315430e+00,1.243165850639343262e+00,1.243086934089660645e+00,1.243008017539978027e+00,1.242929220199584961e+00,1.242850303649902344e+00,1.242771387100219727e+00,1.242692470550537109e+00
1.162489175796508789e+00,1.162420153617858887e+00,1.162351131439208984e+00,1.162282109260559082e+00,1.162213206291198730e+00,1.162144184112548828e+00,1.162075161933898926e+00,1.162006258964538574e+00,1.161937236785888672e+00,1.161868333816528320e+00,1.161799430847167969e+00,1.161730408668518066e+00,1.161661505699157715e+00,1.161592602729797363e+00,1.161523699760437012e+00,1.161454796791076660e+00,1.161385893821716309e+00,1.161316990852355957e+00,1.161248207092285156e+00,1.161179304122924805e+00,1.161110520362854004e+00,1.161041617393493652e+00,1.160972714424133301e+00,1.160903930664062500e+00,1.160835027694702148e+00,1.160766363143920898e+00,1.160697460174560547e+00,1.160628676414489746e+00,1.160559892654418945e+00,1.160491108894348145e+00,1.160422325134277344e+00,1.160353541374206543e+00,1.160284876823425293e+00,1.160216093063354492e+00,1.160147309303283691e+00,1.160078644752502441e+00,1.160009860992431641e+00,1.159941196441650391e+00,1.159872412681579590e+00,1.159803748130798340e+00,1.159735083580017090e+00,1.159666419029235840e+00,1.159597635269165039e+00,1.159528970718383789e+00,1.159460306167602539e+00,1.159391641616821289e+00,1.159323096275329590e+00,1.159254431724548340e+00,1.159185767173767090e+00,1.159117102622985840e+00,1.159048557281494141e+00,1.158980011940002441e+00,1.158911347389221191e+00,1.158842802047729492e+00,1.158774137496948242e+00,1.158705592155456543e+00,1.158637046813964844e+00,1.158568501472473145e+00,1.158499956130981445e+00,1.158431410789489746e+00,1.158362865447998047e+00,1.158294439315795898e+00,1.158225893974304199e+00,1.158157348632812500e+00,1.158088922500610352e+00,1.158020377159118652e+00,1.157951951026916504e+00,1.157883405685424805e+00,1.157814979553222656e+00,1.157746553421020508e+00,1.157678008079528809e+00,1.157609701156616211e+00,1.157541275024414062e+00,1.157472729682922363e+00,1.157404303550720215e+00,1.157335877418518066e+00,1.157267570495605469e+00,1.157199144363403320e+00,1.157130837440490723e+00,1.157062411308288574e+00
1.087220668792724609e+00,1.087160348892211914e+00,1.087100028991699219e+00,1.087039589881896973e+00,1.086979269981384277e+00,1.086918950080871582e+00,1.086858630180358887e+00,1.086798310279846191e+00,1.086737990379333496e+00,1.086677670478820801e+00,1.086617350578308105e+00,1.086557030677795410e+00,1.086496829986572266e+00,1.086436510086059570e+00,1.086376190185546875e+00,1.086315989494323730e+00,1.086255669593811035e+00,1.086195468902587891e+00,1.086135149002075195e+00,1.086074948310852051e+00,1.086014747619628906e+00,1.085954546928405762e+00,1.085894227027893066e+00,1.085834026336669922e+00,1.085773825645446777e+00,1.085713624954223633e+00,1.085653424263000488e+00,1.085593223571777344e+00,1.085533022880554199e+00,1.085472822189331055e+00,1.085412740707397461e+00,1.085352540016174316e+00,1.085292458534240723e+00,1.085232257843017578e+00,1.085172057151794434e+00,1.085111975669860840e+00,1.085051894187927246e+00,1.084991693496704102e+00,1.084931612014770508e+00,1.084871530532836914e+00,1.084811329841613770e+00,1.084751367568969727e+00,1.084691166877746582e+00,1.084631085395812988e+00,1.084571003913879395e+00,1.084510922431945801e+00,1.084450960159301758e+00,1.084390878677368164e+00,1.084330797195434570e+00,1.084270715713500977e+00,1.084210753440856934e+00,1.084150791168212891e+00,1.084090709686279297e+00,1.084030628204345703e+00,1.083970665931701660e+00,1.083910584449768066e+00,1.083850622177124023e+00,1.083790659904479980e+00,1.083730697631835938e+00,1.083670735359191895e+00,1.083610773086547852e+00,1.083550691604614258e+00,1.083490848541259766e+00,1.083430886268615723e+00,1.083370923995971680e+00,1.083310961723327637e+00,1.083250999450683594e+00,1.083191156387329102e+00,1.083131194114685059e+00,1.083071351051330566e+00,1.083011388778686523e+00,1.082951426506042480e+00,1.082891583442687988e+00,1.082831740379333496e+00,1.082771897315979004e+00,1.082711935043334961e+00,1.082652091979980469e+00,1.082592248916625977e+00,1.082532405853271484e+00,1.082472562789916992e+00
1.021106481552124023e+00,1.021053194999694824e+00,1.021000027656555176e+00,1.020946741104125977e+00,1.020893573760986328e+00,1.020840287208557129e+00,1.020787119865417480e+00,1.020733833312988281e+00,1.020680665969848633e+00,1.020627498626708984e+00,1.020574212074279785e+00,1.020521163940429688e+00,1.020467877388000488e+00,1.020414710044860840e+00,1.020361542701721191e+00,1.020308375358581543e+00,1.020255208015441895e+00,1.020202040672302246e+00,1.020148873329162598e+00,1.020095705986022949e+00,1.020042657852172852e+00,1.019989490509033203e+00,1.019936323165893555e+00,1.019883275032043457e+00,1.019830107688903809e+00,1.019776940345764160e+00,1.019723892211914062e+00,1.019670844078063965e+00,1.019617676734924316e+00,1.019564628601074219e+00,1.019511580467224121e+00,1.019458532333374023e+00,1.019405364990234375e+00,1.019352316856384277e+00,1.019299268722534180e+00,1.019246220588684082e+00,1.019193172454833984e+00,1.019140124320983887e+00,1.019087076187133789e+00,1.019034028053283691e+00,1.018980979919433594e+00,1.018927931785583496e+00,1.018875002861022949e+00,1.018821954727172852e+00,1.018768906593322754e+00,1.018715977668762207e+00,1.018662929534912109e+00,1.018610000610351562e+00,1.018556952476501465e+00,1.018504023551940918e+00,1.018450975418090820e+00,1.018398046493530273e+00,1.018345117568969727e+00,1.018292188644409180e+00,1.018239140510559082e+00,1.018186211585998535e+00,1.018133282661437988e+00,1.018080353736877441e+00,1.018027424812316895e+00,1.017974495887756348e+00,1.017921566963195801e+00,1.017868638038635254e+00,1.017815828323364258e+00,1.017762899398803711e+00,1.017709970474243164e+00,1.017657041549682617e+00,1.017604112625122070e+00,1.017551302909851074e+00,1.017498493194580078e+00,1.017445564270019531e+00,1.017392635345458984e+00,1.017339825630187988e+00,1.017286896705627441e+00,1.017234206199645996e+00,1.017181277275085449e+00,1.017128467559814453e+00,1.017075657844543457e+00,1.017022728919982910e+00,1.016970038414001465e+00,1.016917228698730469e+00
9.625722169876098633e-01,9.625249505043029785e-01,9.624775648117065430e-01,9.624303579330444336e-01,9.623829126358032227e-01,9.623357057571411133e-01,9.622884392738342285e-01,9.622411131858825684e-01,9.621938467025756836e-01,9.621465206146240234e-01,9.620992541313171387e-01,9.620520472526550293e-01,9.620047211647033691e-01,9.619575142860412598e-01,9.619101881980895996e-01,9.618629813194274902e-01,9.618157744407653809e-01,9.617684483528137207e-01,9.617213010787963867e-01,9.616739749908447266e-01,9.616268277168273926e-01,9.615795016288757324e-01,9.615323543548583984e-01,9.614851474761962891e-01,9.614378809928894043e-01,9.613907337188720703e-01,9.613434672355651855e-01,9.612963199615478516e-01,9.612491726875305176e-01,9.612019062042236328e-01,9.611548185348510742e-01,9.611075520515441895e-01,9.610604047775268555e-01,9.610133171081542969e-01,9.609660506248474121e-01,9.609189629554748535e-01,9.608717560768127441e-01,9.608246088027954102e-01,9.607775211334228516e-01,9.607303142547607422e-01,9.606832265853881836e-01,9.606360197067260742e-01,9.605889916419982910e-01,9.605419039726257324e-01,9.604946970939636230e-01,9.604476094245910645e-01,9.604004621505737305e-01,9.603533744812011719e-01,9.603063464164733887e-01,9.602591991424560547e-01,9.602121114730834961e-01,9.601649641990661621e-01,9.601179361343383789e-01,9.600709080696105957e-01,9.600237607955932617e-01,9.599767923355102539e-01,9.599296450614929199e-01,9.598826169967651367e-01,9.598356485366821289e-01,9.597885012626647949e-01,9.597415328025817871e-01,9.596943855285644531e-01,9.596474170684814453e-01,9.596004486083984375e-01,9.595533609390258789e-01,9.595063328742980957e-01,9.594593048095703125e-01,9.594123363494873047e-01,9.593653678894042969e-01,9.593182802200317383e-01,9.592713117599487305e-01,9.592242836952209473e-01,9.591773152351379395e-01,9.591304063796997070e-01,9.590833187103271484e-01,9.590364098548889160e-01,9.589893817901611328e-01,9.589424729347229004e-01,9.588954448699951172e-01,9.588485360145568848e-01
9.103848934173583984e-01,9.103426337242126465e-01,9.103003740310668945e-01,9.102579951286315918e-01,9.102157354354858398e-01,9.101733565330505371e-01,9.101310968399047852e-01,9.100888371467590332e-01,9.100464582443237305e-01,9.100041985511779785e-01,9.099618792533874512e-01,9.099196195602416992e-01,9.098773598670959473e-01,9.098350405693054199e-01,9.097927808761596680e-01,9.097504615783691406e-01,9.097082614898681641e-01,9.096660017967224121e-01,9.096236824989318848e-01,9.095814824104309082e-01,9.095391631126403809e-01,9.094969630241394043e-01,9.094547629356384277e-01,9.094125032424926758e-01,9.093703031539916992e-01,9.093279838562011719e-01,9.092857837677001953e-01,9.092436432838439941e-01,9.092013239860534668e-01,9.091591835021972656e-01,9.091169238090515137e-01,9.090747237205505371e-01,9.090324640274047852e-01,9.089903235435485840e-01,9.089481830596923828e-01,9.089059233665466309e-01,9.088637828826904297e-01,9.088215231895446777e-01,9.087793827056884766e-01,9.087372422218322754e-01,9.086950421333312988e-01,9.086529016494750977e-01,9.086106419563293457e-01,9.085685610771179199e-01,9.085264205932617188e-01,9.084842205047607422e-01,9.084420800209045410e-01,9.083998799324035645e-01,9.083577990531921387e-01,9.083157181739807129e-01,9.082735180854797363e-01,9.082314372062683105e-01,9.081892371177673340e-01,9.081471562385559082e-01,9.081050753593444824e-01,9.080629348754882812e-01,9.080208539962768555e-01,9.079787135124206543e-01,9.079366326332092285e-01,9.078945517539978027e-01,9.078524112701416016e-01,9.078103899955749512e-01,9.077681899070739746e-01,9.077261686325073242e-01,9.076841473579406738e-01,9.076420068740844727e-01,9.075999855995178223e-01,9.075578451156616211e-01,9.075158238410949707e-01,9.074738025665283203e-01,9.074317216873168945e-01,9.073897004127502441e-01,9.073476195335388184e-01,9.073055982589721680e-01,9.072635769844055176e-01,9.072214961051940918e-01,9.071794748306274414e-01,9.071373939514160156e-01,9.070954322814941406e-01,9.070534706115722656e-01
8.635655045509338379e-01,8.635273575782775879e-01,8.634893298149108887e-01,8.634513020515441895e-01,8.634131550788879395e-01,8.633751273155212402e-01,8.633369803428649902e-01,8.632989525794982910e-01,8.632609844207763672e-01,8.632228374481201172e-01,8.631848096847534180e-01,8.631467223167419434e-01,8.631086945533752441e-01,8.630707263946533203e-01,8.630326390266418457e-01,8.629946112632751465e-01,8.629565238952636719e-01,8.629185557365417480e-01,8.628805279731750488e-01,8.628424406051635742e-01,8.628044724464416504e-01,8.627664446830749512e-01,8.627284169197082520e-01,8.626904487609863281e-01,8.626524209976196289e-01,8.626144528388977051e-01,8.625763654708862305e-01,8.625383973121643066e-01,8.625004887580871582e-01,8.624624013900756836e-01,8.624244928359985352e-01,8.623864650726318359e-01,8.623484969139099121e-01,8.623105287551879883e-01,8.622725009918212891e-01,8.622345924377441406e-01,8.621965646743774414e-01,8.621586561203002930e-01,8.621207475662231445e-01,8.620827198028564453e-01,8.620448112487792969e-01,8.620067834854125977e-01,8.619688749313354492e-01,8.619309067726135254e-01,8.618929982185363770e-01,8.618550896644592285e-01,8.618171215057373047e-01,8.617792129516601562e-01,8.617412447929382324e-01,8.617033362388610840e-01,8.616654872894287109e-01,8.616275191307067871e-01,8.615896105766296387e-01,8.615516424179077148e-01,8.615137934684753418e-01,8.614759445190429688e-01,8.614379763603210449e-01,8.614001274108886719e-01,8.613621592521667480e-01,8.613243103027343750e-01,8.612864613533020020e-01,8.612484931945800781e-01,8.612107038497924805e-01,8.611727356910705566e-01,8.611348867416381836e-01,8.610970973968505859e-01,8.610591292381286621e-01,8.610213398933410645e-01,8.609834313392639160e-01,8.609455823898315430e-01,8.609077930450439453e-01,8.608698844909667969e-01,8.608320951461791992e-01,8.607941865921020508e-01,8.607563972473144531e-01,8.607185482978820801e-01,8.606806993484497070e-01,8.606429100036621094e-01,8.606050014495849609e-01,8.605672121047973633e-01
8.213261365890502930e-01,8.212917447090148926e-01,8.212572336196899414e-01,8.212228417396545410e-01,8.211883902549743652e-01,8.211539387702941895e-01,8.211195468902587891e-01,8.210850358009338379e-01,8.210506439208984375e-01,8.210162520408630371e-01,8.209818005561828613e-01,8.209474086761474609e-01,8.209129571914672852e-01,8.208785653114318848e-01,8.208441734313964844e-01,8.208097219467163086e-01,8.207753300666809082e-01,8.207408785820007324e-01,8.207065463066101074e-01,8.206721544265747070e-01,8.206377029418945312e-01,8.206033706665039062e-01,8.205689191818237305e-01,8.205345869064331055e-01,8.205002546310424805e-01,8.204658031463623047e-01,8.204314708709716797e-01,8.203970193862915039e-01,8.203626871109008789e-01,8.203283548355102539e-01,8.202939629554748535e-01,8.202596306800842285e-01,8.202252388000488281e-01,8.201909065246582031e-01,8.201565742492675781e-01,8.201221823692321777e-01,8.200878500938415527e-01,8.200534582138061523e-01,8.200191259384155273e-01,8.199848532676696777e-01,8.199504613876342773e-01,8.199161887168884277e-01,8.198817968368530273e-01,8.198474645614624023e-01,8.198131918907165527e-01,8.197788000106811523e-01,8.197445273399353027e-01,8.197101950645446777e-01,8.196759223937988281e-01,8.196415901184082031e-01,8.196072578430175781e-01,8.195729851722717285e-01,8.195386528968811035e-01,8.195043802261352539e-01,8.194700479507446289e-01,8.194357752799987793e-01,8.194015026092529297e-01,8.193671703338623047e-01,8.193328976631164551e-01,8.192985653877258301e-01,8.192643523216247559e-01,8.192300796508789062e-01,8.191957473754882812e-01,8.191615343093872070e-01,8.191272020339965820e-01,8.190929889678955078e-01,8.190587759017944336e-01,8.190244436264038086e-01,8.189902305603027344e-01,8.189558982849121094e-01,8.189216852188110352e-01,8.188874721527099609e-01,8.188531994819641113e-01,8.188189864158630371e-01,8.187847137451171875e-01,8.187505006790161133e-01,8.187162876129150391e-01,8.186820149421691895e-01,8.186478018760681152e-01,8.186135292053222656e-01
7.830262780189514160e-01,7.829949259757995605e-01,7.829636335372924805e-01,7.829322814941406250e-01,7.829009890556335449e-01,7.828697562217712402e-01,7.828384041786193848e-01,7.828071117401123047e-01,7.827757596969604492e-01,7.827445268630981445e-01,7.827132940292358398e-01,7.826819419860839844e-01,7.826507091522216797e-01,7.826193571090698242e-01,7.825881242752075195e-01,7.825568318367004395e-01,7.825255393981933594e-01,7.824943065643310547e-01,7.824630141258239746e-01,7.824317216873168945e-01,7.824004888534545898e-01,7.823691964149475098e-01,7.823379635810852051e-01,7.823066711425781250e-01,7.822754383087158203e-01,7.822442650794982910e-01,7.822129726409912109e-01,7.821817398071289062e-01,7.821504473686218262e-01,7.821192145347595215e-01,7.820880413055419922e-01,7.820567488670349121e-01,7.820255160331726074e-01,7.819942831993103027e-01,7.819630503654479980e-01,7.819318771362304688e-01,7.819005846977233887e-01,7.818694114685058594e-01,7.818381190299987793e-01,7.818069458007812500e-01,7.817757725715637207e-01,7.817445397377014160e-01,7.817133069038391113e-01,7.816820740699768066e-01,7.816509008407592773e-01,7.816197276115417480e-01,7.815884947776794434e-01,7.815573215484619141e-01,7.815260887145996094e-01,7.814949154853820801e-01,7.814637422561645508e-01,7.814325094223022461e-01,7.814013957977294922e-01,7.813701629638671875e-01,7.813389897346496582e-01,7.813078761100769043e-01,7.812766432762145996e-01,7.812454700469970703e-01,7.812142968177795410e-01,7.811831235885620117e-01,7.811520099639892578e-01,7.811207771301269531e-01,7.810896635055541992e-01,7.810584902763366699e-01,7.810273766517639160e-01,7.809961438179016113e-01,7.809650301933288574e-01,7.809339165687561035e-01,7.809027433395385742e-01,7.808716297149658203e-01,7.808404564857482910e-01,7.808093428611755371e-01,7.807782292366027832e-01,7.807470560073852539e-01,7.807159423828125000e-01,7.806847691535949707e-01,7.806537151336669922e-01,7.806226015090942383e-01,7.805914282798767090e-01,7.805603146553039551e-01
7.481391429901123047e-01,7.481105923652648926e-01,7.480819821357727051e-01,7.480534315109252930e-01,7.480248808860778809e-01,7.479962706565856934e-01,7.479677200317382812e-01,7.479391098022460938e-01,7.479105591773986816e-01,7.478820085525512695e-01,7.478533983230590820e-01,7.478248476982116699e-01,7.477962970733642578e-01,7.477677464485168457e-01,7.477391362190246582e-01,7.477106451988220215e-01,7.476820945739746094e-01,7.476534843444824219e-01,7.476249933242797852e-01,7.475963830947875977e-01,7.475678920745849609e-01,7.475394010543823242e-01,7.475107908248901367e-01,7.474822998046875000e-01,7.474537491798400879e-01,7.474251985549926758e-01,7.473967075347900391e-01,7.473681569099426270e-01,7.473396658897399902e-01,7.473111152648925781e-01,7.472826242446899414e-01,7.472541332244873047e-01,7.472255229949951172e-01,7.471970915794372559e-01,7.471685409545898438e-01,7.471400499343872070e-01,7.471115589141845703e-01,7.470830082893371582e-01,7.470545172691345215e-01,7.470259666442871094e-01,7.469975352287292480e-01,7.469690442085266113e-01,7.469404935836791992e-01,7.469120621681213379e-01,7.468835115432739258e-01,7.468550801277160645e-01,7.468265891075134277e-01,7.467980980873107910e-01,7.467696070671081543e-01,7.467411160469055176e-01,7.467126250267028809e-01,7.466841936111450195e-01,7.466557025909423828e-01,7.466272711753845215e-01,7.465987205505371094e-01,7.465702891349792480e-01,7.465418577194213867e-01,7.465133666992187500e-01,7.464849352836608887e-01,7.464564442634582520e-01,7.464280128479003906e-01,7.463995814323425293e-01,7.463710904121398926e-01,7.463426589965820312e-01,7.463141679763793945e-01,7.462857961654663086e-01,7.462573647499084473e-01,7.462288737297058105e-01,7.462004423141479492e-01,7.461720108985900879e-01,7.461435794830322266e-01,7.461151480674743652e-01,7.460867166519165039e-01,7.460582852363586426e-01,7.460298538208007812e-01,7.460014224052429199e-01,7.459729909896850586e-01,7.459446191787719727e-01,7.459161877632141113e-01,7.458877563476562500e-01
7.162281870841979980e-01,7.162019610404968262e-01,7.161757946014404297e-01,7.161495685577392578e-01,7.161234021186828613e-01,7.160972356796264648e-01,7.160710096359252930e-01,7.160448431968688965e-01,7.160186171531677246e-01,7.159925103187561035e-01,7.159663438796997070e-01,7.159401178359985352e-01,7.159139513969421387e-01,7.158877253532409668e-01,7.158616185188293457e-01,7.158354520797729492e-01,7.158092856407165527e-01,7.157831192016601562e-01,7.157568931579589844e-01,7.157307863235473633e-01,7.157046198844909668e-01,7.156784534454345703e-01,7.156522870063781738e-01,7.156261205673217773e-01,7.156000137329101562e-01,7.155738472938537598e-01,7.155476808547973633e-01,7.155215740203857422e-01,7.154954075813293457e-01,7.154692411422729492e-01,7.154430747032165527e-01,7.154169678688049316e-01,7.153908610343933105e-01,7.153646945953369141e-01,7.153385877609252930e-01,7.153124213218688965e-01,7.152863144874572754e-01,7.152602076530456543e-01,7.152340412139892578e-01,7.152079343795776367e-01,7.151817679405212402e-01,7.151556611061096191e-01,7.151296138763427734e-01,7.151034474372863770e-01,7.150773406028747559e-01,7.150511741638183594e-01,7.150251269340515137e-01,7.149990200996398926e-01,7.149729132652282715e-01,7.149468064308166504e-01,7.149206399917602539e-01,7.148945927619934082e-01,7.148685455322265625e-01,7.148423790931701660e-01,7.148163318634033203e-01,7.147901654243469238e-01,7.147641181945800781e-01,7.147380709648132324e-01,7.147119045257568359e-01,7.146858572959899902e-01,7.146597504615783691e-01,7.146337032318115234e-01,7.146076560020446777e-01,7.145814895629882812e-01,7.145554423332214355e-01,7.145293354988098145e-01,7.145032882690429688e-01,7.144772410392761230e-01,7.144511342048645020e-01,7.144250869750976562e-01,7.143989801406860352e-01,7.143729925155639648e-01,7.143469452857971191e-01,7.143208384513854980e-01,7.142947912216186523e-01,7.142686843872070312e-01,7.142426967620849609e-01,7.142166495323181152e-01,7.141905426979064941e-01,7.141645550727844238e-01
6.869280934333801270e-01,6.869040131568908691e-01,6.868799328804016113e-01,6.868558526039123535e-01,6.868317127227783203e-01,6.868076324462890625e-01,6.867835521697998047e-01,6.867594718933105469e-01,6.867353916168212891e-01,6.867112517356872559e-01,6.866872310638427734e-01,6.866631507873535156e-01,6.866390705108642578e-01,6.866149902343750000e-01,6.865909099578857422e-01,6.865668296813964844e-01,6.865428090095520020e-01,6.865186691284179688e-01,6.864946484565734863e-01,6.864705085754394531e-01,6.864464879035949707e-01,6.864224672317504883e-01,6.863983273506164551e-01,6.863743066787719727e-01,6.863502264022827148e-01,6.863262057304382324e-01,6.863021850585937500e-01,6.862780451774597168e-01,6.862540245056152344e-01,6.862299442291259766e-01,6.862059235572814941e-01,6.861819028854370117e-01,6.861578226089477539e-01,6.861338019371032715e-01,6.861097216606140137e-01,6.860857009887695312e-01,6.860616207122802734e-01,6.860376000404357910e-01,6.860136389732360840e-01,6.859895586967468262e-01,6.859655380249023438e-01,6.859414577484130859e-01,6.859174966812133789e-01,6.858934760093688965e-01,6.858693957328796387e-01,6.858454346656799316e-01,6.858213543891906738e-01,6.857973337173461914e-01,6.857733726501464844e-01,6.857492923736572266e-01,6.857253313064575195e-01,6.857012510299682617e-01,6.856772899627685547e-01,6.856532692909240723e-01,6.856292486190795898e-01,6.856052875518798828e-01,6.855812072753906250e-01,6.855572462081909180e-01,6.855332851409912109e-01,6.855092644691467285e-01,6.854852437973022461e-01,6.854612231254577637e-01,6.854372620582580566e-01,6.854133009910583496e-01,6.853892803192138672e-01,6.853653192520141602e-01,6.853412985801696777e-01,6.853173375129699707e-01,6.852933764457702637e-01,6.852693557739257812e-01,6.852453947067260742e-01,6.852213740348815918e-01,6.851974129676818848e-01,6.851734519004821777e-01,6.851494312286376953e-01,6.851254701614379883e-01,6.851015090942382812e-01,6.850775480270385742e-01,6.850535869598388672e-01,6.850296258926391602e-01
6.599310636520385742e-01,6.599088311195373535e-01,6.598865985870361328e-01,6.598643660545349121e-01,6.598421335220336914e-01,6.598199009895324707e-01,6.597976684570312500e-01,6.597754359245300293e-01,6.597532033920288086e-01,6.597309708595275879e-01,6.597087383270263672e-01,6.596865057945251465e-01,6.596643328666687012e-01,6.596421003341674805e-01,6.596198678016662598e-01,6.595976352691650391e-01,6.595754027366638184e-01,6.595532298088073730e-01,6.595309972763061523e-01,6.595087647438049316e-01,6.594865322113037109e-01,6.594643592834472656e-01,6.594421863555908203e-01,6.594199538230895996e-01,6.593977212905883789e-01,6.593754887580871582e-01,6.593533158302307129e-01,6.593311429023742676e-01,6.593089103698730469e-01,6.592867374420166016e-01,6.592645049095153809e-01,6.592423319816589355e-01,6.592201590538024902e-01,6.591979265213012695e-01,6.591757535934448242e-01,6.591535806655883789e-01,6.591314077377319336e-01,6.591092348098754883e-01,6.590870022773742676e-01,6.590648293495178223e-01,6.590426564216613770e-01,6.590204834938049316e-01,6.589983105659484863e-01,6.589760780334472656e-01,6.589539647102355957e-01,6.589317321777343750e-01,6.589095592498779297e-01,6.588874459266662598e-01,6.588652133941650391e-01,6.588431000709533691e-01,6.588208675384521484e-01,6.587987542152404785e-01,6.587765216827392578e-01,6.587544083595275879e-01,6.587322950363159180e-01,6.587100625038146973e-01,6.586879491806030273e-01,6.586657762527465820e-01,6.586436033248901367e-01,6.586214900016784668e-01,6.585993170738220215e-01,6.585771441459655762e-01,6.585549712181091309e-01,6.585328578948974609e-01,6.585107445716857910e-01,6.584885716438293457e-01,6.584664583206176758e-01,6.584442853927612305e-01,6.584221720695495605e-01,6.583999991416931152e-01,6.583778858184814453e-01,6.583557128906250000e-01,6.583335995674133301e-01,6.583114862442016602e-01,6.582893729209899902e-01,6.582671999931335449e-01,6.582450866699218750e-01,6.582229137420654297e-01,6.582008004188537598e-01,6.581786870956420898e-01
