5.000000000000000000e+00,5.000000000000000000e+00,5.000000000000000000e+00,5.000000000000000000e+00,5.000000000000000000e+00,5.000000000000000000e+00,5.000000000000000000e+00,5.000000000000000000e+00,5.000000000000000000e+00,5.000000000000000000e+00,5.000000000000000000e+00,5.000000000000000000e+00,5.000000000000000000e+00,5.000000000000000000e+00,5.000000000000000000e+00,5.000000000000000000e+00,5.000000000000000000e+00,5.000000000000000000e+00,5.000000000000000000e+00,5.000000000000000000e+00,5.000000000000000000e+00,5.000000000000000000e+00,5.000000000000000000e+00,5.000000000000000000e+00,5.000000000000000000e+00,5.000000000000000000e+00,5.000000000000000000e+00,5.000000000000000000e+00,2.447263717651367188e+00,2.424707651138305664e+00,2.431894779205322266e+00,2.387777566909790039e+00,2.374393463134765625e+00,2.371198892593383789e+00,2.379989862442016602e+00,2.400968074798583984e+00,2.444241046905517578e+00,2.569377422332763672e+00,2.568654060363769531e+00,4.862271785736083984e+00,4.671288967132568359e+00,4.494741439819335938e+00,4.331053256988525391e+00,4.178868293762207031e+00,4.037015438079833984e+00,3.904476642608642578e+00,3.780364036560058594e+00,3.663898706436157227e+00,3.554395198822021484e+00,3.451246976852416992e+00,3.353916883468627930e+00,3.261925697326660156e+00,3.174846172332763672e+00,3.092295169830322266e+00,3.013928174972534180e+00,2.939435005187988281e+00,2.868535518646240234e+00,2.800975561141967773e+00,2.736524820327758789e+00,2.674973487854003906e+00,2.616129875183105469e+00,2.559819459915161133e+00,2.505882263183593750e+00,2.454170942306518555e+00,2.404550790786743164e+00,2.356897592544555664e+00,2.311096191406250000e+00,2.267040967941284180e+00,2.224633932113647461e+00,2.183784484863281250e+00,2.144407987594604492e+00,2.106426477432250977e+00,2.069766759872436523e+00,2.034361600875854492e+00,2.000147104263305664e+00,1.967064380645751953e+00,1.935058474540710449e+00,1.904077172279357910e+00,1.874072432518005371e+00,1.844998598098754883e+00
5.000000000000000000e+00,5.000000000000000000e+00,5.000000000000000000e+00,5.000000000000000000e+00,5.000000000000000000e+00,5.000000000000000000e+00,5.000000000000000000e+00,5.000000000000000000e+00,5.000000000000000000e+00,5.000000000000000000e+00,5.000000000000000000e+00,5.000000000000000000e+00,5.000000000000000000e+00,5.000000000000000000e+00,5.000000000000000000e+00,5.000000000000000000e+00,5.000000000000000000e+00,5.000000000000000000e+00,5.000000000000000000e+00,5.000000000000000000e+00,5.000000000000000000e+00,5.000000000000000000e+00,5.000000000000000000e+00,5.000000000000000000e+00,5.000000000000000000e+00,5.000000000000000000e+00,5.000000000000000000e+00,5.000000000000000000e+00,5.000000000000000000e+00,2.431645393371582031e+00,2.431847810745239258e+00,2.399643898010253906e+00,2.373179674148559570e+00,2.371735572814941406e+00,2.382120370864868164e+00,2.403365612030029297e+00,2.438329696655273438e+00,2.567482471466064453e+00,2.557887077331542969e+00,2.609642505645751953e+00,4.671419143676757812e+00,4.494862556457519531e+00,4.331165313720703125e+00,4.178972721099853516e+00,4.037112712860107422e+00,3.904567956924438477e+00,3.780449628829956055e+00,3.663979291915893555e+00,3.554470777511596680e+00,3.451318502426147461e+00,3.353984117507934570e+00,3.261989593505859375e+00,3.174906492233276367e+00,3.092352390289306641e+00,3.013982534408569336e+00,2.939486742019653320e+00,2.868584632873535156e+00,2.801022529602050781e+00,2.736569643020629883e+00,2.675016164779663086e+00,2.616170883178710938e+00,2.559858798980712891e+00,2.505919933319091797e+00,2.454207181930541992e+00,2.404585361480712891e+00,2.356930732727050781e+00,2.311128139495849609e+00,2.267071723937988281e+00,2.224663496017456055e+00,2.183813095092773438e+00,2.144435405731201172e+00,2.106452941894531250e+00,2.069792270660400391e+00,2.034386157989501953e+00,2.000170946121215820e+00,1.967087745666503906e+00,1.935080766677856445e+00,1.904098987579345703e+00,1.874093413352966309e+00,1.845019102096557617e+00
5.000000000000000000e+00,5.000000000000000000e+00,5.000000000000000000e+00,5.000000000000000000e+00,5.000000000000000000e+00,5.000000000000000000e+00,5.000000000000000000e+00,5.000000000000000000e+00,5.000000000000000000e+00,5.000000000000000000e+00,5.000000000000000000e+00,5.000000000000000000e+00,5.000000000000000000e+00,5.000000000000000000e+00,5.000000000000000000e+00,5.000000000000000000e+00,5.000000000000000000e+00,5.000000000000000000e+00,5.000000000000000000e+00,5.000000000000000000e+00,5.000000000000000000e+00,5.000000000000000000e+00,5.000000000000000000e+00,5.000000000000000000e+00,5.000000000000000000e+00,5.000000000000000000e+00,5.000000000000000000e+00,5.000000000000000000e+00,5.000000000000000000e+00,2.438185453414916992e+00,2.442525625228881836e+00,2.388060569763183594e+00,2.361918687820434570e+00,2.361142873764038086e+00,2.381719827651977539e+00,2.409498691558837891e+00,2.446529388427734375e+00,2.593962907791137695e+00,2.567276000976562500e+00,2.608417272567749023e+00,4.671549320220947266e+00,4.494982719421386719e+00,4.331277370452880859e+00,4.179076671600341797e+00,4.037209987640380859e+00,3.904658794403076172e+00,3.780534744262695312e+00,3.664059162139892578e+00,3.554546117782592773e+00,3.451389312744140625e+00,3.354051351547241211e+00,3.262053012847900391e+00,3.174966573715209961e+00,3.092409372329711914e+00,3.014036655426025391e+00,2.939538240432739258e+00,2.868633747100830078e+00,2.801069259643554688e+00,2.736614227294921875e+00,2.675058841705322266e+00,2.616211652755737305e+00,2.559897899627685547e+00,2.505957365036010742e+00,2.454242944717407227e+00,2.404619932174682617e+00,2.356963872909545898e+00,2.311159849166870117e+00,2.267102241516113281e+00,2.224693059921264648e+00,2.183841466903686523e+00,2.144462823867797852e+00,2.106479406356811523e+00,2.069818019866943359e+00,2.034410953521728516e+00,2.000194787979125977e+00,1.967110753059387207e+00,1.935103058815002441e+00,1.904120564460754395e+00,1.874114274978637695e+00,1.845039367675781250e+00
5.000000000000000000e+00,5.000000000000000000e+00,5.000000000000000000e+00,5.000000000000000000e+00,5.000000000000000000e+00,5.000000000000000000e+00,5.000000000000000000e+00,5.000000000000000000e+00,5.000000000000000000e+00,5.000000000000000000e+00,5.000000000000000000e+00,5.000000000000000000e+00,5.000000000000000000e+00,5.000000000000000000e+00,5.000000000000000000e+00,5.000000000000000000e+00,5.000000000000000000e+00,5.000000000000000000e+00,5.000000000000000000e+00,5.000000000000000000e+00,5.000000000000000000e+00,5.000000000000000000e+00,5.000000000000000000e+00,5.000000000000000000e+00,5.000000000000000000e+00,5.000000000000000000e+00,5.000000000000000000e+00,5.000000000000000000e+00,5.000000000000000000e+00,2.448591470718383789e+00,2.419521331787109375e+00,2.381123542785644531e+00,2.357900619506835938e+00,2.355012655258178711e+00,2.372094154357910156e+00,2.399302482604980469e+00,2.430498123168945312e+00,2.621360301971435547e+00,2.579205274581909180e+00,2.608090400695800781e+00,4.671679496765136719e+00,4.495103359222412109e+00,4.331389427185058594e+00,4.179181098937988281e+00,4.037307262420654297e+00,3.904749631881713867e+00,3.780620098114013672e+00,3.664139270782470703e+00,3.554621458053588867e+00,3.451460361480712891e+00,3.354118347167968750e+00,3.262116432189941406e+00,3.175026893615722656e+00,3.092466354370117188e+00,3.014090776443481445e+00,2.939589738845825195e+00,2.868682861328125000e+00,2.801115989685058594e+00,2.736658811569213867e+00,2.675101518630981445e+00,2.616252422332763672e+00,2.559937000274658203e+00,2.505994796752929688e+00,2.454278945922851562e+00,2.404654502868652344e+00,2.356997013092041016e+00,2.311191797256469727e+00,2.267132997512817383e+00,2.224722623825073242e+00,2.183869838714599609e+00,2.144490242004394531e+00,2.106505870819091797e+00,2.069843530654907227e+00,2.034435510635375977e+00,2.000218629837036133e+00,1.967133879661560059e+00,1.935125470161437988e+00,1.904142260551452637e+00,1.874135255813598633e+00,1.845059633255004883e+00
5.000000000000000000e+00,5.000000000000000000e+00,5.000000000000000000e+00,5.000000000000000000e+00,5.000000000000000000e+00,5.000000000000000000e+00,5.000000000000000000e+00,5.000000000000000000e+00,5.000000000000000000e+00,5.000000000000000000e+00,5.000000000000000000e+00,5.000000000000000000e+00,5.000000000000000000e+00,5.000000000000000000e+00,5.000000000000000000e+00,5.000000000000000000e+00,5.000000000000000000e+00,5.000000000000000000e+00,5.000000000000000000e+00,5.000000000000000000e+00,5.000000000000000000e+00,5.000000000000000000e+00,5.000000000000000000e+00,5.000000000000000000e+00,5.000000000000000000e+00,5.000000000000000000e+00,5.000000000000000000e+00,5.000000000000000000e+00,5.000000000000000000e+00,2.461281776428222656e+00,2.417845010757446289e+00,2.384795904159545898e+00,2.371033430099487305e+00,2.369090318679809570e+00,2.380950689315795898e+00,2.402470827102661133e+00,2.455691576004028320e+00,5.000000000000000000e+00,2.577732563018798828e+00,2.577241182327270508e+00,4.671810150146484375e+00,4.495224475860595703e+00,4.331501483917236328e+00,4.179285526275634766e+00,4.037404537200927734e+00,3.904841184616088867e+00,3.780705690383911133e+00,3.664219617843627930e+00,3.554697036743164062e+00,3.451531887054443359e+00,3.354185581207275391e+00,3.262180089950561523e+00,3.175087213516235352e+00,3.092523574829101562e+00,3.014145135879516602e+00,2.939641475677490234e+00,2.868732213973999023e+00,2.801162958145141602e+00,2.736703634262084961e+00,2.675144433975219727e+00,2.616293430328369141e+00,2.559976100921630859e+00,2.506032466888427734e+00,2.454314947128295898e+00,2.404689073562622070e+00,2.357030391693115234e+00,2.311223745346069336e+00,2.267163753509521484e+00,2.224752187728881836e+00,2.183898448944091797e+00,2.144517898559570312e+00,2.106532335281372070e+00,2.069869041442871094e+00,2.034460306167602539e+00,2.000242710113525391e+00,1.967156887054443359e+00,1.935148000717163086e+00,1.904163837432861328e+00,1.874156355857849121e+00,1.845079898834228516e+00
5.000000000000000000e+00,5.000000000000000000e+00,5.000000000000000000e+00,5.000000000000000000e+00,5.000000000000000000e+00,5.000000000000000000e+00,5.000000000000000000e+00,5.000000000000000000e+00,5.000000000000000000e+00,5.000000000000000000e+00,5.000000000000000000e+00,5.000000000000000000e+00,5.000000000000000000e+00,5.000000000000000000e+00,5.000000000000000000e+00,5.000000000000000000e+00,5.000000000000000000e+00,5.000000000000000000e+00,5.000000000000000000e+00,5.000000000000000000e+00,5.000000000000000000e+00,5.000000000000000000e+00,5.000000000000000000e+00,5.000000000000000000e+00,5.000000000000000000e+00,5.000000000000000000e+00,5.000000000000000000e+00,5.000000000000000000e+00,5.000000000000000000e+00,2.451601266860961914e+00,2.449701309204101562e+00,2.375587701797485352e+00,2.373445749282836914e+00,2.374579906463623047e+00,2.384336948394775391e+00,2.404328584671020508e+00,2.442551374435424805e+00,5.000000000000000000e+00,2.563287496566772461e+00,2.548950433731079102e+00,4.671940326690673828e+00,4.495344638824462891e+00,4.331613063812255859e+00,4.179389476776123047e+00,4.037501811981201172e+00,3.904932022094726562e+00,3.780790805816650391e+00,3.664299726486206055e+00,3.554772377014160156e+00,3.451602697372436523e+00,3.354252815246582031e+00,3.262243509292602539e+00,3.175147294998168945e+00,3.092580556869506836e+00,3.014199256896972656e+00,2.939692974090576172e+00,2.868781089782714844e+00,2.801209926605224609e+00,2.736748456954956055e+00,2.675187110900878906e+00,2.616334199905395508e+00,2.560015201568603516e+00,2.506069898605346680e+00,2.454350948333740234e+00,2.404723405838012695e+00,2.357063293457031250e+00,2.311255693435668945e+00,2.267194509506225586e+00,2.224781751632690430e+00,2.183926820755004883e+00,2.144545316696166992e+00,2.106558799743652344e+00,2.069894552230834961e+00,2.034485101699829102e+00,2.000266551971435547e+00,1.967180013656616211e+00,1.935170292854309082e+00,1.904185414314270020e+00,1.874177336692810059e+00,1.845100164413452148e+00
5.000000000000000000e+00,5.000000000000000000e+00,5.000000000000000000e+00,5.000000000000000000e+00,5.000000000000000000e+00,5.000000000000000000e+00,5.000000000000000000e+00,5.000000000000000000e+00,5.000000000000000000e+00,5.000000000000000000e+00,5.000000000000000000e+00,5.000000000000000000e+00,5.000000000000000000e+00,5.000000000000000000e+00,5.000000000000000000e+00,5.000000000000000000e+00,5.000000000000000000e+00,5.000000000000000000e+00,5.000000000000000000e+00,5.000000000000000000e+00,5.000000000000000000e+00,5.000000000000000000e+00,5.000000000000000000e+00,5.000000000000000000e+00,5.000000000000000000e+00,5.000000000000000000e+00,5.000000000000000000e+00,5.000000000000000000e+00,5.000000000000000000e+00,2.443260431289672852e+00,2.421837806701660156e+00,2.355063438415527344e+00,2.349974870681762695e+00,2.371199846267700195e+00,2.405263900756835938e+00,2.424260616302490234e+00,2.449528455734252930e+00,5.000000000000000000e+00,2.585230112075805664e+00,2.531736373901367188e+00,2.531706094741821289e+00,4.495465278625488281e+00,4.331725597381591797e+00,4.179493904113769531e+00,4.037599086761474609e+00,3.905022859573364258e+00,3.780876159667968750e+00,3.664379596710205078e+00,3.554847717285156250e+00,3.451673746109008789e+00,3.354319810867309570e+00,3.262306928634643555e+00,3.175207376480102539e+00,3.092637538909912109e+00,3.014253377914428711e+00,2.939744472503662109e+00,2.868830204010009766e+00,2.801256656646728516e+00,2.736793041229248047e+00,2.675229787826538086e+00,2.616375207901000977e+00,2.560054302215576172e+00,2.506107330322265625e+00,2.454386711120605469e+00,2.404757976531982422e+00,2.357096433639526367e+00,2.311287403106689453e+00,2.267225027084350586e+00,2.224811315536499023e+00,2.183955192565917969e+00,2.144572734832763672e+00,2.106585264205932617e+00,2.069920063018798828e+00,2.034509658813476562e+00,2.000290393829345703e+00,1.967203021049499512e+00,1.935192584991455078e+00,1.904207110404968262e+00,1.874198317527770996e+00,1.845120549201965332e+00
5.000000000000000000e+00,5.000000000000000000e+00,5.000000000000000000e+00,5.000000000000000000e+00,5.000000000000000000e+00,5.000000000000000000e+00,5.000000000000000000e+00,5.000000000000000000e+00,5.000000000000000000e+00,5.000000000000000000e+00,5.000000000000000000e+00,5.000000000000000000e+00,5.000000000000000000e+00,5.000000000000000000e+00,5.000000000000000000e+00,5.000000000000000000e+00,5.000000000000000000e+00,5.000000000000000000e+00,5.000000000000000000e+00,5.000000000000000000e+00,5.000000000000000000e+00,5.000000000000000000e+00,5.000000000000000000e+00,5.000000000000000000e+00,5.000000000000000000e+00,5.000000000000000000e+00,5.000000000000000000e+00,5.000000000000000000e+00,5.000000000000000000e+00,2.437167167663574219e+00,2.421710729598999023e+00,2.334813117980957031e+00,2.318459272384643555e+00,2.317609786987304688e+00,2.388042211532592773e+00,2.453018665313720703e+00,2.457540273666381836e+00,5.000000000000000000e+00,5.000000000000000000e+00,2.539221048355102539e+00,2.518946647644042969e+00,4.495585918426513672e+00,4.331837177276611328e+00,4.179598331451416016e+00,4.037696361541748047e+00,3.905113697052001953e+00,3.780961275100708008e+00,3.664459705352783203e+00,3.554923057556152344e+00,3.451744794845581055e+00,3.354386806488037109e+00,3.262370347976684570e+00,3.175267457962036133e+00,3.092694759368896484e+00,3.014307737350463867e+00,2.939795970916748047e+00,2.868879318237304688e+00,2.801303386688232422e+00,2.736837625503540039e+00,2.675272464752197266e+00,2.616415977478027344e+00,2.560093402862548828e+00,2.506144762039184570e+00,2.454422712326049805e+00,2.404792547225952148e+00,2.357129573822021484e+00,2.311319351196289062e+00,2.267255783081054688e+00,2.224840641021728516e+00,2.183983802795410156e+00,2.144600152969360352e+00,2.106611728668212891e+00,2.069945812225341797e+00,2.034534454345703125e+00,2.000314235687255859e+00,1.967226147651672363e+00,1.935214877128601074e+00,1.904228687286376953e+00,1.874219179153442383e+00,1.845140814781188965e+00
5.000000000000000000e+00,5.000000000000000000e+00,5.000000000000000000e+00,5.000000000000000000e+00,5.000000000000000000e+00,5.000000000000000000e+00,5.000000000000000000e+00,5.000000000000000000e+00,5.000000000000000000e+00,5.000000000000000000e+00,5.000000000000000000e+00,5.000000000000000000e+00,5.000000000000000000e+00,5.000000000000000000e+00,5.000000000000000000e+00,5.000000000000000000e+00,5.000000000000000000e+00,5.000000000000000000e+00,5.000000000000000000e+00,5.000000000000000000e+00,5.000000000000000000e+00,5.000000000000000000e+00,5.000000000000000000e+00,5.000000000000000000e+00,5.000000000000000000e+00,5.000000000000000000e+00,5.000000000000000000e+00,5.000000000000000000e+00,5.000000000000000000e+00,2.425824880599975586e+00,2.429078340530395508e+00,2.318237543106079102e+00,2.304591178894042969e+00,2.303529500961303711e+00,2.331849575042724609e+00,2.454052448272705078e+00,2.456597328186035156e+00,2.512083053588867188e+00,5.000000000000000000e+00,4.863401412963867188e+00,2.471069574356079102e+00,4.495706558227539062e+00,4.331949234008789062e+00,4.179702758789062500e+00,4.037793636322021484e+00,3.905205011367797852e+00,3.781046867370605469e+00,3.664540052413940430e+00,3.554998874664306641e+00,3.451816082000732422e+00,3.354454278945922852e+00,3.262434244155883789e+00,3.175327777862548828e+00,3.092751979827880859e+00,3.014362096786499023e+00,2.939847946166992188e+00,2.868928670883178711e+00,2.801350355148315430e+00,2.736882448196411133e+00,2.675315141677856445e+00,2.616456985473632812e+00,2.560132741928100586e+00,2.506182193756103516e+00,2.454458713531494141e+00,2.404827117919921875e+00,2.357162952423095703e+00,2.311351299285888672e+00,2.267286539077758789e+00,2.224870443344116211e+00,2.184012174606323242e+00,2.144627571105957031e+00,2.106638431549072266e+00,2.069971323013305664e+00,2.034559249877929688e+00,2.000338077545166016e+00,1.967249393463134766e+00,1.935237288475036621e+00,1.904250502586364746e+00,1.874240159988403320e+00,1.845161318778991699e+00
5.000000000000000000e+00,5.000000000000000000e+00,5.000000000000000000e+00,5.000000000000000000e+00,5.000000000000000000e+00,5.000000000000000000e+00,5.000000000000000000e+00,5.000000000000000000e+00,5.000000000000000000e+00,5.000000000000000000e+00,5.000000000000000000e+00,5.000000000000000000e+00,5.000000000000000000e+00,5.000000000000000000e+00,5.000000000000000000e+00,5.000000000000000000e+00,5.000000000000000000e+00,5.000000000000000000e+00,5.000000000000000000e+00,5.000000000000000000e+00,5.000000000000000000e+00,5.000000000000000000e+00,5.000000000000000000e+00,5.000000000000000000e+00,5.000000000000000000e+00,5.000000000000000000e+00,5.000000000000000000e+00,5.000000000000000000e+00,5.000000000000000000e+00,2.432272911071777344e+00,5.000000000000000000e+00,2.327829599380493164e+00,2.294212579727172852e+00,2.292379856109619141e+00,2.311704397201538086e+00,2.452899694442749023e+00,2.456798791885375977e+00,2.512462615966796875e+00,5.000000000000000000e+00,4.863542079925537109e+00,2.442848205566406250e+00,2.453116178512573242e+00,4.332061290740966797e+00,4.179806709289550781e+00,4.037890911102294922e+00,3.905296087265014648e+00,3.781132221221923828e+00,3.664620161056518555e+00,3.555074214935302734e+00,3.451887130737304688e+00,3.354521274566650391e+00,3.262497663497924805e+00,3.175387859344482422e+00,3.092808961868286133e+00,3.014416217803955078e+00,2.939899444580078125e+00,2.868977546691894531e+00,2.801397085189819336e+00,2.736927270889282227e+00,2.675357818603515625e+00,2.616497755050659180e+00,2.560171604156494141e+00,2.506219625473022461e+00,2.454494714736938477e+00,2.404861450195312500e+00,2.357196092605590820e+00,2.311383247375488281e+00,2.267317056655883789e+00,2.224900007247924805e+00,2.184040784835815430e+00,2.144654989242553711e+00,2.106664896011352539e+00,2.069996833801269531e+00,2.034583806991577148e+00,2.000361919403076172e+00,1.967272520065307617e+00,1.935259580612182617e+00,1.904272079467773438e+00,1.874261140823364258e+00,1.845181584358215332e+00
5.000000000000000000e+00,5.000000000000000000e+00,5.000000000000000000e+00,5.000000000000000000e+00,5.000000000000000000e+00,5.000000000000000000e+00,5.000000000000000000e+00,5.000000000000000000e+00,5.000000000000000000e+00,5.000000000000000000e+00,5.000000000000000000e+00,5.000000000000000000e+00,5.000000000000000000e+00,5.000000000000000000e+00,5.000000000000000000e+00,5.000000000000000000e+00,5.000000000000000000e+00,5.000000000000000000e+00,5.000000000000000000e+00,5.000000000000000000e+00,5.000000000000000000e+00,5.000000000000000000e+00,5.000000000000000000e+00,5.000000000000000000e+00,5.000000000000000000e+00,5.000000000000000000e+00,5.000000000000000000e+00,5.000000000000000000e+00,5.000000000000000000e+00,2.420320749282836914e+00,5.000000000000000000e+00,2.339412689208984375e+00,2.285106897354125977e+00,2.282133102416992188e+00,2.292310714721679688e+00,2.457360982894897461e+00,2.465851783752441406e+00,2.524564743041992188e+00,5.000000000000000000e+00,4.863683700561523438e+00,4.672591686248779297e+00,2.533065080642700195e+00,4.332173347473144531e+00,4.179911136627197266e+00,4.037988185882568359e+00,3.905386924743652344e+00,3.781217336654663086e+00,3.664700269699096680e+00,3.555149555206298828e+00,3.451958179473876953e+00,3.354588508605957031e+00,3.262561082839965820e+00,3.175447940826416016e+00,3.092865943908691406e+00,3.014470338821411133e+00,2.939950942993164062e+00,2.869026660919189453e+00,2.801444053649902344e+00,2.736971855163574219e+00,2.675400495529174805e+00,2.616538524627685547e+00,2.560210704803466797e+00,2.506257057189941406e+00,2.454530477523803711e+00,2.404896020889282227e+00,2.357229232788085938e+00,2.311414957046508789e+00,2.267347812652587891e+00,2.224929332733154297e+00,2.184069156646728516e+00,2.144682407379150391e+00,2.106691360473632812e+00,2.070022344589233398e+00,2.034608602523803711e+00,2.000385999679565430e+00,1.967295527458190918e+00,1.935281872749328613e+00,1.904293775558471680e+00,1.874282002449035645e+00,1.845201849937438965e+00
5.000000000000000000e+00,5.000000000000000000e+00,5.000000000000000000e+00,5.000000000000000000e+00,5.000000000000000000e+00,5.000000000000000000e+00,5.000000000000000000e+00,5.000000000000000000e+00,5.000000000000000000e+00,5.000000000000000000e+00,5.000000000000000000e+00,5.000000000000000000e+00,5.000000000000000000e+00,5.000000000000000000e+00,5.000000000000000000e+00,5.000000000000000000e+00,5.000000000000000000e+00,5.000000000000000000e+00,5.000000000000000000e+00,5.000000000000000000e+00,5.000000000000000000e+00,5.000000000000000000e+00,5.000000000000000000e+00,5.000000000000000000e+00,5.000000000000000000e+00,5.000000000000000000e+00,5.000000000000000000e+00,5.000000000000000000e+00,5.000000000000000000e+00,2.401526927947998047e+00,2.406460523605346680e+00,2.366661787033081055e+00,2.289232969284057617e+00,2.270700216293334961e+00,2.271033525466918945e+00,2.323633193969726562e+00,2.481315135955810547e+00,5.000000000000000000e+00,5.000000000000000000e+00,4.863824844360351562e+00,4.672721862792968750e+00,4.496068477630615234e+00,2.481084823608398438e+00,4.180015087127685547e+00,4.038085460662841797e+00,3.905477762222290039e+00,3.781302690505981445e+00,3.664780378341674805e+00,3.555224657058715820e+00,3.452029228210449219e+00,3.354655504226684570e+00,3.262624502182006836e+00,3.175508022308349609e+00,3.092922925949096680e+00,3.014524459838867188e+00,2.940002441406250000e+00,2.869075775146484375e+00,2.801490783691406250e+00,2.737016439437866211e+00,2.675443172454833984e+00,2.616579294204711914e+00,2.560249805450439453e+00,2.506294488906860352e+00,2.454566478729248047e+00,2.404930591583251953e+00,2.357262372970581055e+00,2.311446905136108398e+00,2.267378330230712891e+00,2.224958896636962891e+00,2.184097528457641602e+00,2.144709825515747070e+00,2.106717824935913086e+00,2.070048093795776367e+00,2.034633159637451172e+00,2.000409841537475586e+00,1.967318654060363770e+00,1.935304164886474609e+00,1.904315352439880371e+00,1.874302983283996582e+00,1.845222115516662598e+00
5.000000000000000000e+00,5.000000000000000000e+00,5.000000000000000000e+00,5.000000000000000000e+00,5.000000000000000000e+00,5.000000000000000000e+00,5.000000000000000000e+00,5.000000000000000000e+00,5.000000000000000000e+00,5.000000000000000000e+00,5.000000000000000000e+00,5.000000000000000000e+00,5.000000000000000000e+00,5.000000000000000000e+00,5.000000000000000000e+00,5.000000000000000000e+00,5.000000000000000000e+00,5.000000000000000000e+00,5.000000000000000000e+00,5.000000000000000000e+00,5.000000000000000000e+00,5.000000000000000000e+00,5.000000000000000000e+00,5.000000000000000000e+00,5.000000000000000000e+00,5.000000000000000000e+00,5.000000000000000000e+00,5.000000000000000000e+00,5.000000000000000000e+00,2.389955520629882812e+00,2.399374246597290039e+00,5.000000000000000000e+00,2.300871372222900391e+00,2.258502960205078125e+00,2.253169775009155273e+00,2.298415660858154297e+00,2.498077630996704102e+00,5.000000000000000000e+00,5.000000000000000000e+00,4.863965988159179688e+00,4.672852516174316406e+00,4.496189117431640625e+00,4.332397460937500000e+00,4.180119514465332031e+00,4.038183212280273438e+00,3.905569314956665039e+00,3.781388282775878906e+00,3.664860725402832031e+00,3.555300474166870117e+00,3.452100753784179688e+00,3.354722976684570312e+00,3.262688159942626953e+00,3.175568580627441406e+00,3.092980384826660156e+00,3.014579057693481445e+00,2.940054178237915039e+00,2.869125127792358398e+00,2.801537752151489258e+00,2.737061262130737305e+00,2.675486087799072266e+00,2.616620302200317383e+00,2.560289144515991211e+00,2.506332159042358398e+00,2.454602479934692383e+00,2.404965162277221680e+00,2.357295513153076172e+00,2.311478853225708008e+00,2.267409086227416992e+00,2.224988460540771484e+00,2.184126138687133789e+00,2.144737482070922852e+00,2.106744289398193359e+00,2.070073604583740234e+00,2.034657955169677734e+00,2.000433683395385742e+00,1.967341661453247070e+00,1.935326814651489258e+00,1.904336929321289062e+00,1.874324083328247070e+00,1.845242500305175781e+00
5.000000000000000000e+00,5.000000000000000000e+00,5.000000000000000000e+00,5.000000000000000000e+00,5.000000000000000000e+00,5.000000000000000000e+00,5.000000000000000000e+00,5.000000000000000000e+00,5.000000000000000000e+00,5.000000000000000000e+00,5.000000000000000000e+00,5.000000000000000000e+00,5.000000000000000000e+00,5.000000000000000000e+00,5.000000000000000000e+00,5.000000000000000000e+00,5.000000000000000000e+00,5.000000000000000000e+00,5.000000000000000000e+00,5.000000000000000000e+00,5.000000000000000000e+00,5.000000000000000000e+00,5.000000000000000000e+00,5.000000000000000000e+00,5.000000000000000000e+00,5.000000000000000000e+00,5.000000000000000000e+00,5.000000000000000000e+00,5.000000000000000000e+00,2.379250764846801758e+00,5.000000000000000000e+00,5.000000000000000000e+00,2.320161342620849609e+00,2.252999544143676758e+00,2.239313125610351562e+00,2.273687124252319336e+00,2.518702983856201172e+00,5.000000000000000000e+00,5.000000000000000000e+00,4.864107131958007812e+00,4.672982692718505859e+00,4.496309757232666016e+00,4.332509040832519531e+00,4.180223941802978516e+00,4.038280010223388672e+00,3.905660152435302734e+00,3.781473398208618164e+00,3.664940834045410156e+00,3.555375814437866211e+00,3.452171564102172852e+00,3.354789972305297852e+00,3.262751817703247070e+00,3.175628662109375000e+00,3.093037366867065430e+00,3.014633178710937500e+00,2.940105676651000977e+00,2.869174242019653320e+00,2.801584482192993164e+00,2.737106084823608398e+00,2.675528764724731445e+00,2.616661071777343750e+00,2.560328245162963867e+00,2.506369590759277344e+00,2.454638481140136719e+00,2.404999494552612305e+00,2.357328653335571289e+00,2.311510562896728516e+00,2.267439842224121094e+00,2.225018024444580078e+00,2.184154510498046875e+00,2.144764900207519531e+00,2.106770753860473633e+00,2.070099115371704102e+00,2.034682750701904297e+00,2.000457525253295898e+00,1.967364788055419922e+00,1.935349106788635254e+00,1.904358625411987305e+00,1.874345064163208008e+00,1.845262765884399414e+00
5.000000000000000000e+00,5.000000000000000000e+00,5.000000000000000000e+00,5.000000000000000000e+00,5.000000000000000000e+00,5.000000000000000000e+00,5.000000000000000000e+00,5.000000000000000000e+00,5.000000000000000000e+00,5.000000000000000000e+00,5.000000000000000000e+00,5.000000000000000000e+00,5.000000000000000000e+00,5.000000000000000000e+00,5.000000000000000000e+00,5.000000000000000000e+00,5.000000000000000000e+00,5.000000000000000000e+00,5.000000000000000000e+00,5.000000000000000000e+00,5.000000000000000000e+00,5.000000000000000000e+00,5.000000000000000000e+00,5.000000000000000000e+00,5.000000000000000000e+00,5.000000000000000000e+00,5.000000000000000000e+00,5.000000000000000000e+00,5.000000000000000000e+00,5.000000000000000000e+00,5.000000000000000000e+00,5.000000000000000000e+00,2.336328983306884766e+00,2.262862205505371094e+00,2.232289314270019531e+00,2.254711866378784180e+00,2.531560659408569336e+00,5.000000000000000000e+00,5.000000000000000000e+00,4.864248275756835938e+00,4.673112869262695312e+00,4.496430397033691406e+00,4.332621574401855469e+00,4.180328369140625000e+00,4.038377761840820312e+00,3.905750989913940430e+00,3.781558752059936523e+00,3.665020942687988281e+00,3.555451154708862305e+00,3.452242612838745117e+00,3.354857206344604492e+00,3.262815237045288086e+00,3.175688743591308594e+00,3.093094348907470703e+00,3.014687299728393555e+00,2.940157175064086914e+00,2.869223117828369141e+00,2.801631212234497070e+00,2.737150669097900391e+00,2.675571441650390625e+00,2.616702079772949219e+00,2.560367345809936523e+00,2.506407022476196289e+00,2.454674482345581055e+00,2.405034065246582031e+00,2.357361793518066406e+00,2.311542510986328125e+00,2.267470598220825195e+00,2.225047588348388672e+00,2.184183120727539062e+00,2.144792318344116211e+00,2.106797218322753906e+00,2.070124864578247070e+00,2.034707307815551758e+00,2.000481367111206055e+00,1.967387795448303223e+00,1.935371398925781250e+00,1.904380202293395996e+00,1.874366044998168945e+00,1.845283031463623047e+00
5.000000000000000000e+00,5.000000000000000000e+00,5.000000000000000000e+00,5.000000000000000000e+00,5.000000000000000000e+00,5.000000000000000000e+00,5.000000000000000000e+00,5.000000000000000000e+00,5.000000000000000000e+00,5.000000000000000000e+00,5.000000000000000000e+00,5.000000000000000000e+00,5.000000000000000000e+00,5.000000000000000000e+00,5.000000000000000000e+00,5.000000000000000000e+00,5.000000000000000000e+00,5.000000000000000000e+00,5.000000000000000000e+00,5.000000000000000000e+00,5.000000000000000000e+00,5.000000000000000000e+00,5.000000000000000000e+00,5.000000000000000000e+00,5.000000000000000000e+00,5.000000000000000000e+00,5.000000000000000000e+00,5.000000000000000000e+00,5.000000000000000000e+00,5.000000000000000000e+00,5.000000000000000000e+00,5.000000000000000000e+00,5.000000000000000000e+00,2.274631023406982422e+00,2.235378265380859375e+00,2.255247592926025391e+00,5.000000000000000000e+00,5.000000000000000000e+00,5.000000000000000000e+00,4.864389419555664062e+00,4.673243045806884766e+00,4.496551036834716797e+00,4.332733154296875000e+00,4.180432319641113281e+00,4.038475036621093750e+00,3.905842065811157227e+00,3.781643867492675781e+00,3.665101051330566406e+00,3.555526494979858398e+00,3.452313661575317383e+00,3.354924201965332031e+00,3.262878656387329102e+00,3.175748825073242188e+00,3.093151330947875977e+00,3.014741420745849609e+00,2.940208673477172852e+00,2.869272232055664062e+00,2.801678180694580078e+00,2.737195253372192383e+00,2.675614118576049805e+00,2.616742849349975586e+00,2.560406208038330078e+00,2.506444454193115234e+00,2.454710245132446289e+00,2.405068635940551758e+00,2.357394933700561523e+00,2.311574459075927734e+00,2.267501115798950195e+00,2.225077152252197266e+00,2.184211492538452148e+00,2.144819736480712891e+00,2.106823682785034180e+00,2.070150375366210938e+00,2.034732103347778320e+00,2.000505208969116211e+00,1.967410922050476074e+00,1.935393691062927246e+00,1.904401779174804688e+00,1.874386906623840332e+00,1.845303297042846680e+00
5.000000000000000000e+00,5.000000000000000000e+00,5.000000000000000000e+00,5.000000000000000000e+00,5.000000000000000000e+00,5.000000000000000000e+00,5.000000000000000000e+00,5.000000000000000000e+00,5.000000000000000000e+00,5.000000000000000000e+00,5.000000000000000000e+00,5.000000000000000000e+00,5.000000000000000000e+00,5.000000000000000000e+00,5.000000000000000000e+00,5.000000000000000000e+00,5.000000000000000000e+00,5.000000000000000000e+00,5.000000000000000000e+00,5.000000000000000000e+00,5.000000000000000000e+00,5.000000000000000000e+00,5.000000000000000000e+00,5.000000000000000000e+00,5.000000000000000000e+00,5.000000000000000000e+00,5.000000000000000000e+00,5.000000000000000000e+00,5.000000000000000000e+00,5.000000000000000000e+00,5.000000000000000000e+00,5.000000000000000000e+00,5.000000000000000000e+00,2.271326303482055664e+00,2.250044584274291992e+00,2.269829750061035156e+00,5.000000000000000000e+00,5.000000000000000000e+00,5.000000000000000000e+00,4.864531040191650391e+00,4.673373699188232422e+00,4.496671676635742188e+00,4.332845687866210938e+00,4.180536746978759766e+00,4.038572311401367188e+00,3.905933380126953125e+00,3.781729698181152344e+00,3.665181398391723633e+00,3.555602312088012695e+00,3.452385187149047852e+00,3.354991674423217773e+00,3.262942314147949219e+00,3.175809383392333984e+00,3.093208789825439453e+00,3.014796018600463867e+00,2.940260648727416992e+00,2.869321584701538086e+00,2.801725149154663086e+00,2.737240076065063477e+00,2.675657033920288086e+00,2.616783857345581055e+00,2.560445547103881836e+00,2.506482124328613281e+00,2.454746484756469727e+00,2.405103206634521484e+00,2.357428312301635742e+00,2.311606407165527344e+00,2.267531871795654297e+00,2.225106716156005859e+00,2.184240102767944336e+00,2.144847154617309570e+00,2.106850385665893555e+00,2.070175886154174805e+00,2.034756898880004883e+00,2.000529289245605469e+00,1.967434167861938477e+00,1.935416102409362793e+00,1.904423594474792480e+00,1.874407887458801270e+00,1.845323801040649414e+00
5.000000000000000000e+00,5.000000000000000000e+00,5.000000000000000000e+00,5.000000000000000000e+00,5.000000000000000000e+00,5.000000000000000000e+00,5.000000000000000000e+00,5.000000000000000000e+00,5.000000000000000000e+00,5.000000000000000000e+00,5.000000000000000000e+00,5.000000000000000000e+00,5.000000000000000000e+00,5.000000000000000000e+00,5.000000000000000000e+00,5.000000000000000000e+00,5.000000000000000000e+00,5.000000000000000000e+00,5.000000000000000000e+00,5.000000000000000000e+00,5.000000000000000000e+00,5.000000000000000000e+00,5.000000000000000000e+00,5.000000000000000000e+00,5.000000000000000000e+00,5.000000000000000000e+00,5.000000000000000000e+00,5.000000000000000000e+00,5.000000000000000000e+00,5.000000000000000000e+00,5.000000000000000000e+00,5.000000000000000000e+00,5.000000000000000000e+00,2.276360034942626953e+00,2.265466690063476562e+00,2.295791387557983398e+00,5.000000000000000000e+00,5.000000000000000000e+00,5.000000000000000000e+00,4.864671707153320312e+00,4.673503875732421875e+00,4.496792316436767578e+00,4.332957267761230469e+00,4.180641174316406250e+00,4.038669586181640625e+00,3.906024217605590820e+00,3.781814813613891602e+00,3.665261507034301758e+00,3.555677652359008789e+00,3.452456235885620117e+00,3.355058670043945312e+00,3.263005733489990234e+00,3.175869464874267578e+00,3.093265771865844727e+00,3.014850139617919922e+00,2.940312147140502930e+00,2.869370698928833008e+00,2.801771879196166992e+00,2.737284898757934570e+00,2.675699710845947266e+00,2.616824626922607422e+00,2.560484647750854492e+00,2.506519556045532227e+00,2.454782247543334961e+00,2.405137777328491211e+00,2.357461452484130859e+00,2.311638116836547852e+00,2.267562627792358398e+00,2.225136280059814453e+00,2.184268474578857422e+00,2.144874572753906250e+00,2.106876850128173828e+00,2.070201635360717773e+00,2.034781455993652344e+00,2.000553131103515625e+00,1.967457294464111328e+00,1.935438394546508789e+00,1.904445290565490723e+00,1.874428868293762207e+00,1.845344185829162598e+00
5.000000000000000000e+00,5.000000000000000000e+00,5.000000000000000000e+00,5.000000000000000000e+00,5.000000000000000000e+00,5.000000000000000000e+00,5.000000000000000000e+00,5.000000000000000000e+00,5.000000000000000000e+00,5.000000000000000000e+00,5.000000000000000000e+00,5.000000000000000000e+00,5.000000000000000000e+00,5.000000000000000000e+00,5.000000000000000000e+00,5.000000000000000000e+00,5.000000000000000000e+00,5.000000000000000000e+00,5.000000000000000000e+00,5.000000000000000000e+00,5.000000000000000000e+00,5.000000000000000000e+00,5.000000000000000000e+00,5.000000000000000000e+00,5.000000000000000000e+00,5.000000000000000000e+00,5.000000000000000000e+00,5.000000000000000000e+00,5.000000000000000000e+00,5.000000000000000000e+00,5.000000000000000000e+00,5.000000000000000000e+00,2.667356491088867188e+00,2.283997535705566406e+00,2.274289131164550781e+00,2.315356731414794922e+00,5.000000000000000000e+00,5.000000000000000000e+00,5.000000000000000000e+00,4.864824295043945312e+00,4.673634529113769531e+00,4.496913433074951172e+00,4.333069801330566406e+00,4.180745601654052734e+00,4.038766860961914062e+00,3.906115293502807617e+00,3.781900167465209961e+00,3.665341615676879883e+00,3.555752992630004883e+00,3.452527284622192383e+00,3.355125904083251953e+00,3.263069391250610352e+00,3.175929546356201172e+00,3.093322753906250000e+00,3.014904260635375977e+00,2.940363645553588867e+00,2.869419813156127930e+00,2.801818609237670898e+00,2.737329483032226562e+00,2.675742387771606445e+00,2.616865396499633789e+00,2.560523748397827148e+00,2.506556987762451172e+00,2.454818248748779297e+00,2.405172109603881836e+00,2.357494354248046875e+00,2.311670064926147461e+00,2.267593145370483398e+00,2.225165843963623047e+00,2.184296846389770508e+00,2.144901990890502930e+00,2.106903314590454102e+00,2.070227146148681641e+00,2.034806251525878906e+00,2.000576972961425781e+00,1.967480301856994629e+00,1.935460686683654785e+00,1.904466867446899414e+00,1.874449729919433594e+00,1.845364451408386230e+00
5.000000000000000000e+00,5.000000000000000000e+00,5.000000000000000000e+00,5.000000000000000000e+00,5.000000000000000000e+00,5.000000000000000000e+00,5.000000000000000000e+00,5.000000000000000000e+00,5.000000000000000000e+00,5.000000000000000000e+00,5.000000000000000000e+00,5.000000000000000000e+00,5.000000000000000000e+00,5.000000000000000000e+00,5.000000000000000000e+00,5.000000000000000000e+00,5.000000000000000000e+00,5.000000000000000000e+00,5.000000000000000000e+00,5.000000000000000000e+00,5.000000000000000000e+00,5.000000000000000000e+00,5.000000000000000000e+00,5.000000000000000000e+00,5.000000000000000000e+00,5.000000000000000000e+00,5.000000000000000000e+00,5.000000000000000000e+00,5.000000000000000000e+00,5.000000000000000000e+00,5.000000000000000000e+00,5.000000000000000000e+00,2.678893566131591797e+00,2.290506362915039062e+00,2.274859905242919922e+00,2.312047719955444336e+00,5.000000000000000000e+00,5.000000000000000000e+00,5.000000000000000000e+00,4.864997863769531250e+00,4.673764705657958984e+00,4.497033596038818359e+00,4.333181381225585938e+00,4.180849552154541016e+00,4.038864135742187500e+00,3.906206130981445312e+00,3.781985282897949219e+00,3.665421724319458008e+00,3.555828332901000977e+00,3.452598333358764648e+00,3.355192899703979492e+00,3.263132810592651367e+00,3.175989627838134766e+00,3.093379735946655273e+00,3.014958381652832031e+00,2.940415143966674805e+00,2.869468927383422852e+00,2.801865577697753906e+00,2.737374067306518555e+00,2.675785064697265625e+00,2.616906166076660156e+00,2.560562849044799805e+00,2.506594419479370117e+00,2.454854249954223633e+00,2.405206680297851562e+00,2.357527494430541992e+00,2.311702013015747070e+00,2.267623901367187500e+00,2.225195407867431641e+00,2.184325456619262695e+00,2.144929409027099609e+00,2.106929779052734375e+00,2.070252656936645508e+00,2.034830808639526367e+00,2.000600814819335938e+00,1.967503428459167480e+00,1.935483098030090332e+00,1.904488444328308105e+00,1.874470710754394531e+00,1.845384716987609863e+00
5.000000000000000000e+00,5.000000000000000000e+00,5.000000000000000000e+00,5.000000000000000000e+00,5.000000000000000000e+00,5.000000000000000000e+00,5.000000000000000000e+00,5.000000000000000000e+00,5.000000000000000000e+00,5.000000000000000000e+00,5.000000000000000000e+00,5.000000000000000000e+00,5.000000000000000000e+00,5.000000000000000000e+00,5.000000000000000000e+00,5.000000000000000000e+00,5.000000000000000000e+00,5.000000000000000000e+00,5.000000000000000000e+00,5.000000000000000000e+00,5.000000000000000000e+00,5.000000000000000000e+00,5.000000000000000000e+00,5.000000000000000000e+00,5.000000000000000000e+00,5.000000000000000000e+00,5.000000000000000000e+00,5.000000000000000000e+00,5.000000000000000000e+00,5.000000000000000000e+00,5.000000000000000000e+00,5.000000000000000000e+00,2.693947792053222656e+00,2.297167062759399414e+00,2.275430679321289062e+00,2.308383703231811523e+00,5.000000000000000000e+00,5.000000000000000000e+00,5.000000000000000000e+00,4.865171432495117188e+00,4.673924446105957031e+00,4.497154712677001953e+00,4.333293914794921875e+00,4.180953979492187500e+00,4.038961887359619141e+00,3.906297683715820312e+00,3.782071113586425781e+00,3.665502071380615234e+00,3.555904150009155273e+00,3.452669620513916016e+00,3.355260372161865234e+00,3.263196468353271484e+00,3.176050186157226562e+00,3.093437194824218750e+00,3.015012979507446289e+00,2.940466880798339844e+00,2.869518041610717773e+00,2.801912546157836914e+00,2.737419128417968750e+00,2.675827980041503906e+00,2.616947174072265625e+00,2.560602188110351562e+00,2.506632089614868164e+00,2.454890251159667969e+00,2.405241250991821289e+00,2.357560873031616211e+00,2.311733961105346680e+00,2.267654657363891602e+00,2.225224971771240234e+00,2.184353828430175781e+00,2.144957065582275391e+00,2.106956243515014648e+00,2.070278167724609375e+00,2.034855604171752930e+00,2.000624656677246094e+00,1.967526435852050781e+00,1.935505628585815430e+00,1.904510140419006348e+00,1.874491810798645020e+00,1.845404982566833496e+00
5.000000000000000000e+00,5.000000000000000000e+00,5.000000000000000000e+00,5.000000000000000000e+00,5.000000000000000000e+00,5.000000000000000000e+00,5.000000000000000000e+00,5.000000000000000000e+00,5.000000000000000000e+00,5.000000000000000000e+00,5.000000000000000000e+00,5.000000000000000000e+00,5.000000000000000000e+00,5.000000000000000000e+00,5.000000000000000000e+00,5.000000000000000000e+00,5.000000000000000000e+00,5.000000000000000000e+00,5.000000000000000000e+00,5.000000000000000000e+00,5.000000000000000000e+00,5.000000000000000000e+00,5.000000000000000000e+00,5.000000000000000000e+00,5.000000000000000000e+00,5.000000000000000000e+00,5.000000000000000000e+00,5.000000000000000000e+00,5.000000000000000000e+00,5.000000000000000000e+00,5.000000000000000000e+00,5.000000000000000000e+00,2.725648164749145508e+00,2.303940773010253906e+00,2.278836250305175781e+00,2.304731607437133789e+00,5.000000000000000000e+00,5.000000000000000000e+00,5.000000000000000000e+00,4.865345001220703125e+00,4.674084663391113281e+00,4.497293472290039062e+00,4.333405494689941406e+00,4.181058406829833984e+00,4.039059162139892578e+00,3.906388521194458008e+00,3.782156229019165039e+00,3.665582180023193359e+00,3.555979490280151367e+00,3.452740669250488281e+00,3.355327367782592773e+00,3.263260126113891602e+00,3.176110267639160156e+00,3.093494176864624023e+00,3.015067100524902344e+00,2.940518379211425781e+00,2.869567155838012695e+00,2.801959276199340820e+00,2.737463712692260742e+00,2.675870656967163086e+00,2.616988182067871094e+00,2.560641288757324219e+00,2.506669521331787109e+00,2.454926252365112305e+00,2.405275821685791016e+00,2.357594013214111328e+00,2.311765909194946289e+00,2.267685413360595703e+00,2.225254535675048828e+00,2.184382438659667969e+00,2.144984483718872070e+00,2.106982707977294922e+00,2.070303916931152344e+00,2.034880399703979492e+00,2.000648736953735352e+00,1.967549562454223633e+00,1.935527920722961426e+00,1.904531717300415039e+00,1.874512791633605957e+00,1.845425367355346680e+00
5.000000000000000000e+00,5.000000000000000000e+00,5.000000000000000000e+00,5.000000000000000000e+00,5.000000000000000000e+00,5.000000000000000000e+00,5.000000000000000000e+00,5.000000000000000000e+00,5.000000000000000000e+00,5.000000000000000000e+00,5.000000000000000000e+00,5.000000000000000000e+00,5.000000000000000000e+00,5.000000000000000000e+00,5.000000000000000000e+00,5.000000000000000000e+00,5.000000000000000000e+00,5.000000000000000000e+00,5.000000000000000000e+00,5.000000000000000000e+00,5.000000000000000000e+00,5.000000000000000000e+00,5.000000000000000000e+00,5.000000000000000000e+00,5.000000000000000000e+00,5.000000000000000000e+00,5.000000000000000000e+00,5.000000000000000000e+00,5.000000000000000000e+00,5.000000000000000000e+00,5.000000000000000000e+00,2.803559064865112305e+00,2.762074232101440430e+00,2.311531066894531250e+00,2.286253452301025391e+00,2.303354740142822266e+00,5.000000000000000000e+00,5.000000000000000000e+00,5.000000000000000000e+00,4.865518093109130859e+00,4.674244880676269531e+00,4.497441768646240234e+00,4.333526134490966797e+00,4.181162834167480469e+00,4.039156436920166016e+00,3.906479597091674805e+00,3.782241582870483398e+00,3.665662288665771484e+00,3.556054830551147461e+00,3.452811717987060547e+00,3.355394601821899414e+00,3.263323545455932617e+00,3.176170349121093750e+00,3.093551158905029297e+00,3.015121221542358398e+00,2.940569877624511719e+00,2.869616270065307617e+00,2.802006006240844727e+00,2.737508296966552734e+00,2.675913333892822266e+00,2.617028951644897461e+00,2.560680150985717773e+00,2.506707191467285156e+00,2.454962015151977539e+00,2.405310392379760742e+00,2.357627153396606445e+00,2.311797618865966797e+00,2.267715930938720703e+00,2.225284099578857422e+00,2.184410810470581055e+00,2.145011901855468750e+00,2.107009172439575195e+00,2.070329427719116211e+00,2.034904956817626953e+00,2.000672578811645508e+00,1.967572689056396484e+00,1.935550212860107422e+00,1.904553413391113281e+00,1.874533772468566895e+00,1.845445632934570312e+00
5.000000000000000000e+00,5.000000000000000000e+00,5.000000000000000000e+00,5.000000000000000000e+00,5.000000000000000000e+00,5.000000000000000000e+00,5.000000000000000000e+00,5.000000000000000000e+00,5.000000000000000000e+00,5.000000000000000000e+00,5.000000000000000000e+00,5.000000000000000000e+00,5.000000000000000000e+00,5.000000000000000000e+00,5.000000000000000000e+00,5.000000000000000000e+00,5.000000000000000000e+00,5.000000000000000000e+00,5.000000000000000000e+00,5.000000000000000000e+00,5.000000000000000000e+00,5.000000000000000000e+00,5.000000000000000000e+00,5.000000000000000000e+00,5.000000000000000000e+00,5.000000000000000000e+00,5.000000000000000000e+00,5.000000000000000000e+00,5.000000000000000000e+00,5.000000000000000000e+00,5.000000000000000000e+00,2.827621459960937500e+00,5.000000000000000000e+00,2.319962501525878906e+00,2.290488958358764648e+00,2.302004814147949219e+00,5.000000000000000000e+00,5.000000000000000000e+00,5.000000000000000000e+00,4.865691661834716797e+00,4.674405097961425781e+00,4.497590065002441406e+00,4.333663463592529297e+00,4.181266784667968750e+00,4.039253711700439453e+00,3.906570434570312500e+00,3.782326936721801758e+00,3.665742397308349609e+00,3.556130170822143555e+00,3.452882766723632812e+00,3.355461597442626953e+00,3.263386964797973633e+00,3.176230430603027344e+00,3.093608140945434570e+00,3.015175580978393555e+00,2.940621614456176758e+00,2.869665384292602539e+00,2.802052974700927734e+00,2.737553119659423828e+00,2.675956010818481445e+00,2.617069721221923828e+00,2.560719251632690430e+00,2.506744623184204102e+00,2.454998016357421875e+00,2.405344724655151367e+00,2.357660293579101562e+00,2.311829566955566406e+00,2.267746686935424805e+00,2.225313425064086914e+00,2.184439182281494141e+00,2.145039319992065430e+00,2.107035636901855469e+00,2.070354938507080078e+00,2.034929752349853516e+00,2.000696420669555664e+00,1.967595696449279785e+00,1.935572624206542969e+00,1.904574990272521973e+00,1.874554753303527832e+00,1.845465898513793945e+00
4.876105308532714844e+00,4.874880790710449219e+00,4.873656272888183594e+00,4.872433185577392578e+00,4.871210575103759766e+00,4.869988441467285156e+00,4.868766784667968750e+00,4.867546081542968750e+00,4.866325855255126953e+00,4.865106105804443359e+00,4.863886833190917969e+00,4.862668514251708984e+00,4.861451148986816406e+00,4.860233783721923828e+00,4.859017372131347656e+00,4.857800960540771484e+00,4.856585502624511719e+00,4.855370998382568359e+00,4.854156970977783203e+00,4.852943420410156250e+00,4.851730346679687500e+00,4.850517749786376953e+00,4.849306106567382812e+00,4.848095417022705078e+00,4.846884727478027344e+00,4.845674991607666016e+00,4.844465732574462891e+00,4.843256950378417969e+00,4.842048645019531250e+00,4.840841293334960938e+00,4.839634418487548828e+00,2.810802221298217773e+00,4.837222099304199219e+00,2.348731756210327148e+00,2.298949956893920898e+00,2.300656795501708984e+00,4.832405090332031250e+00,4.831202507019042969e+00,4.830000400543212891e+00,4.828799247741699219e+00,4.674565315246582031e+00,4.497738361358642578e+00,4.333801269531250000e+00,4.181394577026367188e+00,4.039350986480712891e+00,3.906661748886108398e+00,3.782412528991699219e+00,3.665822982788085938e+00,3.556205987930297852e+00,3.452954292297363281e+00,3.355529069900512695e+00,3.263450860977172852e+00,3.176290988922119141e+00,3.093665599822998047e+00,3.015229940414428711e+00,2.940673351287841797e+00,2.869714736938476562e+00,2.802099943161010742e+00,2.737597942352294922e+00,2.675998926162719727e+00,2.617110729217529297e+00,2.560758590698242188e+00,2.506782054901123047e+00,2.455034255981445312e+00,2.405379533767700195e+00,2.357693672180175781e+00,2.311861515045166016e+00,2.267777442932128906e+00,2.225343227386474609e+00,2.184467792510986328e+00,2.145066976547241211e+00,2.107062101364135742e+00,2.070380687713623047e+00,2.034954547882080078e+00,2.000720262527465820e+00,1.967619061470031738e+00,1.935594916343688965e+00,1.904596805572509766e+00,1.874575614929199219e+00,1.845486402511596680e+00
3.778681993484497070e+00,3.777946472167968750e+00,3.777211189270019531e+00,3.776476383209228516e+00,3.775741815567016602e+00,3.775007724761962891e+00,3.774273633956909180e+00,3.773540019989013672e+00,3.772806406021118164e+00,3.772073268890380859e+00,3.771340608596801758e+00,3.770607709884643555e+00,3.769875764846801758e+00,3.769143581390380859e+00,3.768412113189697266e+00,3.767680644989013672e+00,3.766949176788330078e+00,3.766218662261962891e+00,3.765487909317016602e+00,3.764757871627807617e+00,3.764027595520019531e+00,3.763297796249389648e+00,3.762568473815917969e+00,3.761839151382446289e+00,3.761110544204711914e+00,3.760381698608398438e+00,3.759653806686401367e+00,3.758925437927246094e+00,3.758197546005249023e+00,3.757470369338989258e+00,3.756742954254150391e+00,2.795326948165893555e+00,2.837633609771728516e+00,3.754563331604003906e+00,2.318322896957397461e+00,2.322506189346313477e+00,3.752385854721069336e+00,3.751660585403442383e+00,3.750935792922973633e+00,3.750211000442504883e+00,3.749486923217773438e+00,3.748762607574462891e+00,3.748038530349731445e+00,3.747315168380737305e+00,3.746591806411743164e+00,3.745869159698486328e+00,3.745146274566650391e+00,3.665903091430664062e+00,3.556281328201293945e+00,3.453025341033935547e+00,3.355596303939819336e+00,3.263514280319213867e+00,3.176351070404052734e+00,3.093722581863403320e+00,3.015284061431884766e+00,2.940724849700927734e+00,2.869763851165771484e+00,2.802146673202514648e+00,2.737642526626586914e+00,2.676041603088378906e+00,2.617151498794555664e+00,2.560797691345214844e+00,2.506819725036621094e+00,2.455070018768310547e+00,2.405413866043090820e+00,2.357726812362670898e+00,2.311893463134765625e+00,2.267808198928833008e+00,2.225372791290283203e+00,2.184496164321899414e+00,2.145094394683837891e+00,2.107088565826416016e+00,2.070406198501586914e+00,2.034979343414306641e+00,2.000744104385375977e+00,1.967642068862915039e+00,1.935617208480834961e+00,1.904618382453918457e+00,1.874596595764160156e+00,1.845506787300109863e+00
3.084483623504638672e+00,3.083993434906005859e+00,3.083503484725952148e+00,3.083014011383056641e+00,3.082524299621582031e+00,3.082035064697265625e+00,3.081545591354370117e+00,3.081056594848632812e+00,3.080567598342895508e+00,3.080078601837158203e+00,3.079590082168579102e+00,3.079101562500000000e+00,3.078613519668579102e+00,3.078125000000000000e+00,3.077637195587158203e+00,3.077149152755737305e+00,3.076661348342895508e+00,3.076174020767211914e+00,3.075686454772949219e+00,3.075199365615844727e+00,3.074712276458740234e+00,3.074225187301635742e+00,3.073738574981689453e+00,3.073251724243164062e+00,3.072765350341796875e+00,3.072278976440429688e+00,3.071792840957641602e+00,3.071306705474853516e+00,3.070820808410644531e+00,3.070335149765014648e+00,3.069849491119384766e+00,2.750609397888183594e+00,2.813872098922729492e+00,3.068393945693969727e+00,2.314600229263305664e+00,2.289102315902709961e+00,3.066939592361450195e+00,3.066454887390136719e+00,3.065970897674560547e+00,3.065486669540405273e+00,3.065002679824829102e+00,3.064518690109252930e+00,3.064034938812255859e+00,3.063551425933837891e+00,3.063067913055419922e+00,3.062584877014160156e+00,3.062101602554321289e+00,3.061618566513061523e+00,3.061136007308959961e+00,3.060653209686279297e+00,3.060170650482177734e+00,3.059688329696655273e+00,3.059206247329711914e+00,3.058724164962768555e+00,3.015338420867919922e+00,2.940776348114013672e+00,2.869812965393066406e+00,2.802193641662597656e+00,2.737687349319458008e+00,2.676084280014038086e+00,2.617192506790161133e+00,2.560836791992187500e+00,2.506857156753540039e+00,2.455106019973754883e+00,2.405448436737060547e+00,2.357759952545166016e+00,2.311925172805786133e+00,2.267838716506958008e+00,2.225402116775512695e+00,2.184524774551391602e+00,2.145121812820434570e+00,2.107115030288696289e+00,2.070431709289550781e+00,2.035003900527954102e+00,2.000767946243286133e+00,1.967665195465087891e+00,1.935639619827270508e+00,1.904640078544616699e+00,1.874617576599121094e+00,1.845527052879333496e+00
2.605766773223876953e+00,2.605417013168334961e+00,2.605067253112792969e+00,2.604717731475830078e+00,2.604368209838867188e+00,2.604018926620483398e+00,2.603669643402099609e+00,2.603320598602294922e+00,2.602971315383911133e+00,2.602622270584106445e+00,2.602273464202880859e+00,2.601924657821655273e+00,2.601575851440429688e+00,2.601227283477783203e+00,2.600878953933715820e+00,2.600530385971069336e+00,2.600181818008422852e+00,2.599833726882934570e+00,2.599485635757446289e+00,2.599137544631958008e+00,2.598789453506469727e+00,2.598441600799560547e+00,2.598093748092651367e+00,2.597746133804321289e+00,2.597398519515991211e+00,2.597051143646240234e+00,2.596703767776489258e+00,2.596356391906738281e+00,2.596009016036987305e+00,2.595662117004394531e+00,2.595314979553222656e+00,2.594968080520629883e+00,2.594621181488037109e+00,2.594274520874023438e+00,2.294709444046020508e+00,2.254232406616210938e+00,2.247385978698730469e+00,2.592888116836547852e+00,2.592541933059692383e+00,2.592195749282836914e+00,2.591849803924560547e+00,2.591503620147705078e+00,2.591157674789428711e+00,2.590811967849731445e+00,2.590466022491455078e+00,2.590120553970336914e+00,2.589774847030639648e+00,2.589429378509521484e+00,2.589084148406982422e+00,2.588738679885864258e+00,2.588393688201904297e+00,2.588048458099365234e+00,2.587703704833984375e+00,2.587358713150024414e+00,2.587013721466064453e+00,2.586669206619262695e+00,2.586324453353881836e+00,2.585979938507080078e+00,2.585635423660278320e+00,2.585291147232055664e+00,2.584946870803833008e+00,2.560875892639160156e+00,2.506894588470458984e+00,2.455142021179199219e+00,2.405482769012451172e+00,2.357793092727661133e+00,2.311957120895385742e+00,2.267869472503662109e+00,2.225431680679321289e+00,2.184553146362304688e+00,2.145149230957031250e+00,2.107141494750976562e+00,2.070457220077514648e+00,2.035028696060180664e+00,2.000791788101196289e+00,1.967688202857971191e+00,1.935661911964416504e+00,1.904661655426025391e+00,1.874638438224792480e+00,1.845547318458557129e+00
2.255692243576049805e+00,2.255429506301879883e+00,2.255167245864868164e+00,2.254904747009277344e+00,2.254642248153686523e+00,2.254379987716674805e+00,2.254117727279663086e+00,2.253855466842651367e+00,2.253593444824218750e+00,2.253331184387207031e+00,2.253069162368774414e+00,2.252807378768920898e+00,2.252545356750488281e+00,2.252283573150634766e+00,2.252021789550781250e+00,2.251760005950927734e+00,2.251498460769653320e+00,2.251236915588378906e+00,2.250975370407104492e+00,2.250713825225830078e+00,2.250452518463134766e+00,2.250190973281860352e+00,2.249929666519165039e+00,2.249668598175048828e+00,2.249408006668090820e+00,2.249147415161132812e+00,2.248886823654174805e+00,2.248626232147216797e+00,2.248365879058837891e+00,2.248105525970458984e+00,2.247845172882080078e+00,2.247584819793701172e+00,2.247324705123901367e+00,2.247064590454101562e+00,2.246804475784301758e+00,2.244064331054687500e+00,2.246284484863281250e+00,2.246024370193481445e+00,2.245764732360839844e+00,2.245504856109619141e+00,2.245245218276977539e+00,2.244985342025756836e+00,2.244725704193115234e+00,2.244466304779052734e+00,2.244206666946411133e+00,2.243947505950927734e+00,2.243688106536865234e+00,2.243428707122802734e+00,2.243169546127319336e+00,2.242910146713256836e+00,2.242651224136352539e+00,2.242392063140869141e+00,2.242133140563964844e+00,2.241874217987060547e+00,2.241615056991577148e+00,2.241356372833251953e+00,2.241097688674926758e+00,2.240839004516601562e+00,2.240580320358276367e+00,2.240321874618530273e+00,2.240063190460205078e+00,2.239804744720458984e+00,2.239546298980712891e+00,2.239287853240966797e+00,2.239029645919799805e+00,2.238771438598632812e+00,2.238513231277465820e+00,2.238255023956298828e+00,2.225461483001708984e+00,2.184581756591796875e+00,2.145176649093627930e+00,2.107168197631835938e+00,2.070482969284057617e+00,2.035053491592407227e+00,2.000815868377685547e+00,1.967711329460144043e+00,1.935684442520141602e+00,1.904683351516723633e+00,1.874659657478332520e+00,1.845567584037780762e+00
1.988561391830444336e+00,1.988357186317443848e+00,1.988153219223022461e+00,1.987949132919311523e+00,1.987745285034179688e+00,1.987541317939758301e+00,1.987337470054626465e+00,1.987133622169494629e+00,1.986929774284362793e+00,1.986726284027099609e+00,1.986522555351257324e+00,1.986318826675415039e+00,1.986115217208862305e+00,1.985911607742309570e+00,1.985708117485046387e+00,1.985504627227783203e+00,1.985301136970520020e+00,1.985097765922546387e+00,1.984894394874572754e+00,1.984691262245178223e+00,1.984487891197204590e+00,1.984284639358520508e+00,1.984081387519836426e+00,1.983878254890441895e+00,1.983675122261047363e+00,1.983471989631652832e+00,1.983268976211547852e+00,1.983065962791442871e+00,1.982863306999206543e+00,1.982660293579101562e+00,1.982457399368286133e+00,1.982254624366760254e+00,1.982051849365234375e+00,1.981849074363708496e+00,1.981646299362182617e+00,1.981443643569946289e+00,1.981240987777709961e+00,1.981038689613342285e+00,1.980836153030395508e+00,1.980633616447448730e+00,1.980431079864501953e+00,1.980228662490844727e+00,1.980026245117187500e+00,1.979823946952819824e+00,1.979621648788452148e+00,1.979419350624084473e+00,1.979217410087585449e+00,1.979015231132507324e+00,1.978813052177429199e+00,1.978610992431640625e+00,1.978408932685852051e+00,1.978206872940063477e+00,1.978004932403564453e+00,1.977802991867065430e+00,1.977601051330566406e+00,1.977399468421936035e+00,1.977197647094726562e+00,1.976995825767517090e+00,1.976794123649597168e+00,1.976592421531677246e+00,1.976390838623046875e+00,1.976189136505126953e+00,1.975987672805786133e+00,1.975786089897155762e+00,1.975584626197814941e+00,1.975383400917053223e+00,1.975182056427001953e+00,1.974980592727661133e+00,1.974779367446899414e+00,1.974578022956848145e+00,1.974376797676086426e+00,1.974175572395324707e+00,1.973974466323852539e+00,1.973773360252380371e+00,1.973572492599487305e+00,1.967734336853027344e+00,1.935706853866577148e+00,1.904704928398132324e+00,1.874680519104003906e+00,1.845587968826293945e+00
1.778001070022583008e+00,1.777837872505187988e+00,1.777674674987792969e+00,1.777511596679687500e+00,1.777348518371582031e+00,1.777185559272766113e+00,1.777022480964660645e+00,1.776859521865844727e+00,1.776696801185607910e+00,1.776533842086791992e+00,1.776371002197265625e+00,1.776208043098449707e+00,1.776045203208923340e+00,1.775882482528686523e+00,1.775719642639160156e+00,1.775556921958923340e+00,1.775394201278686523e+00,1.775231719017028809e+00,1.775069117546081543e+00,1.774906396865844727e+00,1.774743795394897461e+00,1.774581313133239746e+00,1.774418711662292480e+00,1.774256229400634766e+00,1.774093747138977051e+00,1.773931264877319336e+00,1.773769140243530273e+00,1.773606657981872559e+00,1.773444294929504395e+00,1.773282051086425781e+00,1.773119688034057617e+00,1.772957444190979004e+00,1.772795200347900391e+00,1.772632956504821777e+00,1.772470831871032715e+00,1.772308826446533203e+00,1.772146701812744141e+00,1.771984577178955078e+00,1.771822571754455566e+00,1.771660566329956055e+00,1.771498560905456543e+00,1.771336555480957031e+00,1.771174669265747070e+00,1.771012663841247559e+00,1.770851016044616699e+00,1.770689129829406738e+00,1.770527362823486328e+00,1.770365476608276367e+00,1.770203709602355957e+00,1.770042061805725098e+00,1.769880294799804688e+00,1.769718647003173828e+00,1.769556999206542969e+00,1.769395351409912109e+00,1.769233942031860352e+00,1.769072413444519043e+00,1.768910884857177734e+00,1.768749356269836426e+00,1.768587946891784668e+00,1.768426418304443359e+00,1.768265008926391602e+00,1.768103599548339844e+00,1.767942309379577637e+00,1.767781138420104980e+00,1.767619848251342773e+00,1.767458558082580566e+00,1.767297387123107910e+00,1.767136216163635254e+00,1.766975045204162598e+00,1.766813874244689941e+00,1.766652703285217285e+00,1.766491651535034180e+00,1.766330718994140625e+00,1.766169786453247070e+00,1.766008734703063965e+00,1.765847802162170410e+00,1.765686869621276855e+00,1.765525937080383301e+00,1.765365123748779297e+00,1.765204191207885742e+00
1.607761979103088379e+00,1.607628583908081055e+00,1.607495188713073730e+00,1.607361793518066406e+00,1.607228398323059082e+00,1.607095122337341309e+00,1.606961965560913086e+00,1.606828689575195312e+00,1.606695413589477539e+00,1.606562137603759766e+00,1.606428980827331543e+00,1.606295704841613770e+00,1.606162548065185547e+00,1.606029391288757324e+00,1.605896353721618652e+00,1.605763316154479980e+00,1.605630278587341309e+00,1.605497241020202637e+00,1.605364203453063965e+00,1.605231165885925293e+00,1.605098128318786621e+00,1.604965209960937500e+00,1.604832291603088379e+00,1.604699254035949707e+00,1.604566574096679688e+00,1.604433655738830566e+00,1.604300856590270996e+00,1.604167938232421875e+00,1.604035139083862305e+00,1.603902339935302734e+00,1.603769540786743164e+00,1.603636860847473145e+00,1.603504061698913574e+00,1.603371381759643555e+00,1.603238821029663086e+00,1.603106141090393066e+00,1.602973580360412598e+00,1.602840900421142578e+00,1.602708339691162109e+00,1.602575778961181641e+00,1.602443218231201172e+00,1.602310657501220703e+00,1.602178096771240234e+00,1.602045774459838867e+00,1.601913332939147949e+00,1.601780891418457031e+00,1.601648449897766113e+00,1.601516008377075195e+00,1.601383686065673828e+00,1.601251363754272461e+00,1.601119041442871094e+00,1.600986719131469727e+00,1.600854516029357910e+00,1.600722312927246094e+00,1.600589990615844727e+00,1.600457787513732910e+00,1.600325584411621094e+00,1.600193381309509277e+00,1.600061297416687012e+00,1.599929094314575195e+00,1.599796891212463379e+00,1.599665045738220215e+00,1.599532961845397949e+00,1.599400877952575684e+00,1.599268794059753418e+00,1.599136829376220703e+00,1.599004864692687988e+00,1.598872900009155273e+00,1.598740935325622559e+00,1.598608970642089844e+00,1.598477244377136230e+00,1.598345398902893066e+00,1.598213553428649902e+00,1.598081707954406738e+00,1.597949862480163574e+00,1.597818136215209961e+00,1.597686290740966797e+00,1.597554564476013184e+00,1.597422838211059570e+00,1.597291350364685059e+00
1.467274188995361328e+00,1.467163085937500000e+00,1.467051982879638672e+00,1.466940879821777344e+00,1.466829895973205566e+00,1.466718912124633789e+00,1.466607809066772461e+00,1.466496825218200684e+00,1.466385841369628906e+00,1.466274857521057129e+00,1.466163873672485352e+00,1.466052889823913574e+00,1.465942025184631348e+00,1.465831160545349121e+00,1.465720295906066895e+00,1.465609431266784668e+00,1.465498566627502441e+00,1.465387701988220215e+00,1.465276837348937988e+00,1.465165972709655762e+00,1.465055227279663086e+00,1.464944481849670410e+00,1.464833617210388184e+00,1.464722990989685059e+00,1.464612364768981934e+00,1.464501619338989258e+00,1.464390873908996582e+00,1.464280247688293457e+00,1.464169502258300781e+00,1.464058876037597656e+00,1.463948249816894531e+00,1.463837623596191406e+00,1.463727116584777832e+00,1.463616609573364258e+00,1.463505983352661133e+00,1.463395476341247559e+00,1.463284969329833984e+00,1.463174462318420410e+00,1.463063955307006836e+00,1.462953448295593262e+00,1.462842941284179688e+00,1.462732672691345215e+00,1.462622284889221191e+00,1.462511777877807617e+00,1.462401390075683594e+00,1.462291002273559570e+00,1.462180733680725098e+00,1.462070345878601074e+00,1.461959958076477051e+00,1.461849689483642578e+00,1.461739540100097656e+00,1.461629271507263184e+00,1.461519002914428711e+00,1.461408734321594238e+00,1.461298465728759766e+00,1.461188316345214844e+00,1.461078047752380371e+00,1.460967898368835449e+00,1.460857748985290527e+00,1.460747718811035156e+00,1.460637569427490234e+00,1.460527420043945312e+00,1.460417389869689941e+00,1.460307240486145020e+00,1.460197210311889648e+00,1.460087180137634277e+00,1.459977149963378906e+00,1.459867119789123535e+00,1.459757089614868164e+00,1.459647297859191895e+00,1.459537267684936523e+00,1.459427356719970703e+00,1.459317445755004883e+00,1.459207534790039062e+00,1.459097623825073242e+00,1.458987712860107422e+00,1.458877801895141602e+00,1.458768010139465332e+00,1.458658337593078613e+00,1.458548426628112793e+00
1.349365234375000000e+00,1.349271297454833984e+00,1.349177360534667969e+00,1.349083542823791504e+00,1.348989605903625488e+00,1.348895668983459473e+00,1.348801732063293457e+00,1.348707795143127441e+00,1.348613977432250977e+00,1.348520040512084961e+00,1.348426222801208496e+00,1.348332405090332031e+00,1.348238587379455566e+00,1.348144769668579102e+00,1.348050951957702637e+00,1.347957253456115723e+00,1.347863435745239258e+00,1.347769618034362793e+00,1.347675919532775879e+00,1.347582221031188965e+00,1.347488403320312500e+00,1.347394824028015137e+00,1.347301125526428223e+00,1.347207427024841309e+00,1.347113847732543945e+00,1.347020149230957031e+00,1.346926450729370117e+00,1.346832871437072754e+00,1.346739172935485840e+00,1.346645593643188477e+00,1.346552133560180664e+00,1.346458554267883301e+00,1.346364974975585938e+00,1.346271395683288574e+00,1.346177816390991211e+00,1.346084356307983398e+00,1.345990777015686035e+00,1.345897316932678223e+00,1.345803737640380859e+00,1.345710396766662598e+00,1.345616936683654785e+00,1.345523476600646973e+00,1.345430016517639160e+00,1.345336556434631348e+00,1.345243215560913086e+00,1.345149755477905273e+00,1.345056414604187012e+00,1.344962954521179199e+00,1.344869613647460938e+00,1.344776391983032227e+00,1.344683051109313965e+00,1.344589710235595703e+00,1.344496369361877441e+00,1.344403147697448730e+00,1.344309806823730469e+00,1.344216585159301758e+00,1.344123244285583496e+00,1.344030022621154785e+00,1.343936920166015625e+00,1.343843698501586914e+00,1.343750476837158203e+00,1.343657255172729492e+00,1.343564033508300781e+00,1.343470931053161621e+00,1.343377709388732910e+00,1.343284606933593750e+00,1.343191504478454590e+00,1.343098402023315430e+00,1.343005299568176270e+00,1.342912197113037109e+00,1.342819213867187500e+00,1.342726111412048340e+00,1.342633008956909180e+00,1.342540025711059570e+00,1.342446923255920410e+00,1.342353940010070801e+00,1.342261075973510742e+00,1.342168092727661133e+00,1.342075109481811523e+00,1.341982126235961914e+00
1.248996973037719727e+00,1.248916506767272949e+00,1.248836040496826172e+00,1.248755574226379395e+00,1.248675107955932617e+00,1.248594641685485840e+00,1.248514175415039062e+00,1.248433709144592285e+00,1.248353242874145508e+00,1.248272776603698730e+00,1.248192429542541504e+00,1.248112082481384277e+00,1.248031616210937500e+00,1.247951269149780273e+00,1.247870922088623047e+00,1.247790575027465820e+00,1.247710108757019043e+00,1.247629761695861816e+00,1.247549414634704590e+00,1.247469186782836914e+00,1.247388958930969238e+00,1.247308611869812012e+00,1.247228264808654785e+00,1.247148036956787109e+00,1.247067689895629883e+00,1.246987462043762207e+00,1.246907234191894531e+00,1.246826887130737305e+00,1.246746778488159180e+00,1.246666550636291504e+00,1.246586322784423828e+00,1.246506094932556152e+00,1.246425986289978027e+00,1.246345758438110352e+00,1.246265530586242676e+00,1.246185421943664551e+00,1.246105313301086426e+00,1.246025085449218750e+00,1.245945096015930176e+00,1.245864987373352051e+00,1.245784878730773926e+00,1.245704770088195801e+00,1.245624661445617676e+00,1.245544552803039551e+00,1.245464444160461426e+00,1.245384454727172852e+00,1.245304346084594727e+00,1.245224356651306152e+00,1.245144367218017578e+00,1.245064377784729004e+00,1.244984388351440430e+00,1.244904279708862305e+00,1.244824290275573730e+00,1.244744420051574707e+00,1.244664430618286133e+00,1.244584441184997559e+00,1.244504570960998535e+00,1.244424581527709961e+00,1.244344711303710938e+00,1.244264841079711914e+00,1.244184851646423340e+00,1.244104981422424316e+00,1.244025111198425293e+00,1.243945240974426270e+00,1.243865370750427246e+00,1.243785619735717773e+00,1.243705749511718750e+00,1.243625879287719727e+00,1.243546128273010254e+00,1.243466258049011230e+00,1.243386507034301758e+00,1.243306636810302734e+00,1.243226885795593262e+00,1.243147134780883789e+00,1.243067383766174316e+00,1.242987632751464844e+00,1.242907881736755371e+00,1.242828249931335449e+00,1.242748498916625977e+00,1.242668747901916504e+00
1.162526249885559082e+00,1.162456512451171875e+00,1.162386775016784668e+00,1.162317037582397461e+00,1.162247300148010254e+00,1.162177562713623047e+00,1.162107825279235840e+00,1.162038207054138184e+00,1.161968588829040527e+00,1.161898851394653320e+00,1.161829113960266113e+00,1.161759495735168457e+00,1.161689877510070801e+00,1.161620140075683594e+00,1.161550521850585938e+00,1.161480903625488281e+00,1.161411285400390625e+00,1.161341667175292969e+00,1.161272168159484863e+00,1.161202549934387207e+00,1.161132931709289551e+00,1.161063313484191895e+00,1.160993695259094238e+00,1.160924196243286133e+00,1.160854578018188477e+00,1.160785079002380371e+00,1.160715460777282715e+00,1.160646080970764160e+00,1.160576462745666504e+00,1.160506963729858398e+00,1.160437464714050293e+00,1.160367965698242188e+00,1.160298466682434082e+00,1.160228967666625977e+00,1.160159468650817871e+00,1.160089969635009766e+00,1.160020589828491211e+00,1.159951210021972656e+00,1.159881711006164551e+00,1.159812331199645996e+00,1.159742832183837891e+00,1.159673452377319336e+00,1.159604072570800781e+00,1.159534573554992676e+00,1.159465193748474121e+00,1.159395933151245117e+00,1.159326553344726562e+00,1.159257173538208008e+00,1.159187793731689453e+00,1.159118413925170898e+00,1.159049034118652344e+00,1.158979773521423340e+00,1.158910393714904785e+00,1.158841133117675781e+00,1.158771872520446777e+00,1.158702492713928223e+00,1.158633232116699219e+00,1.158563971519470215e+00,1.158494710922241211e+00,1.158425450325012207e+00,1.158356189727783203e+00,1.158286929130554199e+00,1.158217668533325195e+00,1.158148527145385742e+00,1.158079266548156738e+00,1.158010005950927734e+00,1.157940864562988281e+00,1.157871603965759277e+00,1.157802462577819824e+00,1.157733201980590820e+00,1.157664060592651367e+00,1.157594919204711914e+00,1.157525777816772461e+00,1.157456636428833008e+00,1.157387495040893555e+00,1.157318353652954102e+00,1.157249212265014648e+00,1.157180070877075195e+00,1.157111048698425293e+00,1.157041907310485840e+00
1.087253212928771973e+00,1.087192296981811523e+00,1.087131261825561523e+00,1.087070226669311523e+00,1.087009310722351074e+00,1.086948275566101074e+00,1.086887240409851074e+00,1.086826324462890625e+00,1.086765408515930176e+00,1.086704492568969727e+00,1.086643457412719727e+00,1.086582541465759277e+00,1.086521625518798828e+00,1.086460709571838379e+00,1.086399793624877930e+00,1.086338877677917480e+00,1.086277961730957031e+00,1.086217045783996582e+00,1.086156249046325684e+00,1.086095333099365234e+00,1.086034417152404785e+00,1.085973501205444336e+00,1.085912704467773438e+00,1.085851788520812988e+00,1.085790991783142090e+00,1.085730195045471191e+00,1.085669279098510742e+00,1.085608482360839844e+00,1.085547685623168945e+00,1.085486888885498047e+00,1.085425972938537598e+00,1.085365176200866699e+00,1.085304379463195801e+00,1.085243582725524902e+00,1.085182905197143555e+00,1.085122108459472656e+00,1.085061311721801758e+00,1.085000634193420410e+00,1.084939837455749512e+00,1.084879040718078613e+00,1.084818363189697266e+00,1.084757566452026367e+00,1.084696769714355469e+00,1.084636211395263672e+00,1.084575414657592773e+00,1.084514737129211426e+00,1.084454059600830078e+00,1.084393382072448730e+00,1.084332585334777832e+00,1.084271907806396484e+00,1.084211230278015137e+00,1.084150552749633789e+00,1.084089875221252441e+00,1.084029316902160645e+00,1.083968639373779297e+00,1.083908081054687500e+00,1.083847403526306152e+00,1.083786725997924805e+00,1.083726167678833008e+00,1.083665490150451660e+00,1.083604931831359863e+00,1.083544254302978516e+00,1.083483815193176270e+00,1.083423137664794922e+00,1.083362579345703125e+00,1.083302021026611328e+00,1.083241462707519531e+00,1.083180904388427734e+00,1.083120346069335938e+00,1.083059787750244141e+00,1.082999229431152344e+00,1.082938790321350098e+00,1.082878232002258301e+00,1.082817673683166504e+00,1.082757234573364258e+00,1.082696676254272461e+00,1.082636117935180664e+00,1.082575678825378418e+00,1.082515120506286621e+00,1.082454681396484375e+00
1.021135330200195312e+00,1.021081447601318359e+00,1.021027684211730957e+00,1.020973801612854004e+00,1.020920038223266602e+00,1.020866274833679199e+00,1.020812511444091797e+00,1.020758748054504395e+00,1.020704984664916992e+00,1.020651221275329590e+00,1.020597457885742188e+00,1.020543694496154785e+00,1.020489931106567383e+00,1.020436167716979980e+00,1.020382404327392578e+00,1.020328760147094727e+00,1.020274996757507324e+00,1.020221233367919922e+00,1.020167469978332520e+00,1.020113825798034668e+00,1.020060062408447266e+00,1.020006418228149414e+00,1.019952654838562012e+00,1.019899010658264160e+00,1.019845366477966309e+00,1.019791722297668457e+00,1.019737958908081055e+00,1.019684314727783203e+00,1.019630670547485352e+00,1.019577026367187500e+00,1.019523382186889648e+00,1.019469738006591797e+00,1.019416093826293945e+00,1.019362449645996094e+00,1.019308805465698242e+00,1.019255280494689941e+00,1.019201636314392090e+00,1.019147992134094238e+00,1.019094347953796387e+00,1.019040822982788086e+00,1.018987178802490234e+00,1.018933534622192383e+00,1.018880009651184082e+00,1.018826484680175781e+00,1.018772840499877930e+00,1.018719315528869629e+00,1.018665790557861328e+00,1.018612146377563477e+00,1.018558621406555176e+00,1.018505096435546875e+00,1.018451571464538574e+00,1.018398046493530273e+00,1.018344521522521973e+00,1.018290996551513672e+00,1.018237471580505371e+00,1.018183946609497070e+00,1.018130540847778320e+00,1.018077015876770020e+00,1.018023490905761719e+00,1.017969965934753418e+00,1.017916560173034668e+00,1.017863035202026367e+00,1.017809629440307617e+00,1.017756104469299316e+00,1.017702698707580566e+00,1.017649173736572266e+00,1.017595767974853516e+00,1.017542362213134766e+00,1.017488837242126465e+00,1.017435550689697266e+00,1.017382025718688965e+00,1.017328619956970215e+00,1.017275214195251465e+00,1.017221808433532715e+00,1.017168402671813965e+00,1.017114996910095215e+00,1.017061591148376465e+00,1.017008185386657715e+00,1.016954898834228516e+00,1.016901493072509766e+00
9.625978469848632812e-01,9.625500440597534180e-01,9.625022411346435547e-01,9.624544978141784668e-01,9.624066948890686035e-01,9.623588919639587402e-01,9.623110890388488770e-01,9.622632861137390137e-01,9.622154831886291504e-01,9.621676802635192871e-01,9.621199369430541992e-01,9.620721340179443359e-01,9.620243310928344727e-01,9.619765877723693848e-01,9.619288444519042969e-01,9.618810415267944336e-01,9.618332982063293457e-01,9.617855548858642578e-01,9.617378115653991699e-01,9.616900682449340820e-01,9.616423249244689941e-01,9.615946412086486816e-01,9.615470170974731445e-01,9.614992737770080566e-01,9.614515900611877441e-01,9.614038467407226562e-01,9.613561630249023438e-01,9.613084197044372559e-01,9.612607359886169434e-01,9.612130522727966309e-01,9.611653685569763184e-01,9.611176848411560059e-01,9.610700011253356934e-01,9.610223174095153809e-01,9.609746336936950684e-01,9.609270095825195312e-01,9.608793258666992188e-01,9.608317017555236816e-01,9.607840180397033691e-01,9.607363939285278320e-01,9.606888294219970703e-01,9.606412053108215332e-01,9.605935811996459961e-01,9.605459570884704590e-01,9.604983329772949219e-01,9.604507088661193848e-01,9.604030847549438477e-01,9.603554606437683105e-01,9.603078961372375488e-01,9.602602720260620117e-01,9.602127075195312500e-01,9.601650834083557129e-01,9.601175189018249512e-01,9.600699543952941895e-01,9.600223898887634277e-01,9.599747657775878906e-01,9.599272012710571289e-01,9.598796367645263672e-01,9.598321914672851562e-01,9.597846865653991699e-01,9.597371220588684082e-01,9.596895575523376465e-01,9.596420526504516602e-01,9.595944881439208984e-01,9.595469832420349121e-01,9.594994783401489258e-01,9.594519138336181641e-01,9.594044089317321777e-01,9.593569040298461914e-01,9.593093991279602051e-01,9.592618942260742188e-01,9.592143893241882324e-01,9.591668844223022461e-01,9.591194391250610352e-01,9.590719342231750488e-01,9.590244889259338379e-01,9.589769840240478516e-01,9.589296579360961914e-01,9.588821530342102051e-01,9.588347077369689941e-01
9.104079604148864746e-01,9.103652834892272949e-01,9.103224873542785645e-01,9.102796912193298340e-01,9.102369546890258789e-01,9.101941585540771484e-01,9.101514220237731934e-01,9.101086854934692383e-01,9.100658893585205078e-01,9.100231528282165527e-01,9.099804162979125977e-01,9.099376797676086426e-01,9.098949432373046875e-01,9.098522067070007324e-01,9.098094701766967773e-01,9.097667336463928223e-01,9.097239971160888672e-01,9.096813201904296875e-01,9.096385836601257324e-01,9.095959067344665527e-01,9.095532894134521484e-01,9.095105528831481934e-01,9.094678759574890137e-01,9.094251990318298340e-01,9.093825221061706543e-01,9.093398451805114746e-01,9.092971682548522949e-01,9.092544317245483398e-01,9.092118144035339355e-01,9.091691374778747559e-01,9.091264605522155762e-01,9.090837836265563965e-01,9.090411663055419922e-01,9.089984893798828125e-01,9.089558124542236328e-01,9.089131951332092285e-01,9.088705778121948242e-01,9.088279008865356445e-01,9.087854027748107910e-01,9.087427258491516113e-01,9.087001085281372070e-01,9.086574912071228027e-01,9.086148738861083984e-01,9.085722565650939941e-01,9.085296988487243652e-01,9.084870815277099609e-01,9.084444642066955566e-01,9.084018468856811523e-01,9.083592891693115234e-01,9.083166718482971191e-01,9.082741141319274902e-01,9.082315564155578613e-01,9.081889390945434570e-01,9.081463813781738281e-01,9.081038236618041992e-01,9.080612659454345703e-01,9.080187082290649414e-01,9.079762101173400879e-01,9.079336524009704590e-01,9.078911542892456055e-01,9.078485965728759766e-01,9.078060388565063477e-01,9.077634811401367188e-01,9.077209830284118652e-01,9.076784253120422363e-01,9.076359272003173828e-01,9.075934290885925293e-01,9.075508713722229004e-01,9.075083732604980469e-01,9.074658751487731934e-01,9.074233770370483398e-01,9.073808789253234863e-01,9.073383808135986328e-01,9.072958827018737793e-01,9.072533845901489258e-01,9.072110056877136230e-01,9.071685075759887695e-01,9.071260690689086914e-01,9.070835709571838379e-01,9.070410728454589844e-01
8.635863065719604492e-01,8.635478019714355469e-01,8.635092973709106445e-01,8.634708523750305176e-01,8.634323477745056152e-01,8.633939027786254883e-01,8.633553981781005859e-01,8.633169531822204590e-01,8.632784485816955566e-01,8.632400035858154297e-01,8.632015585899353027e-01,8.631630539894104004e-01,8.631246089935302734e-01,8.630861639976501465e-01,8.630477190017700195e-01,8.630092740058898926e-01,8.629708290100097656e-01,8.629323840141296387e-01,8.628940582275390625e-01,8.628556132316589355e-01,8.628171682357788086e-01,8.627787232398986816e-01,8.627403378486633301e-01,8.627018928527832031e-01,8.626635074615478516e-01,8.626250624656677246e-01,8.625866770744323730e-01,8.625482916831970215e-01,8.625098466873168945e-01,8.624714612960815430e-01,8.624330759048461914e-01,8.623946905136108398e-01,8.623563051223754883e-01,8.623179197311401367e-01,8.622795343399047852e-01,8.622411489486694336e-01,8.622028827667236328e-01,8.621644973754882812e-01,8.621261119842529297e-01,8.620877861976623535e-01,8.620494008064270020e-01,8.620110750198364258e-01,8.619726896286010742e-01,8.619343638420104980e-01,8.618959784507751465e-01,8.618576526641845703e-01,8.618193268775939941e-01,8.617810010910034180e-01,8.617426753044128418e-01,8.617042899131774902e-01,8.616659641265869141e-01,8.616276383399963379e-01,8.615893721580505371e-01,8.615510463714599609e-01,8.615127205848693848e-01,8.614745140075683594e-01,8.614361882209777832e-01,8.613978624343872070e-01,8.613595962524414062e-01,8.613212704658508301e-01,8.612830042839050293e-01,8.612447381019592285e-01,8.612064123153686523e-01,8.611681461334228516e-01,8.611298799514770508e-01,8.610916137695312500e-01,8.610533475875854492e-01,8.610150814056396484e-01,8.609768152236938477e-01,8.609385490417480469e-01,8.609002828598022461e-01,8.608620166778564453e-01,8.608237504959106445e-01,8.607856035232543945e-01,8.607473373413085938e-01,8.607091307640075684e-01,8.606708645820617676e-01,8.606326580047607422e-01,8.605943918228149414e-01,8.605561852455139160e-01
8.213450312614440918e-01,8.213102221488952637e-01,8.212754130363464355e-01,8.212406039237976074e-01,8.212057948112487793e-01,8.211709856986999512e-01,8.211361765861511230e-01,8.211013674736022949e-01,8.210665583610534668e-01,8.210317492485046387e-01,8.209969997406005859e-01,8.209621906280517578e-01,8.209273815155029297e-01,8.208926320075988770e-01,8.208578228950500488e-01,8.208230733871459961e-01,8.207883834838867188e-01,8.207535743713378906e-01,8.207188248634338379e-01,8.206840753555297852e-01,8.206492662429809570e-01,8.206145167350769043e-01,8.205797672271728516e-01,8.205450177192687988e-01,8.205102682113647461e-01,8.204755187034606934e-01,8.204407691955566406e-01,8.204060196876525879e-01,8.203712701797485352e-01,8.203365206718444824e-01,8.203018307685852051e-01,8.202670812606811523e-01,8.202323317527770996e-01,8.201976418495178223e-01,8.201628923416137695e-01,8.201282620429992676e-01,8.200935721397399902e-01,8.200588226318359375e-01,8.200241327285766602e-01,8.199894428253173828e-01,8.199546933174133301e-01,8.199200034141540527e-01,8.198853135108947754e-01,8.198506236076354980e-01,8.198159337043762207e-01,8.197812438011169434e-01,8.197465538978576660e-01,8.197118639945983887e-01,8.196771740913391113e-01,8.196424841880798340e-01,8.196077942848205566e-01,8.195731639862060547e-01,8.195384740829467773e-01,8.195039033889770508e-01,8.194692134857177734e-01,8.194345831871032715e-01,8.193998932838439941e-01,8.193652629852294922e-01,8.193305730819702148e-01,8.192959427833557129e-01,8.192613124847412109e-01,8.192266821861267090e-01,8.191919922828674316e-01,8.191573619842529297e-01,8.191227316856384277e-01,8.190881013870239258e-01,8.190534710884094238e-01,8.190188407897949219e-01,8.189842104911804199e-01,8.189495801925659180e-01,8.189150094985961914e-01,8.188804388046264648e-01,8.188458681106567383e-01,8.188112378120422363e-01,8.187766075134277344e-01,8.187420368194580078e-01,8.187074065208435059e-01,8.186728358268737793e-01,8.186382055282592773e-01,8.186036348342895508e-01
7.830434441566467285e-01,7.830117940902709961e-01,7.829801440238952637e-01,7.829484939575195312e-01,7.829168438911437988e-01,7.828851938247680664e-01,7.828536033630371094e-01,7.828219532966613770e-01,7.827903032302856445e-01,7.827587127685546875e-01,7.827270627021789551e-01,7.826954722404479980e-01,7.826638221740722656e-01,7.826322317123413086e-01,7.826005816459655762e-01,7.825690507888793945e-01,7.825374603271484375e-01,7.825058102607727051e-01,7.824742197990417480e-01,7.824426293373107910e-01,7.824110388755798340e-01,7.823794484138488770e-01,7.823478579521179199e-01,7.823162674903869629e-01,7.822846770286560059e-01,7.822530865669250488e-01,7.822214961051940918e-01,7.821899056434631348e-01,7.821583151817321777e-01,7.821267247200012207e-01,7.820951342582702637e-01,7.820636034011840820e-01,7.820320129394531250e-01,7.820005416870117188e-01,7.819689512252807617e-01,7.819374203681945801e-01,7.819058299064636230e-01,7.818742990493774414e-01,7.818427085876464844e-01,7.818111777305603027e-01,7.817796468734741211e-01,7.817480564117431641e-01,7.817165255546569824e-01,7.816849946975708008e-01,7.816534638404846191e-01,7.816219329833984375e-01,7.815904021263122559e-01,7.815588712692260742e-01,7.815273404121398926e-01,7.814958095550537109e-01,7.814642786979675293e-01,7.814328074455261230e-01,7.814012765884399414e-01,7.813698053359985352e-01,7.813382744789123535e-01,7.813067436218261719e-01,7.812752723693847656e-01,7.812437415122985840e-01,7.812122702598571777e-01,7.811807394027709961e-01,7.811492681503295898e-01,7.811177372932434082e-01,7.810862660408020020e-01,7.810547947883605957e-01,7.810232639312744141e-01,7.809917926788330078e-01,7.809603214263916016e-01,7.809288501739501953e-01,7.808973789215087891e-01,7.808659076690673828e-01,7.808344960212707520e-01,7.808030247688293457e-01,7.807715535163879395e-01,7.807400822639465332e-01,7.807086110115051270e-01,7.806771397590637207e-01,7.806456685066223145e-01,7.806142568588256836e-01,7.805827856063842773e-01,7.805513143539428711e-01
7.481548786163330078e-01,7.481259703636169434e-01,7.480971217155456543e-01,7.480682134628295898e-01,7.480393648147583008e-01,7.480104565620422363e-01,7.479815483093261719e-01,7.479526996612548828e-01,7.479237914085388184e-01,7.478949427604675293e-01,7.478660941123962402e-01,7.478371858596801758e-01,7.478083372116088867e-01,7.477795481681823730e-01,7.477506995201110840e-01,7.477218508720397949e-01,7.476929426193237305e-01,7.476640939712524414e-01,7.476352453231811523e-01,7.476063966751098633e-01,7.475775480270385742e-01,7.475486993789672852e-01,7.475198507308959961e-01,7.474910020828247070e-01,7.474621534347534180e-01,7.474333643913269043e-01,7.474045157432556152e-01,7.473756670951843262e-01,7.473468184471130371e-01,7.473180294036865234e-01,7.472891807556152344e-01,7.472604513168334961e-01,7.472316026687622070e-01,7.472028136253356934e-01,7.471739649772644043e-01,7.471451759338378906e-01,7.471163272857666016e-01,7.470875382423400879e-01,7.470587491989135742e-01,7.470299005508422852e-01,7.470011115074157715e-01,7.469723224639892578e-01,7.469435334205627441e-01,7.469146847724914551e-01,7.468858957290649414e-01,7.468571066856384277e-01,7.468283176422119141e-01,7.467995285987854004e-01,7.467707395553588867e-01,7.467419505119323730e-01,7.467132806777954102e-01,7.466844916343688965e-01,7.466557025909423828e-01,7.466269135475158691e-01,7.465981245040893555e-01,7.465693950653076172e-01,7.465406060218811035e-01,7.465118169784545898e-01,7.464830875396728516e-01,7.464542984962463379e-01,7.464255690574645996e-01,7.463967800140380859e-01,7.463680505752563477e-01,7.463392615318298340e-01,7.463105320930480957e-01,7.462818026542663574e-01,7.462530136108398438e-01,7.462242841720581055e-01,7.461956143379211426e-01,7.461668848991394043e-01,7.461381554603576660e-01,7.461094260215759277e-01,7.460806965827941895e-01,7.460519075393676758e-01,7.460231781005859375e-01,7.459945082664489746e-01,7.459657788276672363e-01,7.459370493888854980e-01,7.459083199501037598e-01,7.458795905113220215e-01
7.162426710128784180e-01,7.162161469459533691e-01,7.161896824836730957e-01,7.161632180213928223e-01,7.161367535591125488e-01,7.161102890968322754e-01,7.160838246345520020e-01,7.160573005676269531e-01,7.160308361053466797e-01,7.160044312477111816e-01,7.159779667854309082e-01,7.159515619277954102e-01,7.159250974655151367e-01,7.158986330032348633e-01,7.158721685409545898e-01,7.158457040786743164e-01,7.158192992210388184e-01,7.157928347587585449e-01,7.157663702964782715e-01,7.157399654388427734e-01,7.157135009765625000e-01,7.156870365142822266e-01,7.156606316566467285e-01,7.156341671943664551e-01,7.156077623367309570e-01,7.155812978744506836e-01,7.155548930168151855e-01,7.155284285545349121e-01,7.155020236968994141e-01,7.154756188392639160e-01,7.154492735862731934e-01,7.154228091239929199e-01,7.153964042663574219e-01,7.153699994087219238e-01,7.153435945510864258e-01,7.153171896934509277e-01,7.152907252311706543e-01,7.152643203735351562e-01,7.152379155158996582e-01,7.152115106582641602e-01,7.151851058006286621e-01,7.151587605476379395e-01,7.151323556900024414e-01,7.151059508323669434e-01,7.150795459747314453e-01,7.150531411170959473e-01,7.150267362594604492e-01,7.150003910064697266e-01,7.149740457534790039e-01,7.149476408958435059e-01,7.149212956428527832e-01,7.148948907852172852e-01,7.148685455322265625e-01,7.148421406745910645e-01,7.148157358169555664e-01,7.147893905639648438e-01,7.147630453109741211e-01,7.147366404533386230e-01,7.147102952003479004e-01,7.146838903427124023e-01,7.146575450897216797e-01,7.146311998367309570e-01,7.146048545837402344e-01,7.145784497261047363e-01,7.145521044731140137e-01,7.145257592201232910e-01,7.144994735717773438e-01,7.144731283187866211e-01,7.144467830657958984e-01,7.144204378128051758e-01,7.143940925598144531e-01,7.143677473068237305e-01,7.143414020538330078e-01,7.143150568008422852e-01,7.142887115478515625e-01,7.142623662948608398e-01,7.142360806465148926e-01,7.142097353935241699e-01,7.141833901405334473e-01,7.141570448875427246e-01
6.869414448738098145e-01,6.869170665740966797e-01,6.868927478790283203e-01,6.868683695793151855e-01,6.868440508842468262e-01,6.868196725845336914e-01,6.867953538894653320e-01,6.867709755897521973e-01,6.867466568946838379e-01,6.867223381996154785e-01,6.866980195045471191e-01,6.866736412048339844e-01,6.866493225097656250e-01,6.866250038146972656e-01,6.866006851196289062e-01,6.865763068199157715e-01,6.865519881248474121e-01,6.865276694297790527e-01,6.865033507347106934e-01,6.864790320396423340e-01,6.864547133445739746e-01,6.864303946495056152e-01,6.864060759544372559e-01,6.863817572593688965e-01,6.863574385643005371e-01,6.863331198692321777e-01,6.863088011741638184e-01,6.862844824790954590e-01,6.862602233886718750e-01,6.862359046936035156e-01,6.862115859985351562e-01,6.861872673034667969e-01,6.861630082130432129e-01,6.861386895179748535e-01,6.861143708229064941e-01,6.860901117324829102e-01,6.860657930374145508e-01,6.860414743423461914e-01,6.860172152519226074e-01,6.859928965568542480e-01,6.859686374664306641e-01,6.859443187713623047e-01,6.859200596809387207e-01,6.858957409858703613e-01,6.858714818954467773e-01,6.858472228050231934e-01,6.858229637145996094e-01,6.857987046241760254e-01,6.857744455337524414e-01,6.857501268386840820e-01,6.857258677482604980e-01,6.857016086578369141e-01,6.856773495674133301e-01,6.856530904769897461e-01,6.856288313865661621e-01,6.856045126914978027e-01,6.855802536010742188e-01,6.855559945106506348e-01,6.855317354202270508e-01,6.855074763298034668e-01,6.854832768440246582e-01,6.854590177536010742e-01,6.854347586631774902e-01,6.854104995727539062e-01,6.853862404823303223e-01,6.853620409965515137e-01,6.853377819061279297e-01,6.853135824203491211e-01,6.852893233299255371e-01,6.852650642395019531e-01,6.852408647537231445e-01,6.852166056632995605e-01,6.851923465728759766e-01,6.851681470870971680e-01,6.851438879966735840e-01,6.851196885108947754e-01,6.850954294204711914e-01,6.850712299346923828e-01,6.850470304489135742e-01,6.850227713584899902e-01
6.599434018135070801e-01,6.599209308624267578e-01,6.598984599113464355e-01,6.598759889602661133e-01,6.598535180091857910e-01,6.598310470581054688e-01,6.598085761070251465e-01,6.597861051559448242e-01,6.597636938095092773e-01,6.597412228584289551e-01,6.597187519073486328e-01,6.596962809562683105e-01,6.596738100051879883e-01,6.596513390541076660e-01,6.596288681030273438e-01,6.596064567565917969e-01,6.595839858055114746e-01,6.595615148544311523e-01,6.595390439033508301e-01,6.595166325569152832e-01,6.594941616058349609e-01,6.594717502593994141e-01,6.594492793083190918e-01,6.594268083572387695e-01,6.594043970108032227e-01,6.593819260597229004e-01,6.593595743179321289e-01,6.593371033668518066e-01,6.593146920204162598e-01,6.592922210693359375e-01,6.592698097229003906e-01,6.592473387718200684e-01,6.592249274253845215e-01,6.592025160789489746e-01,6.591800451278686523e-01,6.591576337814331055e-01,6.591352224349975586e-01,6.591128110885620117e-01,6.590903401374816895e-01,6.590679287910461426e-01,6.590455174446105957e-01,6.590231060981750488e-01,6.590006947517395020e-01,6.589782834053039551e-01,6.589559316635131836e-01,6.589335203170776367e-01,6.589111089706420898e-01,6.588886976242065430e-01,6.588662862777709961e-01,6.588438749313354492e-01,6.588214635848999023e-01,6.587990522384643555e-01,6.587766408920288086e-01,6.587542295455932617e-01,6.587318778038024902e-01,6.587094664573669434e-01,6.586870551109313965e-01,6.586646437644958496e-01,6.586422920227050781e-01,6.586198806762695312e-01,6.585974693298339844e-01,6.585751175880432129e-01,6.585527062416076660e-01,6.585303544998168945e-01,6.585080027580261230e-01,6.584855914115905762e-01,6.584632396697998047e-01,6.584408283233642578e-01,6.584184765815734863e-01,6.583961248397827148e-01,6.583737134933471680e-01,6.583513617515563965e-01,6.583289504051208496e-01,6.583065986633300781e-01,6.582842469215393066e-01,6.582618951797485352e-01,6.582394838333129883e-01,6.582171320915222168e-01,6.581947803497314453e-01,6.581724286079406738e-01
