5.000000000000000000e+00,5.000000000000000000e+00,5.000000000000000000e+00,5.000000000000000000e+00,5.000000000000000000e+00,5.000000000000000000e+00,5.000000000000000000e+00,5.000000000000000000e+00,5.000000000000000000e+00,5.000000000000000000e+00,5.000000000000000000e+00,5.000000000000000000e+00,5.000000000000000000e+00,5.000000000000000000e+00,5.000000000000000000e+00,5.000000000000000000e+00,5.000000000000000000e+00,5.000000000000000000e+00,5.000000000000000000e+00,5.000000000000000000e+00,5.000000000000000000e+00,5.000000000000000000e+00,5.000000000000000000e+00,5.000000000000000000e+00,5.000000000000000000e+00,5.000000000000000000e+00,5.000000000000000000e+00,5.000000000000000000e+00,5.000000000000000000e+00,5.000000000000000000e+00,5.000000000000000000e+00,5.000000000000000000e+00,5.000000000000000000e+00,5.000000000000000000e+00,5.000000000000000000e+00,5.000000000000000000e+00,5.000000000000000000e+00,5.000000000000000000e+00,5.000000000000000000e+00,4.860682487487792969e+00,4.669836521148681641e+00,4.493411540985107422e+00,4.329831123352050781e+00,4.177742481231689453e+00,4.035975933074951172e+00,3.903515100479125977e+00,3.779472827911376953e+00,3.663070917129516602e+00,3.553624629974365234e+00,3.450529098510742188e+00,3.353246450424194336e+00,3.261298894882202148e+00,3.174259662628173828e+00,3.091745138168334961e+00,3.013411998748779297e+00,2.938950300216674805e+00,2.868079423904418945e+00,2.800546169281005859e+00,2.736120223999023438e+00,2.674591779708862305e+00,2.615769624710083008e+00,2.559478998184204102e+00,2.505560398101806641e+00,2.453866481781005859e+00,2.404262304306030273e+00,2.356624364852905273e+00,2.310837030410766602e+00,2.266795158386230469e+00,2.224400997161865234e+00,2.183563232421875000e+00,2.144197702407836914e+00,2.106226682662963867e+00,2.069576978683471680e+00,2.034180879592895508e+00,1.999975442886352539e+00,1.966901183128356934e+00,1.934902906417846680e+00,1.903929114341735840e+00,1.873931407928466797e+00,1.844864249229431152e+00
5.000000000000000000e+00,5.000000000000000000e+00,5.000000000000000000e+00,5.000000000000000000e+00,5.000000000000000000e+00,5.000000000000000000e+00,5.000000000000000000e+00,5.000000000000000000e+00,5.000000000000000000e+00,5.000000000000000000e+00,5.000000000000000000e+00,5.000000000000000000e+00,5.000000000000000000e+00,5.000000000000000000e+00,5.000000000000000000e+00,5.000000000000000000e+00,5.000000000000000000e+00,5.000000000000000000e+00,5.000000000000000000e+00,5.000000000000000000e+00,5.000000000000000000e+00,5.000000000000000000e+00,5.000000000000000000e+00,5.000000000000000000e+00,5.000000000000000000e+00,5.000000000000000000e+00,5.000000000000000000e+00,5.000000000000000000e+00,5.000000000000000000e+00,5.000000000000000000e+00,5.000000000000000000e+00,5.000000000000000000e+00,5.000000000000000000e+00,5.000000000000000000e+00,5.000000000000000000e+00,5.000000000000000000e+00,5.000000000000000000e+00,5.000000000000000000e+00,5.000000000000000000e+00,4.860822677612304688e+00,4.669966220855712891e+00,4.493531703948974609e+00,4.329942703247070312e+00,4.177846431732177734e+00,4.036072731018066406e+00,3.903605937957763672e+00,3.779557466506958008e+00,3.663150310516357422e+00,3.553699970245361328e+00,3.450599670410156250e+00,3.353313207626342773e+00,3.261362314224243164e+00,3.174319505691528320e+00,3.091801881790161133e+00,3.013466119766235352e+00,2.939001560211181641e+00,2.868128061294555664e+00,2.800592899322509766e+00,2.736164569854736328e+00,2.674634218215942383e+00,2.615810155868530273e+00,2.559518098831176758e+00,2.505597591400146484e+00,2.453902244567871094e+00,2.404296875000000000e+00,2.356657266616821289e+00,2.310868740081787109e+00,2.266825914382934570e+00,2.224430322647094727e+00,2.183591365814208984e+00,2.144225120544433594e+00,2.106253147125244141e+00,2.069602251052856445e+00,2.034205675125122070e+00,1.999999046325683594e+00,1.966923952102661133e+00,1.934924960136413574e+00,1.903950810432434082e+00,1.873952269554138184e+00,1.844884514808654785e+00
5.000000000000000000e+00,5.000000000000000000e+00,5.000000000000000000e+00,5.000000000000000000e+00,5.000000000000000000e+00,5.000000000000000000e+00,5.000000000000000000e+00,5.000000000000000000e+00,5.000000000000000000e+00,5.000000000000000000e+00,5.000000000000000000e+00,5.000000000000000000e+00,5.000000000000000000e+00,5.000000000000000000e+00,5.000000000000000000e+00,5.000000000000000000e+00,5.000000000000000000e+00,5.000000000000000000e+00,5.000000000000000000e+00,5.000000000000000000e+00,5.000000000000000000e+00,5.000000000000000000e+00,5.000000000000000000e+00,5.000000000000000000e+00,5.000000000000000000e+00,5.000000000000000000e+00,5.000000000000000000e+00,5.000000000000000000e+00,5.000000000000000000e+00,5.000000000000000000e+00,5.000000000000000000e+00,5.000000000000000000e+00,5.000000000000000000e+00,5.000000000000000000e+00,5.000000000000000000e+00,5.000000000000000000e+00,5.000000000000000000e+00,5.000000000000000000e+00,5.000000000000000000e+00,4.860963344573974609e+00,4.670095920562744141e+00,4.493651390075683594e+00,4.330053806304931641e+00,4.177949905395507812e+00,4.036169528961181641e+00,3.903696298599243164e+00,3.779642343521118164e+00,3.663230419158935547e+00,3.553774833679199219e+00,3.450670242309570312e+00,3.353380203247070312e+00,3.261425495147705078e+00,3.174379110336303711e+00,3.091858863830566406e+00,3.013519763946533203e+00,2.939052581787109375e+00,2.868177175521850586e+00,2.800639390945434570e+00,2.736208915710449219e+00,2.674676656723022461e+00,2.615850925445556641e+00,2.559556961059570312e+00,2.505634784698486328e+00,2.453938007354736328e+00,2.404331207275390625e+00,2.356690168380737305e+00,2.310900688171386719e+00,2.266856431961059570e+00,2.224459648132324219e+00,2.183619976043701172e+00,2.144252300262451172e+00,2.106279373168945312e+00,2.069627761840820312e+00,2.034230232238769531e+00,2.000022888183593750e+00,1.966947078704833984e+00,1.934947371482849121e+00,1.903972148895263672e+00,1.873973011970520020e+00,1.844904780387878418e+00
5.000000000000000000e+00,5.000000000000000000e+00,5.000000000000000000e+00,5.000000000000000000e+00,5.000000000000000000e+00,5.000000000000000000e+00,5.000000000000000000e+00,5.000000000000000000e+00,5.000000000000000000e+00,5.000000000000000000e+00,5.000000000000000000e+00,5.000000000000000000e+00,5.000000000000000000e+00,5.000000000000000000e+00,5.000000000000000000e+00,5.000000000000000000e+00,5.000000000000000000e+00,5.000000000000000000e+00,5.000000000000000000e+00,5.000000000000000000e+00,5.000000000000000000e+00,5.000000000000000000e+00,5.000000000000000000e+00,5.000000000000000000e+00,5.000000000000000000e+00,5.000000000000000000e+00,5.000000000000000000e+00,5.000000000000000000e+00,5.000000000000000000e+00,5.000000000000000000e+00,5.000000000000000000e+00,5.000000000000000000e+00,5.000000000000000000e+00,5.000000000000000000e+00,5.000000000000000000e+00,5.000000000000000000e+00,5.000000000000000000e+00,5.000000000000000000e+00,5.000000000000000000e+00,4.861103534698486328e+00,4.670225143432617188e+00,4.493771076202392578e+00,4.330165386199951172e+00,4.178053855895996094e+00,4.036266326904296875e+00,3.903786659240722656e+00,3.779727458953857422e+00,3.663310050964355469e+00,3.553849697113037109e+00,3.450741291046142578e+00,3.353446960449218750e+00,3.261488676071166992e+00,3.174439191818237305e+00,3.091915607452392578e+00,3.013573646545410156e+00,2.939103841781616211e+00,2.868226051330566406e+00,2.800685882568359375e+00,2.736253261566162109e+00,2.674719095230102539e+00,2.615891456604003906e+00,2.559595823287963867e+00,2.505672216415405273e+00,2.453973770141601562e+00,2.404365539550781250e+00,2.356723308563232422e+00,2.310932397842407227e+00,2.266886949539184570e+00,2.224489212036132812e+00,2.183648109436035156e+00,2.144279718399047852e+00,2.106305599212646484e+00,2.069653272628784180e+00,2.034254789352416992e+00,2.000046491622924805e+00,1.966970086097717285e+00,1.934969663619995117e+00,1.903993725776672363e+00,1.873993992805480957e+00,1.844924926757812500e+00
5.000000000000000000e+00,5.000000000000000000e+00,5.000000000000000000e+00,5.000000000000000000e+00,5.000000000000000000e+00,5.000000000000000000e+00,5.000000000000000000e+00,5.000000000000000000e+00,5.000000000000000000e+00,5.000000000000000000e+00,5.000000000000000000e+00,5.000000000000000000e+00,5.000000000000000000e+00,5.000000000000000000e+00,5.000000000000000000e+00,5.000000000000000000e+00,5.000000000000000000e+00,5.000000000000000000e+00,5.000000000000000000e+00,5.000000000000000000e+00,5.000000000000000000e+00,5.000000000000000000e+00,5.000000000000000000e+00,5.000000000000000000e+00,5.000000000000000000e+00,5.000000000000000000e+00,5.000000000000000000e+00,5.000000000000000000e+00,5.000000000000000000e+00,5.000000000000000000e+00,5.000000000000000000e+00,5.000000000000000000e+00,5.000000000000000000e+00,5.000000000000000000e+00,5.000000000000000000e+00,5.000000000000000000e+00,5.000000000000000000e+00,5.000000000000000000e+00,5.000000000000000000e+00,4.861243724822998047e+00,4.670354843139648438e+00,4.493891239166259766e+00,4.330276489257812500e+00,4.178157329559326172e+00,4.036363124847412109e+00,3.903877496719360352e+00,3.779812097549438477e+00,3.663389444351196289e+00,3.553925037384033203e+00,3.450811862945556641e+00,3.353513479232788086e+00,3.261551856994628906e+00,3.174499034881591797e+00,3.091972112655639648e+00,3.013627529144287109e+00,2.939155340194702148e+00,2.868274688720703125e+00,2.800732374191284180e+00,2.736298084259033203e+00,2.674761533737182617e+00,2.615931987762451172e+00,2.559634923934936523e+00,2.505709409713745117e+00,2.454009532928466797e+00,2.404399871826171875e+00,2.356756210327148438e+00,2.310963869094848633e+00,2.266917467117309570e+00,2.224518537521362305e+00,2.183676481246948242e+00,2.144306898117065430e+00,2.106332063674926758e+00,2.069678544998168945e+00,2.034279108047485352e+00,2.000070333480834961e+00,1.966992974281311035e+00,1.934991717338562012e+00,1.904015302658081055e+00,1.874014854431152344e+00,1.844945192337036133e+00
5.000000000000000000e+00,5.000000000000000000e+00,5.000000000000000000e+00,5.000000000000000000e+00,5.000000000000000000e+00,5.000000000000000000e+00,5.000000000000000000e+00,5.000000000000000000e+00,5.000000000000000000e+00,5.000000000000000000e+00,5.000000000000000000e+00,5.000000000000000000e+00,5.000000000000000000e+00,5.000000000000000000e+00,5.000000000000000000e+00,5.000000000000000000e+00,5.000000000000000000e+00,5.000000000000000000e+00,5.000000000000000000e+00,5.000000000000000000e+00,5.000000000000000000e+00,5.000000000000000000e+00,5.000000000000000000e+00,4.981947898864746094e+00,4.991819381713867188e+00,5.000000000000000000e+00,5.000000000000000000e+00,5.000000000000000000e+00,5.000000000000000000e+00,5.000000000000000000e+00,5.000000000000000000e+00,5.000000000000000000e+00,5.000000000000000000e+00,5.000000000000000000e+00,5.000000000000000000e+00,5.000000000000000000e+00,5.000000000000000000e+00,5.000000000000000000e+00,5.000000000000000000e+00,4.861384391784667969e+00,4.670484542846679688e+00,4.494010925292968750e+00,4.330388069152832031e+00,4.178260803222656250e+00,4.036459922790527344e+00,3.903967857360839844e+00,3.779896974563598633e+00,3.663469552993774414e+00,3.553999900817871094e+00,3.450882434844970703e+00,3.353580713272094727e+00,3.261615037918090820e+00,3.174558877944946289e+00,3.092028856277465820e+00,3.013681650161743164e+00,2.939206600189208984e+00,2.868323564529418945e+00,2.800779104232788086e+00,2.736342430114746094e+00,2.674803972244262695e+00,2.615972757339477539e+00,2.559673786163330078e+00,2.505746841430664062e+00,2.454045295715332031e+00,2.404434204101562500e+00,2.356789350509643555e+00,2.310995817184448242e+00,2.266947984695434570e+00,2.224547863006591797e+00,2.183704614639282227e+00,2.144334316253662109e+00,2.106358528137207031e+00,2.069704055786132812e+00,2.034303903579711914e+00,2.000094175338745117e+00,1.967015981674194336e+00,1.935014009475708008e+00,1.904036760330200195e+00,1.874035596847534180e+00,1.844965457916259766e+00
5.000000000000000000e+00,5.000000000000000000e+00,5.000000000000000000e+00,5.000000000000000000e+00,5.000000000000000000e+00,5.000000000000000000e+00,5.000000000000000000e+00,5.000000000000000000e+00,5.000000000000000000e+00,5.000000000000000000e+00,5.000000000000000000e+00,5.000000000000000000e+00,5.000000000000000000e+00,5.000000000000000000e+00,5.000000000000000000e+00,5.000000000000000000e+00,5.000000000000000000e+00,5.000000000000000000e+00,5.000000000000000000e+00,5.000000000000000000e+00,5.000000000000000000e+00,5.000000000000000000e+00,5.000000000000000000e+00,5.000000000000000000e+00,5.000000000000000000e+00,4.989364624023437500e+00,5.000000000000000000e+00,5.000000000000000000e+00,5.000000000000000000e+00,5.000000000000000000e+00,5.000000000000000000e+00,5.000000000000000000e+00,5.000000000000000000e+00,5.000000000000000000e+00,5.000000000000000000e+00,5.000000000000000000e+00,5.000000000000000000e+00,5.000000000000000000e+00,5.000000000000000000e+00,4.861524581909179688e+00,4.670614242553710938e+00,4.494131088256835938e+00,4.330499172210693359e+00,4.178364753723144531e+00,4.036556720733642578e+00,3.904058218002319336e+00,3.779982089996337891e+00,3.663549184799194336e+00,3.554074764251708984e+00,3.450953483581542969e+00,3.353647232055664062e+00,3.261678218841552734e+00,3.174618482589721680e+00,3.092085838317871094e+00,3.013735532760620117e+00,2.939257860183715820e+00,2.868372678756713867e+00,2.800825595855712891e+00,2.736386775970458984e+00,2.674846649169921875e+00,2.616013526916503906e+00,2.559712648391723633e+00,2.505784273147583008e+00,2.454081058502197266e+00,2.404468536376953125e+00,2.356822252273559570e+00,2.311027526855468750e+00,2.266978502273559570e+00,2.224577188491821289e+00,2.183733224868774414e+00,2.144361734390258789e+00,2.106384754180908203e+00,2.069729566574096680e+00,2.034328460693359375e+00,2.000117778778076172e+00,1.967039108276367188e+00,1.935036420822143555e+00,1.904058337211608887e+00,1.874056577682495117e+00,1.844985604286193848e+00
5.000000000000000000e+00,5.000000000000000000e+00,5.000000000000000000e+00,5.000000000000000000e+00,5.000000000000000000e+00,5.000000000000000000e+00,5.000000000000000000e+00,5.000000000000000000e+00,5.000000000000000000e+00,5.000000000000000000e+00,5.000000000000000000e+00,5.000000000000000000e+00,5.000000000000000000e+00,5.000000000000000000e+00,5.000000000000000000e+00,5.000000000000000000e+00,5.000000000000000000e+00,5.000000000000000000e+00,5.000000000000000000e+00,5.000000000000000000e+00,5.000000000000000000e+00,5.000000000000000000e+00,5.000000000000000000e+00,5.000000000000000000e+00,5.000000000000000000e+00,4.988369941711425781e+00,5.000000000000000000e+00,5.000000000000000000e+00,5.000000000000000000e+00,5.000000000000000000e+00,5.000000000000000000e+00,5.000000000000000000e+00,5.000000000000000000e+00,5.000000000000000000e+00,5.000000000000000000e+00,5.000000000000000000e+00,5.000000000000000000e+00,5.000000000000000000e+00,5.000000000000000000e+00,4.861665248870849609e+00,4.670743465423583984e+00,4.494251251220703125e+00,4.330610752105712891e+00,4.178468227386474609e+00,4.036653518676757812e+00,3.904149055480957031e+00,3.780066728591918945e+00,3.663628816604614258e+00,3.554149627685546875e+00,3.451024055480957031e+00,3.353713989257812500e+00,3.261741161346435547e+00,3.174678564071655273e+00,3.092142581939697266e+00,3.013789415359497070e+00,2.939309358596801758e+00,2.868421316146850586e+00,2.800872325897216797e+00,2.736431360244750977e+00,2.674889087677001953e+00,2.616054058074951172e+00,2.559751510620117188e+00,2.505821466445922852e+00,2.454116821289062500e+00,2.404502630233764648e+00,2.356855392456054688e+00,2.311059236526489258e+00,2.267009019851684570e+00,2.224606752395629883e+00,2.183761358261108398e+00,2.144388914108276367e+00,2.106411218643188477e+00,2.069755077362060547e+00,2.034353017807006836e+00,2.000141620635986328e+00,1.967061877250671387e+00,1.935058474540710449e+00,1.904080033302307129e+00,1.874077439308166504e+00,1.845005869865417480e+00
5.000000000000000000e+00,5.000000000000000000e+00,5.000000000000000000e+00,5.000000000000000000e+00,5.000000000000000000e+00,5.000000000000000000e+00,5.000000000000000000e+00,5.000000000000000000e+00,5.000000000000000000e+00,5.000000000000000000e+00,5.000000000000000000e+00,5.000000000000000000e+00,5.000000000000000000e+00,5.000000000000000000e+00,5.000000000000000000e+00,5.000000000000000000e+00,5.000000000000000000e+00,5.000000000000000000e+00,5.000000000000000000e+00,5.000000000000000000e+00,5.000000000000000000e+00,5.000000000000000000e+00,5.000000000000000000e+00,5.000000000000000000e+00,5.000000000000000000e+00,4.976696968078613281e+00,5.000000000000000000e+00,5.000000000000000000e+00,5.000000000000000000e+00,5.000000000000000000e+00,5.000000000000000000e+00,5.000000000000000000e+00,5.000000000000000000e+00,5.000000000000000000e+00,5.000000000000000000e+00,5.000000000000000000e+00,5.000000000000000000e+00,5.000000000000000000e+00,5.000000000000000000e+00,4.861805438995361328e+00,4.670873165130615234e+00,4.494370937347412109e+00,4.330722332000732422e+00,4.178572177886962891e+00,4.036750316619873047e+00,3.904239416122436523e+00,3.780151605606079102e+00,3.663708209991455078e+00,3.554224967956542969e+00,3.451094865798950195e+00,3.353780746459960938e+00,3.261804580688476562e+00,3.174738407135009766e+00,3.092199325561523438e+00,3.013843536376953125e+00,2.939360618591308594e+00,2.868470191955566406e+00,2.800919055938720703e+00,2.736475944519042969e+00,2.674931526184082031e+00,2.616094827651977539e+00,2.559790372848510742e+00,2.505858659744262695e+00,2.454152584075927734e+00,2.404537200927734375e+00,2.356888294219970703e+00,2.311090946197509766e+00,2.267039537429809570e+00,2.224636077880859375e+00,2.183789730072021484e+00,2.144416332244873047e+00,2.106437444686889648e+00,2.069780349731445312e+00,2.034377574920654297e+00,2.000165462493896484e+00,1.967085003852844238e+00,1.935080766677856445e+00,1.904101371765136719e+00,1.874098181724548340e+00,1.845025897026062012e+00
5.000000000000000000e+00,5.000000000000000000e+00,5.000000000000000000e+00,5.000000000000000000e+00,5.000000000000000000e+00,5.000000000000000000e+00,5.000000000000000000e+00,5.000000000000000000e+00,5.000000000000000000e+00,5.000000000000000000e+00,5.000000000000000000e+00,5.000000000000000000e+00,5.000000000000000000e+00,5.000000000000000000e+00,5.000000000000000000e+00,5.000000000000000000e+00,5.000000000000000000e+00,5.000000000000000000e+00,5.000000000000000000e+00,5.000000000000000000e+00,5.000000000000000000e+00,5.000000000000000000e+00,5.000000000000000000e+00,5.000000000000000000e+00,5.000000000000000000e+00,4.991003036499023438e+00,5.000000000000000000e+00,5.000000000000000000e+00,5.000000000000000000e+00,5.000000000000000000e+00,5.000000000000000000e+00,5.000000000000000000e+00,5.000000000000000000e+00,5.000000000000000000e+00,5.000000000000000000e+00,5.000000000000000000e+00,5.000000000000000000e+00,5.000000000000000000e+00,5.000000000000000000e+00,4.861945629119873047e+00,4.671002864837646484e+00,4.494491100311279297e+00,4.330833435058593750e+00,4.178676128387451172e+00,4.036847114562988281e+00,3.904330015182495117e+00,3.780236244201660156e+00,3.663788318634033203e+00,3.554299831390380859e+00,3.451165437698364258e+00,3.353847742080688477e+00,3.261867761611938477e+00,3.174798250198364258e+00,3.092256307601928711e+00,3.013897418975830078e+00,2.939411878585815430e+00,2.868519306182861328e+00,2.800965547561645508e+00,2.736520290374755859e+00,2.674974203109741211e+00,2.616135358810424805e+00,2.559829235076904297e+00,2.505895853042602539e+00,2.454188346862792969e+00,2.404571533203125000e+00,2.356921195983886719e+00,2.311122655868530273e+00,2.267070055007934570e+00,2.224665403366088867e+00,2.183818101882934570e+00,2.144443511962890625e+00,2.106463909149169922e+00,2.069805860519409180e+00,2.034402132034301758e+00,2.000189065933227539e+00,1.967108011245727539e+00,1.935103058815002441e+00,1.904122948646545410e+00,1.874119162559509277e+00,1.845046162605285645e+00
5.000000000000000000e+00,5.000000000000000000e+00,5.000000000000000000e+00,5.000000000000000000e+00,5.000000000000000000e+00,5.000000000000000000e+00,5.000000000000000000e+00,5.000000000000000000e+00,5.000000000000000000e+00,5.000000000000000000e+00,5.000000000000000000e+00,5.000000000000000000e+00,5.000000000000000000e+00,5.000000000000000000e+00,5.000000000000000000e+00,5.000000000000000000e+00,5.000000000000000000e+00,5.000000000000000000e+00,5.000000000000000000e+00,5.000000000000000000e+00,5.000000000000000000e+00,5.000000000000000000e+00,5.000000000000000000e+00,5.000000000000000000e+00,4.976696014404296875e+00,4.915209770202636719e+00,5.000000000000000000e+00,5.000000000000000000e+00,5.000000000000000000e+00,5.000000000000000000e+00,5.000000000000000000e+00,5.000000000000000000e+00,5.000000000000000000e+00,5.000000000000000000e+00,5.000000000000000000e+00,5.000000000000000000e+00,5.000000000000000000e+00,5.000000000000000000e+00,5.000000000000000000e+00,4.862086296081542969e+00,4.671132564544677734e+00,4.494610786437988281e+00,4.330945014953613281e+00,4.178779602050781250e+00,4.036943912506103516e+00,3.904420375823974609e+00,3.780321359634399414e+00,3.663867950439453125e+00,3.554374694824218750e+00,3.451236486434936523e+00,3.353914499282836914e+00,3.261930942535400391e+00,3.174858331680297852e+00,3.092313051223754883e+00,3.013951301574707031e+00,2.939463376998901367e+00,2.868567943572998047e+00,2.801012039184570312e+00,2.736564874649047852e+00,2.675016641616821289e+00,2.616176128387451172e+00,2.559868097305297852e+00,2.505933284759521484e+00,2.454224109649658203e+00,2.404605865478515625e+00,2.356954336166381836e+00,2.311154365539550781e+00,2.267100572586059570e+00,2.224694967269897461e+00,2.183846473693847656e+00,2.144470930099487305e+00,2.106490373611450195e+00,2.069831371307373047e+00,2.034426689147949219e+00,2.000212907791137695e+00,1.967130899429321289e+00,1.935125231742858887e+00,1.904144406318664551e+00,1.874140024185180664e+00,1.845066547393798828e+00
5.000000000000000000e+00,5.000000000000000000e+00,5.000000000000000000e+00,5.000000000000000000e+00,5.000000000000000000e+00,5.000000000000000000e+00,5.000000000000000000e+00,5.000000000000000000e+00,5.000000000000000000e+00,5.000000000000000000e+00,5.000000000000000000e+00,5.000000000000000000e+00,5.000000000000000000e+00,5.000000000000000000e+00,5.000000000000000000e+00,5.000000000000000000e+00,5.000000000000000000e+00,5.000000000000000000e+00,5.000000000000000000e+00,5.000000000000000000e+00,5.000000000000000000e+00,5.000000000000000000e+00,5.000000000000000000e+00,5.000000000000000000e+00,4.967724323272705078e+00,4.874106884002685547e+00,5.000000000000000000e+00,5.000000000000000000e+00,5.000000000000000000e+00,5.000000000000000000e+00,5.000000000000000000e+00,5.000000000000000000e+00,5.000000000000000000e+00,5.000000000000000000e+00,5.000000000000000000e+00,5.000000000000000000e+00,5.000000000000000000e+00,5.000000000000000000e+00,5.000000000000000000e+00,4.862226486206054688e+00,4.671262264251708984e+00,4.494730949401855469e+00,4.331056594848632812e+00,4.178883552551269531e+00,4.037040710449218750e+00,3.904511213302612305e+00,3.780406236648559570e+00,3.663947582244873047e+00,3.554450035095214844e+00,3.451307058334350586e+00,3.353981256484985352e+00,3.261994361877441406e+00,3.174917936325073242e+00,3.092369794845581055e+00,3.014005422592163086e+00,2.939514636993408203e+00,2.868616819381713867e+00,2.801058530807495117e+00,2.736609220504760742e+00,2.675059080123901367e+00,2.616216659545898438e+00,2.559907197952270508e+00,2.505970478057861328e+00,2.454259872436523438e+00,2.404640197753906250e+00,2.356987237930297852e+00,2.311186075210571289e+00,2.267131090164184570e+00,2.224724292755126953e+00,2.183874607086181641e+00,2.144498348236083984e+00,2.106516599655151367e+00,2.069856643676757812e+00,2.034451246261596680e+00,2.000236749649047852e+00,1.967153906822204590e+00,1.935147523880004883e+00,1.904165983200073242e+00,1.874160766601562500e+00,1.845086574554443359e+00
5.000000000000000000e+00,5.000000000000000000e+00,5.000000000000000000e+00,5.000000000000000000e+00,5.000000000000000000e+00,5.000000000000000000e+00,5.000000000000000000e+00,5.000000000000000000e+00,5.000000000000000000e+00,5.000000000000000000e+00,5.000000000000000000e+00,5.000000000000000000e+00,5.000000000000000000e+00,5.000000000000000000e+00,5.000000000000000000e+00,5.000000000000000000e+00,5.000000000000000000e+00,5.000000000000000000e+00,5.000000000000000000e+00,5.000000000000000000e+00,5.000000000000000000e+00,5.000000000000000000e+00,5.000000000000000000e+00,5.000000000000000000e+00,4.961824417114257812e+00,4.833417892456054688e+00,4.921853542327880859e+00,5.000000000000000000e+00,5.000000000000000000e+00,5.000000000000000000e+00,5.000000000000000000e+00,5.000000000000000000e+00,5.000000000000000000e+00,5.000000000000000000e+00,5.000000000000000000e+00,5.000000000000000000e+00,5.000000000000000000e+00,5.000000000000000000e+00,5.000000000000000000e+00,4.862367153167724609e+00,4.671391487121582031e+00,4.494851112365722656e+00,4.331167697906494141e+00,4.178987026214599609e+00,4.037137508392333984e+00,3.904601573944091797e+00,3.780491113662719727e+00,3.664027690887451172e+00,3.554525136947631836e+00,3.451377630233764648e+00,3.354048252105712891e+00,3.262057304382324219e+00,3.174977779388427734e+00,3.092426776885986328e+00,3.014059305191040039e+00,2.939565896987915039e+00,2.868665695190429688e+00,2.801105260848999023e+00,2.736653804779052734e+00,2.675101518630981445e+00,2.616257429122924805e+00,2.559946060180664062e+00,2.506007909774780273e+00,2.454295873641967773e+00,2.404674530029296875e+00,2.357020139694213867e+00,2.311217784881591797e+00,2.267161607742309570e+00,2.224753618240356445e+00,2.183903217315673828e+00,2.144525527954101562e+00,2.106542825698852539e+00,2.069882154464721680e+00,2.034476041793823242e+00,2.000260353088378906e+00,1.967176795005798340e+00,1.935169816017150879e+00,1.904187560081481934e+00,1.874181747436523438e+00,1.845106840133666992e+00
5.000000000000000000e+00,5.000000000000000000e+00,5.000000000000000000e+00,5.000000000000000000e+00,5.000000000000000000e+00,5.000000000000000000e+00,5.000000000000000000e+00,5.000000000000000000e+00,5.000000000000000000e+00,5.000000000000000000e+00,5.000000000000000000e+00,5.000000000000000000e+00,5.000000000000000000e+00,5.000000000000000000e+00,5.000000000000000000e+00,5.000000000000000000e+00,5.000000000000000000e+00,5.000000000000000000e+00,5.000000000000000000e+00,5.000000000000000000e+00,5.000000000000000000e+00,5.000000000000000000e+00,5.000000000000000000e+00,5.000000000000000000e+00,5.000000000000000000e+00,4.799644470214843750e+00,4.837817192077636719e+00,5.000000000000000000e+00,5.000000000000000000e+00,5.000000000000000000e+00,5.000000000000000000e+00,5.000000000000000000e+00,5.000000000000000000e+00,5.000000000000000000e+00,5.000000000000000000e+00,5.000000000000000000e+00,5.000000000000000000e+00,5.000000000000000000e+00,5.000000000000000000e+00,4.862507343292236328e+00,4.671521186828613281e+00,4.494971275329589844e+00,4.331279277801513672e+00,4.179090976715087891e+00,4.037234306335449219e+00,3.904691934585571289e+00,3.780576229095458984e+00,3.664107084274291992e+00,3.554600000381469727e+00,3.451448678970336914e+00,3.354115009307861328e+00,3.262120485305786133e+00,3.175037860870361328e+00,3.092483520507812500e+00,3.014113187789916992e+00,2.939617156982421875e+00,2.868714809417724609e+00,2.801151752471923828e+00,2.736698150634765625e+00,2.675144195556640625e+00,2.616297960281372070e+00,2.559984922409057617e+00,2.506045341491699219e+00,2.454331398010253906e+00,2.404708862304687500e+00,2.357053279876708984e+00,2.311249494552612305e+00,2.267192125320434570e+00,2.224783182144165039e+00,2.183931350708007812e+00,2.144552707672119141e+00,2.106569290161132812e+00,2.069907665252685547e+00,2.034500598907470703e+00,2.000284194946289062e+00,1.967199802398681641e+00,1.935191988945007324e+00,1.904209017753601074e+00,1.874202728271484375e+00,1.845127224922180176e+00
5.000000000000000000e+00,5.000000000000000000e+00,5.000000000000000000e+00,5.000000000000000000e+00,5.000000000000000000e+00,5.000000000000000000e+00,5.000000000000000000e+00,5.000000000000000000e+00,5.000000000000000000e+00,5.000000000000000000e+00,5.000000000000000000e+00,5.000000000000000000e+00,5.000000000000000000e+00,5.000000000000000000e+00,5.000000000000000000e+00,5.000000000000000000e+00,5.000000000000000000e+00,5.000000000000000000e+00,5.000000000000000000e+00,5.000000000000000000e+00,5.000000000000000000e+00,5.000000000000000000e+00,5.000000000000000000e+00,5.000000000000000000e+00,5.000000000000000000e+00,4.814109325408935547e+00,4.856206417083740234e+00,5.000000000000000000e+00,5.000000000000000000e+00,5.000000000000000000e+00,5.000000000000000000e+00,5.000000000000000000e+00,5.000000000000000000e+00,5.000000000000000000e+00,5.000000000000000000e+00,5.000000000000000000e+00,5.000000000000000000e+00,5.000000000000000000e+00,5.000000000000000000e+00,4.862645626068115234e+00,4.671650886535644531e+00,4.495090961456298828e+00,4.331390857696533203e+00,4.179194450378417969e+00,4.037331104278564453e+00,3.904783010482788086e+00,3.780660867691040039e+00,3.664186716079711914e+00,3.554675340652465820e+00,3.451519250869750977e+00,3.354181766510009766e+00,3.262183904647827148e+00,3.175097703933715820e+00,3.092540264129638672e+00,3.014167070388793945e+00,2.939668655395507812e+00,2.868763446807861328e+00,2.801198482513427734e+00,2.736742734909057617e+00,2.675186634063720703e+00,2.616338491439819336e+00,2.560024023056030273e+00,2.506082534790039062e+00,2.454367160797119141e+00,2.404743194580078125e+00,2.357086181640625000e+00,2.311281204223632812e+00,2.267222642898559570e+00,2.224812507629394531e+00,2.183959722518920898e+00,2.144580125808715820e+00,2.106595754623413086e+00,2.069933176040649414e+00,2.034525156021118164e+00,2.000308036804199219e+00,1.967222929000854492e+00,1.935214281082153320e+00,1.904230594635009766e+00,1.874223351478576660e+00,1.845147252082824707e+00
5.000000000000000000e+00,5.000000000000000000e+00,5.000000000000000000e+00,5.000000000000000000e+00,5.000000000000000000e+00,5.000000000000000000e+00,5.000000000000000000e+00,5.000000000000000000e+00,5.000000000000000000e+00,5.000000000000000000e+00,5.000000000000000000e+00,5.000000000000000000e+00,5.000000000000000000e+00,5.000000000000000000e+00,5.000000000000000000e+00,5.000000000000000000e+00,5.000000000000000000e+00,5.000000000000000000e+00,5.000000000000000000e+00,5.000000000000000000e+00,5.000000000000000000e+00,5.000000000000000000e+00,5.000000000000000000e+00,5.000000000000000000e+00,5.000000000000000000e+00,4.854754924774169922e+00,5.000000000000000000e+00,5.000000000000000000e+00,5.000000000000000000e+00,5.000000000000000000e+00,5.000000000000000000e+00,5.000000000000000000e+00,5.000000000000000000e+00,5.000000000000000000e+00,5.000000000000000000e+00,5.000000000000000000e+00,5.000000000000000000e+00,5.000000000000000000e+00,5.000000000000000000e+00,4.862783908843994141e+00,4.671779632568359375e+00,4.495211124420166016e+00,4.331501960754394531e+00,4.179298400878906250e+00,4.037427902221679688e+00,3.904873371124267578e+00,3.780745744705200195e+00,3.664266824722290039e+00,3.554750204086303711e+00,3.451590061187744141e+00,3.354248285293579102e+00,3.262247085571289062e+00,3.175157546997070312e+00,3.092597007751464844e+00,3.014221191406250000e+00,2.939719915390014648e+00,2.868812322616577148e+00,2.801245212554931641e+00,2.736787319183349609e+00,2.675229072570800781e+00,2.616379499435424805e+00,2.560062885284423828e+00,2.506119728088378906e+00,2.454403162002563477e+00,2.404777526855468750e+00,2.357119083404541016e+00,2.311312913894653320e+00,2.267253160476684570e+00,2.224841833114624023e+00,2.183987855911254883e+00,2.144607543945312500e+00,2.106621980667114258e+00,2.069958448410034180e+00,2.034549713134765625e+00,2.000331640243530273e+00,1.967245697975158691e+00,1.935236573219299316e+00,1.904252171516418457e+00,1.874244332313537598e+00,1.845167517662048340e+00
5.000000000000000000e+00,5.000000000000000000e+00,5.000000000000000000e+00,5.000000000000000000e+00,5.000000000000000000e+00,5.000000000000000000e+00,5.000000000000000000e+00,5.000000000000000000e+00,5.000000000000000000e+00,5.000000000000000000e+00,5.000000000000000000e+00,5.000000000000000000e+00,5.000000000000000000e+00,5.000000000000000000e+00,5.000000000000000000e+00,5.000000000000000000e+00,5.000000000000000000e+00,5.000000000000000000e+00,5.000000000000000000e+00,5.000000000000000000e+00,5.000000000000000000e+00,5.000000000000000000e+00,5.000000000000000000e+00,5.000000000000000000e+00,5.000000000000000000e+00,4.878128051757812500e+00,5.000000000000000000e+00,5.000000000000000000e+00,5.000000000000000000e+00,5.000000000000000000e+00,5.000000000000000000e+00,5.000000000000000000e+00,5.000000000000000000e+00,5.000000000000000000e+00,5.000000000000000000e+00,5.000000000000000000e+00,5.000000000000000000e+00,5.000000000000000000e+00,5.000000000000000000e+00,4.862921714782714844e+00,4.671906471252441406e+00,4.495330810546875000e+00,4.331613540649414062e+00,4.179401874542236328e+00,4.037524700164794922e+00,3.904963731765747070e+00,3.780830860137939453e+00,3.664346456527709961e+00,3.554825067520141602e+00,3.451660633087158203e+00,3.354315519332885742e+00,3.262310028076171875e+00,3.175217151641845703e+00,3.092653989791870117e+00,3.014275074005126953e+00,2.939771175384521484e+00,2.868861436843872070e+00,2.801291704177856445e+00,2.736831665039062500e+00,2.675271749496459961e+00,2.616420030593872070e+00,2.560101747512817383e+00,2.506157159805297852e+00,2.454438924789428711e+00,2.404811859130859375e+00,2.357152223587036133e+00,2.311344861984252930e+00,2.267283678054809570e+00,2.224871158599853516e+00,2.184016466140747070e+00,2.144634723663330078e+00,2.106648206710815430e+00,2.069983959197998047e+00,2.034574270248413086e+00,2.000355482101440430e+00,1.967268824577331543e+00,1.935258626937866211e+00,1.904273629188537598e+00,1.874265313148498535e+00,1.845187902450561523e+00
5.000000000000000000e+00,5.000000000000000000e+00,5.000000000000000000e+00,5.000000000000000000e+00,5.000000000000000000e+00,5.000000000000000000e+00,5.000000000000000000e+00,5.000000000000000000e+00,5.000000000000000000e+00,5.000000000000000000e+00,5.000000000000000000e+00,5.000000000000000000e+00,5.000000000000000000e+00,5.000000000000000000e+00,5.000000000000000000e+00,5.000000000000000000e+00,5.000000000000000000e+00,5.000000000000000000e+00,5.000000000000000000e+00,5.000000000000000000e+00,5.000000000000000000e+00,5.000000000000000000e+00,5.000000000000000000e+00,5.000000000000000000e+00,5.000000000000000000e+00,4.911036491394042969e+00,5.000000000000000000e+00,5.000000000000000000e+00,5.000000000000000000e+00,5.000000000000000000e+00,5.000000000000000000e+00,5.000000000000000000e+00,5.000000000000000000e+00,5.000000000000000000e+00,5.000000000000000000e+00,5.000000000000000000e+00,5.000000000000000000e+00,5.000000000000000000e+00,5.000000000000000000e+00,4.863059997558593750e+00,4.672034263610839844e+00,4.495448589324951172e+00,4.331725120544433594e+00,4.179505825042724609e+00,4.037621498107910156e+00,3.905054569244384766e+00,3.780915737152099609e+00,3.664426088333129883e+00,3.554900169372558594e+00,3.451731681823730469e+00,3.354382276535034180e+00,3.262373208999633789e+00,3.175277233123779297e+00,3.092710733413696289e+00,3.014328956604003906e+00,2.939822673797607422e+00,2.868910074234008789e+00,2.801338195800781250e+00,2.736876249313354492e+00,2.675314188003540039e+00,2.616460561752319336e+00,2.560140848159790039e+00,2.506194353103637695e+00,2.454474449157714844e+00,2.404846191406250000e+00,2.357185363769531250e+00,2.311376333236694336e+00,2.267314195632934570e+00,2.224900722503662109e+00,2.184044599533081055e+00,2.144662141799926758e+00,2.106674671173095703e+00,2.070009469985961914e+00,2.034598827362060547e+00,2.000379323959350586e+00,1.967291831970214844e+00,1.935281038284301758e+00,1.904295206069946289e+00,1.874286055564880371e+00,1.845207929611206055e+00
5.000000000000000000e+00,5.000000000000000000e+00,5.000000000000000000e+00,5.000000000000000000e+00,5.000000000000000000e+00,5.000000000000000000e+00,5.000000000000000000e+00,5.000000000000000000e+00,5.000000000000000000e+00,5.000000000000000000e+00,5.000000000000000000e+00,5.000000000000000000e+00,5.000000000000000000e+00,5.000000000000000000e+00,5.000000000000000000e+00,5.000000000000000000e+00,5.000000000000000000e+00,5.000000000000000000e+00,5.000000000000000000e+00,5.000000000000000000e+00,5.000000000000000000e+00,5.000000000000000000e+00,5.000000000000000000e+00,5.000000000000000000e+00,5.000000000000000000e+00,4.964426040649414062e+00,5.000000000000000000e+00,5.000000000000000000e+00,5.000000000000000000e+00,5.000000000000000000e+00,5.000000000000000000e+00,5.000000000000000000e+00,5.000000000000000000e+00,5.000000000000000000e+00,5.000000000000000000e+00,5.000000000000000000e+00,5.000000000000000000e+00,5.000000000000000000e+00,5.000000000000000000e+00,4.863197803497314453e+00,4.672161579132080078e+00,4.495566368103027344e+00,4.331834793090820312e+00,4.179609775543212891e+00,4.037718296051025391e+00,3.905145168304443359e+00,3.781000375747680664e+00,3.664505720138549805e+00,3.554975509643554688e+00,3.451802253723144531e+00,3.354449033737182617e+00,3.262436628341674805e+00,3.175337076187133789e+00,3.092767238616943359e+00,3.014383316040039062e+00,2.939873933792114258e+00,2.868958950042724609e+00,2.801384925842285156e+00,2.736920595169067383e+00,2.675356626510620117e+00,2.616501331329345703e+00,2.560179710388183594e+00,2.506231784820556641e+00,2.454510211944580078e+00,2.404880762100219727e+00,2.357218265533447266e+00,2.311408042907714844e+00,2.267344951629638672e+00,2.224930047988891602e+00,2.184072971343994141e+00,2.144689559936523438e+00,2.106701135635375977e+00,2.070034742355346680e+00,2.034623384475708008e+00,2.000403165817260742e+00,1.967314720153808594e+00,1.935303330421447754e+00,1.904316902160644531e+00,1.874306917190551758e+00,1.845228195190429688e+00
5.000000000000000000e+00,5.000000000000000000e+00,5.000000000000000000e+00,5.000000000000000000e+00,5.000000000000000000e+00,5.000000000000000000e+00,5.000000000000000000e+00,5.000000000000000000e+00,5.000000000000000000e+00,5.000000000000000000e+00,5.000000000000000000e+00,5.000000000000000000e+00,5.000000000000000000e+00,5.000000000000000000e+00,5.000000000000000000e+00,5.000000000000000000e+00,5.000000000000000000e+00,5.000000000000000000e+00,5.000000000000000000e+00,5.000000000000000000e+00,5.000000000000000000e+00,5.000000000000000000e+00,5.000000000000000000e+00,5.000000000000000000e+00,5.000000000000000000e+00,4.924910068511962891e+00,5.000000000000000000e+00,5.000000000000000000e+00,5.000000000000000000e+00,5.000000000000000000e+00,5.000000000000000000e+00,5.000000000000000000e+00,5.000000000000000000e+00,5.000000000000000000e+00,5.000000000000000000e+00,5.000000000000000000e+00,5.000000000000000000e+00,5.000000000000000000e+00,5.000000000000000000e+00,4.863335609436035156e+00,4.672288894653320312e+00,4.495684623718261719e+00,4.331944465637207031e+00,4.179712295532226562e+00,4.037815093994140625e+00,3.905235528945922852e+00,3.781085252761840820e+00,3.664585828781127930e+00,3.555050373077392578e+00,3.451873064041137695e+00,3.354516029357910156e+00,3.262499809265136719e+00,3.175396919250488281e+00,3.092824459075927734e+00,3.014437198638916016e+00,2.939925193786621094e+00,2.869008064270019531e+00,2.801431655883789062e+00,2.736965179443359375e+00,2.675399065017700195e+00,2.616542100906372070e+00,2.560218572616577148e+00,2.506268978118896484e+00,2.454546213150024414e+00,2.404915094375610352e+00,2.357251167297363281e+00,2.311439990997314453e+00,2.267375230789184570e+00,2.224959373474121094e+00,2.184101343154907227e+00,2.144716739654541016e+00,2.106727361679077148e+00,2.070060491561889648e+00,2.034647941589355469e+00,2.000426769256591797e+00,1.967337727546691895e+00,1.935325384140014648e+00,1.904338240623474121e+00,1.874327659606933594e+00,1.845248579978942871e+00
4.874785900115966797e+00,4.873575210571289062e+00,4.872364521026611328e+00,4.871154785156250000e+00,4.869945526123046875e+00,4.868737220764160156e+00,4.867528915405273438e+00,4.866321563720703125e+00,4.865114688873291016e+00,4.863908767700195312e+00,4.862702846527099609e+00,4.861497879028320312e+00,4.860293388366699219e+00,4.859089851379394531e+00,4.857886314392089844e+00,4.856683731079101562e+00,4.855481624603271484e+00,4.854279994964599609e+00,4.853079795837402344e+00,4.851879119873046875e+00,4.850679397583007812e+00,4.849480628967285156e+00,4.848282337188720703e+00,4.847084522247314453e+00,4.845887184143066406e+00,4.844690322875976562e+00,4.843493938446044922e+00,4.842298507690429688e+00,4.841103553771972656e+00,4.839909076690673828e+00,4.838715553283691406e+00,4.837522506713867188e+00,4.836329936981201172e+00,4.835137844085693359e+00,4.833946228027343750e+00,4.832755565643310547e+00,4.831565380096435547e+00,4.830375671386718750e+00,4.829186439514160156e+00,4.827998161315917969e+00,4.672416210174560547e+00,4.495802402496337891e+00,4.332054138183593750e+00,4.179814338684082031e+00,4.037911891937255859e+00,3.905325889587402344e+00,3.781170606613159180e+00,3.664665460586547852e+00,3.555125236511230469e+00,3.451944112777709961e+00,3.354582786560058594e+00,3.262562990188598633e+00,3.175457000732421875e+00,3.092881202697753906e+00,3.014491081237792969e+00,2.939976692199707031e+00,2.869056940078735352e+00,2.801478147506713867e+00,2.737009525299072266e+00,2.675441741943359375e+00,2.616582632064819336e+00,2.560257434844970703e+00,2.506306409835815430e+00,2.454581975936889648e+00,2.404949188232421875e+00,2.357284307479858398e+00,2.311471700668334961e+00,2.267405748367309570e+00,2.224988937377929688e+00,2.184129714965820312e+00,2.144743919372558594e+00,2.106753826141357422e+00,2.070085763931274414e+00,2.034672498703002930e+00,2.000450611114501953e+00,1.967360854148864746e+00,1.935347795486450195e+00,1.904359817504882812e+00,1.874348640441894531e+00,1.845268607139587402e+00
3.777566909790039062e+00,3.776839971542358398e+00,3.776112794876098633e+00,3.775386095046997070e+00,3.774659872055053711e+00,3.773933410644531250e+00,3.773207902908325195e+00,3.772481918334960938e+00,3.771756887435913086e+00,3.771032094955444336e+00,3.770307064056396484e+00,3.769582748413085938e+00,3.768858671188354492e+00,3.768134593963623047e+00,3.767410993576049805e+00,3.766687393188476562e+00,3.765964508056640625e+00,3.765241861343383789e+00,3.764519214630126953e+00,3.763797044754028320e+00,3.763074874877929688e+00,3.762353420257568359e+00,3.761632204055786133e+00,3.760910749435424805e+00,3.760190010070800781e+00,3.759469270706176758e+00,3.758749008178710938e+00,3.758029222488403320e+00,3.757309198379516602e+00,3.756589889526367188e+00,3.755870819091796875e+00,3.755151748657226562e+00,3.754433155059814453e+00,3.753714561462402344e+00,3.752996683120727539e+00,3.752279043197631836e+00,3.751561164855957031e+00,3.750844001770019531e+00,3.750126838684082031e+00,3.749410152435302734e+00,3.748693943023681641e+00,3.747977495193481445e+00,3.747261762619018555e+00,3.746546268463134766e+00,3.745830535888671875e+00,3.745115756988525391e+00,3.744400739669799805e+00,3.664745092391967773e+00,3.555200576782226562e+00,3.452014684677124023e+00,3.354649543762207031e+00,3.262626409530639648e+00,3.175516843795776367e+00,3.092937946319580078e+00,3.014545202255249023e+00,2.940027952194213867e+00,2.869105815887451172e+00,2.801524639129638672e+00,2.737054109573364258e+00,2.675484180450439453e+00,2.616623163223266602e+00,2.560296535491943359e+00,2.506343603134155273e+00,2.454617738723754883e+00,2.404983758926391602e+00,2.357317209243774414e+00,2.311503410339355469e+00,2.267436504364013672e+00,2.225018262863159180e+00,2.184158086776733398e+00,2.144771337509155273e+00,2.106780290603637695e+00,2.070111274719238281e+00,2.034697055816650391e+00,2.000474452972412109e+00,1.967383623123168945e+00,1.935369849205017090e+00,1.904381513595581055e+00,1.874369621276855469e+00,1.845288872718811035e+00
3.083525896072387695e+00,3.083041191101074219e+00,3.082556724548339844e+00,3.082072734832763672e+00,3.081588268280029297e+00,3.081104516983032227e+00,3.080620527267456055e+00,3.080137014389038086e+00,3.079653501510620117e+00,3.079169988632202148e+00,3.078686952590942383e+00,3.078203916549682617e+00,3.077720880508422852e+00,3.077238082885742188e+00,3.076755285263061523e+00,3.076272964477539062e+00,3.075790882110595703e+00,3.075308561325073242e+00,3.074826478958129883e+00,3.074344635009765625e+00,3.073863029479980469e+00,3.073381423950195312e+00,3.072899818420410156e+00,3.072418689727783203e+00,3.071937561035156250e+00,3.071456670761108398e+00,3.070976018905639648e+00,3.070495128631591797e+00,3.070014715194702148e+00,3.069534540176391602e+00,3.069054126739501953e+00,3.068574190139770508e+00,3.068094015121459961e+00,3.067614555358886719e+00,3.067134857177734375e+00,3.066655397415161133e+00,3.066176176071166992e+00,3.065696954727172852e+00,3.065217971801757812e+00,3.064739227294921875e+00,3.064260482788085938e+00,3.063781976699829102e+00,3.063303709030151367e+00,3.062825202941894531e+00,3.062347173690795898e+00,3.061869144439697266e+00,3.061391353607177734e+00,3.060913801193237305e+00,3.060436248779296875e+00,3.059958934783935547e+00,3.059481620788574219e+00,3.059004545211791992e+00,3.058527708053588867e+00,3.058050870895385742e+00,3.014599084854125977e+00,2.940079212188720703e+00,2.869154453277587891e+00,2.801571369171142578e+00,2.737098693847656250e+00,2.675526618957519531e+00,2.616663932800292969e+00,2.560335397720336914e+00,2.506380796432495117e+00,2.454653501510620117e+00,2.405018091201782227e+00,2.357350111007690430e+00,2.311535120010375977e+00,2.267467021942138672e+00,2.225047588348388672e+00,2.184186458587646484e+00,2.144798755645751953e+00,2.106806516647338867e+00,2.070136547088623047e+00,2.034721851348876953e+00,2.000498056411743164e+00,1.967406749725341797e+00,1.935392141342163086e+00,1.904402852058410645e+00,1.874390244483947754e+00,1.845309257507324219e+00
2.604929685592651367e+00,2.604583978652954102e+00,2.604238271713256836e+00,2.603892326354980469e+00,2.603546857833862305e+00,2.603201389312744141e+00,2.602855920791625977e+00,2.602510690689086914e+00,2.602165460586547852e+00,2.601820468902587891e+00,2.601475477218627930e+00,2.601130485534667969e+00,2.600785732269287109e+00,2.600440740585327148e+00,2.600096225738525391e+00,2.599751710891723633e+00,2.599407196044921875e+00,2.599062919616699219e+00,2.598718404769897461e+00,2.598374366760253906e+00,2.598030328750610352e+00,2.597686052322387695e+00,2.597342252731323242e+00,2.596998453140258789e+00,2.596654653549194336e+00,2.596311092376708984e+00,2.595967531204223633e+00,2.595623970031738281e+00,2.595280647277832031e+00,2.594937324523925781e+00,2.594594240188598633e+00,2.594250917434692383e+00,2.593908071517944336e+00,2.593565225601196289e+00,2.593222379684448242e+00,2.592879533767700195e+00,2.592536926269531250e+00,2.592194318771362305e+00,2.591851949691772461e+00,2.591509342193603516e+00,2.591167211532592773e+00,2.590825080871582031e+00,2.590482950210571289e+00,2.590141057968139648e+00,2.589798927307128906e+00,2.589457035064697266e+00,2.589115381240844727e+00,2.588773727416992188e+00,2.588432312011718750e+00,2.588090658187866211e+00,2.587749242782592773e+00,2.587408065795898438e+00,2.587066650390625000e+00,2.586725711822509766e+00,2.586384534835815430e+00,2.586043834686279297e+00,2.585702896118164062e+00,2.585362195968627930e+00,2.585021495819091797e+00,2.584681034088134766e+00,2.584340333938598633e+00,2.560374259948730469e+00,2.506418228149414062e+00,2.454689264297485352e+00,2.405052423477172852e+00,2.357383251190185547e+00,2.311566829681396484e+00,2.267497539520263672e+00,2.225076913833618164e+00,2.184214830398559570e+00,2.144825935363769531e+00,2.106832742691040039e+00,2.070162296295166016e+00,2.034746408462524414e+00,2.000521898269653320e+00,1.967429757118225098e+00,1.935414552688598633e+00,1.904424548149108887e+00,1.874411225318908691e+00,1.845329284667968750e+00
2.254983901977539062e+00,2.254722833633422852e+00,2.254461765289306641e+00,2.254200696945190430e+00,2.253939867019653320e+00,2.253678798675537109e+00,2.253418207168579102e+00,2.253157138824462891e+00,2.252896547317504883e+00,2.252635955810546875e+00,2.252375364303588867e+00,2.252114772796630859e+00,2.251854181289672852e+00,2.251593828201293945e+00,2.251333475112915039e+00,2.251073360443115234e+00,2.250813007354736328e+00,2.250552892684936523e+00,2.250292778015136719e+00,2.250032663345336914e+00,2.249772787094116211e+00,2.249512910842895508e+00,2.249252796173095703e+00,2.248993635177612305e+00,2.248735904693603516e+00,2.248477935791015625e+00,2.248220443725585938e+00,2.247962951660156250e+00,2.247705221176147461e+00,2.247447729110717773e+00,2.247190237045288086e+00,2.246932983398437500e+00,2.246675729751586914e+00,2.246418237686157227e+00,2.246161222457885742e+00,2.245903968811035156e+00,2.245646953582763672e+00,2.245389938354492188e+00,2.245132923126220703e+00,2.244875907897949219e+00,2.244619131088256836e+00,2.244362354278564453e+00,2.244105577468872070e+00,2.243848800659179688e+00,2.243592262268066406e+00,2.243335723876953125e+00,2.243079185485839844e+00,2.242822885513305664e+00,2.242566347122192383e+00,2.242310047149658203e+00,2.242053985595703125e+00,2.241797685623168945e+00,2.241541385650634766e+00,2.241285562515258789e+00,2.241029262542724609e+00,2.240773439407348633e+00,2.240517377853393555e+00,2.240261554718017578e+00,2.240005970001220703e+00,2.239750146865844727e+00,2.239494323730468750e+00,2.239238739013671875e+00,2.238983154296875000e+00,2.238727807998657227e+00,2.238472223281860352e+00,2.238216876983642578e+00,2.237961530685424805e+00,2.237706184387207031e+00,2.225106477737426758e+00,2.184242963790893555e+00,2.144853353500366211e+00,2.106859207153320312e+00,2.070187568664550781e+00,2.034770965576171875e+00,2.000545740127563477e+00,1.967452645301818848e+00,1.935436606407165527e+00,1.904446125030517578e+00,1.874432206153869629e+00,1.845349669456481934e+00
1.988013267517089844e+00,1.987810254096984863e+00,1.987607479095458984e+00,1.987404465675354004e+00,1.987201571464538574e+00,1.986998677253723145e+00,1.986796140670776367e+00,1.986593365669250488e+00,1.986390590667724609e+00,1.986188173294067383e+00,1.985985517501831055e+00,1.985782861709594727e+00,1.985580205917358398e+00,1.985377907752990723e+00,1.985175490379333496e+00,1.984973073005676270e+00,1.984770894050598145e+00,1.984568476676940918e+00,1.984366059303283691e+00,1.984163761138916016e+00,1.983961820602416992e+00,1.983759522438049316e+00,1.983557343482971191e+00,1.983355522155761719e+00,1.983153462409973145e+00,1.982951402664184570e+00,1.982749581336975098e+00,1.982547640800476074e+00,1.982345700263977051e+00,1.982143878936767578e+00,1.981942176818847656e+00,1.981740474700927734e+00,1.981538653373718262e+00,1.981337189674377441e+00,1.981135487556457520e+00,1.980933904647827148e+00,1.980732321739196777e+00,1.980530977249145508e+00,1.980329394340515137e+00,1.980127930641174316e+00,1.979926705360412598e+00,1.979725360870361328e+00,1.979524016380310059e+00,1.979322910308837891e+00,1.979121685028076172e+00,1.978920459747314453e+00,1.978719234466552734e+00,1.978518366813659668e+00,1.978317260742187500e+00,1.978116154670715332e+00,1.977915406227111816e+00,1.977714419364929199e+00,1.977513432502746582e+00,1.977312564849853516e+00,1.977111935615539551e+00,1.976911067962646484e+00,1.976710319519042969e+00,1.976509809494018555e+00,1.976309061050415039e+00,1.976108431816101074e+00,1.975907802581787109e+00,1.975707411766052246e+00,1.975506901741027832e+00,1.975306391716003418e+00,1.975106239318847656e+00,1.974905848503112793e+00,1.974705457687377930e+00,1.974505305290222168e+00,1.974305033683776855e+00,1.974104762077331543e+00,1.973904609680175781e+00,1.973704576492309570e+00,1.973504543304443359e+00,1.973304390907287598e+00,1.973104596138000488e+00,1.967475771903991699e+00,1.935458898544311523e+00,1.904467463493347168e+00,1.874452948570251465e+00,1.845369935035705566e+00
1.777564764022827148e+00,1.777402639389038086e+00,1.777240276336669922e+00,1.777078032493591309e+00,1.776916027069091797e+00,1.776753783226013184e+00,1.776591658592224121e+00,1.776429653167724609e+00,1.776267528533935547e+00,1.776105403900146484e+00,1.775943398475646973e+00,1.775781512260437012e+00,1.775619506835937500e+00,1.775457501411437988e+00,1.775295734405517578e+00,1.775133848190307617e+00,1.774971961975097656e+00,1.774810075759887695e+00,1.774648547172546387e+00,1.774486660957336426e+00,1.774324893951416016e+00,1.774163365364074707e+00,1.774001598358154297e+00,1.773839950561523438e+00,1.773678541183471680e+00,1.773516893386840820e+00,1.773355245590209961e+00,1.773193717002868652e+00,1.773032426834106445e+00,1.772870898246765137e+00,1.772709369659423828e+00,1.772548198699951172e+00,1.772386789321899414e+00,1.772225379943847656e+00,1.772063970565795898e+00,1.771902799606323242e+00,1.771741509437561035e+00,1.771580338478088379e+00,1.771419167518615723e+00,1.771257996559143066e+00,1.771096825599670410e+00,1.770935654640197754e+00,1.770774722099304199e+00,1.770613670349121094e+00,1.770452618598937988e+00,1.770291686058044434e+00,1.770130753517150879e+00,1.769969701766967773e+00,1.769809007644653320e+00,1.769648075103759766e+00,1.769487142562866211e+00,1.769326329231262207e+00,1.769165635108947754e+00,1.769004821777343750e+00,1.768844127655029297e+00,1.768683552742004395e+00,1.768522858619689941e+00,1.768362164497375488e+00,1.768201470375061035e+00,1.768041014671325684e+00,1.767880439758300781e+00,1.767719864845275879e+00,1.767559528350830078e+00,1.767399072647094727e+00,1.767238497734069824e+00,1.767078042030334473e+00,1.766917824745178223e+00,1.766757488250732422e+00,1.766597151756286621e+00,1.766436934471130371e+00,1.766276717185974121e+00,1.766116380691528320e+00,1.765956282615661621e+00,1.765796065330505371e+00,1.765635967254638672e+00,1.765475869178771973e+00,1.765315890312194824e+00,1.765155792236328125e+00,1.764995694160461426e+00,1.764835834503173828e+00
1.607406854629516602e+00,1.607274174690246582e+00,1.607141613960266113e+00,1.607008934020996094e+00,1.606876254081726074e+00,1.606743693351745605e+00,1.606611132621765137e+00,1.606478452682495117e+00,1.606345891952514648e+00,1.606213450431823730e+00,1.606080889701843262e+00,1.605948448181152344e+00,1.605816125869750977e+00,1.605683565139770508e+00,1.605551123619079590e+00,1.605418682098388672e+00,1.605286478996276855e+00,1.605154037475585938e+00,1.605021715164184570e+00,1.604889512062072754e+00,1.604757189750671387e+00,1.604624867439270020e+00,1.604492545127868652e+00,1.604360461235046387e+00,1.604228258132934570e+00,1.604096055030822754e+00,1.603963971138000488e+00,1.603831768035888672e+00,1.603699684143066406e+00,1.603567719459533691e+00,1.603435516357421875e+00,1.603303432464599609e+00,1.603171467781066895e+00,1.603039503097534180e+00,1.602907538414001465e+00,1.602775573730468750e+00,1.602643728256225586e+00,1.602511763572692871e+00,1.602379798889160156e+00,1.602247953414916992e+00,1.602116107940673828e+00,1.601984262466430664e+00,1.601852416992187500e+00,1.601720809936523438e+00,1.601588964462280273e+00,1.601457238197326660e+00,1.601325631141662598e+00,1.601193904876708984e+00,1.601062178611755371e+00,1.600930452346801758e+00,1.600798964500427246e+00,1.600667238235473633e+00,1.600535631179809570e+00,1.600404143333435059e+00,1.600272655487060547e+00,1.600141048431396484e+00,1.600009560585021973e+00,1.599878072738647461e+00,1.599746584892272949e+00,1.599615097045898438e+00,1.599483847618103027e+00,1.599352359771728516e+00,1.599220991134643555e+00,1.599089622497558594e+00,1.598958373069763184e+00,1.598827004432678223e+00,1.598695755004882812e+00,1.598564505577087402e+00,1.598433256149291992e+00,1.598302006721496582e+00,1.598170876502990723e+00,1.598039746284484863e+00,1.597908496856689453e+00,1.597777366638183594e+00,1.597646355628967285e+00,1.597515225410461426e+00,1.597384095191955566e+00,1.597253084182739258e+00,1.597122073173522949e+00,1.596991062164306641e+00
1.466979861259460449e+00,1.466869235038757324e+00,1.466758728027343750e+00,1.466648221015930176e+00,1.466537833213806152e+00,1.466427326202392578e+00,1.466316819190979004e+00,1.466206550598144531e+00,1.466096043586730957e+00,1.465985655784606934e+00,1.465875387191772461e+00,1.465764999389648438e+00,1.465654611587524414e+00,1.465544223785400391e+00,1.465433955192565918e+00,1.465323686599731445e+00,1.465213298797607422e+00,1.465103149414062500e+00,1.464992880821228027e+00,1.464882612228393555e+00,1.464772462844848633e+00,1.464662313461303711e+00,1.464552044868469238e+00,1.464441895484924316e+00,1.464331865310668945e+00,1.464221715927124023e+00,1.464111566543579102e+00,1.464001536369323730e+00,1.463891386985778809e+00,1.463781356811523438e+00,1.463671207427978516e+00,1.463561296463012695e+00,1.463451266288757324e+00,1.463341236114501953e+00,1.463231325149536133e+00,1.463121294975280762e+00,1.463011384010314941e+00,1.462901353836059570e+00,1.462791562080383301e+00,1.462681651115417480e+00,1.462571740150451660e+00,1.462461948394775391e+00,1.462352037429809570e+00,1.462242245674133301e+00,1.462132334709167480e+00,1.462022662162780762e+00,1.461912870407104492e+00,1.461803078651428223e+00,1.461693406105041504e+00,1.461583614349365234e+00,1.461473941802978516e+00,1.461364269256591797e+00,1.461254596710205078e+00,1.461144924163818359e+00,1.461035251617431641e+00,1.460925698280334473e+00,1.460816025733947754e+00,1.460706353187561035e+00,1.460596919059753418e+00,1.460487246513366699e+00,1.460377693176269531e+00,1.460268139839172363e+00,1.460158705711364746e+00,1.460049152374267578e+00,1.459939599037170410e+00,1.459830284118652344e+00,1.459720849990844727e+00,1.459611296653747559e+00,1.459501862525939941e+00,1.459392547607421875e+00,1.459283113479614258e+00,1.459173679351806641e+00,1.459064483642578125e+00,1.458955049514770508e+00,1.458845734596252441e+00,1.458736538887023926e+00,1.458627223968505859e+00,1.458517909049987793e+00,1.458408594131469727e+00,1.458299517631530762e+00
1.349117398262023926e+00,1.349023938179016113e+00,1.348930597305297852e+00,1.348837018013000488e+00,1.348743557929992676e+00,1.348650217056274414e+00,1.348556756973266602e+00,1.348463416099548340e+00,1.348370075225830078e+00,1.348276615142822266e+00,1.348183274269104004e+00,1.348089933395385742e+00,1.347996592521667480e+00,1.347903251647949219e+00,1.347809910774230957e+00,1.347716689109802246e+00,1.347623348236083984e+00,1.347530126571655273e+00,1.347436785697937012e+00,1.347343683242797852e+00,1.347250461578369141e+00,1.347157120704650879e+00,1.347064018249511719e+00,1.346970796585083008e+00,1.346877574920654297e+00,1.346784353256225586e+00,1.346691370010375977e+00,1.346598148345947266e+00,1.346505045890808105e+00,1.346411943435668945e+00,1.346318840980529785e+00,1.346225738525390625e+00,1.346132636070251465e+00,1.346039652824401855e+00,1.345946550369262695e+00,1.345853447914123535e+00,1.345760464668273926e+00,1.345667481422424316e+00,1.345574378967285156e+00,1.345481514930725098e+00,1.345388531684875488e+00,1.345295548439025879e+00,1.345202565193176270e+00,1.345109701156616211e+00,1.345016717910766602e+00,1.344923734664916992e+00,1.344830989837646484e+00,1.344738006591796875e+00,1.344645142555236816e+00,1.344552278518676758e+00,1.344459414482116699e+00,1.344366550445556641e+00,1.344273686408996582e+00,1.344181060791015625e+00,1.344088196754455566e+00,1.343995332717895508e+00,1.343902707099914551e+00,1.343809843063354492e+00,1.343717098236083984e+00,1.343624353408813477e+00,1.343531727790832520e+00,1.343438982963562012e+00,1.343346238136291504e+00,1.343253612518310547e+00,1.343160867691040039e+00,1.343068242073059082e+00,1.342975616455078125e+00,1.342882990837097168e+00,1.342790365219116211e+00,1.342697739601135254e+00,1.342605233192443848e+00,1.342512607574462891e+00,1.342419981956481934e+00,1.342327475547790527e+00,1.342234969139099121e+00,1.342142343521118164e+00,1.342049837112426758e+00,1.341957449913024902e+00,1.341864943504333496e+00,1.341772437095642090e+00
1.248785614967346191e+00,1.248705625534057617e+00,1.248625516891479492e+00,1.248545408248901367e+00,1.248465418815612793e+00,1.248385310173034668e+00,1.248305201530456543e+00,1.248225212097167969e+00,1.248145222663879395e+00,1.248065233230590820e+00,1.247985243797302246e+00,1.247905254364013672e+00,1.247825264930725098e+00,1.247745275497436523e+00,1.247665286064147949e+00,1.247585415840148926e+00,1.247505426406860352e+00,1.247425556182861328e+00,1.247345566749572754e+00,1.247265696525573730e+00,1.247185826301574707e+00,1.247105956077575684e+00,1.247025966644287109e+00,1.246946096420288086e+00,1.246866345405578613e+00,1.246786475181579590e+00,1.246706604957580566e+00,1.246626853942871094e+00,1.246546983718872070e+00,1.246467113494873047e+00,1.246387362480163574e+00,1.246307611465454102e+00,1.246227860450744629e+00,1.246147990226745605e+00,1.246068358421325684e+00,1.245988607406616211e+00,1.245908737182617188e+00,1.245829105377197266e+00,1.245749354362487793e+00,1.245669722557067871e+00,1.245589971542358398e+00,1.245510339736938477e+00,1.245430588722229004e+00,1.245350956916809082e+00,1.245271325111389160e+00,1.245191693305969238e+00,1.245112061500549316e+00,1.245032429695129395e+00,1.244952797889709473e+00,1.244873166084289551e+00,1.244793534278869629e+00,1.244714021682739258e+00,1.244634509086608887e+00,1.244554877281188965e+00,1.244475364685058594e+00,1.244395852088928223e+00,1.244316339492797852e+00,1.244236707687377930e+00,1.244157314300537109e+00,1.244077801704406738e+00,1.243998289108276367e+00,1.243918776512145996e+00,1.243839383125305176e+00,1.243759870529174805e+00,1.243680357933044434e+00,1.243600964546203613e+00,1.243521571159362793e+00,1.243442058563232422e+00,1.243362784385681152e+00,1.243283390998840332e+00,1.243203878402709961e+00,1.243124604225158691e+00,1.243045210838317871e+00,1.242965817451477051e+00,1.242886424064636230e+00,1.242807149887084961e+00,1.242727875709533691e+00,1.242648482322692871e+00,1.242569327354431152e+00,1.242489933967590332e+00
1.162343978881835938e+00,1.162274599075317383e+00,1.162205219268798828e+00,1.162135839462280273e+00,1.162066459655761719e+00,1.161997079849243164e+00,1.161927700042724609e+00,1.161858320236206055e+00,1.161789059638977051e+00,1.161719799041748047e+00,1.161650419235229492e+00,1.161581158638000488e+00,1.161511898040771484e+00,1.161442518234252930e+00,1.161373257637023926e+00,1.161303997039794922e+00,1.161234736442565918e+00,1.161165475845336914e+00,1.161096215248107910e+00,1.161026954650878906e+00,1.160957694053649902e+00,1.160888552665710449e+00,1.160819292068481445e+00,1.160750150680541992e+00,1.160680890083312988e+00,1.160611748695373535e+00,1.160542607307434082e+00,1.160473346710205078e+00,1.160404205322265625e+00,1.160335063934326172e+00,1.160265922546386719e+00,1.160196781158447266e+00,1.160127639770507812e+00,1.160058498382568359e+00,1.159989356994628906e+00,1.159920334815979004e+00,1.159851193428039551e+00,1.159782052040100098e+00,1.159712910652160645e+00,1.159643888473510742e+00,1.159574866294860840e+00,1.159505724906921387e+00,1.159436821937561035e+00,1.159367680549621582e+00,1.159298658370971680e+00,1.159229636192321777e+00,1.159160614013671875e+00,1.159091591835021973e+00,1.159022569656372070e+00,1.158953666687011719e+00,1.158884644508361816e+00,1.158815622329711914e+00,1.158746719360351562e+00,1.158677697181701660e+00,1.158608794212341309e+00,1.158539772033691406e+00,1.158470869064331055e+00,1.158401966094970703e+00,1.158333063125610352e+00,1.158264160156250000e+00,1.158195257186889648e+00,1.158126354217529297e+00,1.158057451248168945e+00,1.157988667488098145e+00,1.157919764518737793e+00,1.157850861549377441e+00,1.157782077789306641e+00,1.157713174819946289e+00,1.157644391059875488e+00,1.157575488090515137e+00,1.157506704330444336e+00,1.157437920570373535e+00,1.157369017601013184e+00,1.157300353050231934e+00,1.157231569290161133e+00,1.157162666320800781e+00,1.157094001770019531e+00,1.157025218009948730e+00,1.156956434249877930e+00,1.156887650489807129e+00
1.087094545364379883e+00,1.087033867835998535e+00,1.086973071098327637e+00,1.086912512779235840e+00,1.086851835250854492e+00,1.086791157722473145e+00,1.086730480194091797e+00,1.086669802665710449e+00,1.086609125137329102e+00,1.086548447608947754e+00,1.086487889289855957e+00,1.086427211761474609e+00,1.086366653442382812e+00,1.086306095123291016e+00,1.086245417594909668e+00,1.086184859275817871e+00,1.086124300956726074e+00,1.086063623428344727e+00,1.086003065109252930e+00,1.085942506790161133e+00,1.085881948471069336e+00,1.085821390151977539e+00,1.085760831832885742e+00,1.085700273513793945e+00,1.085639715194702148e+00,1.085579156875610352e+00,1.085518717765808105e+00,1.085458159446716309e+00,1.085397601127624512e+00,1.085337162017822266e+00,1.085276722908020020e+00,1.085216164588928223e+00,1.085155725479125977e+00,1.085095286369323730e+00,1.085034728050231934e+00,1.084974288940429688e+00,1.084913849830627441e+00,1.084853410720825195e+00,1.084792971611022949e+00,1.084732413291931152e+00,1.084672093391418457e+00,1.084611654281616211e+00,1.084551215171813965e+00,1.084490776062011719e+00,1.084430456161499023e+00,1.084370017051696777e+00,1.084309577941894531e+00,1.084249258041381836e+00,1.084188818931579590e+00,1.084128499031066895e+00,1.084068059921264648e+00,1.084007740020751953e+00,1.083947420120239258e+00,1.083886981010437012e+00,1.083826780319213867e+00,1.083766341209411621e+00,1.083706021308898926e+00,1.083645820617675781e+00,1.083585500717163086e+00,1.083525180816650391e+00,1.083464860916137695e+00,1.083404541015625000e+00,1.083344221115112305e+00,1.083284020423889160e+00,1.083223700523376465e+00,1.083163499832153320e+00,1.083103179931640625e+00,1.083042860031127930e+00,1.082982778549194336e+00,1.082922458648681641e+00,1.082862257957458496e+00,1.082802057266235352e+00,1.082741856575012207e+00,1.082681536674499512e+00,1.082621455192565918e+00,1.082561254501342773e+00,1.082500934600830078e+00,1.082440733909606934e+00,1.082380652427673340e+00,1.082320451736450195e+00
1.020995855331420898e+00,1.020942449569702148e+00,1.020888805389404297e+00,1.020835280418395996e+00,1.020781874656677246e+00,1.020728349685668945e+00,1.020674824714660645e+00,1.020621299743652344e+00,1.020567774772644043e+00,1.020514249801635742e+00,1.020460724830627441e+00,1.020407319068908691e+00,1.020353794097900391e+00,1.020300388336181641e+00,1.020246982574462891e+00,1.020193457603454590e+00,1.020139932632446289e+00,1.020086526870727539e+00,1.020033121109008789e+00,1.019979715347290039e+00,1.019926190376281738e+00,1.019872784614562988e+00,1.019819378852844238e+00,1.019765973091125488e+00,1.019712567329406738e+00,1.019659161567687988e+00,1.019605755805969238e+00,1.019552350044250488e+00,1.019499063491821289e+00,1.019445657730102539e+00,1.019392251968383789e+00,1.019338846206665039e+00,1.019285559654235840e+00,1.019232153892517090e+00,1.019178748130798340e+00,1.019125461578369141e+00,1.019072055816650391e+00,1.019018769264221191e+00,1.018965482711791992e+00,1.018912076950073242e+00,1.018858790397644043e+00,1.018805384635925293e+00,1.018752217292785645e+00,1.018698811531066895e+00,1.018645524978637695e+00,1.018592238426208496e+00,1.018538951873779297e+00,1.018485665321350098e+00,1.018432378768920898e+00,1.018379211425781250e+00,1.018325924873352051e+00,1.018272638320922852e+00,1.018219351768493652e+00,1.018166184425354004e+00,1.018112897872924805e+00,1.018059730529785156e+00,1.018006443977355957e+00,1.017953157424926758e+00,1.017899990081787109e+00,1.017846822738647461e+00,1.017793536186218262e+00,1.017740368843078613e+00,1.017687201499938965e+00,1.017633914947509766e+00,1.017580747604370117e+00,1.017527580261230469e+00,1.017474412918090820e+00,1.017421245574951172e+00,1.017368078231811523e+00,1.017314910888671875e+00,1.017261743545532227e+00,1.017208576202392578e+00,1.017155408859252930e+00,1.017102360725402832e+00,1.017049193382263184e+00,1.016996026039123535e+00,1.016942977905273438e+00,1.016889810562133789e+00,1.016836762428283691e+00,1.016783714294433594e+00
9.624745845794677734e-01,9.624270200729370117e-01,9.623795151710510254e-01,9.623319506645202637e-01,9.622843265533447266e-01,9.622367620468139648e-01,9.621891975402832031e-01,9.621416330337524414e-01,9.620940685272216797e-01,9.620466232299804688e-01,9.619991183280944824e-01,9.619515538215637207e-01,9.619039893150329590e-01,9.618564844131469727e-01,9.618089199066162109e-01,9.617614150047302246e-01,9.617140293121337891e-01,9.616664648056030273e-01,9.616189599037170410e-01,9.615714550018310547e-01,9.615239500999450684e-01,9.614764451980590820e-01,9.614289999008178711e-01,9.613816142082214355e-01,9.613341093063354492e-01,9.612866044044494629e-01,9.612391591072082520e-01,9.611917138099670410e-01,9.611442089080810547e-01,9.610967636108398438e-01,9.610494375228881836e-01,9.610019326210021973e-01,9.609544873237609863e-01,9.609070420265197754e-01,9.608596563339233398e-01,9.608122110366821289e-01,9.607648849487304688e-01,9.607174396514892578e-01,9.606700539588928223e-01,9.606226086616516113e-01,9.605752229690551758e-01,9.605277776718139648e-01,9.604803919792175293e-01,9.604331254959106445e-01,9.603857398033142090e-01,9.603383541107177734e-01,9.602909684181213379e-01,9.602435827255249023e-01,9.601961970329284668e-01,9.601488113403320312e-01,9.601016044616699219e-01,9.600542187690734863e-01,9.600068926811218262e-01,9.599595069885253906e-01,9.599121809005737305e-01,9.598648548126220703e-01,9.598174691200256348e-01,9.597702622413635254e-01,9.597229361534118652e-01,9.596756100654602051e-01,9.596282839775085449e-01,9.595810174942016602e-01,9.595336914062500000e-01,9.594863653182983398e-01,9.594392180442810059e-01,9.593918919563293457e-01,9.593446254730224609e-01,9.592973589897155762e-01,9.592500329017639160e-01,9.592027664184570312e-01,9.591554999351501465e-01,9.591083526611328125e-01,9.590610861778259277e-01,9.590138196945190430e-01,9.589665532112121582e-01,9.589193463325500488e-01,9.588720798492431641e-01,9.588249325752258301e-01,9.587777256965637207e-01,9.587305188179016113e-01
9.102982878684997559e-01,9.102557301521301270e-01,9.102131128311157227e-01,9.101705551147460938e-01,9.101279973983764648e-01,9.100854396820068359e-01,9.100428819656372070e-01,9.100004434585571289e-01,9.099578857421875000e-01,9.099153876304626465e-01,9.098728299140930176e-01,9.098302721977233887e-01,9.097877740859985352e-01,9.097452163696289062e-01,9.097028374671936035e-01,9.096602797508239746e-01,9.096177816390991211e-01,9.095752835273742676e-01,9.095327854156494141e-01,9.094902873039245605e-01,9.094477891921997070e-01,9.094053506851196289e-01,9.093629121780395508e-01,9.093204140663146973e-01,9.092779159545898438e-01,9.092354178428649902e-01,9.091929793357849121e-01,9.091504812240600586e-01,9.091081023216247559e-01,9.090656638145446777e-01,9.090232253074645996e-01,9.089807271957397461e-01,9.089382886886596680e-01,9.088958501815795898e-01,9.088534116744995117e-01,9.088110923767089844e-01,9.087686538696289062e-01,9.087262153625488281e-01,9.086837768554687500e-01,9.086413979530334473e-01,9.085989594459533691e-01,9.085566401481628418e-01,9.085142016410827637e-01,9.084718227386474609e-01,9.084294438362121582e-01,9.083870053291320801e-01,9.083446264266967773e-01,9.083022475242614746e-01,9.082599282264709473e-01,9.082175493240356445e-01,9.081751704216003418e-01,9.081327915191650391e-01,9.080904722213745117e-01,9.080480933189392090e-01,9.080057144165039062e-01,9.079634547233581543e-01,9.079210758209228516e-01,9.078787565231323242e-01,9.078364372253417969e-01,9.077940583229064941e-01,9.077517390251159668e-01,9.077093601226806641e-01,9.076671600341796875e-01,9.076248407363891602e-01,9.075825214385986328e-01,9.075402021408081055e-01,9.074978828430175781e-01,9.074555635452270508e-01,9.074132442474365234e-01,9.073710441589355469e-01,9.073287248611450195e-01,9.072864651679992676e-01,9.072441458702087402e-01,9.072018861770629883e-01,9.071595668792724609e-01,9.071173071861267090e-01,9.070751070976257324e-01,9.070328474044799805e-01,9.069905877113342285e-01,9.069483280181884766e-01
8.634880185127258301e-01,8.634496927261352539e-01,8.634113669395446777e-01,8.633731007575988770e-01,8.633347749710083008e-01,8.632965683937072754e-01,8.632583022117614746e-01,8.632199764251708984e-01,8.631817102432250977e-01,8.631434440612792969e-01,8.631051778793334961e-01,8.630669116973876953e-01,8.630287051200866699e-01,8.629904389381408691e-01,8.629521727561950684e-01,8.629139065742492676e-01,8.628756403923034668e-01,8.628374338150024414e-01,8.627991676330566406e-01,8.627610206604003906e-01,8.627227544784545898e-01,8.626845479011535645e-01,8.626462817192077637e-01,8.626080751419067383e-01,8.625698089599609375e-01,8.625316023826599121e-01,8.624934554100036621e-01,8.624552488327026367e-01,8.624170422554016113e-01,8.623788356781005859e-01,8.623406291007995605e-01,8.623024225234985352e-01,8.622642159461975098e-01,8.622260689735412598e-01,8.621878623962402344e-01,8.621497154235839844e-01,8.621115088462829590e-01,8.620733022689819336e-01,8.620351552963256836e-01,8.619970679283142090e-01,8.619588613510131836e-01,8.619207143783569336e-01,8.618825674057006836e-01,8.618443608283996582e-01,8.618062138557434082e-01,8.617680668830871582e-01,8.617299795150756836e-01,8.616918325424194336e-01,8.616536855697631836e-01,8.616155385971069336e-01,8.615773916244506836e-01,8.615392446517944336e-01,8.615010976791381836e-01,8.614630699157714844e-01,8.614249825477600098e-01,8.613868355751037598e-01,8.613486886024475098e-01,8.613106012344360352e-01,8.612724542617797852e-01,8.612343668937683105e-01,8.611963391304016113e-01,8.611582517623901367e-01,8.611201643943786621e-01,8.610820770263671875e-01,8.610439300537109375e-01,8.610058426856994629e-01,8.609677553176879883e-01,8.609297871589660645e-01,8.608916997909545898e-01,8.608536124229431152e-01,8.608155250549316406e-01,8.607774972915649414e-01,8.607394099235534668e-01,8.607013225555419922e-01,8.606633543968200684e-01,8.606253266334533691e-01,8.605872392654418945e-01,8.605492115020751953e-01,8.605111837387084961e-01,8.604731559753417969e-01
8.212565183639526367e-01,8.212218284606933594e-01,8.211871981620788574e-01,8.211526274681091309e-01,8.211179971694946289e-01,8.210833668708801270e-01,8.210487365722656250e-01,8.210141062736511230e-01,8.209794759750366211e-01,8.209448456764221191e-01,8.209102749824523926e-01,8.208756446838378906e-01,8.208410739898681641e-01,8.208064436912536621e-01,8.207718133926391602e-01,8.207371830940246582e-01,8.207026124000549316e-01,8.206681013107299805e-01,8.206334710121154785e-01,8.205989003181457520e-01,8.205642700195312500e-01,8.205296993255615234e-01,8.204950690269470215e-01,8.204604983329772949e-01,8.204259872436523438e-01,8.203914165496826172e-01,8.203568458557128906e-01,8.203222751617431641e-01,8.202877044677734375e-01,8.202531337738037109e-01,8.202185630798339844e-01,8.201840519905090332e-01,8.201495409011840820e-01,8.201149702072143555e-01,8.200803995132446289e-01,8.200458288192749023e-01,8.200113177299499512e-01,8.199767470359802246e-01,8.199422955513000488e-01,8.199077248573303223e-01,8.198732137680053711e-01,8.198387026786804199e-01,8.198041319847106934e-01,8.197696208953857422e-01,8.197351694107055664e-01,8.197006583213806152e-01,8.196661472320556641e-01,8.196315765380859375e-01,8.195970654487609863e-01,8.195625543594360352e-01,8.195280432701110840e-01,8.194936513900756836e-01,8.194591403007507324e-01,8.194246292114257812e-01,8.193901181221008301e-01,8.193556666374206543e-01,8.193211555480957031e-01,8.192866444587707520e-01,8.192522525787353516e-01,8.192178010940551758e-01,8.191832900047302246e-01,8.191488385200500488e-01,8.191143274307250977e-01,8.190798759460449219e-01,8.190454244613647461e-01,8.190110325813293457e-01,8.189765810966491699e-01,8.189420700073242188e-01,8.189076185226440430e-01,8.188731670379638672e-01,8.188387155532836914e-01,8.188042640686035156e-01,8.187699317932128906e-01,8.187354803085327148e-01,8.187010288238525391e-01,8.186665773391723633e-01,8.186321854591369629e-01,8.185977339744567871e-01,8.185632824897766113e-01,8.185289502143859863e-01
7.829633355140686035e-01,7.829319238662719727e-01,7.829003930091857910e-01,7.828689217567443848e-01,7.828374505043029785e-01,7.828059792518615723e-01,7.827744483947753906e-01,7.827429771423339844e-01,7.827115654945373535e-01,7.826800942420959473e-01,7.826486229896545410e-01,7.826171517372131348e-01,7.825856804847717285e-01,7.825542092323303223e-01,7.825227975845336914e-01,7.824913859367370605e-01,7.824599146842956543e-01,7.824284434318542480e-01,7.823970317840576172e-01,7.823655605316162109e-01,7.823340892791748047e-01,7.823026776313781738e-01,7.822713255882263184e-01,7.822398543357849121e-01,7.822084426879882812e-01,7.821769714355468750e-01,7.821455597877502441e-01,7.821141481399536133e-01,7.820826768875122070e-01,7.820513248443603516e-01,7.820199131965637207e-01,7.819885015487670898e-01,7.819570899009704590e-01,7.819256782531738281e-01,7.818942666053771973e-01,7.818628549575805664e-01,7.818315029144287109e-01,7.818000912666320801e-01,7.817686796188354492e-01,7.817373275756835938e-01,7.817059159278869629e-01,7.816745042800903320e-01,7.816432118415832520e-01,7.816118001937866211e-01,7.815803885459899902e-01,7.815490365028381348e-01,7.815176248550415039e-01,7.814862728118896484e-01,7.814548611640930176e-01,7.814235687255859375e-01,7.813922166824340820e-01,7.813608646392822266e-01,7.813294529914855957e-01,7.812981009483337402e-01,7.812667489051818848e-01,7.812353968620300293e-01,7.812041044235229492e-01,7.811727523803710938e-01,7.811414003372192383e-01,7.811100482940673828e-01,7.810786962509155273e-01,7.810473442077636719e-01,7.810159921646118164e-01,7.809847593307495117e-01,7.809534072875976562e-01,7.809220552444458008e-01,7.808907628059387207e-01,7.808594107627868652e-01,7.808280587196350098e-01,7.807967662811279297e-01,7.807655334472656250e-01,7.807341814041137695e-01,7.807028889656066895e-01,7.806715369224548340e-01,7.806402444839477539e-01,7.806089520454406738e-01,7.805776000022888184e-01,7.805464267730712891e-01,7.805150747299194336e-01,7.804837822914123535e-01
7.480821609497070312e-01,7.480534315109252930e-01,7.480246424674987793e-01,7.479959130287170410e-01,7.479671835899353027e-01,7.479384541511535645e-01,7.479097247123718262e-01,7.478809952735900879e-01,7.478522658348083496e-01,7.478235363960266113e-01,7.477948069572448730e-01,7.477660775184631348e-01,7.477373480796813965e-01,7.477086782455444336e-01,7.476799488067626953e-01,7.476512193679809570e-01,7.476225495338439941e-01,7.475938200950622559e-01,7.475650906562805176e-01,7.475363612174987793e-01,7.475077509880065918e-01,7.474790215492248535e-01,7.474503517150878906e-01,7.474216222763061523e-01,7.473928928375244141e-01,7.473642230033874512e-01,7.473355531692504883e-01,7.473068833351135254e-01,7.472782135009765625e-01,7.472494840621948242e-01,7.472208142280578613e-01,7.471921443939208984e-01,7.471634745597839355e-01,7.471347451210021973e-01,7.471061348915100098e-01,7.470774650573730469e-01,7.470487952232360840e-01,7.470201253890991211e-01,7.469914555549621582e-01,7.469627857208251953e-01,7.469341158866882324e-01,7.469055056571960449e-01,7.468768954277038574e-01,7.468482255935668945e-01,7.468195557594299316e-01,7.467908859252929688e-01,7.467622160911560059e-01,7.467336654663085938e-01,7.467049956321716309e-01,7.466763854026794434e-01,7.466477155685424805e-01,7.466191053390502930e-01,7.465904355049133301e-01,7.465618252754211426e-01,7.465332150459289551e-01,7.465046048164367676e-01,7.464759349822998047e-01,7.464473247528076172e-01,7.464187145233154297e-01,7.463901042938232422e-01,7.463614344596862793e-01,7.463328838348388672e-01,7.463042736053466797e-01,7.462756633758544922e-01,7.462470531463623047e-01,7.462184429168701172e-01,7.461898326873779297e-01,7.461612224578857422e-01,7.461326718330383301e-01,7.461041212081909180e-01,7.460755109786987305e-01,7.460469007492065430e-01,7.460182905197143555e-01,7.459896802902221680e-01,7.459611296653747559e-01,7.459325790405273438e-01,7.459040284156799316e-01,7.458754181861877441e-01,7.458468079566955566e-01,7.458182573318481445e-01
7.161762714385986328e-01,7.161499261856079102e-01,7.161235809326171875e-01,7.160972356796264648e-01,7.160709500312805176e-01,7.160446047782897949e-01,7.160182595252990723e-01,7.159919142723083496e-01,7.159655690193176270e-01,7.159392833709716797e-01,7.159129381179809570e-01,7.158866524696350098e-01,7.158603072166442871e-01,7.158340215682983398e-01,7.158076763153076172e-01,7.157813310623168945e-01,7.157550454139709473e-01,7.157287001609802246e-01,7.157024741172790527e-01,7.156761288642883301e-01,7.156497836112976074e-01,7.156234979629516602e-01,7.155972123146057129e-01,7.155708670616149902e-01,7.155445814132690430e-01,7.155183553695678711e-01,7.154920101165771484e-01,7.154657244682312012e-01,7.154394388198852539e-01,7.154131531715393066e-01,7.153868079185485840e-01,7.153605222702026367e-01,7.153342962265014648e-01,7.153080105781555176e-01,7.152817249298095703e-01,7.152554392814636230e-01,7.152291536331176758e-01,7.152028679847717285e-01,7.151765823364257812e-01,7.151503562927246094e-01,7.151241302490234375e-01,7.150978446006774902e-01,7.150715589523315430e-01,7.150452733039855957e-01,7.150190472602844238e-01,7.149928212165832520e-01,7.149665355682373047e-01,7.149403095245361328e-01,7.149140238761901855e-01,7.148877978324890137e-01,7.148615121841430664e-01,7.148352265357971191e-01,7.148090600967407227e-01,7.147828340530395508e-01,7.147565484046936035e-01,7.147303223609924316e-01,7.147040963172912598e-01,7.146778106689453125e-01,7.146515846252441406e-01,7.146254181861877441e-01,7.145991921424865723e-01,7.145729064941406250e-01,7.145466804504394531e-01,7.145204544067382812e-01,7.144942283630371094e-01,7.144680023193359375e-01,7.144418358802795410e-01,7.144156098365783691e-01,7.143893837928771973e-01,7.143631577491760254e-01,7.143369317054748535e-01,7.143107652664184570e-01,7.142845392227172852e-01,7.142583727836608887e-01,7.142321467399597168e-01,7.142059803009033203e-01,7.141797542572021484e-01,7.141535282135009766e-01,7.141273617744445801e-01,7.141011357307434082e-01
6.868807077407836914e-01,6.868564486503601074e-01,6.868322491645812988e-01,6.868080496788024902e-01,6.867837905883789062e-01,6.867595911026000977e-01,6.867353320121765137e-01,6.867111325263977051e-01,6.866868734359741211e-01,6.866627335548400879e-01,6.866384744644165039e-01,6.866142749786376953e-01,6.865900158882141113e-01,6.865658164024353027e-01,6.865416169166564941e-01,6.865173578262329102e-01,6.864932179450988770e-01,6.864690184593200684e-01,6.864448189735412598e-01,6.864206194877624512e-01,6.863963603973388672e-01,6.863721609115600586e-01,6.863479614257812500e-01,6.863238215446472168e-01,6.862996220588684082e-01,6.862754225730895996e-01,6.862512230873107910e-01,6.862270236015319824e-01,6.862028241157531738e-01,6.861786246299743652e-01,6.861545443534851074e-01,6.861303448677062988e-01,6.861061453819274902e-01,6.860819458961486816e-01,6.860577464103698730e-01,6.860336065292358398e-01,6.860094070434570312e-01,6.859852671623229980e-01,6.859611272811889648e-01,6.859369277954101562e-01,6.859127879142761230e-01,6.858885884284973145e-01,6.858643889427185059e-01,6.858403086662292480e-01,6.858161091804504395e-01,6.857919692993164062e-01,6.857678294181823730e-01,6.857436299324035645e-01,6.857194900512695312e-01,6.856953501701354980e-01,6.856712102890014648e-01,6.856470704078674316e-01,6.856229305267333984e-01,6.855987906455993652e-01,6.855745911598205566e-01,6.855504512786865234e-01,6.855263113975524902e-01,6.855022311210632324e-01,6.854780912399291992e-01,6.854539513587951660e-01,6.854298114776611328e-01,6.854056715965270996e-01,6.853815317153930664e-01,6.853573918342590332e-01,6.853333115577697754e-01,6.853091716766357422e-01,6.852850914001464844e-01,6.852609515190124512e-01,6.852368116378784180e-01,6.852126717567443848e-01,6.851885914802551270e-01,6.851645112037658691e-01,6.851403713226318359e-01,6.851162910461425781e-01,6.850921511650085449e-01,6.850680112838745117e-01,6.850439310073852539e-01,6.850197911262512207e-01,6.849957704544067383e-01,6.849716305732727051e-01
6.598876118659973145e-01,6.598653197288513184e-01,6.598429083824157715e-01,6.598205566406250000e-01,6.597982048988342285e-01,6.597757935523986816e-01,6.597534418106079102e-01,6.597311496734619141e-01,6.597087979316711426e-01,6.596864461898803711e-01,6.596640944480895996e-01,6.596416831016540527e-01,6.596193313598632812e-01,6.595969796180725098e-01,6.595746874809265137e-01,6.595523357391357422e-01,6.595299839973449707e-01,6.595076322555541992e-01,6.594852805137634277e-01,6.594629883766174316e-01,6.594406366348266602e-01,6.594183444976806641e-01,6.593959927558898926e-01,6.593736410140991211e-01,6.593512892723083496e-01,6.593289971351623535e-01,6.593066453933715820e-01,6.592842936515808105e-01,6.592620015144348145e-01,6.592397093772888184e-01,6.592173576354980469e-01,6.591950654983520508e-01,6.591727137565612793e-01,6.591504216194152832e-01,6.591280698776245117e-01,6.591057777404785156e-01,6.590834856033325195e-01,6.590611934661865234e-01,6.590388417243957520e-01,6.590165495872497559e-01,6.589941978454589844e-01,6.589719057083129883e-01,6.589496731758117676e-01,6.589273214340209961e-01,6.589050292968750000e-01,6.588827371597290039e-01,6.588604450225830078e-01,6.588380932807922363e-01,6.588158607482910156e-01,6.587935686111450195e-01,6.587712764739990234e-01,6.587489843368530273e-01,6.587266921997070312e-01,6.587044000625610352e-01,6.586821079254150391e-01,6.586598753929138184e-01,6.586375832557678223e-01,6.586152911186218262e-01,6.585929989814758301e-01,6.585707068443298340e-01,6.585484147071838379e-01,6.585261225700378418e-01,6.585038900375366211e-01,6.584816575050354004e-01,6.584593653678894043e-01,6.584370732307434082e-01,6.584147810935974121e-01,6.583925485610961914e-01,6.583702564239501953e-01,6.583480238914489746e-01,6.583257913589477539e-01,6.583034992218017578e-01,6.582812666893005371e-01,6.582589745521545410e-01,6.582367420196533203e-01,6.582144498825073242e-01,6.581922769546508789e-01,6.581699848175048828e-01,6.581477522850036621e-01,6.581254601478576660e-01
6.349359154701232910e-01,6.349151730537414551e-01,6.348944902420043945e-01,6.348737478256225586e-01,6.348530650138854980e-01,6.348323822021484375e-01,6.348116993904113770e-01,6.347909569740295410e-01,6.347702741622924805e-01,6.347495913505554199e-01,6.347288489341735840e-01,6.347081661224365234e-01,6.346875429153442383e-01,6.346668601036071777e-01,6.346461176872253418e-01,6.346254348754882812e-01,6.346047520637512207e-01,6.345840692520141602e-01,6.345633864402770996e-01,6.345427036285400391e-01,6.345220208168029785e-01,6.345013380050659180e-01,6.344806551933288574e-01,6.344599723815917969e-01,6.344392895698547363e-01,6.344186067581176758e-01,6.343979835510253906e-01,6.343773007392883301e-01,6.343566179275512695e-01,6.343359947204589844e-01,6.343153119087219238e-01,6.342946290969848633e-01,6.342739462852478027e-01,6.342533230781555176e-01,6.342326402664184570e-01,6.342120170593261719e-01,6.341913342475891113e-01,6.341706514358520508e-01,6.341500282287597656e-01,6.341293454170227051e-01,6.341087222099304199e-01,6.340880990028381348e-01,6.340674161911010742e-01,6.340467929840087891e-01,6.340261101722717285e-01,6.340054869651794434e-01,6.339848637580871582e-01,6.339641809463500977e-01,6.339435577392578125e-01,6.339229345321655273e-01,6.339022517204284668e-01,6.338816285133361816e-01,6.338609457015991211e-01,6.338403820991516113e-01,6.338197588920593262e-01,6.337990760803222656e-01,6.337784528732299805e-01,6.337578296661376953e-01,6.337372064590454102e-01,6.337165832519531250e-01,6.336959600448608398e-01,6.336753368377685547e-01,6.336547136306762695e-01,6.336340904235839844e-01,6.336134672164916992e-01,6.335927844047546387e-01,6.335721611976623535e-01,6.335515975952148438e-01,6.335309743881225586e-01,6.335103511810302734e-01,6.334897279739379883e-01,6.334691047668457031e-01,6.334485411643981934e-01,6.334279179573059082e-01,6.334073543548583984e-01,6.333867311477661133e-01,6.333661079406738281e-01,6.333454847335815430e-01,6.333249211311340332e-01,6.333042979240417480e-01
6.118023395538330078e-01,6.117831468582153320e-01,6.117638945579528809e-01,6.117447018623352051e-01,6.117255091667175293e-01,6.117062568664550781e-01,6.116870641708374023e-01,6.116678118705749512e-01,6.116486191749572754e-01,6.116293668746948242e-01,6.116101741790771484e-01,6.115909814834594727e-01,6.115717887878417969e-01,6.115525364875793457e-01,6.115333437919616699e-01,6.115140914916992188e-01,6.114948987960815430e-01,6.114757657051086426e-01,6.114565134048461914e-01,6.114373207092285156e-01,6.114181280136108398e-01,6.113989353179931641e-01,6.113796830177307129e-01,6.113604903221130371e-01,6.113413572311401367e-01,6.113221645355224609e-01,6.113029122352600098e-01,6.112837195396423340e-01,6.112645268440246582e-01,6.112453341484069824e-01,6.112261414527893066e-01,6.112070083618164062e-01,6.111878156661987305e-01,6.111686229705810547e-01,6.111494302749633789e-01,6.111302375793457031e-01,6.111110448837280273e-01,6.110918521881103516e-01,6.110727190971374512e-01,6.110535264015197754e-01,6.110343337059020996e-01,6.110151410102844238e-01,6.109959483146667480e-01,6.109768152236938477e-01,6.109576225280761719e-01,6.109384894371032715e-01,6.109192967414855957e-01,6.109001040458679199e-01,6.108809709548950195e-01,6.108617782592773438e-01,6.108425855636596680e-01,6.108235120773315430e-01,6.108043193817138672e-01,6.107851266860961914e-01,6.107659935951232910e-01,6.107468008995056152e-01,6.107276678085327148e-01,6.107084751129150391e-01,6.106893420219421387e-01,6.106702089309692383e-01,6.106510758399963379e-01,6.106318831443786621e-01,6.106127500534057617e-01,6.105935573577880859e-01,6.105744242668151855e-01,6.105552911758422852e-01,6.105361580848693848e-01,6.105170249938964844e-01,6.104978322982788086e-01,6.104786992073059082e-01,6.104595661163330078e-01,6.104404330253601074e-01,6.104212999343872070e-01,6.104021668434143066e-01,6.103830337524414062e-01,6.103639006614685059e-01,6.103447675704956055e-01,6.103255748748779297e-01,6.103064417839050293e-01,6.102873682975769043e-01
5.902952551841735840e-01,5.902773737907409668e-01,5.902594923973083496e-01,5.902416110038757324e-01,5.902236700057983398e-01,5.902057886123657227e-01,5.901879072189331055e-01,5.901700258255004883e-01,5.901521444320678711e-01,5.901342630386352539e-01,5.901163816452026367e-01,5.900985002517700195e-01,5.900805592536926270e-01,5.900626778602600098e-01,5.900447964668273926e-01,5.900269746780395508e-01,5.900090932846069336e-01,5.899912118911743164e-01,5.899733304977416992e-01,5.899554491043090820e-01,5.899375677108764648e-01,5.899196863174438477e-01,5.899018049240112305e-01,5.898839235305786133e-01,5.898660421371459961e-01,5.898482203483581543e-01,5.898303389549255371e-01,5.898124575614929199e-01,5.897945761680603027e-01,5.897767543792724609e-01,5.897588729858398438e-01,5.897409915924072266e-01,5.897231698036193848e-01,5.897052884101867676e-01,5.896874070167541504e-01,5.896695256233215332e-01,5.896517038345336914e-01,5.896338820457458496e-01,5.896160006523132324e-01,5.895981192588806152e-01,5.895802974700927734e-01,5.895624160766601562e-01,5.895445346832275391e-01,5.895267724990844727e-01,5.895088911056518555e-01,5.894910097122192383e-01,5.894731879234313965e-01,5.894553065299987793e-01,5.894374847412109375e-01,5.894196629524230957e-01,5.894018411636352539e-01,5.893839597702026367e-01,5.893661379814147949e-01,5.893482565879821777e-01,5.893304347991943359e-01,5.893126130104064941e-01,5.892947912216186523e-01,5.892769694328308105e-01,5.892590880393981934e-01,5.892412662506103516e-01,5.892234444618225098e-01,5.892055630683898926e-01,5.891877412796020508e-01,5.891699790954589844e-01,5.891520977020263672e-01,5.891342759132385254e-01,5.891164541244506836e-01,5.890986323356628418e-01,5.890808105468750000e-01,5.890629887580871582e-01,5.890451669692993164e-01,5.890273451805114746e-01,5.890095233917236328e-01,5.889917016029357910e-01,5.889738798141479492e-01,5.889560580253601074e-01,5.889382362365722656e-01,5.889204740524291992e-01,5.889026522636413574e-01,5.888848304748535156e-01
5.702489614486694336e-01,5.702322721481323242e-01,5.702155232429504395e-01,5.701988339424133301e-01,5.701821446418762207e-01,5.701654553413391113e-01,5.701487660408020020e-01,5.701320767402648926e-01,5.701153874397277832e-01,5.700986981391906738e-01,5.700819492340087891e-01,5.700652599334716797e-01,5.700485706329345703e-01,5.700319409370422363e-01,5.700152516365051270e-01,5.699985623359680176e-01,5.699818730354309082e-01,5.699651241302490234e-01,5.699484348297119141e-01,5.699317455291748047e-01,5.699151158332824707e-01,5.698984265327453613e-01,5.698817372322082520e-01,5.698650479316711426e-01,5.698483586311340332e-01,5.698316693305969238e-01,5.698149800300598145e-01,5.697983503341674805e-01,5.697816610336303711e-01,5.697650313377380371e-01,5.697483420372009277e-01,5.697316527366638184e-01,5.697149634361267090e-01,5.696982741355895996e-01,5.696816444396972656e-01,5.696649551391601562e-01,5.696483254432678223e-01,5.696316361427307129e-01,5.696149468421936035e-01,5.695983171463012695e-01,5.695816278457641602e-01,5.695649981498718262e-01,5.695483088493347168e-01,5.695316791534423828e-01,5.695149898529052734e-01,5.694983601570129395e-01,5.694816708564758301e-01,5.694649815559387207e-01,5.694484114646911621e-01,5.694317221641540527e-01,5.694150924682617188e-01,5.693984031677246094e-01,5.693817734718322754e-01,5.693650841712951660e-01,5.693484544754028320e-01,5.693318247795104980e-01,5.693151950836181641e-01,5.692985057830810547e-01,5.692818760871887207e-01,5.692651867866516113e-01,5.692485570907592773e-01,5.692319273948669434e-01,5.692152976989746094e-01,5.691986680030822754e-01,5.691820383071899414e-01,5.691653490066528320e-01,5.691487193107604980e-01,5.691320896148681641e-01,5.691154599189758301e-01,5.690988302230834961e-01,5.690822005271911621e-01,5.690655708312988281e-01,5.690489411354064941e-01,5.690322518348693848e-01,5.690156221389770508e-01,5.689990520477294922e-01,5.689824223518371582e-01,5.689657926559448242e-01,5.689491629600524902e-01,5.689325332641601562e-01
