5.000000000000000000e+00,5.000000000000000000e+00,5.000000000000000000e+00,5.000000000000000000e+00,5.000000000000000000e+00,5.000000000000000000e+00,5.000000000000000000e+00,5.000000000000000000e+00,5.000000000000000000e+00,5.000000000000000000e+00,5.000000000000000000e+00,5.000000000000000000e+00,5.000000000000000000e+00,5.000000000000000000e+00,5.000000000000000000e+00,5.000000000000000000e+00,5.000000000000000000e+00,5.000000000000000000e+00,5.000000000000000000e+00,5.000000000000000000e+00,5.000000000000000000e+00,5.000000000000000000e+00,5.000000000000000000e+00,5.000000000000000000e+00,5.000000000000000000e+00,5.000000000000000000e+00,5.000000000000000000e+00,5.000000000000000000e+00,5.000000000000000000e+00,5.000000000000000000e+00,5.000000000000000000e+00,5.000000000000000000e+00,5.000000000000000000e+00,5.000000000000000000e+00,5.000000000000000000e+00,5.000000000000000000e+00,5.000000000000000000e+00,5.000000000000000000e+00,5.000000000000000000e+00,5.000000000000000000e+00,5.000000000000000000e+00,4.489685058593750000e+00,4.326389789581298828e+00,4.174555778503417969e+00,4.033018112182617188e+00,3.900762796401977539e+00,3.776906728744506836e+00,3.660673379898071289e+00,3.551381111145019531e+00,3.448425054550170898e+00,3.351270437240600586e+00,3.259440660476684570e+00,3.172508716583251953e+00,3.090093374252319336e+00,3.011852025985717773e+00,2.937474727630615234e+00,2.866682529449462891e+00,2.799221992492675781e+00,2.734863281250000000e+00,2.673398017883300781e+00,2.614634513854980469e+00,2.558398723602294922e+00,2.504531145095825195e+00,2.452885150909423828e+00,2.403326272964477539e+00,2.355730295181274414e+00,2.309982776641845703e+00,2.265978336334228516e+00,2.223618984222412109e+00,2.182814359664916992e+00,2.143480300903320312e+00,2.105538606643676758e+00,2.068916797637939453e+00,2.033547401428222656e+00,1.999366641044616699e+00,1.966316342353820801e+00,1.934340715408325195e+00,1.903388261795043945e+00,1.873410940170288086e+00,1.844363331794738770e+00
5.000000000000000000e+00,5.000000000000000000e+00,5.000000000000000000e+00,5.000000000000000000e+00,5.000000000000000000e+00,5.000000000000000000e+00,5.000000000000000000e+00,5.000000000000000000e+00,5.000000000000000000e+00,5.000000000000000000e+00,5.000000000000000000e+00,5.000000000000000000e+00,5.000000000000000000e+00,5.000000000000000000e+00,5.000000000000000000e+00,5.000000000000000000e+00,5.000000000000000000e+00,5.000000000000000000e+00,5.000000000000000000e+00,5.000000000000000000e+00,5.000000000000000000e+00,5.000000000000000000e+00,5.000000000000000000e+00,5.000000000000000000e+00,5.000000000000000000e+00,5.000000000000000000e+00,5.000000000000000000e+00,5.000000000000000000e+00,5.000000000000000000e+00,5.000000000000000000e+00,5.000000000000000000e+00,5.000000000000000000e+00,5.000000000000000000e+00,5.000000000000000000e+00,5.000000000000000000e+00,5.000000000000000000e+00,5.000000000000000000e+00,5.000000000000000000e+00,5.000000000000000000e+00,5.000000000000000000e+00,4.665918827056884766e+00,4.489803791046142578e+00,4.326499462127685547e+00,4.174658298492431641e+00,4.033113002777099609e+00,3.900852203369140625e+00,3.776990413665771484e+00,3.660752058029174805e+00,3.551454782485961914e+00,3.448494911193847656e+00,3.351336479187011719e+00,3.259503126144409180e+00,3.172567844390869141e+00,3.090149402618408203e+00,3.011905193328857422e+00,2.937525272369384766e+00,2.866730451583862305e+00,2.799268007278442383e+00,2.734907150268554688e+00,2.673439979553222656e+00,2.614674568176269531e+00,2.558437108993530273e+00,2.504568099975585938e+00,2.452920436859130859e+00,2.403360128402709961e+00,2.355762958526611328e+00,2.310014009475708008e+00,2.266008377075195312e+00,2.223648071289062500e+00,2.182842254638671875e+00,2.143507242202758789e+00,2.105564594268798828e+00,2.068941831588745117e+00,2.033571720123291016e+00,1.999390244483947754e+00,1.966339111328125000e+00,1.934362530708312988e+00,1.903409600257873535e+00,1.873431682586669922e+00,1.844383120536804199e+00
5.000000000000000000e+00,5.000000000000000000e+00,5.000000000000000000e+00,5.000000000000000000e+00,5.000000000000000000e+00,5.000000000000000000e+00,5.000000000000000000e+00,5.000000000000000000e+00,5.000000000000000000e+00,5.000000000000000000e+00,5.000000000000000000e+00,5.000000000000000000e+00,5.000000000000000000e+00,5.000000000000000000e+00,5.000000000000000000e+00,5.000000000000000000e+00,5.000000000000000000e+00,5.000000000000000000e+00,5.000000000000000000e+00,5.000000000000000000e+00,5.000000000000000000e+00,5.000000000000000000e+00,5.000000000000000000e+00,5.000000000000000000e+00,5.000000000000000000e+00,5.000000000000000000e+00,5.000000000000000000e+00,5.000000000000000000e+00,5.000000000000000000e+00,5.000000000000000000e+00,5.000000000000000000e+00,5.000000000000000000e+00,5.000000000000000000e+00,5.000000000000000000e+00,5.000000000000000000e+00,5.000000000000000000e+00,5.000000000000000000e+00,5.000000000000000000e+00,5.000000000000000000e+00,4.856553077697753906e+00,4.666046619415283203e+00,4.489922046661376953e+00,4.326609134674072266e+00,4.174760341644287109e+00,4.033208847045898438e+00,3.900941610336303711e+00,3.777073860168457031e+00,3.660830736160278320e+00,3.551528930664062500e+00,3.448564767837524414e+00,3.351402282714843750e+00,3.259565114974975586e+00,3.172626972198486328e+00,3.090205669403076172e+00,3.011958360671997070e+00,2.937576055526733398e+00,2.866778612136840820e+00,2.799313783645629883e+00,2.734951019287109375e+00,2.673481702804565430e+00,2.614714622497558594e+00,2.558475494384765625e+00,2.504604816436767578e+00,2.452955961227416992e+00,2.403393983840942383e+00,2.355795383453369141e+00,2.310045242309570312e+00,2.266038417816162109e+00,2.223676919937133789e+00,2.182870149612426758e+00,2.143534183502197266e+00,2.105590820312500000e+00,2.068967103958129883e+00,2.033596038818359375e+00,1.999413609504699707e+00,1.966361761093139648e+00,1.934384703636169434e+00,1.903430819511413574e+00,1.873452186584472656e+00,1.844403266906738281e+00
5.000000000000000000e+00,5.000000000000000000e+00,5.000000000000000000e+00,5.000000000000000000e+00,5.000000000000000000e+00,5.000000000000000000e+00,5.000000000000000000e+00,5.000000000000000000e+00,5.000000000000000000e+00,5.000000000000000000e+00,5.000000000000000000e+00,5.000000000000000000e+00,5.000000000000000000e+00,5.000000000000000000e+00,5.000000000000000000e+00,5.000000000000000000e+00,5.000000000000000000e+00,5.000000000000000000e+00,5.000000000000000000e+00,5.000000000000000000e+00,5.000000000000000000e+00,5.000000000000000000e+00,5.000000000000000000e+00,5.000000000000000000e+00,5.000000000000000000e+00,5.000000000000000000e+00,5.000000000000000000e+00,5.000000000000000000e+00,5.000000000000000000e+00,5.000000000000000000e+00,5.000000000000000000e+00,5.000000000000000000e+00,5.000000000000000000e+00,5.000000000000000000e+00,5.000000000000000000e+00,5.000000000000000000e+00,5.000000000000000000e+00,5.000000000000000000e+00,5.000000000000000000e+00,4.856691360473632812e+00,4.666173934936523438e+00,4.490039825439453125e+00,4.326719284057617188e+00,4.174862861633300781e+00,4.033303737640380859e+00,3.901030778884887695e+00,3.777157545089721680e+00,3.660909414291381836e+00,3.551602840423583984e+00,3.448634147644042969e+00,3.351468324661254883e+00,3.259627580642700195e+00,3.172685623168945312e+00,3.090261697769165039e+00,3.012011528015136719e+00,2.937626600265502930e+00,2.866827011108398438e+00,2.799359560012817383e+00,2.734995126724243164e+00,2.673523664474487305e+00,2.614754676818847656e+00,2.558513879776000977e+00,2.504641532897949219e+00,2.452991247177124023e+00,2.403427839279174805e+00,2.355827808380126953e+00,2.310076713562011719e+00,2.266068458557128906e+00,2.223706007003784180e+00,2.182898283004760742e+00,2.143561124801635742e+00,2.105616807937622070e+00,2.068992137908935547e+00,2.033620119094848633e+00,1.999437212944030762e+00,1.966384291648864746e+00,1.934406518936157227e+00,1.903452157974243164e+00,1.873472690582275391e+00,1.844423055648803711e+00
5.000000000000000000e+00,5.000000000000000000e+00,5.000000000000000000e+00,5.000000000000000000e+00,5.000000000000000000e+00,5.000000000000000000e+00,5.000000000000000000e+00,5.000000000000000000e+00,5.000000000000000000e+00,5.000000000000000000e+00,5.000000000000000000e+00,5.000000000000000000e+00,5.000000000000000000e+00,5.000000000000000000e+00,5.000000000000000000e+00,5.000000000000000000e+00,5.000000000000000000e+00,5.000000000000000000e+00,5.000000000000000000e+00,5.000000000000000000e+00,5.000000000000000000e+00,5.000000000000000000e+00,5.000000000000000000e+00,5.000000000000000000e+00,5.000000000000000000e+00,5.000000000000000000e+00,5.000000000000000000e+00,5.000000000000000000e+00,5.000000000000000000e+00,5.000000000000000000e+00,5.000000000000000000e+00,5.000000000000000000e+00,5.000000000000000000e+00,5.000000000000000000e+00,5.000000000000000000e+00,5.000000000000000000e+00,5.000000000000000000e+00,5.000000000000000000e+00,5.000000000000000000e+00,4.856829643249511719e+00,4.666301727294921875e+00,4.490158557891845703e+00,4.326828956604003906e+00,4.174964904785156250e+00,4.033399581909179688e+00,3.901120185852050781e+00,3.777241230010986328e+00,3.660987854003906250e+00,3.551676988601684570e+00,3.448704004287719727e+00,3.351533889770507812e+00,3.259689807891845703e+00,3.172744750976562500e+00,3.090317726135253906e+00,3.012064695358276367e+00,2.937677145004272461e+00,2.866875171661376953e+00,2.799405574798583984e+00,2.735038757324218750e+00,2.673565626144409180e+00,2.614794731140136719e+00,2.558552503585815430e+00,2.504678249359130859e+00,2.453026294708251953e+00,2.403461694717407227e+00,2.355860471725463867e+00,2.310107946395874023e+00,2.266098737716674805e+00,2.223734855651855469e+00,2.182926177978515625e+00,2.143588066101074219e+00,2.105642557144165039e+00,2.069017410278320312e+00,2.033644437789916992e+00,1.999460577964782715e+00,1.966407060623168945e+00,1.934428334236145020e+00,1.903473377227783203e+00,1.873493432998657227e+00,1.844442963600158691e+00
5.000000000000000000e+00,5.000000000000000000e+00,5.000000000000000000e+00,5.000000000000000000e+00,5.000000000000000000e+00,5.000000000000000000e+00,5.000000000000000000e+00,5.000000000000000000e+00,5.000000000000000000e+00,5.000000000000000000e+00,5.000000000000000000e+00,5.000000000000000000e+00,5.000000000000000000e+00,5.000000000000000000e+00,5.000000000000000000e+00,5.000000000000000000e+00,5.000000000000000000e+00,5.000000000000000000e+00,5.000000000000000000e+00,5.000000000000000000e+00,5.000000000000000000e+00,5.000000000000000000e+00,5.000000000000000000e+00,5.000000000000000000e+00,5.000000000000000000e+00,5.000000000000000000e+00,5.000000000000000000e+00,5.000000000000000000e+00,5.000000000000000000e+00,5.000000000000000000e+00,5.000000000000000000e+00,5.000000000000000000e+00,5.000000000000000000e+00,5.000000000000000000e+00,5.000000000000000000e+00,5.000000000000000000e+00,5.000000000000000000e+00,5.000000000000000000e+00,5.000000000000000000e+00,4.856967926025390625e+00,4.666429519653320312e+00,4.490276336669921875e+00,4.326938629150390625e+00,4.175066947937011719e+00,4.033494949340820312e+00,3.901209115982055664e+00,3.777325153350830078e+00,3.661066532135009766e+00,3.551750659942626953e+00,3.448773860931396484e+00,3.351599931716918945e+00,3.259752273559570312e+00,3.172803878784179688e+00,3.090373516082763672e+00,3.012118101119995117e+00,2.937727689743041992e+00,2.866923332214355469e+00,2.799451589584350586e+00,2.735082626342773438e+00,2.673607587814331055e+00,2.614835023880004883e+00,2.558590650558471680e+00,2.504715204238891602e+00,2.453061580657958984e+00,2.403495550155639648e+00,2.355893135070800781e+00,2.310139179229736328e+00,2.266128778457641602e+00,2.223763942718505859e+00,2.182954072952270508e+00,2.143615007400512695e+00,2.105668783187866211e+00,2.069042205810546875e+00,2.033668756484985352e+00,1.999483942985534668e+00,1.966429710388183594e+00,1.934450507164001465e+00,1.903494477272033691e+00,1.873513936996459961e+00,1.844463109970092773e+00
3.488478422164916992e+00,5.000000000000000000e+00,5.000000000000000000e+00,5.000000000000000000e+00,5.000000000000000000e+00,5.000000000000000000e+00,5.000000000000000000e+00,5.000000000000000000e+00,5.000000000000000000e+00,5.000000000000000000e+00,5.000000000000000000e+00,5.000000000000000000e+00,5.000000000000000000e+00,5.000000000000000000e+00,5.000000000000000000e+00,5.000000000000000000e+00,5.000000000000000000e+00,5.000000000000000000e+00,5.000000000000000000e+00,5.000000000000000000e+00,5.000000000000000000e+00,5.000000000000000000e+00,5.000000000000000000e+00,5.000000000000000000e+00,5.000000000000000000e+00,5.000000000000000000e+00,5.000000000000000000e+00,5.000000000000000000e+00,5.000000000000000000e+00,5.000000000000000000e+00,5.000000000000000000e+00,5.000000000000000000e+00,5.000000000000000000e+00,5.000000000000000000e+00,5.000000000000000000e+00,5.000000000000000000e+00,5.000000000000000000e+00,5.000000000000000000e+00,5.000000000000000000e+00,4.857106208801269531e+00,4.666557312011718750e+00,4.490394592285156250e+00,4.327048301696777344e+00,4.175168991088867188e+00,4.033590316772460938e+00,3.901298522949218750e+00,3.777408361434936523e+00,3.661145210266113281e+00,3.551824808120727539e+00,3.448843717575073242e+00,3.351665735244750977e+00,3.259814262390136719e+00,3.172863006591796875e+00,3.090429544448852539e+00,3.012171030044555664e+00,2.937778472900390625e+00,2.866971492767333984e+00,2.799497604370117188e+00,2.735126495361328125e+00,2.673649311065673828e+00,2.614875078201293945e+00,2.558629035949707031e+00,2.504751920700073242e+00,2.453097105026245117e+00,2.403529405593872070e+00,2.355925559997558594e+00,2.310170412063598633e+00,2.266158819198608398e+00,2.223793029785156250e+00,2.182981967926025391e+00,2.143641948699951172e+00,2.105694770812988281e+00,2.069067478179931641e+00,2.033692836761474609e+00,1.999507546424865723e+00,1.966452240943908691e+00,1.934472322463989258e+00,1.903515934944152832e+00,1.873534440994262695e+00,1.844482898712158203e+00
3.494676351547241211e+00,5.000000000000000000e+00,5.000000000000000000e+00,5.000000000000000000e+00,5.000000000000000000e+00,5.000000000000000000e+00,5.000000000000000000e+00,5.000000000000000000e+00,5.000000000000000000e+00,5.000000000000000000e+00,5.000000000000000000e+00,5.000000000000000000e+00,5.000000000000000000e+00,5.000000000000000000e+00,5.000000000000000000e+00,5.000000000000000000e+00,5.000000000000000000e+00,5.000000000000000000e+00,5.000000000000000000e+00,5.000000000000000000e+00,5.000000000000000000e+00,5.000000000000000000e+00,5.000000000000000000e+00,5.000000000000000000e+00,5.000000000000000000e+00,5.000000000000000000e+00,5.000000000000000000e+00,5.000000000000000000e+00,5.000000000000000000e+00,5.000000000000000000e+00,5.000000000000000000e+00,5.000000000000000000e+00,5.000000000000000000e+00,5.000000000000000000e+00,5.000000000000000000e+00,5.000000000000000000e+00,5.000000000000000000e+00,5.000000000000000000e+00,5.000000000000000000e+00,4.857244968414306641e+00,4.666685104370117188e+00,4.490512847900390625e+00,4.327158451080322266e+00,4.175271511077880859e+00,4.033685684204101562e+00,3.901387929916381836e+00,3.777492284774780273e+00,3.661223888397216797e+00,3.551898717880249023e+00,3.448913097381591797e+00,3.351731777191162109e+00,3.259876728057861328e+00,3.172922134399414062e+00,3.090485572814941406e+00,3.012224435806274414e+00,2.937829017639160156e+00,2.867019653320312500e+00,2.799543380737304688e+00,2.735170602798461914e+00,2.673691272735595703e+00,2.614915132522583008e+00,2.558667421340942383e+00,2.504788637161254883e+00,2.453132390975952148e+00,2.403563261032104492e+00,2.355957984924316406e+00,2.310201883316040039e+00,2.266189098358154297e+00,2.223822116851806641e+00,2.183009862899780273e+00,2.143668889999389648e+00,2.105720758438110352e+00,2.069092512130737305e+00,2.033717155456542969e+00,1.999530911445617676e+00,1.966475129127502441e+00,1.934494376182556152e+00,1.903537034988403320e+00,1.873555064201354980e+00,1.844503045082092285e+00
3.497423171997070312e+00,5.000000000000000000e+00,5.000000000000000000e+00,5.000000000000000000e+00,5.000000000000000000e+00,5.000000000000000000e+00,5.000000000000000000e+00,5.000000000000000000e+00,5.000000000000000000e+00,5.000000000000000000e+00,5.000000000000000000e+00,5.000000000000000000e+00,5.000000000000000000e+00,5.000000000000000000e+00,5.000000000000000000e+00,5.000000000000000000e+00,5.000000000000000000e+00,5.000000000000000000e+00,5.000000000000000000e+00,5.000000000000000000e+00,5.000000000000000000e+00,5.000000000000000000e+00,5.000000000000000000e+00,5.000000000000000000e+00,5.000000000000000000e+00,5.000000000000000000e+00,5.000000000000000000e+00,5.000000000000000000e+00,5.000000000000000000e+00,5.000000000000000000e+00,5.000000000000000000e+00,5.000000000000000000e+00,5.000000000000000000e+00,5.000000000000000000e+00,5.000000000000000000e+00,5.000000000000000000e+00,5.000000000000000000e+00,5.000000000000000000e+00,5.000000000000000000e+00,4.857382774353027344e+00,4.666812419891357422e+00,4.490631103515625000e+00,4.327268123626708984e+00,4.175373554229736328e+00,4.033781051635742188e+00,3.901477098464965820e+00,3.777575969696044922e+00,3.661302089691162109e+00,3.551972866058349609e+00,3.448982954025268555e+00,3.351797819137573242e+00,3.259939193725585938e+00,3.172981023788452148e+00,3.090541839599609375e+00,3.012277603149414062e+00,2.937879562377929688e+00,2.867068052291870117e+00,2.799589395523071289e+00,2.735214471817016602e+00,2.673733234405517578e+00,2.614955186843872070e+00,2.558706045150756836e+00,2.504825592041015625e+00,2.453167438507080078e+00,2.403597354888916016e+00,2.355990648269653320e+00,2.310233116149902344e+00,2.266219139099121094e+00,2.223850965499877930e+00,2.183037996292114258e+00,2.143695831298828125e+00,2.105746746063232422e+00,2.069117784500122070e+00,2.033741474151611328e+00,1.999554395675659180e+00,1.966497659683227539e+00,1.934516310691833496e+00,1.903558492660522461e+00,1.873575568199157715e+00,1.844522833824157715e+00
3.561784029006958008e+00,5.000000000000000000e+00,5.000000000000000000e+00,5.000000000000000000e+00,5.000000000000000000e+00,5.000000000000000000e+00,5.000000000000000000e+00,5.000000000000000000e+00,5.000000000000000000e+00,5.000000000000000000e+00,5.000000000000000000e+00,5.000000000000000000e+00,5.000000000000000000e+00,5.000000000000000000e+00,5.000000000000000000e+00,5.000000000000000000e+00,5.000000000000000000e+00,5.000000000000000000e+00,5.000000000000000000e+00,5.000000000000000000e+00,5.000000000000000000e+00,5.000000000000000000e+00,5.000000000000000000e+00,5.000000000000000000e+00,5.000000000000000000e+00,5.000000000000000000e+00,5.000000000000000000e+00,5.000000000000000000e+00,5.000000000000000000e+00,5.000000000000000000e+00,5.000000000000000000e+00,5.000000000000000000e+00,5.000000000000000000e+00,5.000000000000000000e+00,5.000000000000000000e+00,5.000000000000000000e+00,5.000000000000000000e+00,5.000000000000000000e+00,5.000000000000000000e+00,4.857521533966064453e+00,4.666940689086914062e+00,4.490749359130859375e+00,4.327377796173095703e+00,4.175476074218750000e+00,4.033876419067382812e+00,3.901566028594970703e+00,3.777659654617309570e+00,3.661380767822265625e+00,3.552047014236450195e+00,3.449052810668945312e+00,3.351863384246826172e+00,3.260001420974731445e+00,3.173040151596069336e+00,3.090597629547119141e+00,3.012330770492553711e+00,2.937930107116699219e+00,2.867116212844848633e+00,2.799635410308837891e+00,2.735258102416992188e+00,2.673775196075439453e+00,2.614995241165161133e+00,2.558744192123413086e+00,2.504862308502197266e+00,2.453202724456787109e+00,2.403631210327148438e+00,2.356023311614990234e+00,2.310264348983764648e+00,2.266249179840087891e+00,2.223880052566528320e+00,2.183065891265869141e+00,2.143722772598266602e+00,2.105772733688354492e+00,2.069142818450927734e+00,2.033765792846679688e+00,1.999577760696411133e+00,1.966520547866821289e+00,1.934538125991821289e+00,1.903579592704772949e+00,1.873596310615539551e+00,1.844542741775512695e+00
3.538153648376464844e+00,3.558393239974975586e+00,3.630451440811157227e+00,5.000000000000000000e+00,5.000000000000000000e+00,5.000000000000000000e+00,5.000000000000000000e+00,5.000000000000000000e+00,5.000000000000000000e+00,5.000000000000000000e+00,5.000000000000000000e+00,5.000000000000000000e+00,5.000000000000000000e+00,5.000000000000000000e+00,5.000000000000000000e+00,5.000000000000000000e+00,5.000000000000000000e+00,5.000000000000000000e+00,5.000000000000000000e+00,5.000000000000000000e+00,5.000000000000000000e+00,5.000000000000000000e+00,5.000000000000000000e+00,5.000000000000000000e+00,5.000000000000000000e+00,5.000000000000000000e+00,5.000000000000000000e+00,5.000000000000000000e+00,5.000000000000000000e+00,5.000000000000000000e+00,5.000000000000000000e+00,5.000000000000000000e+00,5.000000000000000000e+00,5.000000000000000000e+00,5.000000000000000000e+00,5.000000000000000000e+00,5.000000000000000000e+00,5.000000000000000000e+00,5.000000000000000000e+00,4.857659816741943359e+00,4.667068004608154297e+00,4.490867614746093750e+00,4.327487945556640625e+00,4.175578117370605469e+00,4.033971786499023438e+00,3.901655435562133789e+00,3.777743577957153320e+00,3.661459445953369141e+00,3.552120685577392578e+00,3.449122667312622070e+00,3.351929426193237305e+00,3.260063648223876953e+00,3.173099279403686523e+00,3.090653657913208008e+00,3.012384176254272461e+00,2.937980890274047852e+00,2.867164373397827148e+00,2.799681425094604492e+00,2.735301971435546875e+00,2.673816919326782227e+00,2.615035533905029297e+00,2.558782577514648438e+00,2.504899263381958008e+00,2.453238248825073242e+00,2.403664827346801758e+00,2.356055736541748047e+00,2.310295581817626953e+00,2.266279220581054688e+00,2.223908901214599609e+00,2.183093786239624023e+00,2.143749713897705078e+00,2.105798721313476562e+00,2.069167852401733398e+00,2.033789873123168945e+00,1.999601125717163086e+00,1.966543078422546387e+00,1.934560179710388184e+00,1.903600811958312988e+00,1.873616814613342285e+00,1.844562888145446777e+00
3.495095729827880859e+00,3.537302970886230469e+00,3.583105087280273438e+00,3.649648904800415039e+00,3.690467834472656250e+00,5.000000000000000000e+00,5.000000000000000000e+00,5.000000000000000000e+00,5.000000000000000000e+00,5.000000000000000000e+00,5.000000000000000000e+00,5.000000000000000000e+00,5.000000000000000000e+00,5.000000000000000000e+00,5.000000000000000000e+00,5.000000000000000000e+00,5.000000000000000000e+00,5.000000000000000000e+00,5.000000000000000000e+00,5.000000000000000000e+00,5.000000000000000000e+00,5.000000000000000000e+00,5.000000000000000000e+00,5.000000000000000000e+00,5.000000000000000000e+00,5.000000000000000000e+00,5.000000000000000000e+00,5.000000000000000000e+00,5.000000000000000000e+00,5.000000000000000000e+00,5.000000000000000000e+00,5.000000000000000000e+00,5.000000000000000000e+00,5.000000000000000000e+00,5.000000000000000000e+00,5.000000000000000000e+00,5.000000000000000000e+00,5.000000000000000000e+00,5.000000000000000000e+00,4.857798099517822266e+00,4.667195796966552734e+00,4.490985870361328125e+00,4.327597618103027344e+00,4.175680637359619141e+00,4.034067630767822266e+00,3.901744842529296875e+00,3.777826786041259766e+00,3.661538362503051758e+00,3.552194595336914062e+00,3.449192285537719727e+00,3.351995229721069336e+00,3.260125875473022461e+00,3.173158168792724609e+00,3.090709686279296875e+00,3.012437105178833008e+00,2.938031673431396484e+00,2.867212533950805664e+00,2.799727201461791992e+00,2.735346078872680664e+00,2.673858880996704102e+00,2.615075588226318359e+00,2.558821201324462891e+00,2.504935741424560547e+00,2.453273534774780273e+00,2.403698921203613281e+00,2.356088161468505859e+00,2.310327053070068359e+00,2.266309499740600586e+00,2.223937988281250000e+00,2.183121681213378906e+00,2.143776655197143555e+00,2.105824708938598633e+00,2.069192886352539062e+00,2.033814191818237305e+00,1.999624729156494141e+00,1.966565728187561035e+00,1.934582114219665527e+00,1.903622150421142578e+00,1.873637318611145020e+00,1.844582676887512207e+00
3.484058618545532227e+00,3.516253232955932617e+00,3.574856996536254883e+00,3.669062137603759766e+00,3.694491147994995117e+00,5.000000000000000000e+00,5.000000000000000000e+00,5.000000000000000000e+00,5.000000000000000000e+00,5.000000000000000000e+00,5.000000000000000000e+00,5.000000000000000000e+00,5.000000000000000000e+00,5.000000000000000000e+00,5.000000000000000000e+00,5.000000000000000000e+00,5.000000000000000000e+00,5.000000000000000000e+00,5.000000000000000000e+00,5.000000000000000000e+00,5.000000000000000000e+00,5.000000000000000000e+00,5.000000000000000000e+00,5.000000000000000000e+00,5.000000000000000000e+00,5.000000000000000000e+00,5.000000000000000000e+00,5.000000000000000000e+00,5.000000000000000000e+00,5.000000000000000000e+00,5.000000000000000000e+00,5.000000000000000000e+00,5.000000000000000000e+00,5.000000000000000000e+00,5.000000000000000000e+00,5.000000000000000000e+00,5.000000000000000000e+00,5.000000000000000000e+00,5.000000000000000000e+00,4.857936859130859375e+00,4.667323589324951172e+00,4.491104125976562500e+00,4.327707290649414062e+00,4.175782680511474609e+00,4.034162998199462891e+00,3.901834249496459961e+00,3.777910709381103516e+00,3.661617040634155273e+00,3.552268743515014648e+00,3.449262142181396484e+00,3.352061271667480469e+00,3.260188341140747070e+00,3.173217058181762695e+00,3.090765714645385742e+00,3.012490510940551758e+00,2.938082218170166016e+00,2.867260932922363281e+00,2.799773454666137695e+00,2.735389947891235352e+00,2.673900842666625977e+00,2.615115642547607422e+00,2.558859586715698242e+00,2.504972696304321289e+00,2.453308820724487305e+00,2.403732776641845703e+00,2.356120824813842773e+00,2.310358285903930664e+00,2.266339540481567383e+00,2.223966836929321289e+00,2.183149814605712891e+00,2.143803596496582031e+00,2.105850696563720703e+00,2.069218158721923828e+00,2.033838510513305664e+00,1.999648094177246094e+00,1.966588497161865234e+00,1.934603929519653320e+00,1.903643369674682617e+00,1.873658061027526855e+00,1.844602823257446289e+00
3.473735809326171875e+00,3.522188901901245117e+00,3.580738306045532227e+00,3.659210681915283203e+00,3.699947595596313477e+00,5.000000000000000000e+00,5.000000000000000000e+00,5.000000000000000000e+00,5.000000000000000000e+00,5.000000000000000000e+00,5.000000000000000000e+00,5.000000000000000000e+00,5.000000000000000000e+00,5.000000000000000000e+00,5.000000000000000000e+00,5.000000000000000000e+00,5.000000000000000000e+00,5.000000000000000000e+00,5.000000000000000000e+00,5.000000000000000000e+00,5.000000000000000000e+00,5.000000000000000000e+00,5.000000000000000000e+00,5.000000000000000000e+00,5.000000000000000000e+00,5.000000000000000000e+00,5.000000000000000000e+00,5.000000000000000000e+00,5.000000000000000000e+00,5.000000000000000000e+00,5.000000000000000000e+00,5.000000000000000000e+00,5.000000000000000000e+00,5.000000000000000000e+00,5.000000000000000000e+00,5.000000000000000000e+00,5.000000000000000000e+00,5.000000000000000000e+00,5.000000000000000000e+00,4.858075141906738281e+00,4.667451381683349609e+00,4.491222858428955078e+00,4.327817440032958984e+00,4.175884723663330078e+00,4.034258365631103516e+00,3.901923656463623047e+00,3.777994394302368164e+00,3.661695241928100586e+00,3.552342891693115234e+00,3.449331998825073242e+00,3.352126836776733398e+00,3.260250806808471680e+00,3.173276185989379883e+00,3.090821743011474609e+00,3.012543678283691406e+00,2.938132762908935547e+00,2.867309093475341797e+00,2.799819469451904297e+00,2.735433578491210938e+00,2.673943042755126953e+00,2.615155696868896484e+00,2.558897972106933594e+00,2.505009412765502930e+00,2.453343868255615234e+00,2.403766632080078125e+00,2.356153488159179688e+00,2.310389518737792969e+00,2.266369819641113281e+00,2.223995923995971680e+00,2.183177709579467773e+00,2.143830537796020508e+00,2.105876684188842773e+00,2.069243192672729492e+00,2.033862590789794922e+00,1.999671459197998047e+00,1.966611146926879883e+00,1.934625983238220215e+00,1.903664708137512207e+00,1.873678565025329590e+00,1.844622611999511719e+00
3.474296808242797852e+00,3.517471313476562500e+00,3.592376708984375000e+00,3.658018350601196289e+00,3.695595026016235352e+00,5.000000000000000000e+00,5.000000000000000000e+00,5.000000000000000000e+00,5.000000000000000000e+00,5.000000000000000000e+00,5.000000000000000000e+00,5.000000000000000000e+00,5.000000000000000000e+00,5.000000000000000000e+00,5.000000000000000000e+00,5.000000000000000000e+00,5.000000000000000000e+00,5.000000000000000000e+00,5.000000000000000000e+00,5.000000000000000000e+00,5.000000000000000000e+00,5.000000000000000000e+00,5.000000000000000000e+00,5.000000000000000000e+00,5.000000000000000000e+00,5.000000000000000000e+00,5.000000000000000000e+00,5.000000000000000000e+00,5.000000000000000000e+00,5.000000000000000000e+00,5.000000000000000000e+00,5.000000000000000000e+00,5.000000000000000000e+00,5.000000000000000000e+00,5.000000000000000000e+00,5.000000000000000000e+00,5.000000000000000000e+00,5.000000000000000000e+00,5.000000000000000000e+00,4.858213424682617188e+00,4.667579174041748047e+00,4.491341114044189453e+00,4.327927112579345703e+00,4.175987243652343750e+00,4.034353733062744141e+00,3.902012586593627930e+00,3.778078317642211914e+00,3.661773920059204102e+00,3.552416563034057617e+00,3.449401855468750000e+00,3.352192878723144531e+00,3.260313272476196289e+00,3.173335313796997070e+00,3.090877771377563477e+00,3.012597084045410156e+00,2.938183307647705078e+00,2.867357015609741211e+00,2.799865484237670898e+00,2.735477447509765625e+00,2.673985004425048828e+00,2.615195751190185547e+00,2.558936119079589844e+00,2.505046367645263672e+00,2.453379392623901367e+00,2.403800487518310547e+00,2.356185913085937500e+00,2.310420989990234375e+00,2.266399860382080078e+00,2.224025011062622070e+00,2.183205604553222656e+00,2.143857479095458984e+00,2.105902671813964844e+00,2.069268226623535156e+00,2.033886909484863281e+00,1.999695062637329102e+00,1.966633915901184082e+00,1.934647917747497559e+00,1.903685927391052246e+00,1.873699307441711426e+00,1.844642519950866699e+00
3.474714756011962891e+00,3.512598514556884766e+00,3.615174770355224609e+00,3.674927234649658203e+00,3.696645736694335938e+00,5.000000000000000000e+00,5.000000000000000000e+00,5.000000000000000000e+00,5.000000000000000000e+00,5.000000000000000000e+00,5.000000000000000000e+00,5.000000000000000000e+00,5.000000000000000000e+00,5.000000000000000000e+00,5.000000000000000000e+00,5.000000000000000000e+00,5.000000000000000000e+00,5.000000000000000000e+00,5.000000000000000000e+00,5.000000000000000000e+00,5.000000000000000000e+00,5.000000000000000000e+00,5.000000000000000000e+00,5.000000000000000000e+00,5.000000000000000000e+00,5.000000000000000000e+00,5.000000000000000000e+00,5.000000000000000000e+00,5.000000000000000000e+00,5.000000000000000000e+00,5.000000000000000000e+00,5.000000000000000000e+00,5.000000000000000000e+00,5.000000000000000000e+00,5.000000000000000000e+00,5.000000000000000000e+00,5.000000000000000000e+00,5.000000000000000000e+00,5.000000000000000000e+00,4.858351707458496094e+00,4.667706966400146484e+00,4.491459369659423828e+00,4.328036785125732422e+00,4.176089286804199219e+00,4.034449100494384766e+00,3.902101993560791016e+00,3.778161764144897461e+00,3.661852836608886719e+00,3.552490711212158203e+00,3.449471712112426758e+00,3.352258920669555664e+00,3.260375261306762695e+00,3.173394441604614258e+00,3.090933799743652344e+00,3.012650012969970703e+00,2.938234090805053711e+00,2.867405414581298828e+00,2.799911499023437500e+00,2.735521554946899414e+00,2.674026727676391602e+00,2.615236043930053711e+00,2.558974742889404297e+00,2.505083084106445312e+00,2.453414678573608398e+00,2.403834342956542969e+00,2.356218576431274414e+00,2.310452222824096680e+00,2.266429901123046875e+00,2.224054098129272461e+00,2.183233499526977539e+00,2.143884420394897461e+00,2.105928897857666016e+00,2.069293498992919922e+00,2.033911228179931641e+00,1.999718427658081055e+00,1.966656565666198730e+00,1.934669971466064453e+00,1.903707027435302734e+00,1.873719811439514160e+00,1.844662666320800781e+00
3.470354557037353516e+00,3.518283843994140625e+00,3.580348491668701172e+00,3.682414293289184570e+00,3.695143938064575195e+00,5.000000000000000000e+00,5.000000000000000000e+00,5.000000000000000000e+00,5.000000000000000000e+00,5.000000000000000000e+00,5.000000000000000000e+00,5.000000000000000000e+00,5.000000000000000000e+00,5.000000000000000000e+00,5.000000000000000000e+00,5.000000000000000000e+00,5.000000000000000000e+00,5.000000000000000000e+00,5.000000000000000000e+00,5.000000000000000000e+00,5.000000000000000000e+00,5.000000000000000000e+00,5.000000000000000000e+00,5.000000000000000000e+00,5.000000000000000000e+00,5.000000000000000000e+00,5.000000000000000000e+00,5.000000000000000000e+00,5.000000000000000000e+00,5.000000000000000000e+00,5.000000000000000000e+00,5.000000000000000000e+00,5.000000000000000000e+00,5.000000000000000000e+00,5.000000000000000000e+00,5.000000000000000000e+00,5.000000000000000000e+00,5.000000000000000000e+00,5.000000000000000000e+00,4.858490467071533203e+00,4.667834281921386719e+00,4.491577625274658203e+00,4.328146934509277344e+00,4.176191806793212891e+00,4.034544467926025391e+00,3.902191400527954102e+00,3.778245449066162109e+00,3.661931514739990234e+00,3.552564859390258789e+00,3.449541091918945312e+00,3.352324724197387695e+00,3.260437726974487305e+00,3.173453330993652344e+00,3.090989828109741211e+00,3.012703418731689453e+00,2.938284635543823242e+00,2.867453575134277344e+00,2.799957275390625000e+00,2.735565423965454102e+00,2.674068689346313477e+00,2.615275859832763672e+00,2.559013128280639648e+00,2.505119800567626953e+00,2.453449964523315430e+00,2.403868198394775391e+00,2.356251001358032227e+00,2.310483455657958984e+00,2.266460180282592773e+00,2.224082946777343750e+00,2.183261632919311523e+00,2.143911361694335938e+00,2.105954885482788086e+00,2.069318532943725586e+00,2.033935546875000000e+00,1.999742031097412109e+00,1.966679096221923828e+00,1.934691786766052246e+00,1.903728485107421875e+00,1.873740315437316895e+00,1.844682455062866211e+00
3.476388216018676758e+00,3.515819787979125977e+00,3.575500726699829102e+00,5.000000000000000000e+00,3.672889232635498047e+00,5.000000000000000000e+00,5.000000000000000000e+00,5.000000000000000000e+00,5.000000000000000000e+00,5.000000000000000000e+00,5.000000000000000000e+00,5.000000000000000000e+00,5.000000000000000000e+00,5.000000000000000000e+00,5.000000000000000000e+00,5.000000000000000000e+00,5.000000000000000000e+00,5.000000000000000000e+00,5.000000000000000000e+00,5.000000000000000000e+00,5.000000000000000000e+00,5.000000000000000000e+00,5.000000000000000000e+00,5.000000000000000000e+00,5.000000000000000000e+00,5.000000000000000000e+00,5.000000000000000000e+00,5.000000000000000000e+00,5.000000000000000000e+00,5.000000000000000000e+00,5.000000000000000000e+00,5.000000000000000000e+00,5.000000000000000000e+00,5.000000000000000000e+00,5.000000000000000000e+00,5.000000000000000000e+00,5.000000000000000000e+00,5.000000000000000000e+00,5.000000000000000000e+00,4.858628749847412109e+00,4.667962551116943359e+00,4.491695880889892578e+00,4.328256607055664062e+00,4.176293849945068359e+00,4.034640312194824219e+00,3.902280807495117188e+00,3.778329372406005859e+00,3.662009716033935547e+00,3.552638769149780273e+00,3.449610948562622070e+00,3.352390527725219727e+00,3.260499954223632812e+00,3.173512458801269531e+00,3.091045856475830078e+00,3.012756586074829102e+00,2.938335180282592773e+00,2.867501974105834961e+00,2.800003290176391602e+00,2.735609054565429688e+00,2.674110651016235352e+00,2.615316152572631836e+00,2.559051513671875000e+00,2.505156755447387695e+00,2.453485250473022461e+00,2.403902292251586914e+00,2.356283664703369141e+00,2.310514688491821289e+00,2.266490221023559570e+00,2.224112033843994141e+00,2.183289527893066406e+00,2.143938302993774414e+00,2.105980634689331055e+00,2.069343805313110352e+00,2.033959627151489258e+00,1.999765396118164062e+00,1.966701984405517578e+00,1.934713721275329590e+00,1.903749585151672363e+00,1.873761057853698730e+00,1.844702363014221191e+00
3.505914688110351562e+00,3.523570060729980469e+00,3.562706708908081055e+00,5.000000000000000000e+00,3.659089565277099609e+00,3.703272819519042969e+00,5.000000000000000000e+00,5.000000000000000000e+00,5.000000000000000000e+00,5.000000000000000000e+00,5.000000000000000000e+00,5.000000000000000000e+00,5.000000000000000000e+00,5.000000000000000000e+00,5.000000000000000000e+00,5.000000000000000000e+00,5.000000000000000000e+00,5.000000000000000000e+00,5.000000000000000000e+00,5.000000000000000000e+00,5.000000000000000000e+00,5.000000000000000000e+00,5.000000000000000000e+00,5.000000000000000000e+00,5.000000000000000000e+00,5.000000000000000000e+00,5.000000000000000000e+00,5.000000000000000000e+00,5.000000000000000000e+00,5.000000000000000000e+00,5.000000000000000000e+00,5.000000000000000000e+00,5.000000000000000000e+00,5.000000000000000000e+00,5.000000000000000000e+00,5.000000000000000000e+00,5.000000000000000000e+00,5.000000000000000000e+00,5.000000000000000000e+00,4.858767032623291016e+00,4.668090343475341797e+00,4.491814136505126953e+00,4.328366756439208984e+00,4.176396369934082031e+00,4.034735679626464844e+00,3.902369737625122070e+00,3.778413057327270508e+00,3.662088632583618164e+00,3.552712917327880859e+00,3.449680805206298828e+00,3.352456569671630859e+00,3.260562419891357422e+00,3.173571586608886719e+00,3.091101646423339844e+00,3.012809991836547852e+00,2.938385725021362305e+00,2.867550134658813477e+00,2.800049304962158203e+00,2.735653162002563477e+00,2.674152612686157227e+00,2.615356206893920898e+00,2.559089899063110352e+00,2.505193471908569336e+00,2.453520536422729492e+00,2.403936147689819336e+00,2.356316328048706055e+00,2.310546159744262695e+00,2.266520500183105469e+00,2.224141120910644531e+00,2.183317422866821289e+00,2.143965482711791992e+00,2.106006860733032227e+00,2.069368839263916016e+00,2.033983945846557617e+00,1.999788761138916016e+00,1.966724514961242676e+00,1.934735774993896484e+00,1.903770804405212402e+00,1.873781561851501465e+00,1.844722390174865723e+00
3.499153375625610352e+00,3.503832340240478516e+00,3.543852806091308594e+00,5.000000000000000000e+00,5.000000000000000000e+00,3.683963537216186523e+00,5.000000000000000000e+00,5.000000000000000000e+00,5.000000000000000000e+00,5.000000000000000000e+00,5.000000000000000000e+00,5.000000000000000000e+00,5.000000000000000000e+00,5.000000000000000000e+00,5.000000000000000000e+00,5.000000000000000000e+00,5.000000000000000000e+00,5.000000000000000000e+00,5.000000000000000000e+00,5.000000000000000000e+00,5.000000000000000000e+00,5.000000000000000000e+00,5.000000000000000000e+00,5.000000000000000000e+00,5.000000000000000000e+00,5.000000000000000000e+00,5.000000000000000000e+00,5.000000000000000000e+00,5.000000000000000000e+00,5.000000000000000000e+00,5.000000000000000000e+00,5.000000000000000000e+00,5.000000000000000000e+00,5.000000000000000000e+00,5.000000000000000000e+00,5.000000000000000000e+00,5.000000000000000000e+00,5.000000000000000000e+00,5.000000000000000000e+00,4.858905315399169922e+00,4.668218135833740234e+00,4.491932392120361328e+00,4.328476428985595703e+00,4.176498413085937500e+00,4.034831047058105469e+00,3.902459144592285156e+00,3.778496980667114258e+00,3.662167310714721680e+00,3.552786588668823242e+00,3.449750661849975586e+00,3.352522373199462891e+00,3.260624647140502930e+00,3.173630714416503906e+00,3.091157913208007812e+00,3.012863159179687500e+00,2.938436508178710938e+00,2.867598295211791992e+00,2.800095319747924805e+00,2.735697031021118164e+00,2.674194335937500000e+00,2.615396499633789062e+00,2.559128284454345703e+00,2.505230426788330078e+00,2.453555822372436523e+00,2.403970003128051758e+00,2.356348752975463867e+00,2.310577392578125000e+00,2.266550302505493164e+00,2.224169969558715820e+00,2.183345317840576172e+00,2.143992424011230469e+00,2.106032848358154297e+00,2.069393873214721680e+00,2.034008264541625977e+00,1.999812364578247070e+00,1.966747164726257324e+00,1.934757590293884277e+00,1.903792142868041992e+00,1.873802185058593750e+00,1.844742298126220703e+00
3.497095108032226562e+00,3.499613046646118164e+00,3.540626525878906250e+00,5.000000000000000000e+00,3.612762451171875000e+00,3.639469861984252930e+00,5.000000000000000000e+00,5.000000000000000000e+00,5.000000000000000000e+00,5.000000000000000000e+00,5.000000000000000000e+00,5.000000000000000000e+00,5.000000000000000000e+00,5.000000000000000000e+00,5.000000000000000000e+00,5.000000000000000000e+00,5.000000000000000000e+00,5.000000000000000000e+00,5.000000000000000000e+00,5.000000000000000000e+00,5.000000000000000000e+00,5.000000000000000000e+00,5.000000000000000000e+00,5.000000000000000000e+00,5.000000000000000000e+00,5.000000000000000000e+00,5.000000000000000000e+00,5.000000000000000000e+00,5.000000000000000000e+00,5.000000000000000000e+00,5.000000000000000000e+00,5.000000000000000000e+00,5.000000000000000000e+00,5.000000000000000000e+00,5.000000000000000000e+00,5.000000000000000000e+00,5.000000000000000000e+00,5.000000000000000000e+00,5.000000000000000000e+00,4.859044075012207031e+00,4.668345928192138672e+00,4.492050647735595703e+00,4.328586101531982422e+00,4.176600933074951172e+00,4.034926414489746094e+00,3.902548551559448242e+00,3.778580427169799805e+00,3.662245988845825195e+00,3.552860736846923828e+00,3.449820280075073242e+00,3.352588415145874023e+00,3.260686874389648438e+00,3.173689842224121094e+00,3.091213941574096680e+00,3.012916088104248047e+00,2.938487291336059570e+00,2.867646455764770508e+00,2.800141096115112305e+00,2.735740900039672852e+00,2.674236297607421875e+00,2.615436553955078125e+00,2.559166669845581055e+00,2.505267143249511719e+00,2.453591108322143555e+00,2.404003858566284180e+00,2.356381177902221680e+00,2.310608863830566406e+00,2.266580581665039062e+00,2.224199056625366211e+00,2.183373451232910156e+00,2.144019126892089844e+00,2.106058835983276367e+00,2.069418907165527344e+00,2.034032344818115234e+00,1.999835729598999023e+00,1.966769933700561523e+00,1.934779763221740723e+00,1.903813362121582031e+00,1.873822689056396484e+00,1.844762444496154785e+00
3.495398998260498047e+00,3.499537706375122070e+00,3.541047334671020508e+00,5.000000000000000000e+00,5.000000000000000000e+00,3.613142251968383789e+00,5.000000000000000000e+00,5.000000000000000000e+00,5.000000000000000000e+00,5.000000000000000000e+00,5.000000000000000000e+00,5.000000000000000000e+00,5.000000000000000000e+00,5.000000000000000000e+00,5.000000000000000000e+00,5.000000000000000000e+00,5.000000000000000000e+00,5.000000000000000000e+00,5.000000000000000000e+00,5.000000000000000000e+00,5.000000000000000000e+00,5.000000000000000000e+00,5.000000000000000000e+00,5.000000000000000000e+00,5.000000000000000000e+00,5.000000000000000000e+00,5.000000000000000000e+00,5.000000000000000000e+00,5.000000000000000000e+00,5.000000000000000000e+00,5.000000000000000000e+00,5.000000000000000000e+00,5.000000000000000000e+00,5.000000000000000000e+00,5.000000000000000000e+00,5.000000000000000000e+00,5.000000000000000000e+00,5.000000000000000000e+00,5.000000000000000000e+00,4.859182357788085938e+00,4.668473720550537109e+00,4.492169380187988281e+00,4.328696250915527344e+00,4.176702976226806641e+00,4.035021781921386719e+00,3.902637958526611328e+00,3.778664112091064453e+00,3.662324428558349609e+00,3.552934885025024414e+00,3.449890136718750000e+00,3.352654457092285156e+00,3.260749340057373047e+00,3.173748731613159180e+00,3.091269969940185547e+00,3.012969493865966797e+00,2.938537597656250000e+00,2.867694854736328125e+00,2.800187110900878906e+00,2.735784769058227539e+00,2.674278259277343750e+00,2.615476608276367188e+00,2.559205055236816406e+00,2.505303859710693359e+00,2.453626394271850586e+00,2.404037714004516602e+00,2.356413841247558594e+00,2.310640096664428711e+00,2.266610622406005859e+00,2.224227905273437500e+00,2.183401346206665039e+00,2.144046306610107422e+00,2.106084823608398438e+00,2.069444179534912109e+00,2.034056663513183594e+00,1.999859333038330078e+00,1.966792583465576172e+00,1.934801578521728516e+00,1.903834700584411621e+00,1.873843312263488770e+00,1.844782233238220215e+00
3.491302728652954102e+00,3.497209787368774414e+00,3.541407585144042969e+00,5.000000000000000000e+00,5.000000000000000000e+00,5.000000000000000000e+00,5.000000000000000000e+00,5.000000000000000000e+00,5.000000000000000000e+00,5.000000000000000000e+00,5.000000000000000000e+00,5.000000000000000000e+00,5.000000000000000000e+00,5.000000000000000000e+00,5.000000000000000000e+00,5.000000000000000000e+00,5.000000000000000000e+00,5.000000000000000000e+00,5.000000000000000000e+00,5.000000000000000000e+00,5.000000000000000000e+00,5.000000000000000000e+00,5.000000000000000000e+00,5.000000000000000000e+00,5.000000000000000000e+00,5.000000000000000000e+00,5.000000000000000000e+00,5.000000000000000000e+00,5.000000000000000000e+00,5.000000000000000000e+00,5.000000000000000000e+00,5.000000000000000000e+00,5.000000000000000000e+00,5.000000000000000000e+00,5.000000000000000000e+00,5.000000000000000000e+00,5.000000000000000000e+00,5.000000000000000000e+00,5.000000000000000000e+00,4.859321117401123047e+00,4.668601512908935547e+00,4.492287635803222656e+00,4.328805923461914062e+00,4.176805496215820312e+00,4.035117626190185547e+00,3.902726888656616211e+00,3.778748035430908203e+00,3.662403106689453125e+00,3.553009033203125000e+00,3.449959993362426758e+00,3.352720022201538086e+00,3.260811805725097656e+00,3.173807859420776367e+00,3.091325759887695312e+00,3.013022899627685547e+00,2.938588380813598633e+00,2.867743015289306641e+00,2.800233125686645508e+00,2.735828638076782227e+00,2.674320459365844727e+00,2.615516662597656250e+00,2.559243440628051758e+00,2.505340814590454102e+00,2.453661680221557617e+00,2.404071807861328125e+00,2.356446504592895508e+00,2.310671329498291016e+00,2.266640901565551758e+00,2.224256992340087891e+00,2.183429241180419922e+00,2.144073247909545898e+00,2.106110811233520508e+00,2.069469213485717773e+00,2.034080982208251953e+00,1.999882698059082031e+00,1.966815352439880371e+00,1.934823513031005859e+00,1.903855919837951660e+00,1.873863935470581055e+00,1.844802141189575195e+00
3.488310337066650391e+00,3.495123147964477539e+00,3.538972139358520508e+00,5.000000000000000000e+00,5.000000000000000000e+00,5.000000000000000000e+00,5.000000000000000000e+00,5.000000000000000000e+00,5.000000000000000000e+00,5.000000000000000000e+00,5.000000000000000000e+00,5.000000000000000000e+00,5.000000000000000000e+00,5.000000000000000000e+00,5.000000000000000000e+00,5.000000000000000000e+00,5.000000000000000000e+00,5.000000000000000000e+00,5.000000000000000000e+00,5.000000000000000000e+00,5.000000000000000000e+00,5.000000000000000000e+00,5.000000000000000000e+00,5.000000000000000000e+00,5.000000000000000000e+00,5.000000000000000000e+00,5.000000000000000000e+00,5.000000000000000000e+00,5.000000000000000000e+00,5.000000000000000000e+00,5.000000000000000000e+00,5.000000000000000000e+00,5.000000000000000000e+00,5.000000000000000000e+00,5.000000000000000000e+00,5.000000000000000000e+00,5.000000000000000000e+00,5.000000000000000000e+00,5.000000000000000000e+00,4.859459400177001953e+00,4.668729305267333984e+00,4.492405891418457031e+00,4.328916072845458984e+00,4.176907539367675781e+00,4.035212993621826172e+00,3.902816295623779297e+00,3.778831720352172852e+00,3.662481784820556641e+00,3.553082704544067383e+00,3.450029850006103516e+00,3.352786064147949219e+00,3.260874032974243164e+00,3.173866987228393555e+00,3.091382026672363281e+00,3.013076066970825195e+00,2.938639163970947266e+00,2.867791175842285156e+00,2.800279140472412109e+00,2.735872507095336914e+00,2.674362182617187500e+00,2.615556955337524414e+00,2.559281826019287109e+00,2.505377531051635742e+00,2.453696966171264648e+00,2.404105424880981445e+00,2.356479167938232422e+00,2.310702562332153320e+00,2.266670942306518555e+00,2.224286079406738281e+00,2.183457136154174805e+00,2.144100189208984375e+00,2.106136798858642578e+00,2.069494247436523438e+00,2.034105300903320312e+00,1.999906063079833984e+00,1.966838002204895020e+00,1.934845566749572754e+00,1.903877139091491699e+00,1.873884439468383789e+00,1.844822287559509277e+00
3.487697362899780273e+00,3.492556810379028320e+00,5.000000000000000000e+00,5.000000000000000000e+00,5.000000000000000000e+00,5.000000000000000000e+00,5.000000000000000000e+00,5.000000000000000000e+00,5.000000000000000000e+00,5.000000000000000000e+00,5.000000000000000000e+00,5.000000000000000000e+00,5.000000000000000000e+00,5.000000000000000000e+00,5.000000000000000000e+00,5.000000000000000000e+00,5.000000000000000000e+00,5.000000000000000000e+00,5.000000000000000000e+00,5.000000000000000000e+00,5.000000000000000000e+00,5.000000000000000000e+00,5.000000000000000000e+00,5.000000000000000000e+00,5.000000000000000000e+00,5.000000000000000000e+00,5.000000000000000000e+00,5.000000000000000000e+00,5.000000000000000000e+00,5.000000000000000000e+00,5.000000000000000000e+00,5.000000000000000000e+00,5.000000000000000000e+00,5.000000000000000000e+00,5.000000000000000000e+00,5.000000000000000000e+00,5.000000000000000000e+00,5.000000000000000000e+00,5.000000000000000000e+00,4.859597682952880859e+00,4.668857097625732422e+00,4.492524147033691406e+00,4.329025745391845703e+00,4.177010059356689453e+00,4.035308361053466797e+00,3.902905702590942383e+00,3.778915166854858398e+00,3.662560701370239258e+00,3.553156852722167969e+00,3.450099706649780273e+00,3.352852106094360352e+00,3.260936498641967773e+00,3.173926115036010742e+00,3.091438055038452148e+00,3.013129234313964844e+00,2.938689708709716797e+00,2.867839336395263672e+00,2.800325155258178711e+00,2.735916376113891602e+00,2.674404144287109375e+00,2.615597009658813477e+00,2.559320211410522461e+00,2.505414247512817383e+00,2.453732490539550781e+00,2.404139518737792969e+00,2.356511592864990234e+00,2.310734033584594727e+00,2.266700983047485352e+00,2.224315166473388672e+00,2.183485269546508789e+00,2.144127130508422852e+00,2.106162786483764648e+00,2.069519519805908203e+00,2.034129619598388672e+00,1.999929666519165039e+00,1.966860532760620117e+00,1.934867382049560547e+00,1.903898477554321289e+00,1.873904943466186523e+00,1.844842076301574707e+00
3.511269092559814453e+00,3.511964321136474609e+00,5.000000000000000000e+00,5.000000000000000000e+00,5.000000000000000000e+00,5.000000000000000000e+00,5.000000000000000000e+00,5.000000000000000000e+00,5.000000000000000000e+00,5.000000000000000000e+00,5.000000000000000000e+00,5.000000000000000000e+00,5.000000000000000000e+00,5.000000000000000000e+00,5.000000000000000000e+00,5.000000000000000000e+00,5.000000000000000000e+00,5.000000000000000000e+00,5.000000000000000000e+00,5.000000000000000000e+00,5.000000000000000000e+00,5.000000000000000000e+00,5.000000000000000000e+00,5.000000000000000000e+00,5.000000000000000000e+00,5.000000000000000000e+00,5.000000000000000000e+00,5.000000000000000000e+00,5.000000000000000000e+00,5.000000000000000000e+00,5.000000000000000000e+00,5.000000000000000000e+00,5.000000000000000000e+00,5.000000000000000000e+00,5.000000000000000000e+00,5.000000000000000000e+00,5.000000000000000000e+00,5.000000000000000000e+00,5.000000000000000000e+00,4.859735488891601562e+00,4.668984889984130859e+00,4.492642402648925781e+00,4.329135894775390625e+00,4.177112579345703125e+00,4.035403728485107422e+00,3.902995109558105469e+00,3.778999090194702148e+00,3.662639379501342773e+00,3.553231000900268555e+00,3.450169324874877930e+00,3.352918148040771484e+00,3.260998725891113281e+00,3.173985004425048828e+00,3.091494083404541016e+00,3.013182401657104492e+00,2.938740491867065430e+00,2.867887735366821289e+00,2.800370931625366211e+00,2.735960483551025391e+00,2.674446105957031250e+00,2.615637063980102539e+00,2.559358835220336914e+00,2.505451202392578125e+00,2.453767776489257812e+00,2.404173374176025391e+00,2.356544017791748047e+00,2.310765266418457031e+00,2.266731262207031250e+00,2.224344015121459961e+00,2.183513164520263672e+00,2.144154071807861328e+00,2.106189012527465820e+00,2.069544553756713867e+00,2.034153699874877930e+00,1.999953031539916992e+00,1.966883420944213867e+00,1.934889316558837891e+00,1.903919577598571777e+00,1.873925685882568359e+00,1.844862222671508789e+00
3.542544364929199219e+00,3.548209190368652344e+00,5.000000000000000000e+00,5.000000000000000000e+00,5.000000000000000000e+00,5.000000000000000000e+00,5.000000000000000000e+00,5.000000000000000000e+00,5.000000000000000000e+00,5.000000000000000000e+00,5.000000000000000000e+00,5.000000000000000000e+00,5.000000000000000000e+00,5.000000000000000000e+00,5.000000000000000000e+00,5.000000000000000000e+00,5.000000000000000000e+00,5.000000000000000000e+00,5.000000000000000000e+00,5.000000000000000000e+00,5.000000000000000000e+00,5.000000000000000000e+00,5.000000000000000000e+00,5.000000000000000000e+00,5.000000000000000000e+00,5.000000000000000000e+00,5.000000000000000000e+00,5.000000000000000000e+00,5.000000000000000000e+00,5.000000000000000000e+00,5.000000000000000000e+00,5.000000000000000000e+00,5.000000000000000000e+00,5.000000000000000000e+00,5.000000000000000000e+00,5.000000000000000000e+00,5.000000000000000000e+00,5.000000000000000000e+00,5.000000000000000000e+00,4.859874248504638672e+00,4.669111728668212891e+00,4.492761135101318359e+00,4.329245567321777344e+00,4.177214622497558594e+00,4.035499572753906250e+00,3.903084754943847656e+00,3.779083013534545898e+00,3.662717819213867188e+00,3.553305149078369141e+00,3.450239181518554688e+00,3.352983713150024414e+00,3.261061191558837891e+00,3.174044132232666016e+00,3.091550350189208984e+00,3.013235807418823242e+00,2.938790798187255859e+00,2.867935895919799805e+00,2.800417184829711914e+00,2.736004114151000977e+00,2.674488067626953125e+00,2.615677118301391602e+00,2.559397220611572266e+00,2.505487918853759766e+00,2.453802824020385742e+00,2.404207229614257812e+00,2.356576681137084961e+00,2.310796499252319336e+00,2.266761302947998047e+00,2.224373102188110352e+00,2.183541059494018555e+00,2.144181013107299805e+00,2.106214761734008789e+00,2.069569826126098633e+00,2.034178018569946289e+00,1.999976396560668945e+00,1.966905951499938965e+00,1.934911370277404785e+00,1.903941035270690918e+00,1.873946189880371094e+00,1.844882130622863770e+00
3.556967735290527344e+00,3.580934762954711914e+00,5.000000000000000000e+00,5.000000000000000000e+00,5.000000000000000000e+00,5.000000000000000000e+00,5.000000000000000000e+00,5.000000000000000000e+00,5.000000000000000000e+00,5.000000000000000000e+00,5.000000000000000000e+00,5.000000000000000000e+00,5.000000000000000000e+00,5.000000000000000000e+00,5.000000000000000000e+00,5.000000000000000000e+00,5.000000000000000000e+00,5.000000000000000000e+00,5.000000000000000000e+00,5.000000000000000000e+00,5.000000000000000000e+00,5.000000000000000000e+00,5.000000000000000000e+00,5.000000000000000000e+00,5.000000000000000000e+00,5.000000000000000000e+00,5.000000000000000000e+00,5.000000000000000000e+00,5.000000000000000000e+00,5.000000000000000000e+00,5.000000000000000000e+00,5.000000000000000000e+00,5.000000000000000000e+00,5.000000000000000000e+00,5.000000000000000000e+00,5.000000000000000000e+00,5.000000000000000000e+00,5.000000000000000000e+00,5.000000000000000000e+00,4.860013484954833984e+00,4.669239997863769531e+00,4.492879390716552734e+00,4.329355716705322266e+00,4.177317142486572266e+00,4.035594940185546875e+00,3.903173685073852539e+00,3.779166698455810547e+00,3.662796497344970703e+00,3.553378820419311523e+00,3.450309038162231445e+00,3.353049755096435547e+00,3.261123657226562500e+00,3.174103260040283203e+00,3.091606140136718750e+00,3.013288974761962891e+00,2.938841581344604492e+00,2.867984056472778320e+00,2.800463199615478516e+00,2.736048221588134766e+00,2.674530029296875000e+00,2.615717411041259766e+00,2.559435606002807617e+00,2.505524873733520508e+00,2.453838348388671875e+00,2.404241085052490234e+00,2.356609344482421875e+00,2.310827970504760742e+00,2.266791582107543945e+00,2.224402189254760742e+00,2.183568954467773438e+00,2.144207954406738281e+00,2.106240987777709961e+00,2.069594860076904297e+00,2.034202337265014648e+00,2.000000000000000000e+00,1.966928839683532715e+00,1.934933304786682129e+00,1.903962254524230957e+00,1.873966932296752930e+00,1.844901919364929199e+00
3.570822238922119141e+00,3.610185146331787109e+00,5.000000000000000000e+00,5.000000000000000000e+00,5.000000000000000000e+00,5.000000000000000000e+00,5.000000000000000000e+00,5.000000000000000000e+00,5.000000000000000000e+00,5.000000000000000000e+00,5.000000000000000000e+00,5.000000000000000000e+00,5.000000000000000000e+00,5.000000000000000000e+00,5.000000000000000000e+00,5.000000000000000000e+00,5.000000000000000000e+00,5.000000000000000000e+00,5.000000000000000000e+00,5.000000000000000000e+00,5.000000000000000000e+00,5.000000000000000000e+00,5.000000000000000000e+00,5.000000000000000000e+00,5.000000000000000000e+00,5.000000000000000000e+00,5.000000000000000000e+00,5.000000000000000000e+00,5.000000000000000000e+00,5.000000000000000000e+00,5.000000000000000000e+00,5.000000000000000000e+00,5.000000000000000000e+00,5.000000000000000000e+00,5.000000000000000000e+00,5.000000000000000000e+00,5.000000000000000000e+00,5.000000000000000000e+00,5.000000000000000000e+00,4.860152721405029297e+00,4.669368267059326172e+00,4.492997169494628906e+00,4.329465389251708984e+00,4.177419185638427734e+00,4.035690307617187500e+00,3.903263092041015625e+00,3.779250144958496094e+00,3.662875175476074219e+00,3.553452968597412109e+00,3.450378894805908203e+00,3.353115797042846680e+00,3.261185884475708008e+00,3.174162387847900391e+00,3.091662168502807617e+00,3.013342142105102539e+00,2.938892364501953125e+00,2.868032217025756836e+00,2.800509214401245117e+00,2.736092090606689453e+00,2.674571990966796875e+00,2.615757465362548828e+00,2.559473991394042969e+00,2.505561590194702148e+00,2.453873634338378906e+00,2.404274940490722656e+00,2.356642007827758789e+00,2.310859203338623047e+00,2.266821622848510742e+00,2.224431276321411133e+00,2.183597087860107422e+00,2.144234895706176758e+00,2.106266975402832031e+00,2.069619894027709961e+00,2.034226655960083008e+00,2.000023365020751953e+00,1.966951370239257812e+00,1.934955358505249023e+00,1.903983354568481445e+00,1.873987436294555664e+00,1.844922065734863281e+00
3.586292743682861328e+00,5.000000000000000000e+00,5.000000000000000000e+00,5.000000000000000000e+00,5.000000000000000000e+00,5.000000000000000000e+00,5.000000000000000000e+00,5.000000000000000000e+00,5.000000000000000000e+00,5.000000000000000000e+00,5.000000000000000000e+00,5.000000000000000000e+00,5.000000000000000000e+00,5.000000000000000000e+00,5.000000000000000000e+00,5.000000000000000000e+00,5.000000000000000000e+00,5.000000000000000000e+00,5.000000000000000000e+00,5.000000000000000000e+00,5.000000000000000000e+00,5.000000000000000000e+00,5.000000000000000000e+00,5.000000000000000000e+00,5.000000000000000000e+00,5.000000000000000000e+00,5.000000000000000000e+00,5.000000000000000000e+00,5.000000000000000000e+00,5.000000000000000000e+00,5.000000000000000000e+00,5.000000000000000000e+00,5.000000000000000000e+00,5.000000000000000000e+00,5.000000000000000000e+00,5.000000000000000000e+00,5.000000000000000000e+00,5.000000000000000000e+00,5.000000000000000000e+00,4.860291957855224609e+00,4.669497013092041016e+00,4.493115901947021484e+00,4.329574584960937500e+00,4.177521705627441406e+00,4.035785675048828125e+00,3.903352499008178711e+00,3.779334068298339844e+00,3.662954092025756836e+00,3.553527116775512695e+00,3.450448513031005859e+00,3.353181838989257812e+00,3.261248350143432617e+00,3.174221277236938477e+00,3.091718435287475586e+00,3.013395309448242188e+00,2.938943147659301758e+00,2.868080615997314453e+00,2.800554990768432617e+00,2.736135959625244141e+00,2.674613952636718750e+00,2.615797519683837891e+00,2.559512376785278320e+00,2.505598306655883789e+00,2.453908920288085938e+00,2.404308795928955078e+00,2.356674432754516602e+00,2.310890674591064453e+00,2.266851663589477539e+00,2.224460124969482422e+00,2.183624982833862305e+00,2.144261837005615234e+00,2.106292963027954102e+00,2.069644927978515625e+00,2.034250736236572266e+00,2.000046968460083008e+00,1.966974020004272461e+00,1.934977173805236816e+00,1.904004812240600586e+00,1.874007940292358398e+00,1.844941973686218262e+00
3.606618165969848633e+00,5.000000000000000000e+00,5.000000000000000000e+00,5.000000000000000000e+00,5.000000000000000000e+00,5.000000000000000000e+00,5.000000000000000000e+00,5.000000000000000000e+00,5.000000000000000000e+00,5.000000000000000000e+00,5.000000000000000000e+00,5.000000000000000000e+00,5.000000000000000000e+00,5.000000000000000000e+00,5.000000000000000000e+00,5.000000000000000000e+00,5.000000000000000000e+00,5.000000000000000000e+00,5.000000000000000000e+00,5.000000000000000000e+00,5.000000000000000000e+00,5.000000000000000000e+00,5.000000000000000000e+00,5.000000000000000000e+00,5.000000000000000000e+00,5.000000000000000000e+00,5.000000000000000000e+00,5.000000000000000000e+00,5.000000000000000000e+00,5.000000000000000000e+00,5.000000000000000000e+00,5.000000000000000000e+00,5.000000000000000000e+00,5.000000000000000000e+00,5.000000000000000000e+00,5.000000000000000000e+00,5.000000000000000000e+00,5.000000000000000000e+00,5.000000000000000000e+00,4.860430717468261719e+00,4.669625282287597656e+00,4.493234634399414062e+00,4.329684734344482422e+00,4.177624225616455078e+00,4.035881519317626953e+00,3.903441905975341797e+00,3.779417991638183594e+00,3.663032531738281250e+00,3.553601264953613281e+00,3.450518369674682617e+00,3.353247880935668945e+00,3.261310815811157227e+00,3.174280405044555664e+00,3.091774463653564453e+00,3.013448715209960938e+00,2.938993453979492188e+00,2.868129014968872070e+00,2.800601005554199219e+00,2.736180067062377930e+00,2.674655914306640625e+00,2.615837574005126953e+00,2.559551000595092773e+00,2.505635261535644531e+00,2.453944206237792969e+00,2.404342889785766602e+00,2.356706857681274414e+00,2.310921907424926758e+00,2.266881942749023438e+00,2.224489212036132812e+00,2.183652877807617188e+00,2.144288778305053711e+00,2.106318950653076172e+00,2.069670200347900391e+00,2.034275054931640625e+00,2.000070333480834961e+00,1.966996908187866211e+00,1.934999108314514160e+00,1.904025912284851074e+00,1.874028682708740234e+00,1.844961881637573242e+00
3.614653110504150391e+00,4.874394893646240234e+00,4.873184680938720703e+00,4.871974945068359375e+00,4.870765686035156250e+00,4.869557380676269531e+00,4.868349552154541016e+00,4.867142200469970703e+00,4.865935325622558594e+00,4.864729404449462891e+00,4.863523483276367188e+00,4.862318992614746094e+00,4.861114501953125000e+00,4.859910964965820312e+00,4.858707904815673828e+00,4.857505321502685547e+00,4.856303691864013672e+00,4.855102062225341797e+00,4.853901386260986328e+00,4.852701187133789062e+00,4.851501941680908203e+00,4.850302696228027344e+00,4.849104404449462891e+00,4.847906589508056641e+00,4.846709251403808594e+00,4.845512866973876953e+00,4.844316959381103516e+00,4.843121528625488281e+00,4.841926574707031250e+00,4.840732574462890625e+00,4.839539051055908203e+00,4.838345527648925781e+00,4.837153434753417969e+00,4.835961341857910156e+00,4.834769725799560547e+00,4.833579540252685547e+00,4.832389354705810547e+00,4.831199645996093750e+00,4.830010890960693359e+00,4.828822612762451172e+00,4.669754028320312500e+00,4.493353843688964844e+00,4.329795360565185547e+00,4.177725791931152344e+00,4.035976886749267578e+00,3.903531074523925781e+00,3.779501676559448242e+00,3.663111209869384766e+00,3.553675413131713867e+00,3.450588226318359375e+00,3.353313446044921875e+00,3.261373281478881836e+00,3.174339532852172852e+00,3.091830253601074219e+00,3.013502120971679688e+00,2.939044237136840820e+00,2.868177175521850586e+00,2.800647020339965820e+00,2.736223697662353516e+00,2.674697875976562500e+00,2.615877866744995117e+00,2.559589147567749023e+00,2.505672216415405273e+00,2.453979492187500000e+00,2.404376745223999023e+00,2.356739521026611328e+00,2.310953140258789062e+00,2.266911983489990234e+00,2.224518299102783203e+00,2.183680772781372070e+00,2.144315958023071289e+00,2.106344938278198242e+00,2.069695234298706055e+00,2.034299373626708984e+00,2.000093698501586914e+00,1.967019438743591309e+00,1.935021162033081055e+00,1.904047131538391113e+00,1.874049186706542969e+00,1.844981908798217773e+00
3.536122083663940430e+00,3.777692556381225586e+00,3.776965379714965820e+00,3.776238441467285156e+00,3.775512218475341797e+00,3.774785995483398438e+00,3.774060010910034180e+00,3.773334741592407227e+00,3.772609233856201172e+00,3.771884441375732422e+00,3.771159648895263672e+00,3.770434856414794922e+00,3.769711017608642578e+00,3.768986940383911133e+00,3.768263101577758789e+00,3.767539978027343750e+00,3.766816854476928711e+00,3.766093969345092773e+00,3.765371561050415039e+00,3.764649152755737305e+00,3.763926982879638672e+00,3.763205766677856445e+00,3.762484073638916016e+00,3.761762857437133789e+00,3.761042356491088867e+00,3.760321617126464844e+00,3.759601354598999023e+00,3.758881330490112305e+00,3.758161306381225586e+00,3.757442235946655273e+00,3.756722688674926758e+00,3.756003618240356445e+00,3.755285263061523438e+00,3.754566669464111328e+00,3.753848552703857422e+00,3.753130912780761719e+00,3.752413272857666016e+00,3.751695871353149414e+00,3.750978946685791016e+00,3.750262022018432617e+00,3.749545574188232422e+00,3.748829603195190430e+00,3.748113632202148438e+00,3.747398138046264648e+00,3.746682643890380859e+00,3.745967388153076172e+00,3.745252847671508789e+00,3.663189888000488281e+00,3.553749084472656250e+00,3.450658321380615234e+00,3.353379487991333008e+00,3.261435270309448242e+00,3.174398660659790039e+00,3.091886520385742188e+00,3.013555288314819336e+00,2.939095020294189453e+00,2.868225336074829102e+00,2.800693035125732422e+00,2.736267566680908203e+00,2.674739599227905273e+00,2.615917921066284180e+00,2.559627532958984375e+00,2.505708932876586914e+00,2.454014778137207031e+00,2.404410600662231445e+00,2.356772184371948242e+00,2.310984611511230469e+00,2.266942024230957031e+00,2.224547147750854492e+00,2.183708906173706055e+00,2.144342899322509766e+00,2.106370925903320312e+00,2.069720268249511719e+00,2.034323692321777344e+00,2.000117301940917969e+00,1.967042088508605957e+00,1.935043096542358398e+00,1.904068470001220703e+00,1.874069929122924805e+00,1.845001816749572754e+00
3.084333896636962891e+00,3.083849191665649414e+00,3.083364725112915039e+00,3.082880496978759766e+00,3.082396268844604492e+00,3.081912517547607422e+00,3.081428527832031250e+00,3.080944538116455078e+00,3.080461263656616211e+00,3.079977750778198242e+00,3.079494476318359375e+00,3.079011440277099609e+00,3.078528404235839844e+00,3.078045368194580078e+00,3.077563047409057617e+00,3.077080488204956055e+00,3.076597929000854492e+00,3.076115846633911133e+00,3.075633764266967773e+00,3.075151681900024414e+00,3.074670076370239258e+00,3.074188470840454102e+00,3.073706865310668945e+00,3.073225736618041992e+00,3.072744607925415039e+00,3.072263717651367188e+00,3.071782827377319336e+00,3.071301937103271484e+00,3.070821523666381836e+00,3.070341110229492188e+00,3.069860696792602539e+00,3.069380760192871094e+00,3.068900823593139648e+00,3.068420886993408203e+00,3.067941427230834961e+00,3.067461967468261719e+00,3.066982507705688477e+00,3.066503524780273438e+00,3.066024303436279297e+00,3.065545320510864258e+00,3.065066814422607422e+00,3.064588069915771484e+00,3.064109802246093750e+00,3.063631534576416016e+00,3.063153266906738281e+00,3.062675476074218750e+00,3.062197446823120117e+00,3.061719655990600586e+00,3.061242341995239258e+00,3.060764789581298828e+00,3.060287475585937500e+00,3.059810400009155273e+00,3.059333324432373047e+00,3.058856487274169922e+00,3.013608455657958984e+00,2.939145565032958984e+00,2.868273496627807617e+00,2.800739049911499023e+00,2.736311674118041992e+00,2.674781560897827148e+00,2.615958213806152344e+00,2.559666156768798828e+00,2.505745649337768555e+00,2.454050302505493164e+00,2.404444456100463867e+00,2.356804609298706055e+00,2.311015844345092773e+00,2.266972303390502930e+00,2.224576234817504883e+00,2.183736801147460938e+00,2.144369602203369141e+00,2.106397151947021484e+00,2.069745540618896484e+00,2.034348011016845703e+00,2.000140666961669922e+00,1.967064857482910156e+00,1.935065150260925293e+00,1.904089689254760742e+00,1.874090433120727539e+00,1.845021843910217285e+00
2.605677604675292969e+00,2.605331659317016602e+00,2.604985952377319336e+00,2.604640245437622070e+00,2.604294776916503906e+00,2.603949308395385742e+00,2.603603601455688477e+00,2.603258371353149414e+00,2.602913141250610352e+00,2.602567911148071289e+00,2.602222919464111328e+00,2.601877927780151367e+00,2.601532936096191406e+00,2.601188421249389648e+00,2.600843667984008789e+00,2.600498914718627930e+00,2.600154399871826172e+00,2.599809885025024414e+00,2.599465608596801758e+00,2.599121570587158203e+00,2.598777294158935547e+00,2.598433256149291992e+00,2.598089218139648438e+00,2.597745180130004883e+00,2.597401618957519531e+00,2.597057819366455078e+00,2.596714258193969727e+00,2.596370697021484375e+00,2.596027374267578125e+00,2.595683813095092773e+00,2.595340728759765625e+00,2.594997644424438477e+00,2.594654321670532227e+00,2.594311475753784180e+00,2.593968629837036133e+00,2.593625783920288086e+00,2.593283176422119141e+00,2.592940568923950195e+00,2.592597961425781250e+00,2.592255592346191406e+00,2.591913223266601562e+00,2.591571092605590820e+00,2.591228961944580078e+00,2.590886831283569336e+00,2.590544939041137695e+00,2.590202808380126953e+00,2.589861154556274414e+00,2.589519500732421875e+00,2.589177846908569336e+00,2.588836193084716797e+00,2.588495016098022461e+00,2.588153600692749023e+00,2.587812185287475586e+00,2.587471246719360352e+00,2.587130069732666016e+00,2.586789131164550781e+00,2.586448192596435547e+00,2.586107254028320312e+00,2.585766792297363281e+00,2.585426092147827148e+00,2.585085391998291016e+00,2.559704542160034180e+00,2.505782604217529297e+00,2.454085350036621094e+00,2.404478549957275391e+00,2.356837272644042969e+00,2.311047315597534180e+00,2.267002582550048828e+00,2.224605083465576172e+00,2.183764696121215820e+00,2.144396781921386719e+00,2.106422901153564453e+00,2.069770574569702148e+00,2.034372329711914062e+00,2.000164270401000977e+00,1.967087507247924805e+00,1.935086965560913086e+00,1.904111146926879883e+00,1.874110937118530273e+00,1.845041751861572266e+00
2.255635738372802734e+00,2.255376100540161133e+00,2.255116701126098633e+00,2.254857301712036133e+00,2.254597902297973633e+00,2.254338741302490234e+00,2.254079580307006836e+00,2.253820180892944336e+00,2.253561019897460938e+00,2.253302097320556641e+00,2.253042936325073242e+00,2.252784013748168945e+00,2.252525091171264648e+00,2.252266407012939453e+00,2.252007722854614258e+00,2.251749038696289062e+00,2.251490354537963867e+00,2.251231670379638672e+00,2.250973224639892578e+00,2.250714540481567383e+00,2.250456333160400391e+00,2.250198125839233398e+00,2.249939680099487305e+00,2.249681472778320312e+00,2.249423503875732422e+00,2.249165773391723633e+00,2.248908042907714844e+00,2.248650312423706055e+00,2.248392820358276367e+00,2.248135328292846680e+00,2.247877836227416992e+00,2.247620344161987305e+00,2.247363090515136719e+00,2.247105598449707031e+00,2.246848344802856445e+00,2.246591329574584961e+00,2.246334075927734375e+00,2.246077060699462891e+00,2.245820045471191406e+00,2.245563030242919922e+00,2.245306253433227539e+00,2.245049238204956055e+00,2.244792461395263672e+00,2.244535923004150391e+00,2.244279146194458008e+00,2.244022369384765625e+00,2.243766069412231445e+00,2.243509531021118164e+00,2.243252992630004883e+00,2.242996692657470703e+00,2.242740392684936523e+00,2.242484092712402344e+00,2.242228031158447266e+00,2.241971731185913086e+00,2.241715908050537109e+00,2.241459846496582031e+00,2.241203784942626953e+00,2.240947961807250977e+00,2.240692138671875000e+00,2.240436077117919922e+00,2.240180492401123047e+00,2.239924907684326172e+00,2.239669084548950195e+00,2.239413738250732422e+00,2.239158153533935547e+00,2.238902807235717773e+00,2.238647460937500000e+00,2.238392114639282227e+00,2.224634170532226562e+00,2.183792591094970703e+00,2.144423723220825195e+00,2.106449127197265625e+00,2.069795846939086914e+00,2.034396409988403320e+00,2.000187635421752930e+00,1.967110276222229004e+00,1.935108900070190430e+00,1.904132246971130371e+00,1.874131679534912109e+00,1.845061659812927246e+00
1.988518476486206055e+00,1.988316774368286133e+00,1.988115310668945312e+00,1.987913608551025391e+00,1.987712025642395020e+00,1.987510442733764648e+00,1.987308979034423828e+00,1.987107396125793457e+00,1.986906051635742188e+00,1.986704587936401367e+00,1.986503243446350098e+00,1.986301898956298828e+00,1.986100673675537109e+00,1.985899448394775391e+00,1.985698223114013672e+00,1.985497117042541504e+00,1.985296010971069336e+00,1.985095143318176270e+00,1.984894156455993652e+00,1.984693169593811035e+00,1.984492182731628418e+00,1.984291195869445801e+00,1.984090328216552734e+00,1.983889579772949219e+00,1.983688712120056152e+00,1.983487963676452637e+00,1.983287334442138672e+00,1.983086585998535156e+00,1.982885956764221191e+00,1.982685446739196777e+00,1.982484817504882812e+00,1.982284307479858398e+00,1.982084155082702637e+00,1.981883645057678223e+00,1.981683373451232910e+00,1.981482982635498047e+00,1.981282711029052734e+00,1.981082439422607422e+00,1.980882167816162109e+00,1.980682015419006348e+00,1.980481863021850586e+00,1.980281710624694824e+00,1.980081677436828613e+00,1.979881644248962402e+00,1.979681730270385742e+00,1.979481697082519531e+00,1.979281783103942871e+00,1.979082226753234863e+00,1.978882431983947754e+00,1.978682637214660645e+00,1.978482842445373535e+00,1.978283166885375977e+00,1.978083491325378418e+00,1.977883815765380859e+00,1.977684259414672852e+00,1.977484703063964844e+00,1.977285265922546387e+00,1.977085828781127930e+00,1.976886391639709473e+00,1.976686954498291016e+00,1.976487636566162109e+00,1.976288557052612305e+00,1.976089358329772949e+00,1.975890159606933594e+00,1.975690960884094238e+00,1.975491762161254883e+00,1.975292682647705078e+00,1.975093603134155273e+00,1.974894642829895020e+00,1.974695682525634766e+00,1.974496722221374512e+00,1.974297881126403809e+00,1.974098920822143555e+00,1.973900198936462402e+00,1.973701357841491699e+00,1.967132925987243652e+00,1.935130953788757324e+00,1.904153466224670410e+00,1.874152183532714844e+00,1.845081686973571777e+00
1.777967929840087891e+00,1.777806639671325684e+00,1.777645349502563477e+00,1.777484178543090820e+00,1.777323007583618164e+00,1.777161836624145508e+00,1.777000665664672852e+00,1.776839613914489746e+00,1.776678562164306641e+00,1.776517510414123535e+00,1.776356458663940430e+00,1.776195526123046875e+00,1.776034593582153320e+00,1.775873780250549316e+00,1.775712966918945312e+00,1.775552034378051758e+00,1.775391221046447754e+00,1.775230407714843750e+00,1.775069594383239746e+00,1.774908900260925293e+00,1.774748206138610840e+00,1.774587512016296387e+00,1.774426817893981934e+00,1.774266242980957031e+00,1.774105548858642578e+00,1.773944973945617676e+00,1.773784518241882324e+00,1.773623943328857422e+00,1.773463606834411621e+00,1.773303151130676270e+00,1.773142814636230469e+00,1.772982358932495117e+00,1.772822022438049316e+00,1.772661685943603516e+00,1.772501349449157715e+00,1.772341012954711914e+00,1.772180795669555664e+00,1.772020578384399414e+00,1.771860361099243164e+00,1.771700143814086914e+00,1.771540045738220215e+00,1.771379947662353516e+00,1.771219849586486816e+00,1.771059989929199219e+00,1.770900011062622070e+00,1.770740032196044922e+00,1.770580053329467773e+00,1.770420074462890625e+00,1.770260214805603027e+00,1.770100235939025879e+00,1.769940376281738281e+00,1.769780635833740234e+00,1.769620776176452637e+00,1.769461035728454590e+00,1.769301295280456543e+00,1.769141554832458496e+00,1.768981933593750000e+00,1.768822312355041504e+00,1.768662810325622559e+00,1.768503308296203613e+00,1.768343687057495117e+00,1.768184185028076172e+00,1.768024682998657227e+00,1.767865180969238281e+00,1.767705678939819336e+00,1.767546296119689941e+00,1.767386913299560547e+00,1.767227530479431152e+00,1.767068266868591309e+00,1.766908884048461914e+00,1.766749620437622070e+00,1.766590356826782227e+00,1.766431212425231934e+00,1.766272187232971191e+00,1.766113042831420898e+00,1.765953898429870605e+00,1.765794873237609863e+00,1.765635728836059570e+00,1.765476703643798828e+00,1.765317678451538086e+00
1.607735633850097656e+00,1.607603788375854492e+00,1.607471942901611328e+00,1.607340097427368164e+00,1.607208251953125000e+00,1.607076525688171387e+00,1.606944680213928223e+00,1.606812953948974609e+00,1.606681227684020996e+00,1.606549739837646484e+00,1.606418013572692871e+00,1.606286406517028809e+00,1.606154799461364746e+00,1.606023073196411133e+00,1.605891585350036621e+00,1.605759978294372559e+00,1.605628371238708496e+00,1.605496883392333984e+00,1.605365395545959473e+00,1.605233907699584961e+00,1.605102419853210449e+00,1.604971051216125488e+00,1.604839563369750977e+00,1.604708194732666016e+00,1.604576945304870605e+00,1.604445576667785645e+00,1.604314327239990234e+00,1.604182958602905273e+00,1.604051709175109863e+00,1.603920459747314453e+00,1.603789210319519043e+00,1.603657960891723633e+00,1.603526711463928223e+00,1.603395581245422363e+00,1.603264451026916504e+00,1.603133320808410645e+00,1.603002190589904785e+00,1.602871060371398926e+00,1.602740049362182617e+00,1.602609157562255859e+00,1.602478027343750000e+00,1.602347016334533691e+00,1.602216124534606934e+00,1.602085113525390625e+00,1.601954221725463867e+00,1.601823210716247559e+00,1.601692318916320801e+00,1.601561427116394043e+00,1.601430654525756836e+00,1.601299762725830078e+00,1.601168990135192871e+00,1.601038098335266113e+00,1.600907325744628906e+00,1.600776672363281250e+00,1.600646018981933594e+00,1.600515365600585938e+00,1.600384712219238281e+00,1.600254058837890625e+00,1.600123405456542969e+00,1.599992632865905762e+00,1.599862098693847656e+00,1.599731445312500000e+00,1.599600911140441895e+00,1.599470376968383789e+00,1.599339842796325684e+00,1.599209427833557129e+00,1.599078893661499023e+00,1.598948478698730469e+00,1.598818063735961914e+00,1.598687767982482910e+00,1.598557353019714355e+00,1.598427057266235352e+00,1.598296642303466797e+00,1.598166346549987793e+00,1.598036050796508789e+00,1.597905755043029785e+00,1.597775459289550781e+00,1.597645282745361328e+00,1.597514986991882324e+00,1.597384810447692871e+00
1.467252850532531738e+00,1.467143058776855469e+00,1.467033267021179199e+00,1.466923356056213379e+00,1.466813683509826660e+00,1.466704010963439941e+00,1.466594219207763672e+00,1.466484546661376953e+00,1.466374754905700684e+00,1.466265082359313965e+00,1.466155409812927246e+00,1.466045737266540527e+00,1.465936064720153809e+00,1.465826392173767090e+00,1.465716838836669922e+00,1.465607166290283203e+00,1.465497612953186035e+00,1.465388059616088867e+00,1.465278506278991699e+00,1.465168952941894531e+00,1.465059399604797363e+00,1.464950084686279297e+00,1.464840531349182129e+00,1.464731097221374512e+00,1.464621663093566895e+00,1.464512228965759277e+00,1.464402794837951660e+00,1.464293360710144043e+00,1.464183926582336426e+00,1.464074611663818359e+00,1.463965296745300293e+00,1.463855862617492676e+00,1.463746547698974609e+00,1.463637232780456543e+00,1.463527917861938477e+00,1.463418841361999512e+00,1.463309526443481445e+00,1.463200330734252930e+00,1.463091135025024414e+00,1.462981939315795898e+00,1.462872743606567383e+00,1.462763547897338867e+00,1.462654352188110352e+00,1.462545275688171387e+00,1.462436079978942871e+00,1.462327003479003906e+00,1.462217926979064941e+00,1.462108850479125977e+00,1.461999773979187012e+00,1.461890697479248047e+00,1.461781740188598633e+00,1.461672782897949219e+00,1.461563825607299805e+00,1.461454749107360840e+00,1.461345791816711426e+00,1.461236834526062012e+00,1.461127996444702148e+00,1.461019039154052734e+00,1.460910081863403320e+00,1.460801243782043457e+00,1.460692405700683594e+00,1.460583567619323730e+00,1.460474729537963867e+00,1.460365891456604004e+00,1.460257053375244141e+00,1.460148453712463379e+00,1.460039615631103516e+00,1.459930896759033203e+00,1.459822177886962891e+00,1.459713459014892578e+00,1.459604740142822266e+00,1.459496021270751953e+00,1.459387302398681641e+00,1.459278702735900879e+00,1.459170103073120117e+00,1.459061384201049805e+00,1.458952784538269043e+00,1.458844184875488281e+00,1.458735704421997070e+00,1.458627104759216309e+00
1.349347829818725586e+00,1.349254965782165527e+00,1.349162101745605469e+00,1.349069237709045410e+00,1.348976492881774902e+00,1.348883628845214844e+00,1.348790764808654785e+00,1.348697900772094727e+00,1.348605155944824219e+00,1.348512411117553711e+00,1.348419547080993652e+00,1.348326802253723145e+00,1.348234057426452637e+00,1.348141312599182129e+00,1.348048567771911621e+00,1.347955942153930664e+00,1.347863197326660156e+00,1.347770690917968750e+00,1.347677946090698242e+00,1.347585320472717285e+00,1.347492694854736328e+00,1.347400069236755371e+00,1.347307443618774414e+00,1.347214818000793457e+00,1.347122192382812500e+00,1.347029685974121094e+00,1.346937060356140137e+00,1.346844553947448730e+00,1.346751928329467773e+00,1.346659421920776367e+00,1.346566915512084961e+00,1.346474409103393555e+00,1.346382021903991699e+00,1.346289515495300293e+00,1.346197128295898438e+00,1.346104621887207031e+00,1.346012115478515625e+00,1.345919728279113770e+00,1.345827341079711914e+00,1.345734953880310059e+00,1.345642566680908203e+00,1.345550179481506348e+00,1.345457792282104492e+00,1.345365405082702637e+00,1.345273017883300781e+00,1.345180749893188477e+00,1.345088362693786621e+00,1.344996213912963867e+00,1.344903945922851562e+00,1.344811677932739258e+00,1.344719409942626953e+00,1.344627141952514648e+00,1.344534873962402344e+00,1.344442605972290039e+00,1.344350457191467285e+00,1.344258189201354980e+00,1.344166040420532227e+00,1.344073891639709473e+00,1.343981742858886719e+00,1.343889474868774414e+00,1.343797445297241211e+00,1.343705415725708008e+00,1.343613266944885254e+00,1.343521118164062500e+00,1.343429088592529297e+00,1.343336939811706543e+00,1.343244910240173340e+00,1.343152880668640137e+00,1.343060851097106934e+00,1.342968821525573730e+00,1.342876791954040527e+00,1.342784762382507324e+00,1.342692732810974121e+00,1.342600822448730469e+00,1.342508792877197266e+00,1.342416882514953613e+00,1.342325091361999512e+00,1.342233180999755859e+00,1.342141151428222656e+00,1.342049360275268555e+00
1.248982548713684082e+00,1.248903036117553711e+00,1.248823404312133789e+00,1.248743891716003418e+00,1.248664259910583496e+00,1.248584747314453125e+00,1.248505234718322754e+00,1.248425722122192383e+00,1.248346209526062012e+00,1.248266696929931641e+00,1.248187184333801270e+00,1.248107671737670898e+00,1.248028278350830078e+00,1.247948884963989258e+00,1.247869372367858887e+00,1.247789978981018066e+00,1.247710585594177246e+00,1.247631072998046875e+00,1.247551679611206055e+00,1.247472286224365234e+00,1.247392892837524414e+00,1.247313499450683594e+00,1.247234106063842773e+00,1.247154712677001953e+00,1.247075438499450684e+00,1.246996045112609863e+00,1.246916770935058594e+00,1.246837377548217773e+00,1.246758222579956055e+00,1.246678829193115234e+00,1.246599555015563965e+00,1.246520280838012695e+00,1.246441006660461426e+00,1.246361732482910156e+00,1.246282577514648438e+00,1.246203303337097168e+00,1.246124029159545898e+00,1.246044874191284180e+00,1.245965600013732910e+00,1.245886445045471191e+00,1.245807170867919922e+00,1.245728015899658203e+00,1.245648860931396484e+00,1.245569825172424316e+00,1.245490670204162598e+00,1.245411515235900879e+00,1.245332360267639160e+00,1.245253205299377441e+00,1.245174169540405273e+00,1.245095014572143555e+00,1.245015978813171387e+00,1.244936823844909668e+00,1.244857788085937500e+00,1.244778752326965332e+00,1.244699716567993164e+00,1.244620680809020996e+00,1.244541645050048828e+00,1.244462609291076660e+00,1.244383692741394043e+00,1.244304656982421875e+00,1.244225621223449707e+00,1.244146704673767090e+00,1.244067668914794922e+00,1.243988752365112305e+00,1.243909835815429688e+00,1.243830800056457520e+00,1.243751883506774902e+00,1.243672966957092285e+00,1.243594050407409668e+00,1.243515253067016602e+00,1.243436336517333984e+00,1.243357419967651367e+00,1.243278503417968750e+00,1.243199825286865234e+00,1.243120908737182617e+00,1.243042111396789551e+00,1.242963314056396484e+00,1.242884397506713867e+00,1.242805600166320801e+00,1.242726802825927734e+00
1.162514090538024902e+00,1.162445187568664551e+00,1.162376165390014648e+00,1.162307262420654297e+00,1.162238359451293945e+00,1.162169456481933594e+00,1.162100553512573242e+00,1.162031650543212891e+00,1.161962747573852539e+00,1.161893963813781738e+00,1.161825060844421387e+00,1.161756157875061035e+00,1.161687374114990234e+00,1.161618471145629883e+00,1.161549687385559082e+00,1.161480784416198730e+00,1.161412000656127930e+00,1.161343216896057129e+00,1.161274313926696777e+00,1.161205530166625977e+00,1.161136746406555176e+00,1.161067962646484375e+00,1.160999178886413574e+00,1.160930395126342773e+00,1.160861730575561523e+00,1.160792946815490723e+00,1.160724282264709473e+00,1.160655498504638672e+00,1.160586833953857422e+00,1.160518050193786621e+00,1.160449385643005371e+00,1.160380601882934570e+00,1.160311937332153320e+00,1.160243272781372070e+00,1.160174608230590820e+00,1.160105943679809570e+00,1.160037279129028320e+00,1.159968614578247070e+00,1.159899950027465820e+00,1.159831404685974121e+00,1.159762740135192871e+00,1.159694075584411621e+00,1.159625530242919922e+00,1.159556865692138672e+00,1.159488320350646973e+00,1.159419655799865723e+00,1.159351110458374023e+00,1.159282565116882324e+00,1.159214019775390625e+00,1.159145474433898926e+00,1.159076809883117676e+00,1.159008383750915527e+00,1.158939838409423828e+00,1.158871293067932129e+00,1.158802866935729980e+00,1.158734321594238281e+00,1.158665776252746582e+00,1.158597350120544434e+00,1.158528804779052734e+00,1.158460378646850586e+00,1.158391833305358887e+00,1.158323407173156738e+00,1.158254981040954590e+00,1.158186554908752441e+00,1.158118128776550293e+00,1.158049702644348145e+00,1.157981276512145996e+00,1.157912850379943848e+00,1.157844424247741699e+00,1.157776117324829102e+00,1.157707810401916504e+00,1.157639384269714355e+00,1.157570958137512207e+00,1.157502651214599609e+00,1.157434344291687012e+00,1.157365918159484863e+00,1.157297611236572266e+00,1.157229304313659668e+00,1.157160997390747070e+00,1.157092690467834473e+00
1.087242960929870605e+00,1.087182641029357910e+00,1.087122321128845215e+00,1.087062120437622070e+00,1.087001800537109375e+00,1.086941599845886230e+00,1.086881279945373535e+00,1.086821079254150391e+00,1.086760759353637695e+00,1.086700558662414551e+00,1.086640238761901855e+00,1.086580038070678711e+00,1.086519837379455566e+00,1.086459517478942871e+00,1.086399316787719727e+00,1.086339116096496582e+00,1.086278915405273438e+00,1.086218714714050293e+00,1.086158514022827148e+00,1.086098313331604004e+00,1.086038112640380859e+00,1.085978031158447266e+00,1.085917830467224121e+00,1.085857748985290527e+00,1.085797548294067383e+00,1.085737466812133789e+00,1.085677266120910645e+00,1.085617184638977051e+00,1.085556983947753906e+00,1.085496902465820312e+00,1.085436820983886719e+00,1.085376620292663574e+00,1.085316538810729980e+00,1.085256457328796387e+00,1.085196375846862793e+00,1.085136413574218750e+00,1.085076332092285156e+00,1.085016250610351562e+00,1.084956169128417969e+00,1.084896087646484375e+00,1.084836125373840332e+00,1.084776043891906738e+00,1.084715962409973145e+00,1.084655880928039551e+00,1.084595918655395508e+00,1.084535956382751465e+00,1.084475874900817871e+00,1.084415912628173828e+00,1.084355950355529785e+00,1.084295868873596191e+00,1.084236025810241699e+00,1.084176063537597656e+00,1.084116101264953613e+00,1.084056138992309570e+00,1.083996176719665527e+00,1.083936214447021484e+00,1.083876252174377441e+00,1.083816289901733398e+00,1.083756327629089355e+00,1.083696484565734863e+00,1.083636522293090820e+00,1.083576679229736328e+00,1.083516716957092285e+00,1.083456873893737793e+00,1.083396911621093750e+00,1.083337187767028809e+00,1.083277225494384766e+00,1.083217382431030273e+00,1.083157539367675781e+00,1.083097696304321289e+00,1.083037853240966797e+00,1.082978010177612305e+00,1.082918167114257812e+00,1.082858324050903320e+00,1.082798480987548828e+00,1.082738637924194336e+00,1.082678794860839844e+00,1.082619071006774902e+00,1.082559227943420410e+00,1.082499504089355469e+00
1.021126508712768555e+00,1.021073341369628906e+00,1.021020174026489258e+00,1.020967006683349609e+00,1.020913839340209961e+00,1.020860671997070312e+00,1.020807504653930664e+00,1.020754337310791016e+00,1.020701169967651367e+00,1.020648002624511719e+00,1.020594835281372070e+00,1.020541667938232422e+00,1.020488619804382324e+00,1.020435452461242676e+00,1.020382285118103027e+00,1.020329236984252930e+00,1.020276069641113281e+00,1.020223021507263184e+00,1.020169973373413086e+00,1.020116806030273438e+00,1.020063757896423340e+00,1.020010709762573242e+00,1.019957542419433594e+00,1.019904494285583496e+00,1.019851446151733398e+00,1.019798398017883301e+00,1.019745349884033203e+00,1.019692301750183105e+00,1.019639253616333008e+00,1.019586205482482910e+00,1.019533157348632812e+00,1.019480109214782715e+00,1.019427180290222168e+00,1.019374132156372070e+00,1.019321084022521973e+00,1.019268155097961426e+00,1.019215106964111328e+00,1.019162058830261230e+00,1.019109129905700684e+00,1.019056081771850586e+00,1.019003152847290039e+00,1.018950223922729492e+00,1.018897175788879395e+00,1.018844246864318848e+00,1.018791317939758301e+00,1.018738269805908203e+00,1.018685340881347656e+00,1.018632531166076660e+00,1.018579602241516113e+00,1.018526673316955566e+00,1.018473744392395020e+00,1.018420815467834473e+00,1.018367886543273926e+00,1.018314957618713379e+00,1.018262028694152832e+00,1.018209099769592285e+00,1.018156290054321289e+00,1.018103361129760742e+00,1.018050432205200195e+00,1.017997622489929199e+00,1.017944693565368652e+00,1.017891883850097656e+00,1.017839074134826660e+00,1.017786264419555664e+00,1.017733335494995117e+00,1.017680525779724121e+00,1.017627716064453125e+00,1.017574787139892578e+00,1.017521977424621582e+00,1.017469167709350586e+00,1.017416357994079590e+00,1.017363548278808594e+00,1.017310738563537598e+00,1.017257928848266602e+00,1.017205119132995605e+00,1.017152428627014160e+00,1.017099618911743164e+00,1.017046928405761719e+00,1.016994118690490723e+00,1.016941308975219727e+00
9.625904560089111328e-01,9.625431895256042480e-01,9.624959230422973633e-01,9.624486565589904785e-01,9.624013900756835938e-01,9.623541235923767090e-01,9.623068571090698242e-01,9.622596502304077148e-01,9.622123837471008301e-01,9.621651768684387207e-01,9.621179103851318359e-01,9.620707035064697266e-01,9.620234966278076172e-01,9.619762301445007324e-01,9.619290232658386230e-01,9.618818163871765137e-01,9.618346095085144043e-01,9.617874622344970703e-01,9.617402553558349609e-01,9.616930484771728516e-01,9.616459012031555176e-01,9.615986943244934082e-01,9.615515470504760742e-01,9.615043401718139648e-01,9.614571928977966309e-01,9.614100456237792969e-01,9.613628387451171875e-01,9.613156914710998535e-01,9.612686634063720703e-01,9.612215161323547363e-01,9.611743688583374023e-01,9.611272811889648438e-01,9.610801339149475098e-01,9.610329866409301758e-01,9.609858989715576172e-01,9.609387516975402832e-01,9.608916640281677246e-01,9.608445763587951660e-01,9.607974290847778320e-01,9.607503414154052734e-01,9.607032537460327148e-01,9.606561660766601562e-01,9.606090784072875977e-01,9.605619907379150391e-01,9.605149626731872559e-01,9.604678750038146973e-01,9.604207873344421387e-01,9.603737592697143555e-01,9.603266716003417969e-01,9.602796435356140137e-01,9.602326154708862305e-01,9.601855278015136719e-01,9.601384997367858887e-01,9.600914716720581055e-01,9.600444436073303223e-01,9.599974155426025391e-01,9.599503874778747559e-01,9.599034190177917480e-01,9.598565101623535156e-01,9.598094820976257324e-01,9.597624540328979492e-01,9.597154855728149414e-01,9.596685171127319336e-01,9.596214890480041504e-01,9.595745205879211426e-01,9.595275521278381348e-01,9.594805836677551270e-01,9.594336152076721191e-01,9.593866467475891113e-01,9.593396782875061035e-01,9.592927098274230957e-01,9.592458009719848633e-01,9.591988325119018555e-01,9.591518640518188477e-01,9.591049551963806152e-01,9.590580463409423828e-01,9.590110778808593750e-01,9.589641690254211426e-01,9.589172601699829102e-01,9.588703513145446777e-01
9.104015231132507324e-01,9.103592038154602051e-01,9.103169441223144531e-01,9.102746844291687012e-01,9.102323651313781738e-01,9.101901054382324219e-01,9.101478457450866699e-01,9.101055860519409180e-01,9.100633263587951660e-01,9.100211858749389648e-01,9.099789261817932129e-01,9.099366664886474609e-01,9.098944664001464844e-01,9.098522067070007324e-01,9.098099470138549805e-01,9.097677469253540039e-01,9.097254872322082520e-01,9.096832871437072754e-01,9.096410870552062988e-01,9.095988273620605469e-01,9.095566272735595703e-01,9.095144271850585938e-01,9.094722270965576172e-01,9.094300270080566406e-01,9.093878269195556641e-01,9.093456268310546875e-01,9.093034267425537109e-01,9.092612862586975098e-01,9.092190861701965332e-01,9.091768860816955566e-01,9.091347455978393555e-01,9.090925455093383789e-01,9.090504050254821777e-01,9.090082645416259766e-01,9.089660644531250000e-01,9.089239239692687988e-01,9.088817834854125977e-01,9.088396430015563965e-01,9.087975025177001953e-01,9.087554812431335449e-01,9.087133407592773438e-01,9.086712002754211426e-01,9.086290597915649414e-01,9.085869193077087402e-01,9.085448384284973145e-01,9.085026979446411133e-01,9.084606170654296875e-01,9.084184765815734863e-01,9.083763957023620605e-01,9.083343148231506348e-01,9.082921743392944336e-01,9.082500934600830078e-01,9.082080125808715820e-01,9.081659317016601562e-01,9.081238508224487305e-01,9.080817699432373047e-01,9.080397486686706543e-01,9.079976677894592285e-01,9.079555869102478027e-01,9.079135656356811523e-01,9.078714847564697266e-01,9.078294038772583008e-01,9.077873826026916504e-01,9.077453613281250000e-01,9.077032804489135742e-01,9.076612591743469238e-01,9.076192378997802734e-01,9.075772166252136230e-01,9.075351953506469727e-01,9.074932336807250977e-01,9.074512124061584473e-01,9.074092507362365723e-01,9.073672294616699219e-01,9.073252081871032715e-01,9.072831869125366211e-01,9.072412252426147461e-01,9.071992039680480957e-01,9.071572422981262207e-01,9.071152210235595703e-01,9.070732593536376953e-01
