5.000000000000000000e+00,5.000000000000000000e+00,5.000000000000000000e+00,5.000000000000000000e+00,5.000000000000000000e+00,5.000000000000000000e+00,5.000000000000000000e+00,5.000000000000000000e+00,5.000000000000000000e+00,5.000000000000000000e+00,5.000000000000000000e+00,5.000000000000000000e+00,5.000000000000000000e+00,5.000000000000000000e+00,5.000000000000000000e+00,5.000000000000000000e+00,5.000000000000000000e+00,5.000000000000000000e+00,5.000000000000000000e+00,5.000000000000000000e+00,5.000000000000000000e+00,5.000000000000000000e+00,5.000000000000000000e+00,5.000000000000000000e+00,5.000000000000000000e+00,5.000000000000000000e+00,5.000000000000000000e+00,5.000000000000000000e+00,5.000000000000000000e+00,5.000000000000000000e+00,5.000000000000000000e+00,5.000000000000000000e+00,5.000000000000000000e+00,5.000000000000000000e+00,5.000000000000000000e+00,5.000000000000000000e+00,5.000000000000000000e+00,5.000000000000000000e+00,5.000000000000000000e+00,4.862130641937255859e+00,4.671164512634277344e+00,4.494632720947265625e+00,4.330957889556884766e+00,4.178784370422363281e+00,4.036941528320312500e+00,3.904412269592285156e+00,3.780307769775390625e+00,3.663849830627441406e+00,3.554352998733520508e+00,3.451210737228393555e+00,3.353885889053344727e+00,3.261899471282958984e+00,3.174824237823486328e+00,3.092277050018310547e+00,3.013913631439208984e+00,2.939424037933349609e+00,2.868527173995971680e+00,2.800969839096069336e+00,2.736521720886230469e+00,2.674972534179687500e+00,2.616131067276000977e+00,2.559822559356689453e+00,2.505887031555175781e+00,2.454177141189575195e+00,2.404558420181274414e+00,2.356906414031982422e+00,2.311106204986572266e+00,2.267051935195922852e+00,2.224646091461181641e+00,2.183797597885131836e+00,2.144422054290771484e+00,2.106441259384155273e+00,2.069782257080078125e+00,2.034377574920654297e+00,2.000163793563842773e+00,1.967082023620605469e+00,1.935076355934143066e+00,1.904095649719238281e+00,1.874091386795043945e+00,1.845017910003662109e+00
5.000000000000000000e+00,5.000000000000000000e+00,5.000000000000000000e+00,5.000000000000000000e+00,5.000000000000000000e+00,5.000000000000000000e+00,5.000000000000000000e+00,5.000000000000000000e+00,5.000000000000000000e+00,5.000000000000000000e+00,5.000000000000000000e+00,5.000000000000000000e+00,5.000000000000000000e+00,5.000000000000000000e+00,5.000000000000000000e+00,5.000000000000000000e+00,5.000000000000000000e+00,5.000000000000000000e+00,5.000000000000000000e+00,5.000000000000000000e+00,5.000000000000000000e+00,5.000000000000000000e+00,5.000000000000000000e+00,5.000000000000000000e+00,5.000000000000000000e+00,5.000000000000000000e+00,5.000000000000000000e+00,5.000000000000000000e+00,5.000000000000000000e+00,5.000000000000000000e+00,5.000000000000000000e+00,5.000000000000000000e+00,5.000000000000000000e+00,5.000000000000000000e+00,5.000000000000000000e+00,5.000000000000000000e+00,5.000000000000000000e+00,5.000000000000000000e+00,5.000000000000000000e+00,4.862269401550292969e+00,4.671292781829833984e+00,4.494751453399658203e+00,4.331068038940429688e+00,4.178886890411376953e+00,4.037037372589111328e+00,3.904502153396606445e+00,3.780392169952392578e+00,3.663928747177124023e+00,3.554427146911621094e+00,3.451280832290649414e+00,3.353951930999755859e+00,3.261962175369262695e+00,3.174883365631103516e+00,3.092333316802978516e+00,3.013967037200927734e+00,2.939474582672119141e+00,2.868575572967529297e+00,2.801016330718994141e+00,2.736565589904785156e+00,2.675014495849609375e+00,2.616171360015869141e+00,2.559861183166503906e+00,2.505923748016357422e+00,2.454212427139282227e+00,2.404592275619506836e+00,2.356939077377319336e+00,2.311137676239013672e+00,2.267082452774047852e+00,2.224675178527832031e+00,2.183825492858886719e+00,2.144448995590209961e+00,2.106467247009277344e+00,2.069807529449462891e+00,2.034402132034301758e+00,2.000187397003173828e+00,1.967104673385620117e+00,1.935098528861999512e+00,1.904116988182067871e+00,1.874112129211425781e+00,1.845037937164306641e+00
5.000000000000000000e+00,5.000000000000000000e+00,5.000000000000000000e+00,5.000000000000000000e+00,5.000000000000000000e+00,5.000000000000000000e+00,5.000000000000000000e+00,5.000000000000000000e+00,5.000000000000000000e+00,5.000000000000000000e+00,5.000000000000000000e+00,5.000000000000000000e+00,5.000000000000000000e+00,5.000000000000000000e+00,5.000000000000000000e+00,5.000000000000000000e+00,5.000000000000000000e+00,5.000000000000000000e+00,5.000000000000000000e+00,5.000000000000000000e+00,5.000000000000000000e+00,5.000000000000000000e+00,5.000000000000000000e+00,5.000000000000000000e+00,5.000000000000000000e+00,5.000000000000000000e+00,5.000000000000000000e+00,5.000000000000000000e+00,5.000000000000000000e+00,5.000000000000000000e+00,5.000000000000000000e+00,5.000000000000000000e+00,5.000000000000000000e+00,5.000000000000000000e+00,5.000000000000000000e+00,5.000000000000000000e+00,5.000000000000000000e+00,5.000000000000000000e+00,5.000000000000000000e+00,4.862408638000488281e+00,4.671421527862548828e+00,4.494870185852050781e+00,4.331178188323974609e+00,4.178989410400390625e+00,4.037133216857910156e+00,3.904591560363769531e+00,3.780476093292236328e+00,3.664007902145385742e+00,3.554501771926879883e+00,3.451350688934326172e+00,3.354017972946166992e+00,3.262024641036987305e+00,3.174942970275878906e+00,3.092389583587646484e+00,3.014020442962646484e+00,2.939525365829467773e+00,2.868623971939086914e+00,2.801062345504760742e+00,2.736609697341918945e+00,2.675056457519531250e+00,2.616211414337158203e+00,2.559899568557739258e+00,2.505960702896118164e+00,2.454247951507568359e+00,2.404626369476318359e+00,2.356971502304077148e+00,2.311168909072875977e+00,2.267112493515014648e+00,2.224704265594482422e+00,2.183853626251220703e+00,2.144475936889648438e+00,2.106493234634399414e+00,2.069832563400268555e+00,2.034426450729370117e+00,2.000211000442504883e+00,1.967127442359924316e+00,1.935120344161987305e+00,1.904138445854187012e+00,1.874132633209228516e+00,1.845058083534240723e+00
5.000000000000000000e+00,5.000000000000000000e+00,5.000000000000000000e+00,5.000000000000000000e+00,5.000000000000000000e+00,5.000000000000000000e+00,5.000000000000000000e+00,5.000000000000000000e+00,5.000000000000000000e+00,5.000000000000000000e+00,5.000000000000000000e+00,5.000000000000000000e+00,5.000000000000000000e+00,5.000000000000000000e+00,5.000000000000000000e+00,5.000000000000000000e+00,5.000000000000000000e+00,5.000000000000000000e+00,5.000000000000000000e+00,5.000000000000000000e+00,5.000000000000000000e+00,5.000000000000000000e+00,5.000000000000000000e+00,5.000000000000000000e+00,5.000000000000000000e+00,5.000000000000000000e+00,5.000000000000000000e+00,5.000000000000000000e+00,5.000000000000000000e+00,5.000000000000000000e+00,5.000000000000000000e+00,5.000000000000000000e+00,5.000000000000000000e+00,5.000000000000000000e+00,5.000000000000000000e+00,5.000000000000000000e+00,5.000000000000000000e+00,5.000000000000000000e+00,5.000000000000000000e+00,4.862547874450683594e+00,4.671549320220947266e+00,4.494988918304443359e+00,4.331288814544677734e+00,4.179092407226562500e+00,4.037229061126708984e+00,3.904681205749511719e+00,3.780560016632080078e+00,3.664086818695068359e+00,3.554575920104980469e+00,3.451421022415161133e+00,3.354084491729736328e+00,3.262087106704711914e+00,3.175002098083496094e+00,3.092445850372314453e+00,3.014074087142944336e+00,2.939576387405395508e+00,2.868672370910644531e+00,2.801108360290527344e+00,2.736653804779052734e+00,2.675098657608032227e+00,2.616251707077026367e+00,2.559937953948974609e+00,2.505997419357299805e+00,2.454283237457275391e+00,2.404660463333129883e+00,2.357004404067993164e+00,2.311200380325317383e+00,2.267142772674560547e+00,2.224733352661132812e+00,2.183881759643554688e+00,2.144503116607666016e+00,2.106519460678100586e+00,2.069857835769653320e+00,2.034450769424438477e+00,2.000234365463256836e+00,1.967150330543518066e+00,1.935142517089843750e+00,1.904159545898437500e+00,1.874153375625610352e+00,1.845077991485595703e+00
5.000000000000000000e+00,5.000000000000000000e+00,5.000000000000000000e+00,5.000000000000000000e+00,5.000000000000000000e+00,5.000000000000000000e+00,5.000000000000000000e+00,5.000000000000000000e+00,5.000000000000000000e+00,5.000000000000000000e+00,5.000000000000000000e+00,5.000000000000000000e+00,5.000000000000000000e+00,5.000000000000000000e+00,5.000000000000000000e+00,5.000000000000000000e+00,5.000000000000000000e+00,5.000000000000000000e+00,5.000000000000000000e+00,5.000000000000000000e+00,5.000000000000000000e+00,5.000000000000000000e+00,5.000000000000000000e+00,5.000000000000000000e+00,5.000000000000000000e+00,5.000000000000000000e+00,5.000000000000000000e+00,5.000000000000000000e+00,5.000000000000000000e+00,5.000000000000000000e+00,5.000000000000000000e+00,5.000000000000000000e+00,5.000000000000000000e+00,5.000000000000000000e+00,5.000000000000000000e+00,5.000000000000000000e+00,5.000000000000000000e+00,5.000000000000000000e+00,5.000000000000000000e+00,4.862686634063720703e+00,4.671678066253662109e+00,4.495108127593994141e+00,4.331398963928222656e+00,4.179194927215576172e+00,4.037324905395507812e+00,3.904771089553833008e+00,3.780644416809082031e+00,3.664165496826171875e+00,3.554650068283081055e+00,3.451490879058837891e+00,3.354150533676147461e+00,3.262150049209594727e+00,3.175061225891113281e+00,3.092501878738403320e+00,3.014127254486083984e+00,2.939627170562744141e+00,2.868720769882202148e+00,2.801154613494873047e+00,2.736697673797607422e+00,2.675140857696533203e+00,2.616291761398315430e+00,2.559976577758789062e+00,2.506034612655639648e+00,2.454318761825561523e+00,2.404694318771362305e+00,2.357037067413330078e+00,2.311231851577758789e+00,2.267173051834106445e+00,2.224762439727783203e+00,2.183909654617309570e+00,2.144530057907104492e+00,2.106545686721801758e+00,2.069883108139038086e+00,2.034475088119506836e+00,2.000257968902587891e+00,1.967172980308532715e+00,1.935164570808410645e+00,1.904181003570556641e+00,1.874174118041992188e+00,1.845098018646240234e+00
5.000000000000000000e+00,5.000000000000000000e+00,5.000000000000000000e+00,5.000000000000000000e+00,5.000000000000000000e+00,5.000000000000000000e+00,5.000000000000000000e+00,5.000000000000000000e+00,5.000000000000000000e+00,5.000000000000000000e+00,5.000000000000000000e+00,5.000000000000000000e+00,5.000000000000000000e+00,5.000000000000000000e+00,5.000000000000000000e+00,5.000000000000000000e+00,5.000000000000000000e+00,5.000000000000000000e+00,5.000000000000000000e+00,5.000000000000000000e+00,5.000000000000000000e+00,5.000000000000000000e+00,5.000000000000000000e+00,5.000000000000000000e+00,5.000000000000000000e+00,5.000000000000000000e+00,5.000000000000000000e+00,5.000000000000000000e+00,5.000000000000000000e+00,5.000000000000000000e+00,5.000000000000000000e+00,5.000000000000000000e+00,5.000000000000000000e+00,5.000000000000000000e+00,5.000000000000000000e+00,5.000000000000000000e+00,5.000000000000000000e+00,5.000000000000000000e+00,5.000000000000000000e+00,4.862825870513916016e+00,4.671806335449218750e+00,4.495226860046386719e+00,4.331509113311767578e+00,4.179297447204589844e+00,4.037420749664306641e+00,3.904860496520996094e+00,3.780728340148925781e+00,3.664244890213012695e+00,3.554724693298339844e+00,3.451560974121093750e+00,3.354216575622558594e+00,3.262212514877319336e+00,3.175120830535888672e+00,3.092558383941650391e+00,3.014180660247802734e+00,2.939677953720092773e+00,2.868769168853759766e+00,2.801200628280639648e+00,2.736741542816162109e+00,2.675182580947875977e+00,2.616332054138183594e+00,2.560014963150024414e+00,2.506071329116821289e+00,2.454354286193847656e+00,2.404728412628173828e+00,2.357069730758666992e+00,2.311263084411621094e+00,2.267203092575073242e+00,2.224791765213012695e+00,2.183937788009643555e+00,2.144556999206542969e+00,2.106571674346923828e+00,2.069908142089843750e+00,2.034499406814575195e+00,2.000281572341918945e+00,1.967195749282836914e+00,1.935186505317687988e+00,1.904202342033386230e+00,1.874194622039794922e+00,1.845118165016174316e+00
5.000000000000000000e+00,5.000000000000000000e+00,5.000000000000000000e+00,5.000000000000000000e+00,5.000000000000000000e+00,5.000000000000000000e+00,5.000000000000000000e+00,5.000000000000000000e+00,5.000000000000000000e+00,5.000000000000000000e+00,5.000000000000000000e+00,5.000000000000000000e+00,5.000000000000000000e+00,5.000000000000000000e+00,5.000000000000000000e+00,5.000000000000000000e+00,5.000000000000000000e+00,5.000000000000000000e+00,5.000000000000000000e+00,5.000000000000000000e+00,5.000000000000000000e+00,5.000000000000000000e+00,5.000000000000000000e+00,5.000000000000000000e+00,5.000000000000000000e+00,5.000000000000000000e+00,5.000000000000000000e+00,5.000000000000000000e+00,5.000000000000000000e+00,5.000000000000000000e+00,5.000000000000000000e+00,5.000000000000000000e+00,5.000000000000000000e+00,5.000000000000000000e+00,5.000000000000000000e+00,5.000000000000000000e+00,5.000000000000000000e+00,5.000000000000000000e+00,5.000000000000000000e+00,4.862965106964111328e+00,4.671934604644775391e+00,4.495345592498779297e+00,4.331619262695312500e+00,4.179400444030761719e+00,4.037516593933105469e+00,3.904950141906738281e+00,3.780812263488769531e+00,3.664323568344116211e+00,3.554798841476440430e+00,3.451631069183349609e+00,3.354282617568969727e+00,3.262274980545043945e+00,3.175179958343505859e+00,3.092614650726318359e+00,3.014234304428100586e+00,2.939728975296020508e+00,2.868817567825317383e+00,2.801246881484985352e+00,2.736785650253295898e+00,2.675224781036376953e+00,2.616372346878051758e+00,2.560053586959838867e+00,2.506108283996582031e+00,2.454389572143554688e+00,2.404762268066406250e+00,2.357102394104003906e+00,2.311294555664062500e+00,2.267233371734619141e+00,2.224820852279663086e+00,2.183965921401977539e+00,2.144584178924560547e+00,2.106597900390625000e+00,2.069933414459228516e+00,2.034523725509643555e+00,2.000304937362670898e+00,1.967218637466430664e+00,1.935208559036254883e+00,1.904223561286926270e+00,1.874215364456176758e+00,1.845138072967529297e+00
5.000000000000000000e+00,5.000000000000000000e+00,5.000000000000000000e+00,5.000000000000000000e+00,5.000000000000000000e+00,5.000000000000000000e+00,5.000000000000000000e+00,5.000000000000000000e+00,5.000000000000000000e+00,5.000000000000000000e+00,5.000000000000000000e+00,5.000000000000000000e+00,5.000000000000000000e+00,5.000000000000000000e+00,5.000000000000000000e+00,5.000000000000000000e+00,5.000000000000000000e+00,5.000000000000000000e+00,5.000000000000000000e+00,5.000000000000000000e+00,5.000000000000000000e+00,5.000000000000000000e+00,5.000000000000000000e+00,5.000000000000000000e+00,5.000000000000000000e+00,5.000000000000000000e+00,5.000000000000000000e+00,5.000000000000000000e+00,5.000000000000000000e+00,5.000000000000000000e+00,5.000000000000000000e+00,5.000000000000000000e+00,5.000000000000000000e+00,5.000000000000000000e+00,5.000000000000000000e+00,5.000000000000000000e+00,5.000000000000000000e+00,5.000000000000000000e+00,5.000000000000000000e+00,4.863103866577148438e+00,4.672062873840332031e+00,4.495464324951171875e+00,4.331729888916015625e+00,4.179503440856933594e+00,4.037612438201904297e+00,3.905040025711059570e+00,3.780896425247192383e+00,3.664402484893798828e+00,3.554872989654541016e+00,3.451701164245605469e+00,3.354348897933959961e+00,3.262337684631347656e+00,3.175239086151123047e+00,3.092670679092407227e+00,3.014287710189819336e+00,2.939779520034790039e+00,2.868865966796875000e+00,2.801292657852172852e+00,2.736829519271850586e+00,2.675266742706298828e+00,2.616412639617919922e+00,2.560092210769653320e+00,2.506145238876342773e+00,2.454424858093261719e+00,2.404796361923217773e+00,2.357135057449340820e+00,2.311326026916503906e+00,2.267263650894165039e+00,2.224849700927734375e+00,2.183993816375732422e+00,2.144611120223999023e+00,2.106623888015747070e+00,2.069958686828613281e+00,2.034548044204711914e+00,2.000328540802001953e+00,1.967241168022155762e+00,1.935230612754821777e+00,1.904245018959045410e+00,1.874236106872558594e+00,1.845158100128173828e+00
5.000000000000000000e+00,5.000000000000000000e+00,5.000000000000000000e+00,5.000000000000000000e+00,5.000000000000000000e+00,5.000000000000000000e+00,5.000000000000000000e+00,5.000000000000000000e+00,5.000000000000000000e+00,5.000000000000000000e+00,5.000000000000000000e+00,5.000000000000000000e+00,5.000000000000000000e+00,5.000000000000000000e+00,5.000000000000000000e+00,5.000000000000000000e+00,5.000000000000000000e+00,5.000000000000000000e+00,5.000000000000000000e+00,5.000000000000000000e+00,5.000000000000000000e+00,5.000000000000000000e+00,5.000000000000000000e+00,5.000000000000000000e+00,5.000000000000000000e+00,5.000000000000000000e+00,5.000000000000000000e+00,5.000000000000000000e+00,5.000000000000000000e+00,5.000000000000000000e+00,5.000000000000000000e+00,5.000000000000000000e+00,5.000000000000000000e+00,5.000000000000000000e+00,5.000000000000000000e+00,5.000000000000000000e+00,5.000000000000000000e+00,5.000000000000000000e+00,5.000000000000000000e+00,4.863243103027343750e+00,4.672191143035888672e+00,4.495583057403564453e+00,4.331840515136718750e+00,4.179605960845947266e+00,4.037708282470703125e+00,3.905129671096801758e+00,3.780980587005615234e+00,3.664481639862060547e+00,3.554947137832641602e+00,3.451771020889282227e+00,3.354414939880371094e+00,3.262400150299072266e+00,3.175298690795898438e+00,3.092727184295654297e+00,3.014340877532958984e+00,2.939830303192138672e+00,2.868914127349853516e+00,2.801338911056518555e+00,2.736873865127563477e+00,2.675308942794799805e+00,2.616452693939208984e+00,2.560130596160888672e+00,2.506182193756103516e+00,2.454460620880126953e+00,2.404830217361450195e+00,2.357167720794677734e+00,2.311357498168945312e+00,2.267293930053710938e+00,2.224879026412963867e+00,2.184021949768066406e+00,2.144638299942016602e+00,2.106649875640869141e+00,2.069983720779418945e+00,2.034572362899780273e+00,2.000352144241333008e+00,1.967264056205749512e+00,1.935252547264099121e+00,1.904266357421875000e+00,1.874256610870361328e+00,1.845178246498107910e+00
5.000000000000000000e+00,5.000000000000000000e+00,5.000000000000000000e+00,5.000000000000000000e+00,5.000000000000000000e+00,5.000000000000000000e+00,5.000000000000000000e+00,5.000000000000000000e+00,5.000000000000000000e+00,5.000000000000000000e+00,5.000000000000000000e+00,5.000000000000000000e+00,5.000000000000000000e+00,5.000000000000000000e+00,5.000000000000000000e+00,5.000000000000000000e+00,5.000000000000000000e+00,5.000000000000000000e+00,5.000000000000000000e+00,5.000000000000000000e+00,5.000000000000000000e+00,5.000000000000000000e+00,5.000000000000000000e+00,5.000000000000000000e+00,5.000000000000000000e+00,5.000000000000000000e+00,5.000000000000000000e+00,5.000000000000000000e+00,5.000000000000000000e+00,5.000000000000000000e+00,5.000000000000000000e+00,5.000000000000000000e+00,5.000000000000000000e+00,5.000000000000000000e+00,5.000000000000000000e+00,5.000000000000000000e+00,5.000000000000000000e+00,5.000000000000000000e+00,5.000000000000000000e+00,4.863381862640380859e+00,4.672319889068603516e+00,4.495702266693115234e+00,4.331950664520263672e+00,4.179708957672119141e+00,4.037804603576660156e+00,3.905219078063964844e+00,3.781064271926879883e+00,3.664560556411743164e+00,3.555021762847900391e+00,3.451841354370117188e+00,3.354481220245361328e+00,3.262462615966796875e+00,3.175357818603515625e+00,3.092783212661743164e+00,3.014394521713256836e+00,2.939880847930908203e+00,2.868962526321411133e+00,2.801384925842285156e+00,2.736917734146118164e+00,2.675351142883300781e+00,2.616493225097656250e+00,2.560169219970703125e+00,2.506219148635864258e+00,2.454495906829833984e+00,2.404864311218261719e+00,2.357200384140014648e+00,2.311388731002807617e+00,2.267323970794677734e+00,2.224908113479614258e+00,2.184050083160400391e+00,2.144665479660034180e+00,2.106675863265991211e+00,2.070008993148803711e+00,2.034596681594848633e+00,2.000375747680664062e+00,1.967286944389343262e+00,1.935274600982666016e+00,1.904287576675415039e+00,1.874277353286743164e+00,1.845198035240173340e+00
5.000000000000000000e+00,5.000000000000000000e+00,5.000000000000000000e+00,5.000000000000000000e+00,5.000000000000000000e+00,5.000000000000000000e+00,5.000000000000000000e+00,5.000000000000000000e+00,5.000000000000000000e+00,5.000000000000000000e+00,5.000000000000000000e+00,5.000000000000000000e+00,5.000000000000000000e+00,5.000000000000000000e+00,5.000000000000000000e+00,5.000000000000000000e+00,5.000000000000000000e+00,5.000000000000000000e+00,5.000000000000000000e+00,5.000000000000000000e+00,5.000000000000000000e+00,5.000000000000000000e+00,5.000000000000000000e+00,5.000000000000000000e+00,5.000000000000000000e+00,5.000000000000000000e+00,5.000000000000000000e+00,5.000000000000000000e+00,5.000000000000000000e+00,5.000000000000000000e+00,5.000000000000000000e+00,5.000000000000000000e+00,5.000000000000000000e+00,5.000000000000000000e+00,5.000000000000000000e+00,5.000000000000000000e+00,5.000000000000000000e+00,5.000000000000000000e+00,5.000000000000000000e+00,4.863521099090576172e+00,4.672448158264160156e+00,4.495820999145507812e+00,4.332060813903808594e+00,4.179811477661132812e+00,4.037899971008300781e+00,3.905309200286865234e+00,3.781148433685302734e+00,3.664639472961425781e+00,3.555095911026000977e+00,3.451911449432373047e+00,3.354547500610351562e+00,3.262525558471679688e+00,3.175417184829711914e+00,3.092839479446411133e+00,3.014447689056396484e+00,2.939931869506835938e+00,2.869010925292968750e+00,2.801431179046630859e+00,2.736961841583251953e+00,2.675393104553222656e+00,2.616533517837524414e+00,2.560207843780517578e+00,2.506255865097045898e+00,2.454531192779541016e+00,2.404898405075073242e+00,2.357233047485351562e+00,2.311420202255249023e+00,2.267354488372802734e+00,2.224937200546264648e+00,2.184077978134155273e+00,2.144692420959472656e+00,2.106702089309692383e+00,2.070034265518188477e+00,2.034621000289916992e+00,2.000399112701416016e+00,1.967309474945068359e+00,1.935296773910522461e+00,1.904308915138244629e+00,1.874297857284545898e+00,1.845218181610107422e+00
5.000000000000000000e+00,5.000000000000000000e+00,5.000000000000000000e+00,5.000000000000000000e+00,5.000000000000000000e+00,5.000000000000000000e+00,5.000000000000000000e+00,5.000000000000000000e+00,5.000000000000000000e+00,5.000000000000000000e+00,5.000000000000000000e+00,5.000000000000000000e+00,5.000000000000000000e+00,5.000000000000000000e+00,5.000000000000000000e+00,5.000000000000000000e+00,5.000000000000000000e+00,5.000000000000000000e+00,5.000000000000000000e+00,5.000000000000000000e+00,5.000000000000000000e+00,5.000000000000000000e+00,5.000000000000000000e+00,5.000000000000000000e+00,5.000000000000000000e+00,5.000000000000000000e+00,5.000000000000000000e+00,5.000000000000000000e+00,5.000000000000000000e+00,5.000000000000000000e+00,5.000000000000000000e+00,5.000000000000000000e+00,5.000000000000000000e+00,5.000000000000000000e+00,5.000000000000000000e+00,5.000000000000000000e+00,5.000000000000000000e+00,5.000000000000000000e+00,5.000000000000000000e+00,4.863660335540771484e+00,4.672576427459716797e+00,4.495939731597900391e+00,4.332171440124511719e+00,4.179913997650146484e+00,4.037996292114257812e+00,3.905398607254028320e+00,3.781232595443725586e+00,3.664718627929687500e+00,3.555170059204101562e+00,3.451981306076049805e+00,3.354613542556762695e+00,3.262588024139404297e+00,3.175476551055908203e+00,3.092895507812500000e+00,3.014501094818115234e+00,2.939982652664184570e+00,2.869059324264526367e+00,2.801477432250976562e+00,2.737005949020385742e+00,2.675435066223144531e+00,2.616573572158813477e+00,2.560246229171752930e+00,2.506293058395385742e+00,2.454566717147827148e+00,2.404932260513305664e+00,2.357265710830688477e+00,2.311451673507690430e+00,2.267384529113769531e+00,2.224966287612915039e+00,2.184106111526489258e+00,2.144719362258911133e+00,2.106728315353393555e+00,2.070059299468994141e+00,2.034645557403564453e+00,2.000422716140747070e+00,1.967332363128662109e+00,1.935318589210510254e+00,1.904330372810363770e+00,1.874318599700927734e+00,1.845238327980041504e+00
5.000000000000000000e+00,5.000000000000000000e+00,5.000000000000000000e+00,5.000000000000000000e+00,5.000000000000000000e+00,5.000000000000000000e+00,5.000000000000000000e+00,5.000000000000000000e+00,5.000000000000000000e+00,5.000000000000000000e+00,5.000000000000000000e+00,5.000000000000000000e+00,5.000000000000000000e+00,5.000000000000000000e+00,5.000000000000000000e+00,5.000000000000000000e+00,5.000000000000000000e+00,5.000000000000000000e+00,5.000000000000000000e+00,5.000000000000000000e+00,5.000000000000000000e+00,5.000000000000000000e+00,5.000000000000000000e+00,5.000000000000000000e+00,5.000000000000000000e+00,5.000000000000000000e+00,5.000000000000000000e+00,5.000000000000000000e+00,5.000000000000000000e+00,5.000000000000000000e+00,5.000000000000000000e+00,5.000000000000000000e+00,5.000000000000000000e+00,5.000000000000000000e+00,5.000000000000000000e+00,5.000000000000000000e+00,5.000000000000000000e+00,5.000000000000000000e+00,5.000000000000000000e+00,4.863799095153808594e+00,4.672704696655273438e+00,4.496058940887451172e+00,4.332281589508056641e+00,4.180016994476318359e+00,4.038091659545898438e+00,3.905488252639770508e+00,3.781316757202148438e+00,3.664797544479370117e+00,3.555244684219360352e+00,3.452051639556884766e+00,3.354679584503173828e+00,3.262650489807128906e+00,3.175535440444946289e+00,3.092951774597167969e+00,3.014554738998413086e+00,2.940033435821533203e+00,2.869107723236083984e+00,2.801523447036743164e+00,2.737050056457519531e+00,2.675477266311645508e+00,2.616613864898681641e+00,2.560284852981567383e+00,2.506330013275146484e+00,2.454602241516113281e+00,2.404966354370117188e+00,2.357298374176025391e+00,2.311483144760131836e+00,2.267414808273315430e+00,2.224995374679565430e+00,2.184134244918823242e+00,2.144746541976928711e+00,2.106754302978515625e+00,2.070084571838378906e+00,2.034669876098632812e+00,2.000446319580078125e+00,1.967355132102966309e+00,1.935340762138366699e+00,1.904351592063903809e+00,1.874339342117309570e+00,1.845258116722106934e+00
5.000000000000000000e+00,5.000000000000000000e+00,5.000000000000000000e+00,5.000000000000000000e+00,5.000000000000000000e+00,5.000000000000000000e+00,5.000000000000000000e+00,5.000000000000000000e+00,5.000000000000000000e+00,5.000000000000000000e+00,5.000000000000000000e+00,5.000000000000000000e+00,5.000000000000000000e+00,5.000000000000000000e+00,5.000000000000000000e+00,5.000000000000000000e+00,5.000000000000000000e+00,5.000000000000000000e+00,5.000000000000000000e+00,5.000000000000000000e+00,5.000000000000000000e+00,5.000000000000000000e+00,5.000000000000000000e+00,5.000000000000000000e+00,5.000000000000000000e+00,5.000000000000000000e+00,5.000000000000000000e+00,5.000000000000000000e+00,5.000000000000000000e+00,5.000000000000000000e+00,5.000000000000000000e+00,5.000000000000000000e+00,5.000000000000000000e+00,5.000000000000000000e+00,5.000000000000000000e+00,5.000000000000000000e+00,5.000000000000000000e+00,5.000000000000000000e+00,5.000000000000000000e+00,4.863938331604003906e+00,4.672833442687988281e+00,4.496177673339843750e+00,4.332392215728759766e+00,4.180119514465332031e+00,4.038187980651855469e+00,3.905578374862670898e+00,3.781400680541992188e+00,3.664876461029052734e+00,3.555318832397460938e+00,3.452121496200561523e+00,3.354746103286743164e+00,3.262712717056274414e+00,3.175594806671142578e+00,3.093008041381835938e+00,3.014607906341552734e+00,2.940084457397460938e+00,2.869156360626220703e+00,2.801569461822509766e+00,2.737093925476074219e+00,2.675519466400146484e+00,2.616654157638549805e+00,2.560323476791381836e+00,2.506366729736328125e+00,2.454637527465820312e+00,2.405000448226928711e+00,2.357331037521362305e+00,2.311514616012573242e+00,2.267445087432861328e+00,2.225024461746215820e+00,2.184162139892578125e+00,2.144773483276367188e+00,2.106780529022216797e+00,2.070109844207763672e+00,2.034693956375122070e+00,2.000469684600830078e+00,1.967377781867980957e+00,1.935362815856933594e+00,1.904372930526733398e+00,1.874359846115112305e+00,1.845278263092041016e+00
5.000000000000000000e+00,5.000000000000000000e+00,5.000000000000000000e+00,5.000000000000000000e+00,5.000000000000000000e+00,5.000000000000000000e+00,5.000000000000000000e+00,5.000000000000000000e+00,5.000000000000000000e+00,5.000000000000000000e+00,5.000000000000000000e+00,5.000000000000000000e+00,5.000000000000000000e+00,5.000000000000000000e+00,5.000000000000000000e+00,5.000000000000000000e+00,5.000000000000000000e+00,5.000000000000000000e+00,5.000000000000000000e+00,5.000000000000000000e+00,5.000000000000000000e+00,5.000000000000000000e+00,5.000000000000000000e+00,5.000000000000000000e+00,5.000000000000000000e+00,5.000000000000000000e+00,5.000000000000000000e+00,5.000000000000000000e+00,5.000000000000000000e+00,5.000000000000000000e+00,5.000000000000000000e+00,5.000000000000000000e+00,5.000000000000000000e+00,5.000000000000000000e+00,5.000000000000000000e+00,5.000000000000000000e+00,5.000000000000000000e+00,5.000000000000000000e+00,5.000000000000000000e+00,4.864075660705566406e+00,4.672961711883544922e+00,4.496296405792236328e+00,4.332502365112304688e+00,4.180222511291503906e+00,4.038283824920654297e+00,3.905667781829833984e+00,3.781485080718994141e+00,3.664955615997314453e+00,3.555393218994140625e+00,3.452191591262817383e+00,3.354811906814575195e+00,3.262775659561157227e+00,3.175654172897338867e+00,3.093064069747924805e+00,3.014661312103271484e+00,2.940135002136230469e+00,2.869204521179199219e+00,2.801615953445434570e+00,2.737137794494628906e+00,2.675561428070068359e+00,2.616694450378417969e+00,2.560361862182617188e+00,2.506403923034667969e+00,2.454673051834106445e+00,2.405034303665161133e+00,2.357363700866699219e+00,2.311545848846435547e+00,2.267475366592407227e+00,2.225053787231445312e+00,2.184190273284912109e+00,2.144800424575805664e+00,2.106806516647338867e+00,2.070134878158569336e+00,2.034718513488769531e+00,2.000493288040161133e+00,1.967400670051574707e+00,1.935384750366210938e+00,1.904394388198852539e+00,1.874380588531494141e+00,1.845298290252685547e+00
5.000000000000000000e+00,5.000000000000000000e+00,5.000000000000000000e+00,5.000000000000000000e+00,5.000000000000000000e+00,5.000000000000000000e+00,5.000000000000000000e+00,5.000000000000000000e+00,5.000000000000000000e+00,5.000000000000000000e+00,5.000000000000000000e+00,5.000000000000000000e+00,5.000000000000000000e+00,5.000000000000000000e+00,5.000000000000000000e+00,5.000000000000000000e+00,5.000000000000000000e+00,5.000000000000000000e+00,5.000000000000000000e+00,5.000000000000000000e+00,5.000000000000000000e+00,5.000000000000000000e+00,5.000000000000000000e+00,5.000000000000000000e+00,5.000000000000000000e+00,5.000000000000000000e+00,5.000000000000000000e+00,5.000000000000000000e+00,5.000000000000000000e+00,5.000000000000000000e+00,5.000000000000000000e+00,5.000000000000000000e+00,5.000000000000000000e+00,5.000000000000000000e+00,5.000000000000000000e+00,5.000000000000000000e+00,5.000000000000000000e+00,5.000000000000000000e+00,5.000000000000000000e+00,4.864214420318603516e+00,4.673088550567626953e+00,4.496415138244628906e+00,4.332612991333007812e+00,4.180325508117675781e+00,4.038379669189453125e+00,3.905757427215576172e+00,3.781569004058837891e+00,3.665034532546997070e+00,3.555467844009399414e+00,3.452261209487915039e+00,3.354877948760986328e+00,3.262838125228881836e+00,3.175713539123535156e+00,3.093120574951171875e+00,3.014714956283569336e+00,2.940185785293579102e+00,2.869252920150756836e+00,2.801661968231201172e+00,2.737182140350341797e+00,2.675603628158569336e+00,2.616734504699707031e+00,2.560400485992431641e+00,2.506440877914428711e+00,2.454708576202392578e+00,2.405068397521972656e+00,2.357396364212036133e+00,2.311577320098876953e+00,2.267505407333374023e+00,2.225082874298095703e+00,2.184218406677246094e+00,2.144827604293823242e+00,2.106832504272460938e+00,2.070160150527954102e+00,2.034742832183837891e+00,2.000516891479492188e+00,1.967423439025878906e+00,1.935406804084777832e+00,1.904415488243103027e+00,1.874401211738586426e+00,1.845318198204040527e+00
5.000000000000000000e+00,5.000000000000000000e+00,5.000000000000000000e+00,5.000000000000000000e+00,5.000000000000000000e+00,5.000000000000000000e+00,5.000000000000000000e+00,5.000000000000000000e+00,5.000000000000000000e+00,5.000000000000000000e+00,5.000000000000000000e+00,5.000000000000000000e+00,5.000000000000000000e+00,5.000000000000000000e+00,5.000000000000000000e+00,5.000000000000000000e+00,5.000000000000000000e+00,5.000000000000000000e+00,5.000000000000000000e+00,5.000000000000000000e+00,5.000000000000000000e+00,5.000000000000000000e+00,5.000000000000000000e+00,5.000000000000000000e+00,5.000000000000000000e+00,5.000000000000000000e+00,5.000000000000000000e+00,5.000000000000000000e+00,5.000000000000000000e+00,5.000000000000000000e+00,5.000000000000000000e+00,5.000000000000000000e+00,5.000000000000000000e+00,5.000000000000000000e+00,5.000000000000000000e+00,5.000000000000000000e+00,5.000000000000000000e+00,5.000000000000000000e+00,5.000000000000000000e+00,4.864353179931640625e+00,4.673216819763183594e+00,4.496534347534179688e+00,4.332723140716552734e+00,4.180428028106689453e+00,4.038475513458251953e+00,3.905847311019897461e+00,3.781652927398681641e+00,3.665113449096679688e+00,3.555541753768920898e+00,3.452331542968750000e+00,3.354944467544555664e+00,3.262900590896606445e+00,3.175772666931152344e+00,3.093176841735839844e+00,3.014768362045288086e+00,2.940236806869506836e+00,2.869301319122314453e+00,2.801707983016967773e+00,2.737226009368896484e+00,2.675645589828491211e+00,2.616775035858154297e+00,2.560439109802246094e+00,2.506477594375610352e+00,2.454743862152099609e+00,2.405102491378784180e+00,2.357429027557373047e+00,2.311608791351318359e+00,2.267535686492919922e+00,2.225111722946166992e+00,2.184246301651000977e+00,2.144854784011840820e+00,2.106858730316162109e+00,2.070185422897338867e+00,2.034767150878906250e+00,2.000540256500244141e+00,1.967446088790893555e+00,1.935428857803344727e+00,1.904436945915222168e+00,1.874421834945678711e+00,1.845338344573974609e+00
5.000000000000000000e+00,5.000000000000000000e+00,5.000000000000000000e+00,5.000000000000000000e+00,5.000000000000000000e+00,5.000000000000000000e+00,5.000000000000000000e+00,5.000000000000000000e+00,5.000000000000000000e+00,5.000000000000000000e+00,5.000000000000000000e+00,5.000000000000000000e+00,5.000000000000000000e+00,5.000000000000000000e+00,5.000000000000000000e+00,5.000000000000000000e+00,5.000000000000000000e+00,5.000000000000000000e+00,5.000000000000000000e+00,5.000000000000000000e+00,5.000000000000000000e+00,5.000000000000000000e+00,5.000000000000000000e+00,5.000000000000000000e+00,5.000000000000000000e+00,5.000000000000000000e+00,5.000000000000000000e+00,5.000000000000000000e+00,5.000000000000000000e+00,5.000000000000000000e+00,5.000000000000000000e+00,5.000000000000000000e+00,5.000000000000000000e+00,5.000000000000000000e+00,5.000000000000000000e+00,5.000000000000000000e+00,5.000000000000000000e+00,5.000000000000000000e+00,5.000000000000000000e+00,4.864491462707519531e+00,4.673344612121582031e+00,4.496651172637939453e+00,4.332833290100097656e+00,4.180531024932861328e+00,4.038571357727050781e+00,3.905936956405639648e+00,3.781737327575683594e+00,3.665191888809204102e+00,3.555615901947021484e+00,3.452401638031005859e+00,3.355010509490966797e+00,3.262963294982910156e+00,3.175832271575927734e+00,3.093232870101928711e+00,3.014821767807006836e+00,2.940287590026855469e+00,2.869349718093872070e+00,2.801754236221313477e+00,2.737270116806030273e+00,2.675687789916992188e+00,2.616815090179443359e+00,2.560477495193481445e+00,2.506514787673950195e+00,2.454779148101806641e+00,2.405136346817016602e+00,2.357461690902709961e+00,2.311640262603759766e+00,2.267565965652465820e+00,2.225141048431396484e+00,2.184274435043334961e+00,2.144881725311279297e+00,2.106884956359863281e+00,2.070210695266723633e+00,2.034791469573974609e+00,2.000563859939575195e+00,1.967468857765197754e+00,1.935450792312622070e+00,1.904458284378051758e+00,1.874442577362060547e+00,1.845358252525329590e+00
5.000000000000000000e+00,5.000000000000000000e+00,5.000000000000000000e+00,5.000000000000000000e+00,5.000000000000000000e+00,5.000000000000000000e+00,5.000000000000000000e+00,5.000000000000000000e+00,5.000000000000000000e+00,5.000000000000000000e+00,5.000000000000000000e+00,5.000000000000000000e+00,5.000000000000000000e+00,5.000000000000000000e+00,5.000000000000000000e+00,5.000000000000000000e+00,5.000000000000000000e+00,5.000000000000000000e+00,5.000000000000000000e+00,5.000000000000000000e+00,5.000000000000000000e+00,5.000000000000000000e+00,5.000000000000000000e+00,5.000000000000000000e+00,5.000000000000000000e+00,5.000000000000000000e+00,5.000000000000000000e+00,5.000000000000000000e+00,5.000000000000000000e+00,5.000000000000000000e+00,5.000000000000000000e+00,5.000000000000000000e+00,5.000000000000000000e+00,5.000000000000000000e+00,5.000000000000000000e+00,5.000000000000000000e+00,5.000000000000000000e+00,5.000000000000000000e+00,5.000000000000000000e+00,4.864630222320556641e+00,4.673472404479980469e+00,4.496769428253173828e+00,4.332942485809326172e+00,4.180633544921875000e+00,4.038667201995849609e+00,3.906026601791381836e+00,3.781821012496948242e+00,3.665271282196044922e+00,3.555690526962280273e+00,3.452471494674682617e+00,3.355076551437377930e+00,3.263025999069213867e+00,3.175891399383544922e+00,3.093289375305175781e+00,3.014875173568725586e+00,2.940338373184204102e+00,2.869398117065429688e+00,2.801800489425659180e+00,2.737314224243164062e+00,2.675729990005493164e+00,2.616855382919311523e+00,2.560516119003295898e+00,2.506551504135131836e+00,2.454814672470092773e+00,2.405170440673828125e+00,2.357494354248046875e+00,2.311671495437622070e+00,2.267596244812011719e+00,2.225170135498046875e+00,2.184302568435668945e+00,2.144908666610717773e+00,2.106910943984985352e+00,2.070235729217529297e+00,2.034815788269042969e+00,2.000587463378906250e+00,1.967491745948791504e+00,1.935472846031188965e+00,1.904479503631591797e+00,1.874463319778442383e+00,1.845378279685974121e+00
5.000000000000000000e+00,5.000000000000000000e+00,5.000000000000000000e+00,5.000000000000000000e+00,5.000000000000000000e+00,5.000000000000000000e+00,5.000000000000000000e+00,5.000000000000000000e+00,5.000000000000000000e+00,5.000000000000000000e+00,5.000000000000000000e+00,5.000000000000000000e+00,5.000000000000000000e+00,5.000000000000000000e+00,5.000000000000000000e+00,5.000000000000000000e+00,5.000000000000000000e+00,5.000000000000000000e+00,5.000000000000000000e+00,5.000000000000000000e+00,5.000000000000000000e+00,5.000000000000000000e+00,5.000000000000000000e+00,5.000000000000000000e+00,5.000000000000000000e+00,5.000000000000000000e+00,5.000000000000000000e+00,5.000000000000000000e+00,5.000000000000000000e+00,5.000000000000000000e+00,5.000000000000000000e+00,5.000000000000000000e+00,5.000000000000000000e+00,5.000000000000000000e+00,5.000000000000000000e+00,5.000000000000000000e+00,5.000000000000000000e+00,5.000000000000000000e+00,5.000000000000000000e+00,4.864768981933593750e+00,4.673600196838378906e+00,4.496888160705566406e+00,4.333052158355712891e+00,4.180735111236572266e+00,4.038763523101806641e+00,3.906116247177124023e+00,3.781904935836791992e+00,3.665350198745727539e+00,3.555764913558959961e+00,3.452541828155517578e+00,3.355143070220947266e+00,3.263088464736938477e+00,3.175950527191162109e+00,3.093345642089843750e+00,3.014928817749023438e+00,2.940389394760131836e+00,2.869446516036987305e+00,2.801846504211425781e+00,2.737358331680297852e+00,2.675771951675415039e+00,2.616895914077758789e+00,2.560554742813110352e+00,2.506588459014892578e+00,2.454850196838378906e+00,2.405204534530639648e+00,2.357527256011962891e+00,2.311703205108642578e+00,2.267626285552978516e+00,2.225199222564697266e+00,2.184330463409423828e+00,2.144935846328735352e+00,2.106937170028686523e+00,2.070261001586914062e+00,2.034840106964111328e+00,2.000610828399658203e+00,1.967514395713806152e+00,1.935495018959045410e+00,1.904500961303710938e+00,1.874483823776245117e+00,1.845398426055908203e+00
4.875362873077392578e+00,4.874151706695556641e+00,4.872941493988037109e+00,4.871731758117675781e+00,4.870522499084472656e+00,4.869313716888427734e+00,4.868105888366699219e+00,4.866898536682128906e+00,4.865691661834716797e+00,4.864485263824462891e+00,4.863279819488525391e+00,4.862074851989746094e+00,4.860870361328125000e+00,4.859666347503662109e+00,4.858463287353515625e+00,4.857260704040527344e+00,4.856058597564697266e+00,4.854856967926025391e+00,4.853656291961669922e+00,4.852456092834472656e+00,4.851256370544433594e+00,4.850057125091552734e+00,4.848858833312988281e+00,4.847661495208740234e+00,4.846464157104492188e+00,4.845267295837402344e+00,4.844071388244628906e+00,4.842875480651855469e+00,4.841680526733398438e+00,4.840486526489257812e+00,4.839292526245117188e+00,4.838099479675292969e+00,4.836906909942626953e+00,4.835714817047119141e+00,4.834523200988769531e+00,4.833332538604736328e+00,4.832142353057861328e+00,4.830952644348144531e+00,4.829763412475585938e+00,4.828575134277343750e+00,4.673727989196777344e+00,4.497006416320800781e+00,4.333162307739257812e+00,4.180837154388427734e+00,4.038859367370605469e+00,3.906205892562866211e+00,3.781989336013793945e+00,3.665429115295410156e+00,3.555839061737060547e+00,3.452611923217773438e+00,3.355209112167358398e+00,3.263151168823242188e+00,3.176010131835937500e+00,3.093401908874511719e+00,3.014981985092163086e+00,2.940440177917480469e+00,2.869495153427124023e+00,2.801892757415771484e+00,2.737402200698852539e+00,2.675813913345336914e+00,2.616935968399047852e+00,2.560593366622924805e+00,2.506625652313232422e+00,2.454885482788085938e+00,2.405238389968872070e+00,2.357559919357299805e+00,2.311734437942504883e+00,2.267656803131103516e+00,2.225228309631347656e+00,2.184358596801757812e+00,2.144962787628173828e+00,2.106963157653808594e+00,2.070286273956298828e+00,2.034864664077758789e+00,2.000634431838989258e+00,1.967537164688110352e+00,1.935516834259033203e+00,1.904522299766540527e+00,1.874504566192626953e+00,1.845418334007263184e+00
3.778169393539428711e+00,3.777441978454589844e+00,3.776715278625488281e+00,3.775988578796386719e+00,3.775262117385864258e+00,3.774535894393920898e+00,3.773809909820556641e+00,3.773084402084350586e+00,3.772358894348144531e+00,3.771633863449096680e+00,3.770909070968627930e+00,3.770184516906738281e+00,3.769460201263427734e+00,3.768736362457275391e+00,3.768012762069702148e+00,3.767289161682128906e+00,3.766566038131713867e+00,3.765843391418457031e+00,3.765120744705200195e+00,3.764398336410522461e+00,3.763676404953002930e+00,3.762954473495483398e+00,3.762233018875122070e+00,3.761511802673339844e+00,3.760791063308715820e+00,3.760070323944091797e+00,3.759350061416625977e+00,3.758630037307739258e+00,3.757910013198852539e+00,3.757190465927124023e+00,3.756471395492553711e+00,3.755752325057983398e+00,3.755033493041992188e+00,3.754315137863159180e+00,3.753597021102905273e+00,3.752879142761230469e+00,3.752161502838134766e+00,3.751444101333618164e+00,3.750726938247680664e+00,3.750010251998901367e+00,3.749293804168701172e+00,3.748577356338500977e+00,3.747861385345458984e+00,3.747145891189575195e+00,3.746430873870849609e+00,3.745715618133544922e+00,3.745000839233398438e+00,3.665508270263671875e+00,3.555913686752319336e+00,3.452681779861450195e+00,3.355275154113769531e+00,3.263213872909545898e+00,3.176069259643554688e+00,3.093458175659179688e+00,3.015035390853881836e+00,2.940490961074829102e+00,2.869543552398681641e+00,2.801939010620117188e+00,2.737446546554565430e+00,2.675856351852416992e+00,2.616976261138916016e+00,2.560631752014160156e+00,2.506662368774414062e+00,2.454921007156372070e+00,2.405272722244262695e+00,2.357592344284057617e+00,2.311765909194946289e+00,2.267686843872070312e+00,2.225257396697998047e+00,2.184386730194091797e+00,2.144989967346191406e+00,2.106989145278930664e+00,2.070311307907104492e+00,2.034888982772827148e+00,2.000658035278320312e+00,1.967560052871704102e+00,1.935539007186889648e+00,1.904543519020080566e+00,1.874525308609008789e+00,1.845438361167907715e+00
3.084097862243652344e+00,3.083613157272338867e+00,3.083128690719604492e+00,3.082644224166870117e+00,3.082160234451293945e+00,3.081676006317138672e+00,3.081192255020141602e+00,3.080708503723144531e+00,3.080224752426147461e+00,3.079741477966308594e+00,3.079258203506469727e+00,3.078774929046630859e+00,3.078291893005371094e+00,3.077809095382690430e+00,3.077326536178588867e+00,3.076843976974487305e+00,3.076361656188964844e+00,3.075879335403442383e+00,3.075397253036499023e+00,3.074915409088134766e+00,3.074433565139770508e+00,3.073951959609985352e+00,3.073470354080200195e+00,3.072989463806152344e+00,3.072508096694946289e+00,3.072027206420898438e+00,3.071546316146850586e+00,3.071065664291381836e+00,3.070585012435913086e+00,3.070104598999023438e+00,3.069624423980712891e+00,3.069144248962402344e+00,3.068664312362670898e+00,3.068184375762939453e+00,3.067704677581787109e+00,3.067225217819213867e+00,3.066745758056640625e+00,3.066266536712646484e+00,3.065787553787231445e+00,3.065308809280395508e+00,3.064830064773559570e+00,3.064351320266723633e+00,3.063872814178466797e+00,3.063394546508789062e+00,3.062916278839111328e+00,3.062438488006591797e+00,3.061960458755493164e+00,3.061482667922973633e+00,3.061005115509033203e+00,3.060527801513671875e+00,3.060050487518310547e+00,3.059573411941528320e+00,3.059096336364746094e+00,3.058619499206542969e+00,3.015089035034179688e+00,2.940541982650756836e+00,2.869591712951660156e+00,2.801985025405883789e+00,2.737490415573120117e+00,2.675898313522338867e+00,2.617016553878784180e+00,2.560670137405395508e+00,2.506699323654174805e+00,2.454956531524658203e+00,2.405306577682495117e+00,2.357625246047973633e+00,2.311797380447387695e+00,2.267717123031616211e+00,2.225286483764648438e+00,2.184414625167846680e+00,2.145017147064208984e+00,2.107015371322631836e+00,2.070336580276489258e+00,2.034913301467895508e+00,2.000681638717651367e+00,1.967582702636718750e+00,1.935561060905456543e+00,1.904564857482910156e+00,1.874545812606811523e+00,1.845458507537841797e+00
2.605459690093994141e+00,2.605113744735717773e+00,2.604768037796020508e+00,2.604422330856323242e+00,2.604076623916625977e+00,2.603731155395507812e+00,2.603385686874389648e+00,2.603040456771850586e+00,2.602695226669311523e+00,2.602349996566772461e+00,2.602004766464233398e+00,2.601659774780273438e+00,2.601315021514892578e+00,2.600970268249511719e+00,2.600625514984130859e+00,2.600280761718750000e+00,2.599936246871948242e+00,2.599591970443725586e+00,2.599247455596923828e+00,2.598903179168701172e+00,2.598559141159057617e+00,2.598214864730834961e+00,2.597871065139770508e+00,2.597527027130126953e+00,2.597183227539062500e+00,2.596839666366577148e+00,2.596495866775512695e+00,2.596152544021606445e+00,2.595808982849121094e+00,2.595465660095214844e+00,2.595122337341308594e+00,2.594779253005981445e+00,2.594436168670654297e+00,2.594093084335327148e+00,2.593750238418579102e+00,2.593407392501831055e+00,2.593064785003662109e+00,2.592722177505493164e+00,2.592379570007324219e+00,2.592037200927734375e+00,2.591694831848144531e+00,2.591352462768554688e+00,2.591010332107543945e+00,2.590668201446533203e+00,2.590326547622680664e+00,2.589984655380249023e+00,2.589642763137817383e+00,2.589301109313964844e+00,2.588959455490112305e+00,2.588617801666259766e+00,2.588276386260986328e+00,2.587935209274291992e+00,2.587593793869018555e+00,2.587252616882324219e+00,2.586911678314208984e+00,2.586570501327514648e+00,2.586229801177978516e+00,2.585888862609863281e+00,2.585548162460327148e+00,2.585207462310791016e+00,2.584867000579833984e+00,2.560708999633789062e+00,2.506736516952514648e+00,2.454991817474365234e+00,2.405340671539306641e+00,2.357657909393310547e+00,2.311828851699829102e+00,2.267747402191162109e+00,2.225315570831298828e+00,2.184442758560180664e+00,2.145044088363647461e+00,2.107041358947753906e+00,2.070361852645874023e+00,2.034937620162963867e+00,2.000705003738403320e+00,1.967605471611022949e+00,1.935582995414733887e+00,1.904586315155029297e+00,1.874566555023193359e+00,1.845478415489196777e+00
2.255445957183837891e+00,2.255185842514038086e+00,2.254925966262817383e+00,2.254665851593017578e+00,2.254406213760375977e+00,2.254146337509155273e+00,2.253886699676513672e+00,2.253627061843872070e+00,2.253367185592651367e+00,2.253107786178588867e+00,2.252848148345947266e+00,2.252588748931884766e+00,2.252329587936401367e+00,2.252070188522338867e+00,2.251811027526855469e+00,2.251551628112792969e+00,2.251292467117309570e+00,2.251033544540405273e+00,2.250774383544921875e+00,2.250515460968017578e+00,2.250256538391113281e+00,2.249997854232788086e+00,2.249739170074462891e+00,2.249480962753295898e+00,2.249222993850708008e+00,2.248965263366699219e+00,2.248707532882690430e+00,2.248449802398681641e+00,2.248192310333251953e+00,2.247934579849243164e+00,2.247677087783813477e+00,2.247419834136962891e+00,2.247162342071533203e+00,2.246905088424682617e+00,2.246647834777832031e+00,2.246390581130981445e+00,2.246133565902709961e+00,2.245876312255859375e+00,2.245619297027587891e+00,2.245362281799316406e+00,2.245105504989624023e+00,2.244848728179931641e+00,2.244591951370239258e+00,2.244335174560546875e+00,2.244078397750854492e+00,2.243821859359741211e+00,2.243565320968627930e+00,2.243308782577514648e+00,2.243052482604980469e+00,2.242795944213867188e+00,2.242539644241333008e+00,2.242283344268798828e+00,2.242027282714843750e+00,2.241770982742309570e+00,2.241514921188354492e+00,2.241258859634399414e+00,2.241003036499023438e+00,2.240746974945068359e+00,2.240491151809692383e+00,2.240235567092895508e+00,2.239979743957519531e+00,2.239724159240722656e+00,2.239468336105346680e+00,2.239212989807128906e+00,2.238957405090332031e+00,2.238702058792114258e+00,2.238446712493896484e+00,2.238191366195678711e+00,2.225344896316528320e+00,2.184470891952514648e+00,2.145071029663085938e+00,2.107067584991455078e+00,2.070387125015258789e+00,2.034961938858032227e+00,2.000728607177734375e+00,1.967628121376037598e+00,1.935605049133300781e+00,1.904607534408569336e+00,1.874587297439575195e+00,1.845498442649841309e+00
1.988372087478637695e+00,1.988169908523559570e+00,1.987968087196350098e+00,1.987765908241271973e+00,1.987563848495483398e+00,1.987362146377563477e+00,1.987160205841064453e+00,1.986958265304565430e+00,1.986756324768066406e+00,1.986554741859436035e+00,1.986352920532226562e+00,1.986151218414306641e+00,1.985949754714965820e+00,1.985748052597045898e+00,1.985546469688415527e+00,1.985344886779785156e+00,1.985143542289733887e+00,1.984942078590393066e+00,1.984740495681762695e+00,1.984539389610290527e+00,1.984337925910949707e+00,1.984136581420898438e+00,1.983935475349426270e+00,1.983734250068664551e+00,1.983533024787902832e+00,1.983331799507141113e+00,1.983130931854248047e+00,1.982929825782775879e+00,1.982728719711303711e+00,1.982527971267700195e+00,1.982326984405517578e+00,1.982125997543334961e+00,1.981925368309020996e+00,1.981724500656127930e+00,1.981523633003234863e+00,1.981322884559631348e+00,1.981122374534606934e+00,1.980921745300292969e+00,1.980720996856689453e+00,1.980520606040954590e+00,1.980320096015930176e+00,1.980119585990905762e+00,1.979919075965881348e+00,1.979718804359436035e+00,1.979518413543701172e+00,1.979318022727966309e+00,1.979117870330810547e+00,1.978917598724365234e+00,1.978717327117919922e+00,1.978517413139343262e+00,1.978317260742187500e+00,1.978117108345031738e+00,1.977916955947875977e+00,1.977717161178588867e+00,1.977517127990722656e+00,1.977317214012145996e+00,1.977117419242858887e+00,1.976917624473571777e+00,1.976717710494995117e+00,1.976518154144287109e+00,1.976318359375000000e+00,1.976118683815002441e+00,1.975919008255004883e+00,1.975719571113586426e+00,1.975519895553588867e+00,1.975320339202880859e+00,1.975121140480041504e+00,1.974921584129333496e+00,1.974722146987915039e+00,1.974522709846496582e+00,1.974323630332946777e+00,1.974124312400817871e+00,1.973924994468688965e+00,1.973726034164428711e+00,1.973526835441589355e+00,1.967651009559631348e+00,1.935627222061157227e+00,1.904628872871398926e+00,1.874607801437377930e+00,1.845518589019775391e+00
1.777851581573486328e+00,1.777689933776855469e+00,1.777528524398803711e+00,1.777366995811462402e+00,1.777205467224121094e+00,1.777044177055358887e+00,1.776882648468017578e+00,1.776721239089965820e+00,1.776559829711914062e+00,1.776398658752441406e+00,1.776237249374389648e+00,1.776075959205627441e+00,1.775914788246154785e+00,1.775753498077392578e+00,1.775592327117919922e+00,1.775431036949157715e+00,1.775270104408264160e+00,1.775108933448791504e+00,1.774947762489318848e+00,1.774786829948425293e+00,1.774625778198242188e+00,1.774464726448059082e+00,1.774303913116455078e+00,1.774142861366271973e+00,1.773981928825378418e+00,1.773820996284484863e+00,1.773660302162170410e+00,1.773499488830566406e+00,1.773338675498962402e+00,1.773177981376647949e+00,1.773017168045043945e+00,1.772856473922729492e+00,1.772695899009704590e+00,1.772535204887390137e+00,1.772374510765075684e+00,1.772213935852050781e+00,1.772053480148315430e+00,1.771892905235290527e+00,1.771732330322265625e+00,1.771571993827819824e+00,1.771411538124084473e+00,1.771251082420349121e+00,1.771090626716613770e+00,1.770930409431457520e+00,1.770770072937011719e+00,1.770609736442565918e+00,1.770449638366699219e+00,1.770289301872253418e+00,1.770129084587097168e+00,1.769968986511230469e+00,1.769808769226074219e+00,1.769648671150207520e+00,1.769488453865051270e+00,1.769328594207763672e+00,1.769168496131896973e+00,1.769008398056030273e+00,1.768848538398742676e+00,1.768688559532165527e+00,1.768528580665588379e+00,1.768368840217590332e+00,1.768208980560302734e+00,1.768049120903015137e+00,1.767889261245727539e+00,1.767729520797729492e+00,1.767569780349731445e+00,1.767410039901733398e+00,1.767250418663024902e+00,1.767090797424316406e+00,1.766931056976318359e+00,1.766771435737609863e+00,1.766611933708190918e+00,1.766452431678771973e+00,1.766292810440063477e+00,1.766133546829223633e+00,1.765974044799804688e+00,1.765814542770385742e+00,1.765655279159545898e+00,1.765495896339416504e+00,1.765336513519287109e+00,1.765177130699157715e+00
1.607641339302062988e+00,1.607509136199951172e+00,1.607377171516418457e+00,1.607245087623596191e+00,1.607113003730773926e+00,1.606981039047241211e+00,1.606848955154418945e+00,1.606716990470886230e+00,1.606584906578063965e+00,1.606453061103820801e+00,1.606321096420288086e+00,1.606189131736755371e+00,1.606057405471801758e+00,1.605925559997558594e+00,1.605793595314025879e+00,1.605661749839782715e+00,1.605530142784118652e+00,1.605398297309875488e+00,1.605266451835632324e+00,1.605134844779968262e+00,1.605003118515014648e+00,1.604871392250061035e+00,1.604739785194396973e+00,1.604608178138732910e+00,1.604476451873779297e+00,1.604344844818115234e+00,1.604213356971740723e+00,1.604081749916076660e+00,1.603950142860412598e+00,1.603818774223327637e+00,1.603687286376953125e+00,1.603555679321289062e+00,1.603424429893493652e+00,1.603292942047119141e+00,1.603161454200744629e+00,1.603030085563659668e+00,1.602898836135864258e+00,1.602767348289489746e+00,1.602636098861694336e+00,1.602504849433898926e+00,1.602373480796813965e+00,1.602242231369018555e+00,1.602110981941223145e+00,1.601979851722717285e+00,1.601848602294921875e+00,1.601717472076416016e+00,1.601586341857910156e+00,1.601455211639404297e+00,1.601324081420898438e+00,1.601193070411682129e+00,1.601061940193176270e+00,1.600930929183959961e+00,1.600799798965454102e+00,1.600668907165527344e+00,1.600537896156311035e+00,1.600407004356384277e+00,1.600276112556457520e+00,1.600145220756530762e+00,1.600014209747314453e+00,1.599883437156677246e+00,1.599752545356750488e+00,1.599621653556823730e+00,1.599490880966186523e+00,1.599360108375549316e+00,1.599229335784912109e+00,1.599098563194274902e+00,1.598967909812927246e+00,1.598837256431579590e+00,1.598706483840942383e+00,1.598575830459594727e+00,1.598445296287536621e+00,1.598314642906188965e+00,1.598183989524841309e+00,1.598053574562072754e+00,1.597922921180725098e+00,1.597792387008666992e+00,1.597661972045898438e+00,1.597531437873840332e+00,1.597400903701782227e+00,1.597270488739013672e+00
1.467175006866455078e+00,1.467064857482910156e+00,1.466954946517944336e+00,1.466844916343688965e+00,1.466734886169433594e+00,1.466624975204467773e+00,1.466515064239501953e+00,1.466405034065246582e+00,1.466295123100280762e+00,1.466185212135314941e+00,1.466075301170349121e+00,1.465965390205383301e+00,1.465855598449707031e+00,1.465745806694030762e+00,1.465635895729064941e+00,1.465526103973388672e+00,1.465416312217712402e+00,1.465306520462036133e+00,1.465196728706359863e+00,1.465087056159973145e+00,1.464977264404296875e+00,1.464867591857910156e+00,1.464757919311523438e+00,1.464648246765136719e+00,1.464538574218750000e+00,1.464428901672363281e+00,1.464319348335266113e+00,1.464209675788879395e+00,1.464100003242492676e+00,1.463990569114685059e+00,1.463880896568298340e+00,1.463771343231201172e+00,1.463661909103393555e+00,1.463552355766296387e+00,1.463442802429199219e+00,1.463333249092102051e+00,1.463223934173583984e+00,1.463114500045776367e+00,1.463004946708679199e+00,1.462895631790161133e+00,1.462786197662353516e+00,1.462676763534545898e+00,1.462567448616027832e+00,1.462458133697509766e+00,1.462348818778991699e+00,1.462239384651184082e+00,1.462130188941955566e+00,1.462020874023437500e+00,1.461911559104919434e+00,1.461802482604980469e+00,1.461693167686462402e+00,1.461583852767944336e+00,1.461474657058715820e+00,1.461365580558776855e+00,1.461256384849548340e+00,1.461147189140319824e+00,1.461038112640380859e+00,1.460928916931152344e+00,1.460819840431213379e+00,1.460710883140563965e+00,1.460601687431335449e+00,1.460492610931396484e+00,1.460383534431457520e+00,1.460274577140808105e+00,1.460165619850158691e+00,1.460056543350219727e+00,1.459947705268859863e+00,1.459838628768920898e+00,1.459729671478271484e+00,1.459620714187622070e+00,1.459511876106262207e+00,1.459402918815612793e+00,1.459294080734252930e+00,1.459185242652893066e+00,1.459076404571533203e+00,1.458967566490173340e+00,1.458858847618103027e+00,1.458750009536743164e+00,1.458641171455383301e+00,1.458532333374023438e+00
1.349282503128051758e+00,1.349189400672912598e+00,1.349096417427062988e+00,1.349003314971923828e+00,1.348910331726074219e+00,1.348817348480224609e+00,1.348724246025085449e+00,1.348631262779235840e+00,1.348538279533386230e+00,1.348445415496826172e+00,1.348352432250976562e+00,1.348259449005126953e+00,1.348166584968566895e+00,1.348073601722717285e+00,1.347980737686157227e+00,1.347887754440307617e+00,1.347795009613037109e+00,1.347702145576477051e+00,1.347609162330627441e+00,1.347516417503356934e+00,1.347423553466796875e+00,1.347330808639526367e+00,1.347238063812255859e+00,1.347145318984985352e+00,1.347052454948425293e+00,1.346959710121154785e+00,1.346866965293884277e+00,1.346774220466613770e+00,1.346681475639343262e+00,1.346588850021362305e+00,1.346496105194091797e+00,1.346403360366821289e+00,1.346310853958129883e+00,1.346218109130859375e+00,1.346125483512878418e+00,1.346032738685607910e+00,1.345940232276916504e+00,1.345847606658935547e+00,1.345754981040954590e+00,1.345662474632263184e+00,1.345569849014282227e+00,1.345477342605590820e+00,1.345384716987609863e+00,1.345292210578918457e+00,1.345199704170227051e+00,1.345107197761535645e+00,1.345014810562133789e+00,1.344922304153442383e+00,1.344829797744750977e+00,1.344737410545349121e+00,1.344644904136657715e+00,1.344552397727966309e+00,1.344460010528564453e+00,1.344367623329162598e+00,1.344275236129760742e+00,1.344182848930358887e+00,1.344090580940246582e+00,1.343998193740844727e+00,1.343905806541442871e+00,1.343813538551330566e+00,1.343721151351928711e+00,1.343628883361816406e+00,1.343536496162414551e+00,1.343444347381591797e+00,1.343352079391479492e+00,1.343259811401367188e+00,1.343167543411254883e+00,1.343075275421142578e+00,1.342983126640319824e+00,1.342890858650207520e+00,1.342798709869384766e+00,1.342706561088562012e+00,1.342614293098449707e+00,1.342522263526916504e+00,1.342430114746093750e+00,1.342337965965270996e+00,1.342245936393737793e+00,1.342153787612915039e+00,1.342061638832092285e+00,1.341969490051269531e+00
1.248926997184753418e+00,1.248847246170043945e+00,1.248767614364624023e+00,1.248687863349914551e+00,1.248608112335205078e+00,1.248528480529785156e+00,1.248448729515075684e+00,1.248369097709655762e+00,1.248289346694946289e+00,1.248209714889526367e+00,1.248130083084106445e+00,1.248050451278686523e+00,1.247970819473266602e+00,1.247891187667846680e+00,1.247811555862426758e+00,1.247731924057006836e+00,1.247652411460876465e+00,1.247572779655456543e+00,1.247493267059326172e+00,1.247413754463195801e+00,1.247334241867065430e+00,1.247254610061645508e+00,1.247175216674804688e+00,1.247095584869384766e+00,1.247016072273254395e+00,1.246936559677124023e+00,1.246857166290283203e+00,1.246777653694152832e+00,1.246698141098022461e+00,1.246618747711181641e+00,1.246539235115051270e+00,1.246459841728210449e+00,1.246380448341369629e+00,1.246301054954528809e+00,1.246221661567687988e+00,1.246142148971557617e+00,1.246062874794006348e+00,1.245983481407165527e+00,1.245904088020324707e+00,1.245824813842773438e+00,1.245745420455932617e+00,1.245666027069091797e+00,1.245586752891540527e+00,1.245507478713989258e+00,1.245428085327148438e+00,1.245348811149597168e+00,1.245269536972045898e+00,1.245190262794494629e+00,1.245110988616943359e+00,1.245031833648681641e+00,1.244952559471130371e+00,1.244873285293579102e+00,1.244794011116027832e+00,1.244714856147766113e+00,1.244635701179504395e+00,1.244556427001953125e+00,1.244477391242980957e+00,1.244398117065429688e+00,1.244318962097167969e+00,1.244239926338195801e+00,1.244160652160644531e+00,1.244081497192382812e+00,1.244002342224121094e+00,1.243923306465148926e+00,1.243844270706176758e+00,1.243765115737915039e+00,1.243686079978942871e+00,1.243607044219970703e+00,1.243527889251708984e+00,1.243448853492736816e+00,1.243369817733764648e+00,1.243290781974792480e+00,1.243211746215820312e+00,1.243132829666137695e+00,1.243053793907165527e+00,1.242974758148193359e+00,1.242895841598510742e+00,1.242816925048828125e+00,1.242737889289855957e+00,1.242658853530883789e+00
1.162466287612915039e+00,1.162397265434265137e+00,1.162328243255615234e+00,1.162259101867675781e+00,1.162190079689025879e+00,1.162121057510375977e+00,1.162052035331726074e+00,1.161982893943786621e+00,1.161913871765136719e+00,1.161844968795776367e+00,1.161775946617126465e+00,1.161706924438476562e+00,1.161637902259826660e+00,1.161568999290466309e+00,1.161499977111816406e+00,1.161430954933166504e+00,1.161362051963806152e+00,1.161293029785156250e+00,1.161224126815795898e+00,1.161155223846435547e+00,1.161086320877075195e+00,1.161017298698425293e+00,1.160948514938354492e+00,1.160879611968994141e+00,1.160810708999633789e+00,1.160741806030273438e+00,1.160672903060913086e+00,1.160604000091552734e+00,1.160535216331481934e+00,1.160466313362121582e+00,1.160397529602050781e+00,1.160328626632690430e+00,1.160259842872619629e+00,1.160191059112548828e+00,1.160122156143188477e+00,1.160053372383117676e+00,1.159984588623046875e+00,1.159915804862976074e+00,1.159847021102905273e+00,1.159778356552124023e+00,1.159709453582763672e+00,1.159640789031982422e+00,1.159572005271911621e+00,1.159503340721130371e+00,1.159434556961059570e+00,1.159365773200988770e+00,1.159297108650207520e+00,1.159228444099426270e+00,1.159159660339355469e+00,1.159090995788574219e+00,1.159022331237792969e+00,1.158953666687011719e+00,1.158885002136230469e+00,1.158816337585449219e+00,1.158747673034667969e+00,1.158679008483886719e+00,1.158610463142395020e+00,1.158541798591613770e+00,1.158473134040832520e+00,1.158404588699340820e+00,1.158336043357849121e+00,1.158267378807067871e+00,1.158198833465576172e+00,1.158130288124084473e+00,1.158061742782592773e+00,1.157993078231811523e+00,1.157924652099609375e+00,1.157856106758117676e+00,1.157787442207336426e+00,1.157718896865844727e+00,1.157650470733642578e+00,1.157581925392150879e+00,1.157513380050659180e+00,1.157444953918457031e+00,1.157376527786254883e+00,1.157307982444763184e+00,1.157239556312561035e+00,1.157171130180358887e+00,1.157102584838867188e+00,1.157034158706665039e+00
1.087201595306396484e+00,1.087141156196594238e+00,1.087080717086791992e+00,1.087020277976989746e+00,1.086959838867187500e+00,1.086899518966674805e+00,1.086839079856872559e+00,1.086778759956359863e+00,1.086718320846557617e+00,1.086658000946044922e+00,1.086597561836242676e+00,1.086537241935729980e+00,1.086476922035217285e+00,1.086416602134704590e+00,1.086356163024902344e+00,1.086295843124389648e+00,1.086235642433166504e+00,1.086175203323364258e+00,1.086114883422851562e+00,1.086054682731628418e+00,1.085994362831115723e+00,1.085934042930603027e+00,1.085873842239379883e+00,1.085813522338867188e+00,1.085753202438354492e+00,1.085692882537841797e+00,1.085632681846618652e+00,1.085572481155395508e+00,1.085512161254882812e+00,1.085451960563659668e+00,1.085391759872436523e+00,1.085331559181213379e+00,1.085271358489990234e+00,1.085211157798767090e+00,1.085150957107543945e+00,1.085090637207031250e+00,1.085030555725097656e+00,1.084970355033874512e+00,1.084910154342651367e+00,1.084850072860717773e+00,1.084789872169494629e+00,1.084729671478271484e+00,1.084669470787048340e+00,1.084609389305114746e+00,1.084549188613891602e+00,1.084489107131958008e+00,1.084429025650024414e+00,1.084368824958801270e+00,1.084308743476867676e+00,1.084248661994934082e+00,1.084188580513000488e+00,1.084128499031066895e+00,1.084068298339843750e+00,1.084008336067199707e+00,1.083948254585266113e+00,1.083888173103332520e+00,1.083828091621398926e+00,1.083768129348754883e+00,1.083708047866821289e+00,1.083647966384887695e+00,1.083588004112243652e+00,1.083527922630310059e+00,1.083467841148376465e+00,1.083407878875732422e+00,1.083347916603088379e+00,1.083287835121154785e+00,1.083227992057800293e+00,1.083167910575866699e+00,1.083107948303222656e+00,1.083047986030578613e+00,1.082988023757934570e+00,1.082928061485290527e+00,1.082868099212646484e+00,1.082808136940002441e+00,1.082748174667358398e+00,1.082688331604003906e+00,1.082628369331359863e+00,1.082568526268005371e+00,1.082508563995361328e+00,1.082448601722717285e+00
1.021090269088745117e+00,1.021036982536315918e+00,1.020983695983886719e+00,1.020930409431457520e+00,1.020877122879028320e+00,1.020823836326599121e+00,1.020770549774169922e+00,1.020717263221740723e+00,1.020663976669311523e+00,1.020610809326171875e+00,1.020557522773742676e+00,1.020504236221313477e+00,1.020451068878173828e+00,1.020397901535034180e+00,1.020344614982604980e+00,1.020291328430175781e+00,1.020238161087036133e+00,1.020184993743896484e+00,1.020131707191467285e+00,1.020078539848327637e+00,1.020025372505187988e+00,1.019972205162048340e+00,1.019919037818908691e+00,1.019865870475769043e+00,1.019812583923339844e+00,1.019759416580200195e+00,1.019706368446350098e+00,1.019653201103210449e+00,1.019600033760070801e+00,1.019546866416931152e+00,1.019493699073791504e+00,1.019440650939941406e+00,1.019387483596801758e+00,1.019334316253662109e+00,1.019281268119812012e+00,1.019228100776672363e+00,1.019175052642822266e+00,1.019121885299682617e+00,1.019068837165832520e+00,1.019015789031982422e+00,1.018962621688842773e+00,1.018909573554992676e+00,1.018856525421142578e+00,1.018803477287292480e+00,1.018750429153442383e+00,1.018697261810302734e+00,1.018644332885742188e+00,1.018591284751892090e+00,1.018538236618041992e+00,1.018485188484191895e+00,1.018432140350341797e+00,1.018379092216491699e+00,1.018326044082641602e+00,1.018273115158081055e+00,1.018220067024230957e+00,1.018167018890380859e+00,1.018114089965820312e+00,1.018061161041259766e+00,1.018008112907409668e+00,1.017955183982849121e+00,1.017902135848999023e+00,1.017849206924438477e+00,1.017796158790588379e+00,1.017743349075317383e+00,1.017690300941467285e+00,1.017637372016906738e+00,1.017584443092346191e+00,1.017531514167785645e+00,1.017478585243225098e+00,1.017425656318664551e+00,1.017372727394104004e+00,1.017319798469543457e+00,1.017266869544982910e+00,1.017214059829711914e+00,1.017161130905151367e+00,1.017108201980590820e+00,1.017055392265319824e+00,1.017002463340759277e+00,1.016949534416198730e+00,1.016896724700927734e+00
9.625584483146667480e-01,9.625110626220703125e-01,9.624637961387634277e-01,9.624164104461669922e-01,9.623690247535705566e-01,9.623216390609741211e-01,9.622743129730224609e-01,9.622269868850708008e-01,9.621796011924743652e-01,9.621323943138122559e-01,9.620850682258605957e-01,9.620376825332641602e-01,9.619903564453125000e-01,9.619430303573608398e-01,9.618957638740539551e-01,9.618484377861022949e-01,9.618012309074401855e-01,9.617539048194885254e-01,9.617066383361816406e-01,9.616593122482299805e-01,9.616120457649230957e-01,9.615647196769714355e-01,9.615175724029541016e-01,9.614703059196472168e-01,9.614230394363403320e-01,9.613757729530334473e-01,9.613285064697265625e-01,9.612812399864196777e-01,9.612339735031127930e-01,9.611868262290954590e-01,9.611396193504333496e-01,9.610923528671264648e-01,9.610451459884643555e-01,9.609978795051574707e-01,9.609506726264953613e-01,9.609034061431884766e-01,9.608563184738159180e-01,9.608091115951538086e-01,9.607619047164916992e-01,9.607146978378295898e-01,9.606674909591674805e-01,9.606202840805053711e-01,9.605731368064880371e-01,9.605260491371154785e-01,9.604788422584533691e-01,9.604316949844360352e-01,9.603844881057739258e-01,9.603373408317565918e-01,9.602901935577392578e-01,9.602431654930114746e-01,9.601959586143493652e-01,9.601488113403320312e-01,9.601016640663146973e-01,9.600545763969421387e-01,9.600074291229248047e-01,9.599602818489074707e-01,9.599132537841796875e-01,9.598661661148071289e-01,9.598190188407897949e-01,9.597719311714172363e-01,9.597248435020446777e-01,9.596776962280273438e-01,9.596306085586547852e-01,9.595836400985717773e-01,9.595365524291992188e-01,9.594894647598266602e-01,9.594423770904541016e-01,9.593952894210815430e-01,9.593482613563537598e-01,9.593011736869812012e-01,9.592542052268981934e-01,9.592071771621704102e-01,9.591600894927978516e-01,9.591130614280700684e-01,9.590660333633422852e-01,9.590190052986145020e-01,9.589720368385314941e-01,9.589250087738037109e-01,9.588779807090759277e-01,9.588310122489929199e-01
9.103731513023376465e-01,9.103307723999023438e-01,9.102885127067565918e-01,9.102461338043212891e-01,9.102037549018859863e-01,9.101613759994506836e-01,9.101189970970153809e-01,9.100766777992248535e-01,9.100342988967895508e-01,9.099920392036437988e-01,9.099497199058532715e-01,9.099073410034179688e-01,9.098650217056274414e-01,9.098227024078369141e-01,9.097803831100463867e-01,9.097380638122558594e-01,9.096958041191101074e-01,9.096534848213195801e-01,9.096111655235290527e-01,9.095688462257385254e-01,9.095265269279479980e-01,9.094842672348022461e-01,9.094420671463012695e-01,9.093997478485107422e-01,9.093574881553649902e-01,9.093151688575744629e-01,9.092729091644287109e-01,9.092305898666381836e-01,9.091883301734924316e-01,9.091461896896362305e-01,9.091038703918457031e-01,9.090616106986999512e-01,9.090193510055541992e-01,9.089770913124084473e-01,9.089348316192626953e-01,9.088926315307617188e-01,9.088504910469055176e-01,9.088082313537597656e-01,9.087659716606140137e-01,9.087237715721130371e-01,9.086815118789672852e-01,9.086393117904663086e-01,9.085971117019653320e-01,9.085549712181091309e-01,9.085127711296081543e-01,9.084705114364624023e-01,9.084283113479614258e-01,9.083861112594604492e-01,9.083439111709594727e-01,9.083018302917480469e-01,9.082596302032470703e-01,9.082174897193908691e-01,9.081752896308898926e-01,9.081330895423889160e-01,9.080909490585327148e-01,9.080487489700317383e-01,9.080066680908203125e-01,9.079645276069641113e-01,9.079223871231079102e-01,9.078802466392517090e-01,9.078381061553955078e-01,9.077959060668945312e-01,9.077537655830383301e-01,9.077117443084716797e-01,9.076696038246154785e-01,9.076274633407592773e-01,9.075853228569030762e-01,9.075432419776916504e-01,9.075011014938354492e-01,9.074589610099792480e-01,9.074169993400573730e-01,9.073748588562011719e-01,9.073327779769897461e-01,9.072906970977783203e-01,9.072485566139221191e-01,9.072064757347106934e-01,9.071645140647888184e-01,9.071224331855773926e-01,9.070803523063659668e-01,9.070382714271545410e-01
8.635553717613220215e-01,8.635172247886657715e-01,8.634791970252990723e-01,8.634410500526428223e-01,8.634029626846313477e-01,8.633648157119750977e-01,8.633267283439636230e-01,8.632885813713073730e-01,8.632504940032958984e-01,8.632124662399291992e-01,8.631743788719177246e-01,8.631362318992614746e-01,8.630981445312500000e-01,8.630600571632385254e-01,8.630219697952270508e-01,8.629838824272155762e-01,8.629458546638488770e-01,8.629077672958374023e-01,8.628697395324707031e-01,8.628316521644592285e-01,8.627935647964477539e-01,8.627554774284362793e-01,8.627175092697143555e-01,8.626794815063476562e-01,8.626413941383361816e-01,8.626033663749694824e-01,8.625652790069580078e-01,8.625272512435913086e-01,8.624892234802246094e-01,8.624512553215026855e-01,8.624132275581359863e-01,8.623751997947692871e-01,8.623371720314025879e-01,8.622991442680358887e-01,8.622611165046691895e-01,8.622230887413024902e-01,8.621851205825805664e-01,8.621471524238586426e-01,8.621091246604919434e-01,8.620710968971252441e-01,8.620331287384033203e-01,8.619951009750366211e-01,8.619571328163146973e-01,8.619192242622375488e-01,8.618811964988708496e-01,8.618432283401489258e-01,8.618052601814270020e-01,8.617672324180603027e-01,8.617292642593383789e-01,8.616914153099060059e-01,8.616534471511840820e-01,8.616154789924621582e-01,8.615775108337402344e-01,8.615395426750183105e-01,8.615015745162963867e-01,8.614636063575744629e-01,8.614257574081420898e-01,8.613877892494201660e-01,8.613498806953430176e-01,8.613119125366210938e-01,8.612740039825439453e-01,8.612360358238220215e-01,8.611981272697448730e-01,8.611602783203125000e-01,8.611223697662353516e-01,8.610844612121582031e-01,8.610464930534362793e-01,8.610085844993591309e-01,8.609706759452819824e-01,8.609327673912048340e-01,8.608949780464172363e-01,8.608570694923400879e-01,8.608191609382629395e-01,8.607812523841857910e-01,8.607434034347534180e-01,8.607054948806762695e-01,8.606677055358886719e-01,8.606297969818115234e-01,8.605919480323791504e-01,8.605540990829467773e-01
8.213174343109130859e-01,8.212829828262329102e-01,8.212485313415527344e-01,8.212140798568725586e-01,8.211795687675476074e-01,8.211450576782226562e-01,8.211106061935424805e-01,8.210760951042175293e-01,8.210416436195373535e-01,8.210072517395019531e-01,8.209728002548217773e-01,8.209383487701416016e-01,8.209038376808166504e-01,8.208693861961364746e-01,8.208349347114562988e-01,8.208004832267761230e-01,8.207660913467407227e-01,8.207316398620605469e-01,8.206971883773803711e-01,8.206627964973449707e-01,8.206283450126647949e-01,8.205938935279846191e-01,8.205595612525939941e-01,8.205251097679138184e-01,8.204906582832336426e-01,8.204562664031982422e-01,8.204218149185180664e-01,8.203874230384826660e-01,8.203529715538024902e-01,8.203186392784118652e-01,8.202842473983764648e-01,8.202498555183410645e-01,8.202154040336608887e-01,8.201810121536254883e-01,8.201466202735900879e-01,8.201122283935546875e-01,8.200778961181640625e-01,8.200435042381286621e-01,8.200091123580932617e-01,8.199747204780578613e-01,8.199403882026672363e-01,8.199059963226318359e-01,8.198716044425964355e-01,8.198373317718505859e-01,8.198029398918151855e-01,8.197685480117797852e-01,8.197342157363891602e-01,8.196998238563537598e-01,8.196654915809631348e-01,8.196312189102172852e-01,8.195968270301818848e-01,8.195624947547912598e-01,8.195281624794006348e-01,8.194938302040100098e-01,8.194594383239746094e-01,8.194251060485839844e-01,8.193908333778381348e-01,8.193565011024475098e-01,8.193221688270568848e-01,8.192878365516662598e-01,8.192535638809204102e-01,8.192192316055297852e-01,8.191848993301391602e-01,8.191506862640380859e-01,8.191163539886474609e-01,8.190820217132568359e-01,8.190477490425109863e-01,8.190134167671203613e-01,8.189790844917297363e-01,8.189448118209838867e-01,8.189105987548828125e-01,8.188763260841369629e-01,8.188419938087463379e-01,8.188077211380004883e-01,8.187734484672546387e-01,8.187391757965087891e-01,8.187049627304077148e-01,8.186706900596618652e-01,8.186364173889160156e-01,8.186021447181701660e-01
7.830187678337097168e-01,7.829873561859130859e-01,7.829561233520507812e-01,7.829247713088989258e-01,7.828934192657470703e-01,7.828620672225952148e-01,7.828307151794433594e-01,7.827993631362915039e-01,7.827680706977844238e-01,7.827367782592773438e-01,7.827054262161254883e-01,7.826741337776184082e-01,7.826427817344665527e-01,7.826114892959594727e-01,7.825801372528076172e-01,7.825488448143005371e-01,7.825176119804382324e-01,7.824862599372863770e-01,7.824549674987792969e-01,7.824236750602722168e-01,7.823923230171203613e-01,7.823610305786132812e-01,7.823297977447509766e-01,7.822985053062438965e-01,7.822672128677368164e-01,7.822359204292297363e-01,7.822046279907226562e-01,7.821733355522155762e-01,7.821420431137084961e-01,7.821108698844909668e-01,7.820795774459838867e-01,7.820482850074768066e-01,7.820169925689697266e-01,7.819857001304626465e-01,7.819544672966003418e-01,7.819231748580932617e-01,7.818920016288757324e-01,7.818607091903686523e-01,7.818294763565063477e-01,7.817981839179992676e-01,7.817669510841369629e-01,7.817357182502746582e-01,7.817044258117675781e-01,7.816732525825500488e-01,7.816420197486877441e-01,7.816107869148254395e-01,7.815795540809631348e-01,7.815483212471008301e-01,7.815170884132385254e-01,7.814859151840209961e-01,7.814546823501586914e-01,7.814234495162963867e-01,7.813922166824340820e-01,7.813609838485717773e-01,7.813297510147094727e-01,7.812985181808471680e-01,7.812674045562744141e-01,7.812361717224121094e-01,7.812049984931945801e-01,7.811737656593322754e-01,7.811425328254699707e-01,7.811113595962524414e-01,7.810801267623901367e-01,7.810490131378173828e-01,7.810178399085998535e-01,7.809866070747375488e-01,7.809554338455200195e-01,7.809242606163024902e-01,7.808930873870849609e-01,7.808618545532226562e-01,7.808307409286499023e-01,7.807995676994323730e-01,7.807683944702148438e-01,7.807372212409973145e-01,7.807060480117797852e-01,7.806748747825622559e-01,7.806438207626342773e-01,7.806126475334167480e-01,7.805814743041992188e-01,7.805503010749816895e-01
7.481326460838317871e-01,7.481040358543395996e-01,7.480754852294921875e-01,7.480468750000000000e-01,7.480182647705078125e-01,7.479896545410156250e-01,7.479610443115234375e-01,7.479324340820312500e-01,7.479038238525390625e-01,7.478752732276916504e-01,7.478466629981994629e-01,7.478180527687072754e-01,7.477895021438598633e-01,7.477608919143676758e-01,7.477322816848754883e-01,7.477036714553833008e-01,7.476751804351806641e-01,7.476465702056884766e-01,7.476180195808410645e-01,7.475894093513488770e-01,7.475608587265014648e-01,7.475322484970092773e-01,7.475037574768066406e-01,7.474751472473144531e-01,7.474465966224670410e-01,7.474180459976196289e-01,7.473894357681274414e-01,7.473608851432800293e-01,7.473323345184326172e-01,7.473038434982299805e-01,7.472752928733825684e-01,7.472467422485351562e-01,7.472181916236877441e-01,7.471895813941955566e-01,7.471610307693481445e-01,7.471325397491455078e-01,7.471040487289428711e-01,7.470754981040954590e-01,7.470469474792480469e-01,7.470183968544006348e-01,7.469898462295532227e-01,7.469613552093505859e-01,7.469328045845031738e-01,7.469043135643005371e-01,7.468758225440979004e-01,7.468472719192504883e-01,7.468187808990478516e-01,7.467902302742004395e-01,7.467617392539978027e-01,7.467332482337951660e-01,7.467047572135925293e-01,7.466762065887451172e-01,7.466477155685424805e-01,7.466192245483398438e-01,7.465906739234924316e-01,7.465621829032897949e-01,7.465337514877319336e-01,7.465052604675292969e-01,7.464767694473266602e-01,7.464482784271240234e-01,7.464197874069213867e-01,7.463912963867187500e-01,7.463628053665161133e-01,7.463343739509582520e-01,7.463058829307556152e-01,7.462773919105529785e-01,7.462489008903503418e-01,7.462204098701477051e-01,7.461919784545898438e-01,7.461634874343872070e-01,7.461350560188293457e-01,7.461066246032714844e-01,7.460781335830688477e-01,7.460497021675109863e-01,7.460212111473083496e-01,7.459927797317504883e-01,7.459643483161926270e-01,7.459359169006347656e-01,7.459074258804321289e-01,7.458789944648742676e-01
7.162225842475891113e-01,7.161963582038879395e-01,7.161701917648315430e-01,7.161439657211303711e-01,7.161177396774291992e-01,7.160915136337280273e-01,7.160652875900268555e-01,7.160390615463256836e-01,7.160128355026245117e-01,7.159866690635681152e-01,7.159604430198669434e-01,7.159342765808105469e-01,7.159080505371093750e-01,7.158818244934082031e-01,7.158555984497070312e-01,7.158294320106506348e-01,7.158032655715942383e-01,7.157770395278930664e-01,7.157508730888366699e-01,7.157246470451354980e-01,7.156984806060791016e-01,7.156722545623779297e-01,7.156461477279663086e-01,7.156199812889099121e-01,7.155937552452087402e-01,7.155675888061523438e-01,7.155414223670959473e-01,7.155151963233947754e-01,7.154890298843383789e-01,7.154629230499267578e-01,7.154367566108703613e-01,7.154105901718139648e-01,7.153843641281127930e-01,7.153581976890563965e-01,7.153320312500000000e-01,7.153058648109436035e-01,7.152797579765319824e-01,7.152535915374755859e-01,7.152274250984191895e-01,7.152013182640075684e-01,7.151751518249511719e-01,7.151489853858947754e-01,7.151228189468383789e-01,7.150967121124267578e-01,7.150706052780151367e-01,7.150444388389587402e-01,7.150182723999023438e-01,7.149921655654907227e-01,7.149659991264343262e-01,7.149398922920227051e-01,7.149137854576110840e-01,7.148876190185546875e-01,7.148615121841430664e-01,7.148354053497314453e-01,7.148092389106750488e-01,7.147831320762634277e-01,7.147570252418518066e-01,7.147309184074401855e-01,7.147048115730285645e-01,7.146787047386169434e-01,7.146525382995605469e-01,7.146264314651489258e-01,7.146003246307373047e-01,7.145742774009704590e-01,7.145481705665588379e-01,7.145220637321472168e-01,7.144959568977355957e-01,7.144698500633239746e-01,7.144437432289123535e-01,7.144176363945007324e-01,7.143915891647338867e-01,7.143654823303222656e-01,7.143393754959106445e-01,7.143132686614990234e-01,7.142872214317321777e-01,7.142611145973205566e-01,7.142350673675537109e-01,7.142090201377868652e-01,7.141829133033752441e-01,7.141568064689636230e-01
6.869232654571533203e-01,6.868991255760192871e-01,6.868750452995300293e-01,6.868509650230407715e-01,6.868268251419067383e-01,6.868026852607727051e-01,6.867785453796386719e-01,6.867544651031494141e-01,6.867303252220153809e-01,6.867062449455261230e-01,6.866821646690368652e-01,6.866580247879028320e-01,6.866339445114135742e-01,6.866098046302795410e-01,6.865857243537902832e-01,6.865615844726562500e-01,6.865375638008117676e-01,6.865134835243225098e-01,6.864893436431884766e-01,6.864652633666992188e-01,6.864411830902099609e-01,6.864170432090759277e-01,6.863930225372314453e-01,6.863689422607421875e-01,6.863448619842529297e-01,6.863207221031188965e-01,6.862966418266296387e-01,6.862725615501403809e-01,6.862484812736511230e-01,6.862244606018066406e-01,6.862003803253173828e-01,6.861763000488281250e-01,6.861522197723388672e-01,6.861281394958496094e-01,6.861040592193603516e-01,6.860799789428710938e-01,6.860559582710266113e-01,6.860318779945373535e-01,6.860078573226928711e-01,6.859837770462036133e-01,6.859596967697143555e-01,6.859356164932250977e-01,6.859115958213806152e-01,6.858875751495361328e-01,6.858634948730468750e-01,6.858394742012023926e-01,6.858153939247131348e-01,6.857913732528686523e-01,6.857672929763793945e-01,6.857433319091796875e-01,6.857192516326904297e-01,6.856952309608459473e-01,6.856711506843566895e-01,6.856471300125122070e-01,6.856231093406677246e-01,6.855990290641784668e-01,6.855750679969787598e-01,6.855510473251342773e-01,6.855269670486450195e-01,6.855029463768005371e-01,6.854789257049560547e-01,6.854549050331115723e-01,6.854308843612670898e-01,6.854069232940673828e-01,6.853829026222229004e-01,6.853588819503784180e-01,6.853348612785339355e-01,6.853108406066894531e-01,6.852868199348449707e-01,6.852627992630004883e-01,6.852388381958007812e-01,6.852148175239562988e-01,6.851907968521118164e-01,6.851667761802673340e-01,6.851428151130676270e-01,6.851187944412231445e-01,6.850948333740234375e-01,6.850708127021789551e-01,6.850468516349792480e-01,6.850228309631347656e-01
6.599268913269042969e-01,6.599046587944030762e-01,6.598824262619018555e-01,6.598601341247558594e-01,6.598379015922546387e-01,6.598156094551086426e-01,6.597933769226074219e-01,6.597710847854614258e-01,6.597488522529602051e-01,6.597266197204589844e-01,6.597043871879577637e-01,6.596820950508117676e-01,6.596598625183105469e-01,6.596376299858093262e-01,6.596153378486633301e-01,6.595931053161621094e-01,6.595709323883056641e-01,6.595486402511596680e-01,6.595264077186584473e-01,6.595041751861572266e-01,6.594819426536560059e-01,6.594597101211547852e-01,6.594374775886535645e-01,6.594152450561523438e-01,6.593930125236511230e-01,6.593707799911499023e-01,6.593485474586486816e-01,6.593263149261474609e-01,6.593040823936462402e-01,6.592819094657897949e-01,6.592596769332885742e-01,6.592374444007873535e-01,6.592152714729309082e-01,6.591930389404296875e-01,6.591708064079284668e-01,6.591485738754272461e-01,6.591264009475708008e-01,6.591041684150695801e-01,6.590819954872131348e-01,6.590597629547119141e-01,6.590375304222106934e-01,6.590153574943542480e-01,6.589931249618530273e-01,6.589709520339965820e-01,6.589487791061401367e-01,6.589265465736389160e-01,6.589043736457824707e-01,6.588821411132812500e-01,6.588599681854248047e-01,6.588377952575683594e-01,6.588156223297119141e-01,6.587933897972106934e-01,6.587712168693542480e-01,6.587490439414978027e-01,6.587268114089965820e-01,6.587046384811401367e-01,6.586825251579284668e-01,6.586602926254272461e-01,6.586381196975708008e-01,6.586159467697143555e-01,6.585937738418579102e-01,6.585716009140014648e-01,6.585494279861450195e-01,6.585272550582885742e-01,6.585050821304321289e-01,6.584829092025756836e-01,6.584607362747192383e-01,6.584385633468627930e-01,6.584163904190063477e-01,6.583942174911499023e-01,6.583721041679382324e-01,6.583499312400817871e-01,6.583278179168701172e-01,6.583056449890136719e-01,6.582834720611572266e-01,6.582612991333007812e-01,6.582391858100891113e-01,6.582170128822326660e-01,6.581948995590209961e-01,6.581727266311645508e-01
6.349722146987915039e-01,6.349515914916992188e-01,6.349310278892517090e-01,6.349104046821594238e-01,6.348897814750671387e-01,6.348692178726196289e-01,6.348485946655273438e-01,6.348279714584350586e-01,6.348073482513427734e-01,6.347867846488952637e-01,6.347662210464477539e-01,6.347455978393554688e-01,6.347249746322631836e-01,6.347044110298156738e-01,6.346837878227233887e-01,6.346631646156311035e-01,6.346426606178283691e-01,6.346220374107360840e-01,6.346014142036437988e-01,6.345808506011962891e-01,6.345602273941040039e-01,6.345396637916564941e-01,6.345191001892089844e-01,6.344985365867614746e-01,6.344779133796691895e-01,6.344573497772216797e-01,6.344367861747741699e-01,6.344161629676818848e-01,6.343955993652343750e-01,6.343750953674316406e-01,6.343544721603393555e-01,6.343339085578918457e-01,6.343133449554443359e-01,6.342927813529968262e-01,6.342721581459045410e-01,6.342515945434570312e-01,6.342310905456542969e-01,6.342105269432067871e-01,6.341899633407592773e-01,6.341693997383117676e-01,6.341488361358642578e-01,6.341282725334167480e-01,6.341077089309692383e-01,6.340871453285217285e-01,6.340665817260742188e-01,6.340460181236267090e-01,6.340255141258239746e-01,6.340049505233764648e-01,6.339843869209289551e-01,6.339638829231262207e-01,6.339433193206787109e-01,6.339227557182312012e-01,6.339021921157836914e-01,6.338816881179809570e-01,6.338611245155334473e-01,6.338405609130859375e-01,6.338200569152832031e-01,6.337995529174804688e-01,6.337789893150329590e-01,6.337584257125854492e-01,6.337379217147827148e-01,6.337173581123352051e-01,6.336968541145324707e-01,6.336763501167297363e-01,6.336557865142822266e-01,6.336352825164794922e-01,6.336147189140319824e-01,6.335942149162292480e-01,6.335736513137817383e-01,6.335531473159790039e-01,6.335326433181762695e-01,6.335121393203735352e-01,6.334916353225708008e-01,6.334710717201232910e-01,6.334505677223205566e-01,6.334300637245178223e-01,6.334095597267150879e-01,6.333890557289123535e-01,6.333685517311096191e-01,6.333480477333068848e-01
6.118360757827758789e-01,6.118169426918029785e-01,6.117978692054748535e-01,6.117787361145019531e-01,6.117596030235290527e-01,6.117404103279113770e-01,6.117212772369384766e-01,6.117021441459655762e-01,6.116830110549926758e-01,6.116639375686645508e-01,6.116448044776916504e-01,6.116256713867187500e-01,6.116065382957458496e-01,6.115874052047729492e-01,6.115682721138000488e-01,6.115491390228271484e-01,6.115300655364990234e-01,6.115109324455261230e-01,6.114918589591979980e-01,6.114727258682250977e-01,6.114535927772521973e-01,6.114344596862792969e-01,6.114153861999511719e-01,6.113962531089782715e-01,6.113771796226501465e-01,6.113580465316772461e-01,6.113389134407043457e-01,6.113198399543762207e-01,6.113007068634033203e-01,6.112816333770751953e-01,6.112625598907470703e-01,6.112434267997741699e-01,6.112242937088012695e-01,6.112052202224731445e-01,6.111860871315002441e-01,6.111670136451721191e-01,6.111479401588439941e-01,6.111288666725158691e-01,6.111097335815429688e-01,6.110906600952148438e-01,6.110715270042419434e-01,6.110524535179138184e-01,6.110333800315856934e-01,6.110143065452575684e-01,6.109952330589294434e-01,6.109760999679565430e-01,6.109570264816284180e-01,6.109379529953002930e-01,6.109188795089721680e-01,6.108998060226440430e-01,6.108807325363159180e-01,6.108616590499877930e-01,6.108425855636596680e-01,6.108235120773315430e-01,6.108043789863586426e-01,6.107853055000305176e-01,6.107662916183471680e-01,6.107472181320190430e-01,6.107281446456909180e-01,6.107090711593627930e-01,6.106899976730346680e-01,6.106709241867065430e-01,6.106518507003784180e-01,6.106328368186950684e-01,6.106137633323669434e-01,6.105946898460388184e-01,6.105756163597106934e-01,6.105565428733825684e-01,6.105374693870544434e-01,6.105184555053710938e-01,6.104994416236877441e-01,6.104803681373596191e-01,6.104612946510314941e-01,6.104422211647033691e-01,6.104232072830200195e-01,6.104041337966918945e-01,6.103851199150085449e-01,6.103660464286804199e-01,6.103470325469970703e-01,6.103279590606689453e-01
5.903266668319702148e-01,5.903088450431823730e-01,5.902910828590393066e-01,5.902732610702514648e-01,5.902554392814636230e-01,5.902376174926757812e-01,5.902197957038879395e-01,5.902019739151000977e-01,5.901841521263122559e-01,5.901663899421691895e-01,5.901485681533813477e-01,5.901307463645935059e-01,5.901129841804504395e-01,5.900951623916625977e-01,5.900773406028747559e-01,5.900595188140869141e-01,5.900417566299438477e-01,5.900239944458007812e-01,5.900061726570129395e-01,5.899883508682250977e-01,5.899705886840820312e-01,5.899527668952941895e-01,5.899350047111511230e-01,5.899171829223632812e-01,5.898994207382202148e-01,5.898815989494323730e-01,5.898638367652893066e-01,5.898460745811462402e-01,5.898282527923583984e-01,5.898104906082153320e-01,5.897927284240722656e-01,5.897749066352844238e-01,5.897571444511413574e-01,5.897393822669982910e-01,5.897215604782104492e-01,5.897037982940673828e-01,5.896860361099243164e-01,5.896682739257812500e-01,5.896504521369934082e-01,5.896326899528503418e-01,5.896149277687072754e-01,5.895971655845642090e-01,5.895793437957763672e-01,5.895616412162780762e-01,5.895438790321350098e-01,5.895260572433471680e-01,5.895082950592041016e-01,5.894905328750610352e-01,5.894727706909179688e-01,5.894550085067749023e-01,5.894372463226318359e-01,5.894194841384887695e-01,5.894017219543457031e-01,5.893839597702026367e-01,5.893661975860595703e-01,5.893484354019165039e-01,5.893307328224182129e-01,5.893129706382751465e-01,5.892952084541320801e-01,5.892774462699890137e-01,5.892596840858459473e-01,5.892419219017028809e-01,5.892241597175598145e-01,5.892064571380615234e-01,5.891886949539184570e-01,5.891709327697753906e-01,5.891531705856323242e-01,5.891354680061340332e-01,5.891177058219909668e-01,5.890999436378479004e-01,5.890822410583496094e-01,5.890644788742065430e-01,5.890467762947082520e-01,5.890290141105651855e-01,5.890112519264221191e-01,5.889935493469238281e-01,5.889758467674255371e-01,5.889580845832824707e-01,5.889403223991394043e-01,5.889226198196411133e-01
5.702782273292541504e-01,5.702615976333618164e-01,5.702450275421142578e-01,5.702283978462219238e-01,5.702117681503295898e-01,5.701951384544372559e-01,5.701785087585449219e-01,5.701618790626525879e-01,5.701452493667602539e-01,5.701286792755126953e-01,5.701120495796203613e-01,5.700954198837280273e-01,5.700787901878356934e-01,5.700621604919433594e-01,5.700455904006958008e-01,5.700289607048034668e-01,5.700123906135559082e-01,5.699957609176635742e-01,5.699791312217712402e-01,5.699625015258789062e-01,5.699459314346313477e-01,5.699293017387390137e-01,5.699127316474914551e-01,5.698961019515991211e-01,5.698794722557067871e-01,5.698629021644592285e-01,5.698462724685668945e-01,5.698297023773193359e-01,5.698130726814270020e-01,5.697965025901794434e-01,5.697799324989318848e-01,5.697633028030395508e-01,5.697466731071472168e-01,5.697301030158996582e-01,5.697134733200073242e-01,5.696969032287597656e-01,5.696803331375122070e-01,5.696637630462646484e-01,5.696471333503723145e-01,5.696305632591247559e-01,5.696139335632324219e-01,5.695973634719848633e-01,5.695807933807373047e-01,5.695642232894897461e-01,5.695476531982421875e-01,5.695310235023498535e-01,5.695144534111022949e-01,5.694978833198547363e-01,5.694813132286071777e-01,5.694647431373596191e-01,5.694481730461120605e-01,5.694315433502197266e-01,5.694149732589721680e-01,5.693984031677246094e-01,5.693818330764770508e-01,5.693652629852294922e-01,5.693486928939819336e-01,5.693321228027343750e-01,5.693155527114868164e-01,5.692989826202392578e-01,5.692824125289916992e-01,5.692658424377441406e-01,5.692492723464965820e-01,5.692327022552490234e-01,5.692161321640014648e-01,5.691995620727539062e-01,5.691829919815063477e-01,5.691664218902587891e-01,5.691498517990112305e-01,5.691333413124084473e-01,5.691167712211608887e-01,5.691002011299133301e-01,5.690836310386657715e-01,5.690671205520629883e-01,5.690505504608154297e-01,5.690339803695678711e-01,5.690174698829650879e-01,5.690008997917175293e-01,5.689843297004699707e-01,5.689677596092224121e-01
