3.461382389068603516e+00,3.547503709793090820e+00,5.000000000000000000e+00,5.000000000000000000e+00,5.000000000000000000e+00,5.000000000000000000e+00,5.000000000000000000e+00,5.000000000000000000e+00,5.000000000000000000e+00,5.000000000000000000e+00,5.000000000000000000e+00,5.000000000000000000e+00,5.000000000000000000e+00,5.000000000000000000e+00,5.000000000000000000e+00,5.000000000000000000e+00,5.000000000000000000e+00,5.000000000000000000e+00,5.000000000000000000e+00,5.000000000000000000e+00,5.000000000000000000e+00,5.000000000000000000e+00,5.000000000000000000e+00,5.000000000000000000e+00,5.000000000000000000e+00,5.000000000000000000e+00,5.000000000000000000e+00,5.000000000000000000e+00,5.000000000000000000e+00,5.000000000000000000e+00,5.000000000000000000e+00,5.000000000000000000e+00,5.000000000000000000e+00,5.000000000000000000e+00,5.000000000000000000e+00,5.000000000000000000e+00,5.000000000000000000e+00,5.000000000000000000e+00,5.000000000000000000e+00,4.851325988769531250e+00,4.661262035369873047e+00,4.485529899597167969e+00,4.322566032409667969e+00,4.171028614044189453e+00,4.029756069183349609e+00,3.897740602493286133e+00,3.774099588394165039e+00,3.658061981201171875e+00,3.548946619033813477e+00,3.446152210235595703e+00,1.073839306831359863e+00,1.039588332176208496e+00,1.013462901115417480e+00,1.155361413955688477e+00,9.846523404121398926e-01,1.101094007492065430e+00,1.079247117042541504e+00,1.073336958885192871e+00,1.070013761520385742e+00,1.066761493682861328e+00,1.064288973808288574e+00,1.082275271415710449e+00,1.138809442520141602e+00,1.112689495086669922e+00,1.087740659713745117e+00,1.072081446647644043e+00,1.056753993034362793e+00,1.041858553886413574e+00,1.026585102081298828e+00,1.018164753913879395e+00,1.018176913261413574e+00,1.017462253570556641e+00,1.016748547554016113e+00,2.032943487167358398e+00,1.998790860176086426e+00,1.965766429901123047e+00,1.933815479278564453e+00,1.902886867523193359e+00,1.872931718826293945e+00,1.843905091285705566e+00
3.467590332031250000e+00,3.520172834396362305e+00,5.000000000000000000e+00,5.000000000000000000e+00,5.000000000000000000e+00,5.000000000000000000e+00,5.000000000000000000e+00,5.000000000000000000e+00,5.000000000000000000e+00,5.000000000000000000e+00,5.000000000000000000e+00,5.000000000000000000e+00,5.000000000000000000e+00,5.000000000000000000e+00,5.000000000000000000e+00,5.000000000000000000e+00,5.000000000000000000e+00,5.000000000000000000e+00,5.000000000000000000e+00,5.000000000000000000e+00,5.000000000000000000e+00,5.000000000000000000e+00,5.000000000000000000e+00,5.000000000000000000e+00,5.000000000000000000e+00,5.000000000000000000e+00,5.000000000000000000e+00,5.000000000000000000e+00,5.000000000000000000e+00,5.000000000000000000e+00,5.000000000000000000e+00,5.000000000000000000e+00,5.000000000000000000e+00,5.000000000000000000e+00,5.000000000000000000e+00,5.000000000000000000e+00,5.000000000000000000e+00,5.000000000000000000e+00,5.000000000000000000e+00,4.851464271545410156e+00,4.661390304565429688e+00,4.485648155212402344e+00,4.322675704956054688e+00,4.171131134033203125e+00,4.029851913452148438e+00,3.897829771041870117e+00,3.774183511734008789e+00,3.658140420913696289e+00,3.549020767211914062e+00,3.446222066879272461e+00,1.070607781410217285e+00,1.035089492797851562e+00,1.010715365409851074e+00,1.007397294044494629e+00,9.825537204742431641e-01,1.106391429901123047e+00,1.084335923194885254e+00,1.074956774711608887e+00,1.071623563766479492e+00,1.068310976028442383e+00,1.065265536308288574e+00,1.081395387649536133e+00,1.143297791481018066e+00,1.115783095359802246e+00,1.090590000152587891e+00,1.071510314941406250e+00,1.055912137031555176e+00,1.040155410766601562e+00,1.024862051010131836e+00,1.013286471366882324e+00,1.011017918586730957e+00,1.011623740196228027e+00,1.010918140411376953e+00,1.010213613510131836e+00,1.998814225196838379e+00,1.965789318084716797e+00,1.933837652206420898e+00,1.902907967567443848e+00,1.872952461242675781e+00,1.843925118446350098e+00
3.470567464828491211e+00,3.533757686614990234e+00,5.000000000000000000e+00,5.000000000000000000e+00,5.000000000000000000e+00,5.000000000000000000e+00,5.000000000000000000e+00,5.000000000000000000e+00,5.000000000000000000e+00,5.000000000000000000e+00,5.000000000000000000e+00,5.000000000000000000e+00,5.000000000000000000e+00,5.000000000000000000e+00,5.000000000000000000e+00,5.000000000000000000e+00,5.000000000000000000e+00,5.000000000000000000e+00,5.000000000000000000e+00,5.000000000000000000e+00,5.000000000000000000e+00,5.000000000000000000e+00,5.000000000000000000e+00,5.000000000000000000e+00,5.000000000000000000e+00,5.000000000000000000e+00,5.000000000000000000e+00,5.000000000000000000e+00,5.000000000000000000e+00,5.000000000000000000e+00,5.000000000000000000e+00,5.000000000000000000e+00,5.000000000000000000e+00,5.000000000000000000e+00,5.000000000000000000e+00,5.000000000000000000e+00,5.000000000000000000e+00,5.000000000000000000e+00,5.000000000000000000e+00,4.851603031158447266e+00,4.661517620086669922e+00,4.485766410827636719e+00,4.322785854339599609e+00,4.171233177185058594e+00,4.029947280883789062e+00,3.897918939590454102e+00,3.774267196655273438e+00,3.658219337463378906e+00,3.549094676971435547e+00,3.446291923522949219e+00,3.349277019500732422e+00,1.029746413230895996e+00,3.170760154724121094e+00,9.937088489532470703e-01,1.137240886688232422e+00,1.111739993095397949e+00,1.089472889900207520e+00,1.076581478118896484e+00,1.073238253593444824e+00,1.069915652275085449e+00,1.066613554954528809e+00,1.080235123634338379e+00,1.110550165176391602e+00,1.121453166007995605e+00,1.094967722892761230e+00,1.070274353027343750e+00,1.054089307785034180e+00,1.038386464118957520e+00,1.023144721984863281e+00,1.011865973472595215e+00,1.001699209213256836e+00,1.003970861434936523e+00,1.005154252052307129e+00,1.004457712173461914e+00,1.998837709426879883e+00,1.965811848640441895e+00,1.933859705924987793e+00,1.902929425239562988e+00,1.872972846031188965e+00,1.843945145606994629e+00
3.532224655151367188e+00,3.594094514846801758e+00,5.000000000000000000e+00,5.000000000000000000e+00,5.000000000000000000e+00,5.000000000000000000e+00,5.000000000000000000e+00,5.000000000000000000e+00,5.000000000000000000e+00,5.000000000000000000e+00,5.000000000000000000e+00,5.000000000000000000e+00,5.000000000000000000e+00,5.000000000000000000e+00,5.000000000000000000e+00,5.000000000000000000e+00,5.000000000000000000e+00,5.000000000000000000e+00,5.000000000000000000e+00,5.000000000000000000e+00,5.000000000000000000e+00,5.000000000000000000e+00,5.000000000000000000e+00,5.000000000000000000e+00,5.000000000000000000e+00,5.000000000000000000e+00,5.000000000000000000e+00,5.000000000000000000e+00,5.000000000000000000e+00,5.000000000000000000e+00,5.000000000000000000e+00,5.000000000000000000e+00,5.000000000000000000e+00,5.000000000000000000e+00,5.000000000000000000e+00,5.000000000000000000e+00,5.000000000000000000e+00,5.000000000000000000e+00,5.000000000000000000e+00,4.851741313934326172e+00,4.661645412445068359e+00,4.485884666442871094e+00,4.322895526885986328e+00,4.171335697174072266e+00,4.030042648315429688e+00,3.898008584976196289e+00,3.774350881576538086e+00,3.658298015594482422e+00,3.549169063568115234e+00,3.446361541748046875e+00,3.349343061447143555e+00,3.257637023925781250e+00,3.170819044113159180e+00,1.179727792739868164e+00,1.145073890686035156e+00,1.117229938507080078e+00,1.095038294792175293e+00,1.076807141304016113e+00,1.073047637939453125e+00,1.069701552391052246e+00,1.066375970840454102e+00,1.079268336296081543e+00,1.109350085258483887e+00,1.127181172370910645e+00,1.100348234176635742e+00,1.073626041412353516e+00,1.052272677421569824e+00,1.036623597145080566e+00,1.021529316902160645e+00,1.010449528694152832e+00,9.996075630187988281e-01,9.947810769081115723e-01,9.970213770866394043e-01,9.987670183181762695e-01,9.980793595314025879e-01,1.965834617614746094e+00,1.933881521224975586e+00,1.902950763702392578e+00,1.872993588447570801e+00,1.843965053558349609e+00
3.508204698562622070e+00,3.518566370010375977e+00,3.593666315078735352e+00,3.623513936996459961e+00,5.000000000000000000e+00,5.000000000000000000e+00,5.000000000000000000e+00,5.000000000000000000e+00,5.000000000000000000e+00,5.000000000000000000e+00,5.000000000000000000e+00,5.000000000000000000e+00,5.000000000000000000e+00,5.000000000000000000e+00,5.000000000000000000e+00,5.000000000000000000e+00,5.000000000000000000e+00,5.000000000000000000e+00,5.000000000000000000e+00,5.000000000000000000e+00,5.000000000000000000e+00,5.000000000000000000e+00,5.000000000000000000e+00,5.000000000000000000e+00,5.000000000000000000e+00,5.000000000000000000e+00,5.000000000000000000e+00,5.000000000000000000e+00,5.000000000000000000e+00,5.000000000000000000e+00,5.000000000000000000e+00,5.000000000000000000e+00,5.000000000000000000e+00,5.000000000000000000e+00,5.000000000000000000e+00,5.000000000000000000e+00,5.000000000000000000e+00,5.000000000000000000e+00,5.000000000000000000e+00,4.851879596710205078e+00,4.661773681640625000e+00,4.486002922058105469e+00,4.323005676269531250e+00,4.171438217163085938e+00,4.030138015747070312e+00,3.898097753524780273e+00,3.774434804916381836e+00,3.658376455307006836e+00,3.549242973327636719e+00,3.446431398391723633e+00,3.349408864974975586e+00,3.257699489593505859e+00,3.170878171920776367e+00,3.088564634323120117e+00,1.153397440910339355e+00,1.123303174972534180e+00,1.100872039794921875e+00,1.079163670539855957e+00,1.072727322578430176e+00,1.069383144378662109e+00,1.066059708595275879e+00,1.078400850296020508e+00,1.106610178947448730e+00,2.452035188674926758e+00,1.105112791061401367e+00,1.078161478042602539e+00,1.052493453025817871e+00,1.034866571426391602e+00,1.020085692405700684e+00,1.009037017822265625e+00,9.982251524925231934e-01,9.876425266265869141e-01,9.879577159881591797e-01,9.901673793792724609e-01,9.923868179321289062e-01,1.965857505798339844e+00,1.933903574943542480e+00,1.902971863746643066e+00,1.873014330863952637e+00,1.843985080718994141e+00
3.467773199081420898e+00,3.501489400863647461e+00,3.541781902313232422e+00,3.603069543838500977e+00,3.642277956008911133e+00,5.000000000000000000e+00,5.000000000000000000e+00,5.000000000000000000e+00,5.000000000000000000e+00,5.000000000000000000e+00,5.000000000000000000e+00,5.000000000000000000e+00,5.000000000000000000e+00,5.000000000000000000e+00,5.000000000000000000e+00,5.000000000000000000e+00,5.000000000000000000e+00,5.000000000000000000e+00,5.000000000000000000e+00,5.000000000000000000e+00,5.000000000000000000e+00,5.000000000000000000e+00,5.000000000000000000e+00,5.000000000000000000e+00,5.000000000000000000e+00,5.000000000000000000e+00,5.000000000000000000e+00,5.000000000000000000e+00,5.000000000000000000e+00,5.000000000000000000e+00,5.000000000000000000e+00,5.000000000000000000e+00,5.000000000000000000e+00,5.000000000000000000e+00,5.000000000000000000e+00,5.000000000000000000e+00,5.000000000000000000e+00,5.000000000000000000e+00,5.000000000000000000e+00,4.852018356323242188e+00,4.661900997161865234e+00,4.486121654510498047e+00,4.323115348815917969e+00,4.171540260314941406e+00,4.030233860015869141e+00,3.898186922073364258e+00,3.774518489837646484e+00,3.658455133438110352e+00,3.549316883087158203e+00,3.446501493453979492e+00,3.349474668502807617e+00,3.257761955261230469e+00,3.170937538146972656e+00,3.088620662689208984e+00,1.162557959556579590e+00,1.129973649978637695e+00,1.106768250465393066e+00,1.083836913108825684e+00,1.073686957359313965e+00,1.069064974784851074e+00,1.065743446350097656e+00,1.077534675598144531e+00,1.103453040122985840e+00,2.452070236206054688e+00,1.114812731742858887e+00,1.083427548408508301e+00,1.056851744651794434e+00,1.033115625381469727e+00,1.018646121025085449e+00,1.007628440856933594e+00,9.968466162681579590e-01,9.862930774688720703e-01,9.790574908256530762e-01,9.812273979187011719e-01,9.837245345115661621e-01,9.865739345550537109e-01,1.933925628662109375e+00,1.902993321418762207e+00,1.873034834861755371e+00,1.844004988670349121e+00
3.456157445907592773e+00,3.486937522888183594e+00,3.533222913742065430e+00,3.605539321899414062e+00,3.653914928436279297e+00,5.000000000000000000e+00,5.000000000000000000e+00,5.000000000000000000e+00,5.000000000000000000e+00,5.000000000000000000e+00,5.000000000000000000e+00,5.000000000000000000e+00,5.000000000000000000e+00,5.000000000000000000e+00,5.000000000000000000e+00,5.000000000000000000e+00,5.000000000000000000e+00,5.000000000000000000e+00,5.000000000000000000e+00,5.000000000000000000e+00,5.000000000000000000e+00,5.000000000000000000e+00,5.000000000000000000e+00,5.000000000000000000e+00,5.000000000000000000e+00,5.000000000000000000e+00,5.000000000000000000e+00,5.000000000000000000e+00,5.000000000000000000e+00,5.000000000000000000e+00,5.000000000000000000e+00,5.000000000000000000e+00,5.000000000000000000e+00,5.000000000000000000e+00,5.000000000000000000e+00,5.000000000000000000e+00,5.000000000000000000e+00,5.000000000000000000e+00,5.000000000000000000e+00,4.852156639099121094e+00,4.662029266357421875e+00,4.486239910125732422e+00,4.323225498199462891e+00,4.171642780303955078e+00,4.030329227447509766e+00,3.898276329040527344e+00,3.774602174758911133e+00,3.658534049987792969e+00,3.549390792846679688e+00,3.446571111679077148e+00,3.349540948867797852e+00,3.257824182510375977e+00,3.170996427536010742e+00,3.088676929473876953e+00,1.170566916465759277e+00,1.138764142990112305e+00,1.112727999687194824e+00,1.089552879333496094e+00,1.076030015945434570e+00,1.068746924400329590e+00,1.065427422523498535e+00,1.076669931411743164e+00,1.100313901901245117e+00,2.452105522155761719e+00,2.402588605880737305e+00,1.096173763275146484e+00,1.065815091133117676e+00,1.037092566490173340e+00,1.017210483551025391e+00,1.006220817565917969e+00,9.954586625099182129e-01,9.853212237358093262e-01,9.761211872100830078e-01,9.793429374694824219e-01,9.822210669517517090e-01,9.850617051124572754e-01,1.933947443962097168e+00,1.903014421463012695e+00,1.873055458068847656e+00,1.844025015830993652e+00
3.450330734252929688e+00,3.487765789031982422e+00,3.547185659408569336e+00,3.640153884887695312e+00,3.654505491256713867e+00,5.000000000000000000e+00,5.000000000000000000e+00,5.000000000000000000e+00,5.000000000000000000e+00,5.000000000000000000e+00,5.000000000000000000e+00,5.000000000000000000e+00,5.000000000000000000e+00,5.000000000000000000e+00,5.000000000000000000e+00,5.000000000000000000e+00,5.000000000000000000e+00,5.000000000000000000e+00,5.000000000000000000e+00,5.000000000000000000e+00,5.000000000000000000e+00,5.000000000000000000e+00,5.000000000000000000e+00,5.000000000000000000e+00,5.000000000000000000e+00,5.000000000000000000e+00,5.000000000000000000e+00,5.000000000000000000e+00,5.000000000000000000e+00,5.000000000000000000e+00,5.000000000000000000e+00,5.000000000000000000e+00,5.000000000000000000e+00,5.000000000000000000e+00,5.000000000000000000e+00,5.000000000000000000e+00,5.000000000000000000e+00,5.000000000000000000e+00,5.000000000000000000e+00,4.852294921875000000e+00,4.662157058715820312e+00,4.486358165740966797e+00,4.323335170745849609e+00,4.171744823455810547e+00,4.030424594879150391e+00,3.898365974426269531e+00,3.774685859680175781e+00,3.658612728118896484e+00,3.549465179443359375e+00,3.446640968322753906e+00,3.349606752395629883e+00,3.257886886596679688e+00,3.171055555343627930e+00,3.088732957839965820e+00,1.176907539367675781e+00,1.147692799568176270e+00,1.118752241134643555e+00,1.095329403877258301e+00,1.078383207321166992e+00,1.070585012435913086e+00,1.065111517906188965e+00,1.075806498527526855e+00,1.097192645072937012e+00,2.452141046524047852e+00,2.402622461318969727e+00,2.355064630508422852e+00,1.078147888183593750e+00,1.048766016960144043e+00,1.016843199729919434e+00,1.004781603813171387e+00,9.949138164520263672e-01,9.855346679687500000e-01,9.763305783271789551e-01,9.768291115760803223e-01,9.803479313850402832e-01,9.835542440414428711e-01,1.933969616889953613e+00,1.903035759925842285e+00,1.873075962066650391e+00,1.844045162200927734e+00
3.450056552886962891e+00,3.486106872558593750e+00,3.540100574493408203e+00,5.000000000000000000e+00,3.647331953048706055e+00,3.721182107925415039e+00,5.000000000000000000e+00,5.000000000000000000e+00,5.000000000000000000e+00,5.000000000000000000e+00,5.000000000000000000e+00,5.000000000000000000e+00,5.000000000000000000e+00,5.000000000000000000e+00,5.000000000000000000e+00,5.000000000000000000e+00,5.000000000000000000e+00,5.000000000000000000e+00,5.000000000000000000e+00,5.000000000000000000e+00,5.000000000000000000e+00,5.000000000000000000e+00,5.000000000000000000e+00,5.000000000000000000e+00,5.000000000000000000e+00,5.000000000000000000e+00,5.000000000000000000e+00,5.000000000000000000e+00,5.000000000000000000e+00,5.000000000000000000e+00,5.000000000000000000e+00,5.000000000000000000e+00,5.000000000000000000e+00,5.000000000000000000e+00,5.000000000000000000e+00,5.000000000000000000e+00,5.000000000000000000e+00,5.000000000000000000e+00,5.000000000000000000e+00,4.852433681488037109e+00,4.662284374237060547e+00,4.486476421356201172e+00,4.323445320129394531e+00,4.171847343444824219e+00,4.030519962310791016e+00,3.898455142974853516e+00,3.774769783020019531e+00,3.658691406250000000e+00,3.549539089202880859e+00,3.446711063385009766e+00,3.349672555923461914e+00,3.257949113845825195e+00,3.171114921569824219e+00,3.088788986206054688e+00,3.010629892349243164e+00,1.154669165611267090e+00,1.124842047691345215e+00,1.101167559623718262e+00,1.080746650695800781e+00,1.072914361953735352e+00,1.065194725990295410e+00,1.073257803916931152e+00,1.094088912010192871e+00,2.452176332473754883e+00,2.402656555175781250e+00,2.355097293853759766e+00,2.309384107589721680e+00,1.059166669845581055e+00,1.024207711219787598e+00,1.006214261054992676e+00,9.966560602188110352e-01,9.872776269912719727e-01,9.776645302772521973e-01,9.772788882255554199e-01,9.807906150817871094e-01,9.843274950981140137e-01,1.933991432189941406e+00,1.903057217597961426e+00,1.873096704483032227e+00,1.844064950942993164e+00
3.451579809188842773e+00,3.480813264846801758e+00,3.536603927612304688e+00,5.000000000000000000e+00,3.656193733215332031e+00,3.708356618881225586e+00,5.000000000000000000e+00,5.000000000000000000e+00,5.000000000000000000e+00,5.000000000000000000e+00,5.000000000000000000e+00,5.000000000000000000e+00,5.000000000000000000e+00,5.000000000000000000e+00,5.000000000000000000e+00,5.000000000000000000e+00,5.000000000000000000e+00,5.000000000000000000e+00,5.000000000000000000e+00,5.000000000000000000e+00,5.000000000000000000e+00,5.000000000000000000e+00,5.000000000000000000e+00,5.000000000000000000e+00,5.000000000000000000e+00,5.000000000000000000e+00,5.000000000000000000e+00,5.000000000000000000e+00,5.000000000000000000e+00,5.000000000000000000e+00,5.000000000000000000e+00,5.000000000000000000e+00,5.000000000000000000e+00,5.000000000000000000e+00,5.000000000000000000e+00,5.000000000000000000e+00,5.000000000000000000e+00,5.000000000000000000e+00,5.000000000000000000e+00,4.852571964263916016e+00,4.662412643432617188e+00,4.486594676971435547e+00,4.323554992675781250e+00,4.171949863433837891e+00,4.030615806579589844e+00,3.898544311523437500e+00,3.774853467941284180e+00,3.658770322799682617e+00,3.549612998962402344e+00,3.446780681610107422e+00,3.349738836288452148e+00,3.258011341094970703e+00,3.171173810958862305e+00,3.088845252990722656e+00,3.010683059692382812e+00,1.160838127136230469e+00,1.133202910423278809e+00,1.107068181037902832e+00,1.083120584487915039e+00,1.075243234634399414e+00,1.067395567893981934e+00,1.070953130722045898e+00,1.091053962707519531e+00,2.452211618423461914e+00,2.402690410614013672e+00,2.355129957199096680e+00,2.309415578842163086e+00,1.065093874931335449e+00,1.021286845207214355e+00,1.010668516159057617e+00,1.000358343124389648e+00,9.902564883232116699e-01,9.808619618415832520e-01,9.835331439971923828e-01,9.865199923515319824e-01,9.900985360145568848e-01,1.934013485908508301e+00,1.903078317642211914e+00,1.873117446899414062e+00,1.844085097312927246e+00
3.444740533828735352e+00,3.484773635864257812e+00,3.542397022247314453e+00,5.000000000000000000e+00,3.656732797622680664e+00,3.695922136306762695e+00,5.000000000000000000e+00,5.000000000000000000e+00,5.000000000000000000e+00,5.000000000000000000e+00,5.000000000000000000e+00,5.000000000000000000e+00,5.000000000000000000e+00,5.000000000000000000e+00,5.000000000000000000e+00,5.000000000000000000e+00,5.000000000000000000e+00,5.000000000000000000e+00,5.000000000000000000e+00,5.000000000000000000e+00,5.000000000000000000e+00,5.000000000000000000e+00,5.000000000000000000e+00,5.000000000000000000e+00,5.000000000000000000e+00,5.000000000000000000e+00,5.000000000000000000e+00,5.000000000000000000e+00,5.000000000000000000e+00,5.000000000000000000e+00,5.000000000000000000e+00,5.000000000000000000e+00,5.000000000000000000e+00,5.000000000000000000e+00,5.000000000000000000e+00,5.000000000000000000e+00,5.000000000000000000e+00,5.000000000000000000e+00,5.000000000000000000e+00,4.852710247039794922e+00,4.662539958953857422e+00,4.486713409423828125e+00,4.323665142059326172e+00,4.172051906585693359e+00,4.030711650848388672e+00,3.898633956909179688e+00,3.774937152862548828e+00,3.658849000930786133e+00,3.549687385559082031e+00,3.446850538253784180e+00,3.349804878234863281e+00,3.258074045181274414e+00,3.171232938766479492e+00,3.088901281356811523e+00,3.010736465454101562e+00,1.167073369026184082e+00,1.139197468757629395e+00,1.113238096237182617e+00,1.089115500450134277e+00,1.077435970306396484e+00,1.068725466728210449e+00,1.073577761650085449e+00,1.092127799987792969e+00,2.452247142791748047e+00,2.402724504470825195e+00,2.355162620544433594e+00,1.095215678215026855e+00,1.051834106445312500e+00,1.029109120368957520e+00,1.017390727996826172e+00,1.005936145782470703e+00,9.947367310523986816e-01,9.885508418083190918e-01,9.903548955917358398e-01,9.928389191627502441e-01,1.965993642807006836e+00,1.934035539627075195e+00,1.903099656105041504e+00,1.873137831687927246e+00,1.844105124473571777e+00
3.449637174606323242e+00,3.485975742340087891e+00,3.531924486160278320e+00,5.000000000000000000e+00,3.643443822860717773e+00,3.662445068359375000e+00,5.000000000000000000e+00,5.000000000000000000e+00,5.000000000000000000e+00,5.000000000000000000e+00,5.000000000000000000e+00,5.000000000000000000e+00,5.000000000000000000e+00,5.000000000000000000e+00,5.000000000000000000e+00,5.000000000000000000e+00,5.000000000000000000e+00,5.000000000000000000e+00,5.000000000000000000e+00,5.000000000000000000e+00,5.000000000000000000e+00,5.000000000000000000e+00,5.000000000000000000e+00,5.000000000000000000e+00,5.000000000000000000e+00,5.000000000000000000e+00,5.000000000000000000e+00,5.000000000000000000e+00,5.000000000000000000e+00,5.000000000000000000e+00,5.000000000000000000e+00,5.000000000000000000e+00,5.000000000000000000e+00,5.000000000000000000e+00,5.000000000000000000e+00,5.000000000000000000e+00,5.000000000000000000e+00,5.000000000000000000e+00,5.000000000000000000e+00,4.852849006652832031e+00,4.662668228149414062e+00,4.486831665039062500e+00,4.323775291442871094e+00,4.172154426574707031e+00,4.030807018280029297e+00,3.898723363876342773e+00,3.775021314620971680e+00,3.658927440643310547e+00,3.549761533737182617e+00,3.446920633316040039e+00,3.349870681762695312e+00,3.258136510848999023e+00,3.171292304992675781e+00,3.088957309722900391e+00,3.010789632797241211e+00,1.174969315528869629e+00,1.146421551704406738e+00,1.119934439659118652e+00,1.095588684082031250e+00,1.082357883453369141e+00,1.072128891944885254e+00,1.077671408653259277e+00,1.096110939979553223e+00,2.452282428741455078e+00,2.402758359909057617e+00,2.355195045471191406e+00,1.081796050071716309e+00,1.050770521163940430e+00,1.038556456565856934e+00,1.026623129844665527e+00,1.013842225074768066e+00,1.004240155220031738e+00,1.003570318222045898e+00,1.005429625511169434e+00,1.007295846939086914e+00,1.966016411781311035e+00,1.934057354927062988e+00,1.903121113777160645e+00,1.873158574104309082e+00,1.844124913215637207e+00
3.486668348312377930e+00,3.500429630279541016e+00,3.521056890487670898e+00,3.599665403366088867e+00,5.000000000000000000e+00,3.639089345932006836e+00,5.000000000000000000e+00,5.000000000000000000e+00,5.000000000000000000e+00,5.000000000000000000e+00,5.000000000000000000e+00,5.000000000000000000e+00,5.000000000000000000e+00,5.000000000000000000e+00,5.000000000000000000e+00,5.000000000000000000e+00,5.000000000000000000e+00,5.000000000000000000e+00,5.000000000000000000e+00,5.000000000000000000e+00,5.000000000000000000e+00,5.000000000000000000e+00,5.000000000000000000e+00,5.000000000000000000e+00,5.000000000000000000e+00,5.000000000000000000e+00,5.000000000000000000e+00,5.000000000000000000e+00,5.000000000000000000e+00,5.000000000000000000e+00,5.000000000000000000e+00,5.000000000000000000e+00,5.000000000000000000e+00,5.000000000000000000e+00,5.000000000000000000e+00,5.000000000000000000e+00,5.000000000000000000e+00,5.000000000000000000e+00,5.000000000000000000e+00,4.852987289428710938e+00,4.662796020507812500e+00,4.486949920654296875e+00,4.323884963989257812e+00,4.172256946563720703e+00,4.030902385711669922e+00,3.898812532424926758e+00,3.775104999542236328e+00,3.659006357192993164e+00,3.549835443496704102e+00,3.446990489959716797e+00,3.349936962127685547e+00,3.258198738098144531e+00,3.171351432800292969e+00,3.089013576507568359e+00,3.010843038558959961e+00,1.177202582359313965e+00,1.146662831306457520e+00,1.119943857192993164e+00,1.100350499153137207e+00,1.088510751724243164e+00,1.077526926994323730e+00,1.091552615165710449e+00,1.112187266349792480e+00,2.452317714691162109e+00,2.402792453765869141e+00,1.110786914825439453e+00,1.073363184928894043e+00,1.060621500015258789e+00,1.047414898872375488e+00,1.032682657241821289e+00,1.022909641265869141e+00,1.017642259597778320e+00,1.019053339958190918e+00,1.020970463752746582e+00,1.999072551727294922e+00,1.966039180755615234e+00,1.934079527854919434e+00,1.903142213821411133e+00,1.873179316520690918e+00,1.844145059585571289e+00
3.469774723052978516e+00,3.480746030807495117e+00,3.504096031188964844e+00,3.563312768936157227e+00,5.000000000000000000e+00,3.630357027053833008e+00,5.000000000000000000e+00,5.000000000000000000e+00,5.000000000000000000e+00,5.000000000000000000e+00,5.000000000000000000e+00,5.000000000000000000e+00,5.000000000000000000e+00,5.000000000000000000e+00,5.000000000000000000e+00,5.000000000000000000e+00,5.000000000000000000e+00,5.000000000000000000e+00,5.000000000000000000e+00,5.000000000000000000e+00,5.000000000000000000e+00,5.000000000000000000e+00,5.000000000000000000e+00,5.000000000000000000e+00,5.000000000000000000e+00,5.000000000000000000e+00,5.000000000000000000e+00,5.000000000000000000e+00,5.000000000000000000e+00,5.000000000000000000e+00,5.000000000000000000e+00,5.000000000000000000e+00,5.000000000000000000e+00,5.000000000000000000e+00,5.000000000000000000e+00,5.000000000000000000e+00,5.000000000000000000e+00,5.000000000000000000e+00,5.000000000000000000e+00,4.853126049041748047e+00,4.662923812866210938e+00,4.487068653106689453e+00,4.323994636535644531e+00,4.172358989715576172e+00,4.030998229980468750e+00,3.898902177810668945e+00,3.775188684463500977e+00,3.659085035324096680e+00,3.549909830093383789e+00,3.447060108184814453e+00,3.350002765655517578e+00,3.258261442184448242e+00,3.171410322189331055e+00,3.089069604873657227e+00,3.010896444320678711e+00,1.175608634948730469e+00,1.144791603088378906e+00,1.123521327972412109e+00,1.109494209289550781e+00,1.097538828849792480e+00,1.088984608650207520e+00,1.110075592994689941e+00,2.503964662551879883e+00,2.452353000640869141e+00,1.137122035026550293e+00,1.098420500755310059e+00,1.083287358283996582e+00,1.067536234855651855e+00,1.052236676216125488e+00,1.042286396026611328e+00,1.036818146705627441e+00,1.033051252365112305e+00,1.035021424293518066e+00,2.033259630203247070e+00,1.999096155166625977e+00,1.966061830520629883e+00,1.934101581573486328e+00,1.903163552284240723e+00,1.873199820518493652e+00,1.844165086746215820e+00
3.506303548812866211e+00,3.477015018463134766e+00,3.501188516616821289e+00,3.561223506927490234e+00,5.000000000000000000e+00,3.603449344635009766e+00,5.000000000000000000e+00,5.000000000000000000e+00,5.000000000000000000e+00,5.000000000000000000e+00,5.000000000000000000e+00,5.000000000000000000e+00,5.000000000000000000e+00,5.000000000000000000e+00,5.000000000000000000e+00,5.000000000000000000e+00,5.000000000000000000e+00,5.000000000000000000e+00,5.000000000000000000e+00,5.000000000000000000e+00,5.000000000000000000e+00,5.000000000000000000e+00,5.000000000000000000e+00,5.000000000000000000e+00,5.000000000000000000e+00,5.000000000000000000e+00,5.000000000000000000e+00,5.000000000000000000e+00,5.000000000000000000e+00,5.000000000000000000e+00,5.000000000000000000e+00,5.000000000000000000e+00,5.000000000000000000e+00,5.000000000000000000e+00,5.000000000000000000e+00,5.000000000000000000e+00,5.000000000000000000e+00,5.000000000000000000e+00,5.000000000000000000e+00,4.853264331817626953e+00,4.663051605224609375e+00,4.487186908721923828e+00,4.324104785919189453e+00,4.172461509704589844e+00,4.031093597412109375e+00,3.898991584777832031e+00,3.775272846221923828e+00,3.659163713455200195e+00,3.549983739852905273e+00,3.447130203247070312e+00,3.350068569183349609e+00,3.258323669433593750e+00,3.171469688415527344e+00,3.089125633239746094e+00,3.010949611663818359e+00,1.173117160797119141e+00,1.146233081817626953e+00,1.127541899681091309e+00,1.118807315826416016e+00,1.107765078544616699e+00,1.108310937881469727e+00,1.142629861831665039e+00,2.504001617431640625e+00,2.452388525009155273e+00,1.130845189094543457e+00,1.104701519012451172e+00,1.088445782661437988e+00,1.072545409202575684e+00,1.062411546707153320e+00,1.056730628013610840e+00,1.051110148429870605e+00,1.049464702606201172e+00,2.068635940551757812e+00,2.033283710479736328e+00,1.999119758605957031e+00,1.966084599494934082e+00,1.934123396873474121e+00,1.903185009956359863e+00,1.873220443725585938e+00,1.844184994697570801e+00
3.504682779312133789e+00,3.475701808929443359e+00,3.501125812530517578e+00,5.000000000000000000e+00,5.000000000000000000e+00,5.000000000000000000e+00,3.647509813308715820e+00,5.000000000000000000e+00,5.000000000000000000e+00,5.000000000000000000e+00,5.000000000000000000e+00,5.000000000000000000e+00,5.000000000000000000e+00,5.000000000000000000e+00,5.000000000000000000e+00,5.000000000000000000e+00,5.000000000000000000e+00,5.000000000000000000e+00,5.000000000000000000e+00,5.000000000000000000e+00,5.000000000000000000e+00,5.000000000000000000e+00,5.000000000000000000e+00,5.000000000000000000e+00,5.000000000000000000e+00,5.000000000000000000e+00,5.000000000000000000e+00,5.000000000000000000e+00,5.000000000000000000e+00,5.000000000000000000e+00,5.000000000000000000e+00,5.000000000000000000e+00,5.000000000000000000e+00,5.000000000000000000e+00,5.000000000000000000e+00,5.000000000000000000e+00,5.000000000000000000e+00,5.000000000000000000e+00,5.000000000000000000e+00,4.853402614593505859e+00,4.663179397583007812e+00,4.487305164337158203e+00,4.324214935302734375e+00,4.172563552856445312e+00,4.031188964843750000e+00,3.899080753326416016e+00,3.775356531143188477e+00,3.659242630004882812e+00,3.550057649612426758e+00,3.447200059890747070e+00,3.350134849548339844e+00,3.258386135101318359e+00,3.171528816223144531e+00,3.089181900024414062e+00,1.213448166847229004e+00,1.170636057853698730e+00,1.149270892143249512e+00,1.133791089057922363e+00,1.128278136253356934e+00,1.118183493614196777e+00,1.128335714340209961e+00,2.557872295379638672e+00,2.504038333892822266e+00,1.171089053153991699e+00,1.126633286476135254e+00,1.108131766319274902e+00,1.092191576957702637e+00,1.080057621002197266e+00,1.076495647430419922e+00,1.071580767631530762e+00,1.065801620483398438e+00,2.105265617370605469e+00,2.068661212921142578e+00,2.033308267593383789e+00,1.999143123626708984e+00,1.966107368469238281e+00,1.934145450592041016e+00,1.903206110000610352e+00,1.873241186141967773e+00,1.844205021858215332e+00
3.500443696975708008e+00,3.473360776901245117e+00,3.500424146652221680e+00,5.000000000000000000e+00,5.000000000000000000e+00,5.000000000000000000e+00,5.000000000000000000e+00,5.000000000000000000e+00,5.000000000000000000e+00,5.000000000000000000e+00,5.000000000000000000e+00,5.000000000000000000e+00,5.000000000000000000e+00,5.000000000000000000e+00,5.000000000000000000e+00,5.000000000000000000e+00,5.000000000000000000e+00,5.000000000000000000e+00,5.000000000000000000e+00,5.000000000000000000e+00,5.000000000000000000e+00,5.000000000000000000e+00,5.000000000000000000e+00,5.000000000000000000e+00,5.000000000000000000e+00,5.000000000000000000e+00,5.000000000000000000e+00,5.000000000000000000e+00,5.000000000000000000e+00,5.000000000000000000e+00,5.000000000000000000e+00,5.000000000000000000e+00,5.000000000000000000e+00,5.000000000000000000e+00,5.000000000000000000e+00,5.000000000000000000e+00,5.000000000000000000e+00,5.000000000000000000e+00,5.000000000000000000e+00,4.853541374206542969e+00,4.663307189941406250e+00,4.487423419952392578e+00,4.324324607849121094e+00,4.172666072845458984e+00,4.031284332275390625e+00,3.899170398712158203e+00,3.775440216064453125e+00,3.659321308135986328e+00,3.550132036209106445e+00,3.447269916534423828e+00,3.350200653076171875e+00,3.258448600769042969e+00,3.171587705612182617e+00,3.089237689971923828e+00,1.206181049346923828e+00,1.171853899955749512e+00,1.155763983726501465e+00,1.142747402191162109e+00,1.137910604476928711e+00,1.128799796104431152e+00,1.179509043693542480e+00,2.557910680770874023e+00,2.504075288772583008e+00,1.166541457176208496e+00,1.128098726272583008e+00,1.111583232879638672e+00,1.095820307731628418e+00,1.088687062263488770e+00,1.085131764411926270e+00,1.081536293029785156e+00,2.143215656280517578e+00,2.105291604995727539e+00,2.068686246871948242e+00,2.033332586288452148e+00,1.999166727066040039e+00,1.966130018234252930e+00,1.934167504310607910e+00,1.903227567672729492e+00,1.873261690139770508e+00,1.844225168228149414e+00
3.489296436309814453e+00,3.469567298889160156e+00,3.495977640151977539e+00,5.000000000000000000e+00,5.000000000000000000e+00,5.000000000000000000e+00,5.000000000000000000e+00,5.000000000000000000e+00,5.000000000000000000e+00,5.000000000000000000e+00,5.000000000000000000e+00,5.000000000000000000e+00,5.000000000000000000e+00,5.000000000000000000e+00,5.000000000000000000e+00,5.000000000000000000e+00,5.000000000000000000e+00,5.000000000000000000e+00,5.000000000000000000e+00,5.000000000000000000e+00,5.000000000000000000e+00,5.000000000000000000e+00,5.000000000000000000e+00,5.000000000000000000e+00,5.000000000000000000e+00,5.000000000000000000e+00,5.000000000000000000e+00,5.000000000000000000e+00,5.000000000000000000e+00,5.000000000000000000e+00,5.000000000000000000e+00,5.000000000000000000e+00,5.000000000000000000e+00,5.000000000000000000e+00,5.000000000000000000e+00,5.000000000000000000e+00,5.000000000000000000e+00,5.000000000000000000e+00,5.000000000000000000e+00,4.853679656982421875e+00,4.663435459136962891e+00,4.487542152404785156e+00,4.324434757232666016e+00,4.172768592834472656e+00,4.031380176544189453e+00,3.899259805679321289e+00,3.775524139404296875e+00,3.659399986267089844e+00,3.550206184387207031e+00,3.447340011596679688e+00,3.350266695022583008e+00,3.258511066436767578e+00,3.171646595001220703e+00,3.089293718338012695e+00,1.199000477790832520e+00,1.178605437278747559e+00,1.162330985069274902e+00,1.152629613876342773e+00,1.147709012031555176e+00,1.151363730430603027e+00,2.614151954650878906e+00,2.557949066162109375e+00,2.504112243652343750e+00,1.162029027938842773e+00,1.131676077842712402e+00,1.115172505378723145e+00,1.099966764450073242e+00,1.097434163093566895e+00,1.093907713890075684e+00,1.090253949165344238e+00,2.143242597579956055e+00,2.105317592620849609e+00,2.068711519241333008e+00,2.033356666564941406e+00,1.999190211296081543e+00,1.966152787208557129e+00,1.934189438819885254e+00,1.903248906135559082e+00,1.873282432556152344e+00,1.844244956970214844e+00
3.484010457992553711e+00,3.466815233230590820e+00,3.498181104660034180e+00,5.000000000000000000e+00,5.000000000000000000e+00,5.000000000000000000e+00,5.000000000000000000e+00,5.000000000000000000e+00,5.000000000000000000e+00,5.000000000000000000e+00,5.000000000000000000e+00,5.000000000000000000e+00,5.000000000000000000e+00,5.000000000000000000e+00,5.000000000000000000e+00,5.000000000000000000e+00,5.000000000000000000e+00,5.000000000000000000e+00,5.000000000000000000e+00,5.000000000000000000e+00,5.000000000000000000e+00,5.000000000000000000e+00,5.000000000000000000e+00,5.000000000000000000e+00,5.000000000000000000e+00,5.000000000000000000e+00,5.000000000000000000e+00,5.000000000000000000e+00,5.000000000000000000e+00,5.000000000000000000e+00,5.000000000000000000e+00,5.000000000000000000e+00,5.000000000000000000e+00,5.000000000000000000e+00,5.000000000000000000e+00,5.000000000000000000e+00,5.000000000000000000e+00,5.000000000000000000e+00,5.000000000000000000e+00,4.853818416595458984e+00,4.663563251495361328e+00,4.487660408020019531e+00,4.324544429779052734e+00,4.172870635986328125e+00,4.031476020812988281e+00,3.899348974227905273e+00,3.775607824325561523e+00,3.659478902816772461e+00,3.550280094146728516e+00,3.447409629821777344e+00,3.350332498550415039e+00,3.258573055267333984e+00,3.171705961227416992e+00,3.089349746704101562e+00,1.202027678489685059e+00,1.185024499893188477e+00,1.168604731559753418e+00,1.159587502479553223e+00,1.154763460159301758e+00,1.171263098716735840e+00,2.614192247390747070e+00,2.557987689971923828e+00,1.204723358154296875e+00,1.157575964927673340e+00,1.135276079177856445e+00,1.119467020034790039e+00,1.108859777450561523e+00,1.106322884559631348e+00,1.102826714515686035e+00,1.099113106727600098e+00,2.143269538879394531e+00,2.105343818664550781e+00,2.068736791610717773e+00,2.033381223678588867e+00,1.999213576316833496e+00,1.966175675392150879e+00,1.934211492538452148e+00,1.903270006179809570e+00,1.873303174972534180e+00,1.844265103340148926e+00
3.518061161041259766e+00,3.488428592681884766e+00,3.538792133331298828e+00,5.000000000000000000e+00,5.000000000000000000e+00,5.000000000000000000e+00,5.000000000000000000e+00,5.000000000000000000e+00,5.000000000000000000e+00,5.000000000000000000e+00,5.000000000000000000e+00,5.000000000000000000e+00,5.000000000000000000e+00,5.000000000000000000e+00,5.000000000000000000e+00,5.000000000000000000e+00,5.000000000000000000e+00,5.000000000000000000e+00,5.000000000000000000e+00,5.000000000000000000e+00,5.000000000000000000e+00,5.000000000000000000e+00,5.000000000000000000e+00,5.000000000000000000e+00,5.000000000000000000e+00,5.000000000000000000e+00,5.000000000000000000e+00,5.000000000000000000e+00,5.000000000000000000e+00,5.000000000000000000e+00,5.000000000000000000e+00,5.000000000000000000e+00,5.000000000000000000e+00,5.000000000000000000e+00,5.000000000000000000e+00,5.000000000000000000e+00,5.000000000000000000e+00,5.000000000000000000e+00,5.000000000000000000e+00,4.853955745697021484e+00,4.663691043853759766e+00,4.487778663635253906e+00,4.324654579162597656e+00,4.172973155975341797e+00,4.031571388244628906e+00,3.899438619613647461e+00,3.775691509246826172e+00,3.659557580947875977e+00,3.550354242324829102e+00,3.447479486465454102e+00,3.350398540496826172e+00,3.258635520935058594e+00,3.171765089035034180e+00,3.089406013488769531e+00,1.208417415618896484e+00,1.191347599029541016e+00,1.174898386001586914e+00,1.164709448814392090e+00,1.159842729568481445e+00,1.182579755783081055e+00,2.614232301712036133e+00,2.558026075363159180e+00,1.199911236763000488e+00,1.156242370605468750e+00,1.139670968055725098e+00,1.123794794082641602e+00,1.117935419082641602e+00,1.115356683731079102e+00,1.111892342567443848e+00,2.182614803314208984e+00,2.143296480178833008e+00,2.105369806289672852e+00,2.068761825561523438e+00,2.033405542373657227e+00,1.999237179756164551e+00,1.966198205947875977e+00,1.934233546257019043e+00,1.903291463851928711e+00,1.873323559761047363e+00,1.844285130500793457e+00
3.548456907272338867e+00,3.528092384338378906e+00,3.586345434188842773e+00,5.000000000000000000e+00,5.000000000000000000e+00,5.000000000000000000e+00,5.000000000000000000e+00,5.000000000000000000e+00,5.000000000000000000e+00,5.000000000000000000e+00,5.000000000000000000e+00,5.000000000000000000e+00,5.000000000000000000e+00,5.000000000000000000e+00,5.000000000000000000e+00,5.000000000000000000e+00,5.000000000000000000e+00,5.000000000000000000e+00,5.000000000000000000e+00,5.000000000000000000e+00,5.000000000000000000e+00,5.000000000000000000e+00,5.000000000000000000e+00,5.000000000000000000e+00,5.000000000000000000e+00,5.000000000000000000e+00,5.000000000000000000e+00,5.000000000000000000e+00,5.000000000000000000e+00,5.000000000000000000e+00,5.000000000000000000e+00,5.000000000000000000e+00,5.000000000000000000e+00,5.000000000000000000e+00,5.000000000000000000e+00,5.000000000000000000e+00,5.000000000000000000e+00,5.000000000000000000e+00,5.000000000000000000e+00,4.854093551635742188e+00,4.663819313049316406e+00,4.487897396087646484e+00,4.324764728546142578e+00,4.173075675964355469e+00,4.031666755676269531e+00,3.899528026580810547e+00,3.775775194168090820e+00,3.659636259078979492e+00,3.550428628921508789e+00,3.447549104690551758e+00,3.350464344024658203e+00,3.258698225021362305e+00,3.171824216842651367e+00,3.089462041854858398e+00,1.214993357658386230e+00,1.197738647460937500e+00,1.181293725967407227e+00,1.169896364212036133e+00,1.164966821670532227e+00,1.193060040473937988e+00,2.614272594451904297e+00,2.558064460754394531e+00,1.195668816566467285e+00,1.160863995552062988e+00,1.144156694412231445e+00,1.129794239997863770e+00,1.127160668373107910e+00,1.124539375305175781e+00,1.121108174324035645e+00,2.182642936706542969e+00,2.143323659896850586e+00,2.105395793914794922e+00,2.068787097930908203e+00,2.033429622650146484e+00,1.999260783195495605e+00,1.966220974922180176e+00,1.934255361557006836e+00,1.903312802314758301e+00,1.873344302177429199e+00,1.844305038452148438e+00
3.552185535430908203e+00,3.549965858459472656e+00,3.639770030975341797e+00,5.000000000000000000e+00,5.000000000000000000e+00,5.000000000000000000e+00,5.000000000000000000e+00,5.000000000000000000e+00,5.000000000000000000e+00,5.000000000000000000e+00,5.000000000000000000e+00,5.000000000000000000e+00,5.000000000000000000e+00,5.000000000000000000e+00,5.000000000000000000e+00,5.000000000000000000e+00,5.000000000000000000e+00,5.000000000000000000e+00,5.000000000000000000e+00,5.000000000000000000e+00,5.000000000000000000e+00,5.000000000000000000e+00,5.000000000000000000e+00,5.000000000000000000e+00,5.000000000000000000e+00,5.000000000000000000e+00,5.000000000000000000e+00,5.000000000000000000e+00,5.000000000000000000e+00,5.000000000000000000e+00,5.000000000000000000e+00,5.000000000000000000e+00,5.000000000000000000e+00,5.000000000000000000e+00,5.000000000000000000e+00,5.000000000000000000e+00,5.000000000000000000e+00,5.000000000000000000e+00,5.000000000000000000e+00,4.854231357574462891e+00,4.663945198059082031e+00,4.488015651702880859e+00,4.324874401092529297e+00,4.173178195953369141e+00,4.031762599945068359e+00,3.899617195129394531e+00,3.775859355926513672e+00,3.659714937210083008e+00,3.550502300262451172e+00,3.447619199752807617e+00,3.350530385971069336e+00,3.258760452270507812e+00,3.171883583068847656e+00,3.089518308639526367e+00,1.221641302108764648e+00,1.204236268997192383e+00,1.187759160995483398e+00,1.176021456718444824e+00,1.170136451721191406e+00,1.202540159225463867e+00,2.614312648773193359e+00,2.558103084564208984e+00,1.191583514213562012e+00,1.166960477828979492e+00,1.149542093276977539e+00,1.139306545257568359e+00,1.136539459228515625e+00,1.133874416351318359e+00,2.223460674285888672e+00,2.182670831680297852e+00,2.143350601196289062e+00,2.105422019958496094e+00,2.068812131881713867e+00,2.033454179763793945e+00,1.999284148216247559e+00,1.966243863105773926e+00,1.934277534484863281e+00,1.903333902359008789e+00,1.873365044593811035e+00,1.844325065612792969e+00
3.559401512145996094e+00,3.565665245056152344e+00,5.000000000000000000e+00,5.000000000000000000e+00,5.000000000000000000e+00,5.000000000000000000e+00,5.000000000000000000e+00,5.000000000000000000e+00,5.000000000000000000e+00,5.000000000000000000e+00,5.000000000000000000e+00,5.000000000000000000e+00,5.000000000000000000e+00,5.000000000000000000e+00,5.000000000000000000e+00,5.000000000000000000e+00,5.000000000000000000e+00,5.000000000000000000e+00,5.000000000000000000e+00,5.000000000000000000e+00,5.000000000000000000e+00,5.000000000000000000e+00,5.000000000000000000e+00,5.000000000000000000e+00,5.000000000000000000e+00,5.000000000000000000e+00,5.000000000000000000e+00,5.000000000000000000e+00,5.000000000000000000e+00,5.000000000000000000e+00,5.000000000000000000e+00,5.000000000000000000e+00,5.000000000000000000e+00,5.000000000000000000e+00,5.000000000000000000e+00,5.000000000000000000e+00,5.000000000000000000e+00,5.000000000000000000e+00,5.000000000000000000e+00,4.854369640350341797e+00,4.664072513580322266e+00,4.488132476806640625e+00,4.324984550476074219e+00,4.173280715942382812e+00,4.031857967376708984e+00,3.899706602096557617e+00,3.775943040847778320e+00,3.659793615341186523e+00,3.550576210021972656e+00,3.447689056396484375e+00,3.350596666336059570e+00,3.258822917938232422e+00,3.171942472457885742e+00,3.089574575424194336e+00,1.228362321853637695e+00,1.210955858230590820e+00,1.194295644760131836e+00,1.182210922241210938e+00,1.175352096557617188e+00,1.212171912193298340e+00,2.614352941513061523e+00,1.240327358245849609e+00,1.191267371177673340e+00,1.173121452331542969e+00,1.155383110046386719e+00,1.149531245231628418e+00,1.146579146385192871e+00,1.143642306327819824e+00,2.223489999771118164e+00,2.182698965072631836e+00,2.143377542495727539e+00,2.105448007583618164e+00,2.068837404251098633e+00,2.033478498458862305e+00,1.999307751655578613e+00,1.966266393661499023e+00,1.934299588203430176e+00,1.903355360031127930e+00,1.873385548591613770e+00,1.844345092773437500e+00
3.575009107589721680e+00,3.596377611160278320e+00,5.000000000000000000e+00,5.000000000000000000e+00,5.000000000000000000e+00,5.000000000000000000e+00,5.000000000000000000e+00,5.000000000000000000e+00,5.000000000000000000e+00,5.000000000000000000e+00,5.000000000000000000e+00,5.000000000000000000e+00,5.000000000000000000e+00,5.000000000000000000e+00,5.000000000000000000e+00,5.000000000000000000e+00,5.000000000000000000e+00,5.000000000000000000e+00,5.000000000000000000e+00,5.000000000000000000e+00,5.000000000000000000e+00,5.000000000000000000e+00,5.000000000000000000e+00,5.000000000000000000e+00,5.000000000000000000e+00,5.000000000000000000e+00,5.000000000000000000e+00,5.000000000000000000e+00,5.000000000000000000e+00,5.000000000000000000e+00,5.000000000000000000e+00,5.000000000000000000e+00,5.000000000000000000e+00,5.000000000000000000e+00,5.000000000000000000e+00,5.000000000000000000e+00,5.000000000000000000e+00,5.000000000000000000e+00,5.000000000000000000e+00,4.854507446289062500e+00,4.664199829101562500e+00,4.488250732421875000e+00,4.325093269348144531e+00,4.173382759094238281e+00,4.031953811645507812e+00,3.899796247482299805e+00,3.776026725769042969e+00,3.659872293472290039e+00,3.550650596618652344e+00,3.447758674621582031e+00,3.350662469863891602e+00,3.258885383605957031e+00,3.172001600265502930e+00,3.089630603790283203e+00,1.235157728195190430e+00,1.217750906944274902e+00,1.200904369354248047e+00,1.188465833663940430e+00,1.180614471435546875e+00,1.222438812255859375e+00,2.614393234252929688e+00,1.233512997627258301e+00,1.197688341140747070e+00,1.179275035858154297e+00,1.163777112960815430e+00,1.159940958023071289e+00,1.156935334205627441e+00,2.265864610671997070e+00,2.223518848419189453e+00,2.182727098464965820e+00,2.143404483795166016e+00,2.105473995208740234e+00,2.068862438201904297e+00,2.033502578735351562e+00,1.999331355094909668e+00,1.966289281845092773e+00,1.934321403503417969e+00,1.903376698493957520e+00,1.873406291007995605e+00,1.844365000724792480e+00
3.592197418212890625e+00,3.627324581146240234e+00,5.000000000000000000e+00,5.000000000000000000e+00,5.000000000000000000e+00,5.000000000000000000e+00,5.000000000000000000e+00,5.000000000000000000e+00,5.000000000000000000e+00,5.000000000000000000e+00,5.000000000000000000e+00,5.000000000000000000e+00,5.000000000000000000e+00,5.000000000000000000e+00,5.000000000000000000e+00,5.000000000000000000e+00,5.000000000000000000e+00,5.000000000000000000e+00,5.000000000000000000e+00,5.000000000000000000e+00,5.000000000000000000e+00,5.000000000000000000e+00,5.000000000000000000e+00,5.000000000000000000e+00,5.000000000000000000e+00,5.000000000000000000e+00,5.000000000000000000e+00,5.000000000000000000e+00,5.000000000000000000e+00,5.000000000000000000e+00,5.000000000000000000e+00,5.000000000000000000e+00,5.000000000000000000e+00,5.000000000000000000e+00,5.000000000000000000e+00,5.000000000000000000e+00,5.000000000000000000e+00,5.000000000000000000e+00,5.000000000000000000e+00,4.854645729064941406e+00,4.664327621459960938e+00,4.488368511199951172e+00,4.325202941894531250e+00,4.173485279083251953e+00,4.032049179077148438e+00,3.899885416030883789e+00,3.776110649108886719e+00,3.659950971603393555e+00,3.550724744796752930e+00,3.447829008102416992e+00,3.350728511810302734e+00,3.258947849273681641e+00,3.172060966491699219e+00,3.089686632156372070e+00,1.242537021636962891e+00,1.224989295005798340e+00,1.207930088043212891e+00,1.196158170700073242e+00,1.188556432723999023e+00,2.673174142837524414e+00,2.614433288574218750e+00,1.228974461555480957e+00,1.204175710678100586e+00,1.185290932655334473e+00,1.173724055290222168e+00,1.170541167259216309e+00,2.309885978698730469e+00,2.265894889831542969e+00,2.223547935485839844e+00,2.182754993438720703e+00,2.143431663513183594e+00,2.105500221252441406e+00,2.068887710571289062e+00,2.033526897430419922e+00,1.999354600906372070e+00,1.966312050819396973e+00,1.934343457221984863e+00,1.903397917747497559e+00,1.873426914215087891e+00,1.844385027885437012e+00
3.583286046981811523e+00,4.874053001403808594e+00,4.872843265533447266e+00,4.871634006500244141e+00,4.870425224304199219e+00,4.869216918945312500e+00,4.868009567260742188e+00,4.866802215576171875e+00,4.865595817565917969e+00,4.864390373229980469e+00,4.863185405731201172e+00,4.861980438232421875e+00,4.860776424407958984e+00,4.859573364257812500e+00,4.858370304107666016e+00,4.857168674468994141e+00,4.855967044830322266e+00,4.854765892028808594e+00,4.853565216064453125e+00,4.852365493774414062e+00,4.851166725158691406e+00,4.849967956542968750e+00,4.848769664764404297e+00,4.847572326660156250e+00,4.846375465393066406e+00,4.845179080963134766e+00,4.843983650207519531e+00,4.842788696289062500e+00,4.841594219207763672e+00,4.840400218963623047e+00,4.839206695556640625e+00,4.838014125823974609e+00,4.836822032928466797e+00,4.835630416870117188e+00,4.834439277648925781e+00,4.833249092102050781e+00,4.832058906555175781e+00,4.830870151519775391e+00,4.829681396484375000e+00,4.828493595123291016e+00,4.664454936981201172e+00,4.488486766815185547e+00,4.325312137603759766e+00,4.173586368560791016e+00,4.032145023345947266e+00,3.899974584579467773e+00,3.776194572448730469e+00,3.660029888153076172e+00,3.550798654556274414e+00,3.447898626327514648e+00,3.350794792175292969e+00,3.259010076522827148e+00,3.172120094299316406e+00,3.089742898941040039e+00,1.250524640083312988e+00,1.232752084732055664e+00,1.215546727180480957e+00,1.206257104873657227e+00,1.200307726860046387e+00,2.673216342926025391e+00,2.614473581314086914e+00,1.230078220367431641e+00,1.210448980331420898e+00,1.191368579864501953e+00,1.184470653533935547e+00,1.181336641311645508e+00,2.309917449951171875e+00,2.265925168991088867e+00,2.223577022552490234e+00,2.182782888412475586e+00,2.143458604812622070e+00,2.105526208877563477e+00,2.068912744522094727e+00,2.033551454544067383e+00,1.999378204345703125e+00,1.966334581375122070e+00,1.934365630149841309e+00,1.903419256210327148e+00,1.873447418212890625e+00,1.844405174255371094e+00
3.507103681564331055e+00,3.567784547805786133e+00,3.776628732681274414e+00,3.775902271270751953e+00,3.775176286697387695e+00,3.774450063705444336e+00,3.773724794387817383e+00,3.772999048233032227e+00,3.772274255752563477e+00,3.771549224853515625e+00,3.770824670791625977e+00,3.770100593566894531e+00,3.769376516342163086e+00,3.768652915954589844e+00,3.767929315567016602e+00,3.767206430435180664e+00,3.766483783721923828e+00,3.765760898590087891e+00,3.765038728713989258e+00,3.764316320419311523e+00,3.763594865798950195e+00,3.762873172760009766e+00,3.762152194976806641e+00,3.761431455612182617e+00,3.760710477828979492e+00,3.759990215301513672e+00,3.759269952774047852e+00,3.758550405502319336e+00,3.757830858230590820e+00,3.757111549377441406e+00,3.756392717361450195e+00,3.755673646926879883e+00,3.754955530166625977e+00,3.754237413406372070e+00,3.753519296646118164e+00,3.752801895141601562e+00,3.752084255218505859e+00,3.751367330551147461e+00,3.750650405883789062e+00,3.749933958053588867e+00,3.749217987060546875e+00,3.748501777648925781e+00,3.747786045074462891e+00,3.747070550918579102e+00,3.746355533599853516e+00,3.745640754699707031e+00,3.744925975799560547e+00,3.660108566284179688e+00,3.550873041152954102e+00,3.447968482971191406e+00,3.350860595703125000e+00,3.259072780609130859e+00,3.172179222106933594e+00,3.089798927307128906e+00,1.258615493774414062e+00,1.240613937377929688e+00,1.223394155502319336e+00,1.216316938400268555e+00,1.212293982505798340e+00,2.673258304595947266e+00,1.288105010986328125e+00,1.247603535652160645e+00,1.216788053512573242e+00,1.201615810394287109e+00,1.195525884628295898e+00,2.355684518814086914e+00,2.309948682785034180e+00,2.265955209732055664e+00,2.223606109619140625e+00,2.182811021804809570e+00,2.143485546112060547e+00,2.105552434921264648e+00,2.068938016891479492e+00,2.033575534820556641e+00,1.999401807785034180e+00,1.966357469558715820e+00,1.934387445449829102e+00,1.903440594673156738e+00,1.873468160629272461e+00,1.844424962997436523e+00
3.084021568298339844e+00,3.083537340164184570e+00,3.083052635192871094e+00,3.082568645477294922e+00,3.082084655761718750e+00,3.081600904464721680e+00,3.081117153167724609e+00,3.080633401870727539e+00,3.080150127410888672e+00,3.079666852951049805e+00,3.079183816909790039e+00,3.078700780868530273e+00,3.078217983245849609e+00,3.077735424041748047e+00,3.077252864837646484e+00,3.076770544052124023e+00,3.076288223266601562e+00,3.075806379318237305e+00,3.075324535369873047e+00,3.074842691421508789e+00,3.074361085891723633e+00,3.073879480361938477e+00,3.073398351669311523e+00,3.072917222976684570e+00,3.072436094284057617e+00,3.071955442428588867e+00,3.071474552154541016e+00,3.070994138717651367e+00,3.070513725280761719e+00,3.070033550262451172e+00,3.069553613662719727e+00,3.069073438644409180e+00,3.068593740463256836e+00,3.068114042282104492e+00,3.067634582519531250e+00,3.067155361175537109e+00,3.066676139831542969e+00,3.066197156906127930e+00,3.065718173980712891e+00,3.065239667892456055e+00,3.064761161804199219e+00,3.064282417297363281e+00,3.063804388046264648e+00,3.063326120376586914e+00,3.062848091125488281e+00,3.062370061874389648e+00,3.061892509460449219e+00,3.061415195465087891e+00,3.060937643051147461e+00,3.060460567474365234e+00,3.059983253479003906e+00,3.059506416320800781e+00,3.059029817581176758e+00,3.058552980422973633e+00,1.267777204513549805e+00,1.248607397079467773e+00,1.231343507766723633e+00,1.224083185195922852e+00,1.224521756172180176e+00,1.320041060447692871e+00,1.277260661125183105e+00,1.248521924018859863e+00,1.235095977783203125e+00,1.224364399909973145e+00,2.403301715850830078e+00,2.355717182159423828e+00,2.309980154037475586e+00,2.265985250473022461e+00,2.223635196685791016e+00,2.182839155197143555e+00,2.143512725830078125e+00,2.105578422546386719e+00,2.068963289260864258e+00,2.033599853515625000e+00,1.999425172805786133e+00,1.966380238533020020e+00,1.934409499168395996e+00,1.903461813926696777e+00,1.873488903045654297e+00,1.844445109367370605e+00
2.605392217636108398e+00,2.605046272277832031e+00,2.604700803756713867e+00,2.604355335235595703e+00,2.604009628295898438e+00,2.603664398193359375e+00,2.603318929672241211e+00,2.602973699569702148e+00,2.602628707885742188e+00,2.602283477783203125e+00,2.601938724517822266e+00,2.601593732833862305e+00,2.601248979568481445e+00,2.600904464721679688e+00,2.600559711456298828e+00,2.600215435028076172e+00,2.599870920181274414e+00,2.599526643753051758e+00,2.599182367324829102e+00,2.598838090896606445e+00,2.598494291305541992e+00,2.598150253295898438e+00,2.597806453704833984e+00,2.597462654113769531e+00,2.597118854522705078e+00,2.596775531768798828e+00,2.596431970596313477e+00,2.596088647842407227e+00,2.595745086669921875e+00,2.595402002334594727e+00,2.595058917999267578e+00,2.594715833663940430e+00,2.594372987747192383e+00,2.594029903411865234e+00,2.593687295913696289e+00,2.593344449996948242e+00,2.593002080917358398e+00,2.592659711837768555e+00,2.592317104339599609e+00,2.591974973678588867e+00,2.591632604598999023e+00,2.591290473937988281e+00,2.590948581695556641e+00,2.590606451034545898e+00,2.590264797210693359e+00,2.589922904968261719e+00,2.589581251144409180e+00,2.589239597320556641e+00,2.588898181915283203e+00,2.588556766510009766e+00,2.588215351104736328e+00,2.587874174118041992e+00,2.587532997131347656e+00,2.587192058563232422e+00,1.277079701423645020e+00,1.256888866424560547e+00,1.239396691322326660e+00,1.231949090957641602e+00,1.236998915672302246e+00,1.308481812477111816e+00,1.275078654289245605e+00,1.247331380844116211e+00,1.234624385833740234e+00,1.239514589309692383e+00,2.403335809707641602e+00,2.355749607086181641e+00,2.310011625289916992e+00,2.266015768051147461e+00,2.223664283752441406e+00,2.182867050170898438e+00,2.143539667129516602e+00,2.105604410171508789e+00,2.068988323211669922e+00,2.033624410629272461e+00,1.999448776245117188e+00,1.966402888298034668e+00,1.934431552886962891e+00,1.903483152389526367e+00,1.873509407043457031e+00,1.844465136528015137e+00
2.255389213562011719e+00,2.255129337310791016e+00,2.254869222640991211e+00,2.254609346389770508e+00,2.254349231719970703e+00,2.254089593887329102e+00,2.253829717636108398e+00,2.253570079803466797e+00,2.253310441970825195e+00,2.253050804138183594e+00,2.252791404724121094e+00,2.252532005310058594e+00,2.252272605895996094e+00,2.252013206481933594e+00,2.251754045486450195e+00,2.251494646072387695e+00,2.251235485076904297e+00,2.250976324081420898e+00,2.250717401504516602e+00,2.250458240509033203e+00,2.250199317932128906e+00,2.249940633773803711e+00,2.249681711196899414e+00,2.249423027038574219e+00,2.249165058135986328e+00,2.248907089233398438e+00,2.248649597167968750e+00,2.248392105102539062e+00,2.248134613037109375e+00,2.247877120971679688e+00,2.247619628906250000e+00,2.247362375259399414e+00,2.247105121612548828e+00,2.246847867965698242e+00,2.246590852737426758e+00,2.246333599090576172e+00,2.246076583862304688e+00,2.245819807052612305e+00,2.245562553405761719e+00,2.245305776596069336e+00,2.245048999786376953e+00,2.244792222976684570e+00,2.244535446166992188e+00,2.244278907775878906e+00,2.244022369384765625e+00,2.243765830993652344e+00,2.243509531021118164e+00,2.243252992630004883e+00,2.242996692657470703e+00,2.242740631103515625e+00,2.242484331130981445e+00,2.242228031158447266e+00,2.241971969604492188e+00,2.241715908050537109e+00,2.241459846496582031e+00,1.265280961990356445e+00,1.247556090354919434e+00,1.239916682243347168e+00,1.259674787521362305e+00,1.308378338813781738e+00,1.277428150177001953e+00,1.245540142059326172e+00,1.227788209915161133e+00,1.220597505569458008e+00,2.238903284072875977e+00,2.238647937774658203e+00,2.238392829895019531e+00,2.238137483596801758e+00,2.223693370819091797e+00,2.182894945144653320e+00,2.143566608428955078e+00,2.105630636215209961e+00,2.069013595581054688e+00,2.033648490905761719e+00,1.999472379684448242e+00,1.966425657272338867e+00,1.934453487396240234e+00,1.903504610061645508e+00,1.873530030250549316e+00,1.844485044479370117e+00
1.988328695297241211e+00,1.988126635551452637e+00,1.987924456596374512e+00,1.987722396850585938e+00,1.987520337104797363e+00,1.987318396568298340e+00,1.987116456031799316e+00,1.986914753913879395e+00,1.986712813377380371e+00,1.986510992050170898e+00,1.986309170722961426e+00,1.986107468605041504e+00,1.985905766487121582e+00,1.985704064369201660e+00,1.985502719879150391e+00,1.985301136970520020e+00,1.985099554061889648e+00,1.984898090362548828e+00,1.984696626663208008e+00,1.984495162963867188e+00,1.984294056892395020e+00,1.984092712402343750e+00,1.983891367912292480e+00,1.983690142631530762e+00,1.983488917350769043e+00,1.983287811279296875e+00,1.983086585998535156e+00,1.982885718345642090e+00,1.982684731483459473e+00,1.982483744621276855e+00,1.982282757759094238e+00,1.982081770896911621e+00,1.981880903244018555e+00,1.981680274009704590e+00,1.981479406356811523e+00,1.981278657913208008e+00,1.981077909469604492e+00,1.980877280235290527e+00,1.980676651000976562e+00,1.980476021766662598e+00,1.980275630950927734e+00,1.980075120925903320e+00,1.979874610900878906e+00,1.979674220085144043e+00,1.979473829269409180e+00,1.979273438453674316e+00,1.979073286056518555e+00,1.978873014450073242e+00,1.978672862052917480e+00,1.978472590446472168e+00,1.978272438049316406e+00,1.978072285652160645e+00,1.977872252464294434e+00,1.977672457695007324e+00,1.977472424507141113e+00,1.282079100608825684e+00,1.267820358276367188e+00,1.261673092842102051e+00,1.976672768592834473e+00,1.976473212242126465e+00,1.295619606971740723e+00,1.253233194351196289e+00,1.221787691116333008e+00,1.208808422088623047e+00,1.213751912117004395e+00,1.975275278091430664e+00,1.975075960159301758e+00,1.974876523017883301e+00,1.974677085876464844e+00,1.974477648735046387e+00,1.974278330802917480e+00,1.974079012870788574e+00,1.973879694938659668e+00,1.973680734634399414e+00,1.973481535911560059e+00,1.966448426246643066e+00,1.934475541114807129e+00,1.903525710105895996e+00,1.873550772666931152e+00,1.844505071640014648e+00
1.777817368507385254e+00,1.777655720710754395e+00,1.777494072914123535e+00,1.777332544326782227e+00,1.777171015739440918e+00,1.777009487152099609e+00,1.776848196983337402e+00,1.776686787605285645e+00,1.776525378227233887e+00,1.776363968849182129e+00,1.776202678680419922e+00,1.776041269302368164e+00,1.775879979133605957e+00,1.775718927383422852e+00,1.775557637214660645e+00,1.775396466255187988e+00,1.775235295295715332e+00,1.775074124336242676e+00,1.774913072586059570e+00,1.774752140045166016e+00,1.774591088294982910e+00,1.774430036544799805e+00,1.774268984794616699e+00,1.774108052253723145e+00,1.773947119712829590e+00,1.773786187171936035e+00,1.773625493049621582e+00,1.773464560508728027e+00,1.773303747177124023e+00,1.773142933845520020e+00,1.772982120513916016e+00,1.772821426391601562e+00,1.772660851478576660e+00,1.772500157356262207e+00,1.772339582443237305e+00,1.772178888320922852e+00,1.772018313407897949e+00,1.771857738494873047e+00,1.771697163581848145e+00,1.771536827087402344e+00,1.771376371383666992e+00,1.771215915679931641e+00,1.771055459976196289e+00,1.770895123481750488e+00,1.770734786987304688e+00,1.770574450492858887e+00,1.770414233207702637e+00,1.770254015922546387e+00,1.770093798637390137e+00,1.769933462142944336e+00,1.769773364067077637e+00,1.769613146781921387e+00,1.769453167915344238e+00,1.769293069839477539e+00,1.340499401092529297e+00,1.285952210426330566e+00,1.268055558204650879e+00,1.257336497306823730e+00,1.268976449966430664e+00,1.768333196640014648e+00,1.768173336982727051e+00,1.768013477325439453e+00,1.223687767982482910e+00,1.198940873146057129e+00,1.192783236503601074e+00,1.223734259605407715e+00,1.767214775085449219e+00,1.767055034637451172e+00,1.766895294189453125e+00,1.766735672950744629e+00,1.766576051712036133e+00,1.766416549682617188e+00,1.766257166862487793e+00,1.766097664833068848e+00,1.765938162803649902e+00,1.765778660774230957e+00,1.765619158744812012e+00,1.765459775924682617e+00,1.765300631523132324e+00,1.765141248703002930e+00
1.607613563537597656e+00,1.607481479644775391e+00,1.607349276542663574e+00,1.607217192649841309e+00,1.607085108757019043e+00,1.606953144073486328e+00,1.606821179389953613e+00,1.606689095497131348e+00,1.606557130813598633e+00,1.606425166130065918e+00,1.606293201446533203e+00,1.606161236763000488e+00,1.606029391288757324e+00,1.605897545814514160e+00,1.605765700340270996e+00,1.605633854866027832e+00,1.605502009391784668e+00,1.605370163917541504e+00,1.605238556861877441e+00,1.605106711387634277e+00,1.604974985122680664e+00,1.604843258857727051e+00,1.604711532592773438e+00,1.604579925537109375e+00,1.604448199272155762e+00,1.604316711425781250e+00,1.604185104370117188e+00,1.604053497314453125e+00,1.603922009468078613e+00,1.603790402412414551e+00,1.603658914566040039e+00,1.603527426719665527e+00,1.603396058082580566e+00,1.603264570236206055e+00,1.603133082389831543e+00,1.603001713752746582e+00,1.602870345115661621e+00,1.602738976478576660e+00,1.602607727050781250e+00,1.602476358413696289e+00,1.602345108985900879e+00,1.602213740348815918e+00,1.602082490921020508e+00,1.601951241493225098e+00,1.601819992065429688e+00,1.601688981056213379e+00,1.601557731628417969e+00,1.601426601409912109e+00,1.601295471191406250e+00,1.601164340972900391e+00,1.601033210754394531e+00,1.600902318954467773e+00,1.600771307945251465e+00,1.600640296936035156e+00,1.334406375885009766e+00,1.283221125602722168e+00,1.258864045143127441e+00,1.242950320243835449e+00,1.235502004623413086e+00,1.245140314102172852e+00,1.599723696708679199e+00,1.599592804908752441e+00,1.599462032318115234e+00,1.189738750457763672e+00,1.178557634353637695e+00,1.188455343246459961e+00,1.216353178024291992e+00,1.598808288574218750e+00,1.598677515983581543e+00,1.598546862602233887e+00,1.598416209220886230e+00,1.598285675048828125e+00,1.598155021667480469e+00,1.598024487495422363e+00,1.597893834114074707e+00,1.597763299942016602e+00,1.597632765769958496e+00,1.597502231597900391e+00,1.597371935844421387e+00,1.597241401672363281e+00
1.467152118682861328e+00,1.467042088508605957e+00,1.466932058334350586e+00,1.466821908950805664e+00,1.466711997985839844e+00,1.466602087020874023e+00,1.466492056846618652e+00,1.466382145881652832e+00,1.466272115707397461e+00,1.466162204742431641e+00,1.466052293777465820e+00,1.465942502021789551e+00,1.465832591056823730e+00,1.465722680091857910e+00,1.465612888336181641e+00,1.465502977371215820e+00,1.465393185615539551e+00,1.465283393859863281e+00,1.465173721313476562e+00,1.465063929557800293e+00,1.464954137802124023e+00,1.464844465255737305e+00,1.464734673500061035e+00,1.464625000953674316e+00,1.464515447616577148e+00,1.464405775070190430e+00,1.464296102523803711e+00,1.464186429977416992e+00,1.464076757431030273e+00,1.463967204093933105e+00,1.463857531547546387e+00,1.463748097419738770e+00,1.463638544082641602e+00,1.463528990745544434e+00,1.463419437408447266e+00,1.463310003280639648e+00,1.463200449943542480e+00,1.463091135025024414e+00,1.462981581687927246e+00,1.462872147560119629e+00,1.462762713432312012e+00,1.462653398513793945e+00,1.462543964385986328e+00,1.462434530258178711e+00,1.462325334548950195e+00,1.462216019630432129e+00,1.462106585502624512e+00,1.461997270584106445e+00,1.461888074874877930e+00,1.461778759956359863e+00,1.461669564247131348e+00,1.461560368537902832e+00,1.461451172828674316e+00,1.461341857910156250e+00,1.461232662200927734e+00,1.280555963516235352e+00,1.248448133468627930e+00,1.231398940086364746e+00,1.220598697662353516e+00,1.214698076248168945e+00,1.214354634284973145e+00,1.460468888282775879e+00,1.460359811782836914e+00,1.187032222747802734e+00,1.169087886810302734e+00,1.155370235443115234e+00,1.162154555320739746e+00,1.459814786911010742e+00,1.459705829620361328e+00,1.459596872329711914e+00,1.459488034248352051e+00,1.459379076957702637e+00,1.459270238876342773e+00,1.459161281585693359e+00,1.459052443504333496e+00,1.458943605422973633e+00,1.458834767341613770e+00,1.458726048469543457e+00,1.458617210388183594e+00,1.458508372306823730e+00
1.349263429641723633e+00,1.349170327186584473e+00,1.349077224731445312e+00,1.348984122276306152e+00,1.348891139030456543e+00,1.348798155784606934e+00,1.348705053329467773e+00,1.348612070083618164e+00,1.348519086837768555e+00,1.348426103591918945e+00,1.348333239555358887e+00,1.348240256309509277e+00,1.348147273063659668e+00,1.348054409027099609e+00,1.347961425781250000e+00,1.347868561744689941e+00,1.347775578498840332e+00,1.347682833671569824e+00,1.347589969635009766e+00,1.347497105598449707e+00,1.347404241561889648e+00,1.347311377525329590e+00,1.347218632698059082e+00,1.347125887870788574e+00,1.347033143043518066e+00,1.346940279006958008e+00,1.346847534179687500e+00,1.346754789352416992e+00,1.346662044525146484e+00,1.346569299697875977e+00,1.346476674079895020e+00,1.346383929252624512e+00,1.346291303634643555e+00,1.346198558807373047e+00,1.346105933189392090e+00,1.346013307571411133e+00,1.345920562744140625e+00,1.345828056335449219e+00,1.345735430717468262e+00,1.345642805099487305e+00,1.345550298690795898e+00,1.345457673072814941e+00,1.345365047454833984e+00,1.345272660255432129e+00,1.345180034637451172e+00,1.345087528228759766e+00,1.344995021820068359e+00,1.344902515411376953e+00,1.344810009002685547e+00,1.344717502593994141e+00,1.344625234603881836e+00,1.344532728195190430e+00,1.344440221786499023e+00,1.344347834587097168e+00,1.344255447387695312e+00,1.344163060188293457e+00,1.234856963157653809e+00,1.213257551193237305e+00,1.203785419464111328e+00,1.195312857627868652e+00,1.191588997840881348e+00,1.187708258628845215e+00,1.343516588211059570e+00,1.343424439430236816e+00,1.343332171440124512e+00,1.144476532936096191e+00,1.131304144859313965e+00,1.149248719215393066e+00,1.342963099479675293e+00,1.342870950698852539e+00,1.342778801918029785e+00,1.342686533927917480e+00,1.342594385147094727e+00,1.342502117156982422e+00,1.342409968376159668e+00,1.342317819595336914e+00,1.342225790023803711e+00,1.342133641242980957e+00,1.342041611671447754e+00,1.341949462890625000e+00
1.248910784721374512e+00,1.248831033706665039e+00,1.248751282691955566e+00,1.248671650886535645e+00,1.248591899871826172e+00,1.248512148857116699e+00,1.248432517051696777e+00,1.248352766036987305e+00,1.248273134231567383e+00,1.248193502426147461e+00,1.248113870620727539e+00,1.248034119606018066e+00,1.247954487800598145e+00,1.247874855995178223e+00,1.247795224189758301e+00,1.247715592384338379e+00,1.247636079788208008e+00,1.247556567192077637e+00,1.247476935386657715e+00,1.247397303581237793e+00,1.247317790985107422e+00,1.247238159179687500e+00,1.247158646583557129e+00,1.247079253196716309e+00,1.246999740600585938e+00,1.246920108795166016e+00,1.246840596199035645e+00,1.246761202812194824e+00,1.246681690216064453e+00,1.246602296829223633e+00,1.246522784233093262e+00,1.246443390846252441e+00,1.246363878250122070e+00,1.246284484863281250e+00,1.246205091476440430e+00,1.246125578880310059e+00,1.246046304702758789e+00,1.245966911315917969e+00,1.245887517929077148e+00,1.245808124542236328e+00,1.245728731155395508e+00,1.245649456977844238e+00,1.245570182800292969e+00,1.245490789413452148e+00,1.245411515235900879e+00,1.245332121849060059e+00,1.245252847671508789e+00,1.245173573493957520e+00,1.245094299316406250e+00,1.245015144348144531e+00,1.244935870170593262e+00,1.244856595993041992e+00,1.244777321815490723e+00,1.244698047637939453e+00,1.244618892669677734e+00,1.244539737701416016e+00,1.244460582733154297e+00,1.201581358909606934e+00,1.179728627204895020e+00,1.171962022781372070e+00,1.164690852165222168e+00,1.161104917526245117e+00,1.161286473274230957e+00,1.243906497955322266e+00,1.243827342987060547e+00,1.243748188018798828e+00,1.243669152259826660e+00,1.243589997291564941e+00,1.243510961532592773e+00,1.243431925773620605e+00,1.243352890014648438e+00,1.243273854255676270e+00,1.243194818496704102e+00,1.243115782737731934e+00,1.243036746978759766e+00,1.242957830429077148e+00,1.242878794670104980e+00,1.242799878120422363e+00,1.242720842361450195e+00,1.242641925811767578e+00
1.162452459335327148e+00,1.162383437156677246e+00,1.162314414978027344e+00,1.162245273590087891e+00,1.162176251411437988e+00,1.162107110023498535e+00,1.162038087844848633e+00,1.161969065666198730e+00,1.161899924278259277e+00,1.161831021308898926e+00,1.161761999130249023e+00,1.161692976951599121e+00,1.161623954772949219e+00,1.161554932594299316e+00,1.161485910415649414e+00,1.161417007446289062e+00,1.161348104476928711e+00,1.161279082298278809e+00,1.161210179328918457e+00,1.161141157150268555e+00,1.161072254180908203e+00,1.161003351211547852e+00,1.160934448242187500e+00,1.160865545272827148e+00,1.160796642303466797e+00,1.160727739334106445e+00,1.160658836364746094e+00,1.160589933395385742e+00,1.160521149635314941e+00,1.160452246665954590e+00,1.160383343696594238e+00,1.160314559936523438e+00,1.160245656967163086e+00,1.160176873207092285e+00,1.160107970237731934e+00,1.160039305686950684e+00,1.159970402717590332e+00,1.159901618957519531e+00,1.159832835197448730e+00,1.159764051437377930e+00,1.159695267677307129e+00,1.159626603126525879e+00,1.159557819366455078e+00,1.159489035606384277e+00,1.159420251846313477e+00,1.159351468086242676e+00,1.159282803535461426e+00,1.159214019775390625e+00,1.159145474433898926e+00,1.159076690673828125e+00,1.159008026123046875e+00,1.158939361572265625e+00,1.158870577812194824e+00,1.158801913261413574e+00,1.158733248710632324e+00,1.158664703369140625e+00,1.158596038818359375e+00,1.158527374267578125e+00,1.158458709716796875e+00,1.158390164375305176e+00,1.158321499824523926e+00,1.158252954483032227e+00,1.158184409141540527e+00,1.158115863800048828e+00,1.158047199249267578e+00,1.157978653907775879e+00,1.157910108566284180e+00,1.157841563224792480e+00,1.157773017883300781e+00,1.157704472541809082e+00,1.157635927200317383e+00,1.157567381858825684e+00,1.157498955726623535e+00,1.157430410385131836e+00,1.157361984252929688e+00,1.157293438911437988e+00,1.157225012779235840e+00,1.157156467437744141e+00,1.157088041305541992e+00,1.157019495964050293e+00
1.087189555168151855e+00,1.087129235267639160e+00,1.087068796157836914e+00,1.087008357048034668e+00,1.086947917938232422e+00,1.086887478828430176e+00,1.086827039718627930e+00,1.086766719818115234e+00,1.086706399917602539e+00,1.086645960807800293e+00,1.086585640907287598e+00,1.086525201797485352e+00,1.086464881896972656e+00,1.086404442787170410e+00,1.086344242095947266e+00,1.086283802986145020e+00,1.086223483085632324e+00,1.086163163185119629e+00,1.086102843284606934e+00,1.086042523384094238e+00,1.085982203483581543e+00,1.085922002792358398e+00,1.085861682891845703e+00,1.085801362991333008e+00,1.085741043090820312e+00,1.085680842399597168e+00,1.085620522499084473e+00,1.085560321807861328e+00,1.085500001907348633e+00,1.085439801216125488e+00,1.085379600524902344e+00,1.085319280624389648e+00,1.085259079933166504e+00,1.085198879241943359e+00,1.085138678550720215e+00,1.085078477859497070e+00,1.085018277168273926e+00,1.084958076477050781e+00,1.084897875785827637e+00,1.084837675094604492e+00,1.084777474403381348e+00,1.084717392921447754e+00,1.084657192230224609e+00,1.084596991539001465e+00,1.084536910057067871e+00,1.084476709365844727e+00,1.084416627883911133e+00,1.084356546401977539e+00,1.084296345710754395e+00,1.084236264228820801e+00,1.084176182746887207e+00,1.084116101264953613e+00,1.084055900573730469e+00,1.083995819091796875e+00,1.083935856819152832e+00,1.083875775337219238e+00,1.083815693855285645e+00,1.083755612373352051e+00,1.083695530891418457e+00,1.083635449409484863e+00,1.083575487136840820e+00,1.083515524864196777e+00,1.083455443382263184e+00,1.083395361900329590e+00,1.083335399627685547e+00,1.083275318145751953e+00,1.083215355873107910e+00,1.083155393600463867e+00,1.083095431327819824e+00,1.083035469055175781e+00,1.082975506782531738e+00,1.082915425300598145e+00,1.082855463027954102e+00,1.082795619964599609e+00,1.082735657691955566e+00,1.082675695419311523e+00,1.082615733146667480e+00,1.082555770874023438e+00,1.082495927810668945e+00,1.082435965538024902e+00
1.021079897880554199e+00,1.021026611328125000e+00,1.020973324775695801e+00,1.020920038223266602e+00,1.020866632461547852e+00,1.020813345909118652e+00,1.020760059356689453e+00,1.020706892013549805e+00,1.020653605461120605e+00,1.020600318908691406e+00,1.020547032356262207e+00,1.020493745803833008e+00,1.020440578460693359e+00,1.020387291908264160e+00,1.020334124565124512e+00,1.020280838012695312e+00,1.020227670669555664e+00,1.020174384117126465e+00,1.020121216773986816e+00,1.020067930221557617e+00,1.020014882087707520e+00,1.019961595535278320e+00,1.019908428192138672e+00,1.019855260848999023e+00,1.019802093505859375e+00,1.019748806953430176e+00,1.019695639610290527e+00,1.019642591476440430e+00,1.019589424133300781e+00,1.019536256790161133e+00,1.019483089447021484e+00,1.019429922103881836e+00,1.019376754760742188e+00,1.019323706626892090e+00,1.019270539283752441e+00,1.019217491149902344e+00,1.019164323806762695e+00,1.019111275672912598e+00,1.019058108329772949e+00,1.019005060195922852e+00,1.018952012062072754e+00,1.018898844718933105e+00,1.018845796585083008e+00,1.018792748451232910e+00,1.018739581108093262e+00,1.018686532974243164e+00,1.018633484840393066e+00,1.018580436706542969e+00,1.018527388572692871e+00,1.018474340438842773e+00,1.018421292304992676e+00,1.018368244171142578e+00,1.018315196037292480e+00,1.018262267112731934e+00,1.018209218978881836e+00,1.018156290054321289e+00,1.018103241920471191e+00,1.018050193786621094e+00,1.017997264862060547e+00,1.017944335937500000e+00,1.017891287803649902e+00,1.017838358879089355e+00,1.017785310745239258e+00,1.017732381820678711e+00,1.017679452896118164e+00,1.017626404762268066e+00,1.017573595046997070e+00,1.017520546913146973e+00,1.017467617988586426e+00,1.017414689064025879e+00,1.017361760139465332e+00,1.017308831214904785e+00,1.017255902290344238e+00,1.017203092575073242e+00,1.017150163650512695e+00,1.017097234725952148e+00,1.017044305801391602e+00,1.016991496086120605e+00,1.016938567161560059e+00,1.016885757446289062e+00
9.625493884086608887e-01,9.625020027160644531e-01,9.624546170234680176e-01,9.624072313308715820e-01,9.623598456382751465e-01,9.623125195503234863e-01,9.622651338577270508e-01,9.622178077697753906e-01,9.621704816818237305e-01,9.621230959892272949e-01,9.620757699012756348e-01,9.620284438133239746e-01,9.619811177253723145e-01,9.619339108467102051e-01,9.618865847587585449e-01,9.618392586708068848e-01,9.617919325828552246e-01,9.617446660995483398e-01,9.616973400115966797e-01,9.616500735282897949e-01,9.616027474403381348e-01,9.615554809570312500e-01,9.615082144737243652e-01,9.614609479904174805e-01,9.614136815071105957e-01,9.613664150238037109e-01,9.613192081451416016e-01,9.612720012664794922e-01,9.612247347831726074e-01,9.611774682998657227e-01,9.611302614212036133e-01,9.610829949378967285e-01,9.610357880592346191e-01,9.609885215759277344e-01,9.609413146972656250e-01,9.608941078186035156e-01,9.608468413352966309e-01,9.607996344566345215e-01,9.607524275779724121e-01,9.607053399085998535e-01,9.606581330299377441e-01,9.606109857559204102e-01,9.605637788772583008e-01,9.605165719985961914e-01,9.604694247245788574e-01,9.604222178459167480e-01,9.603750705718994141e-01,9.603279232978820801e-01,9.602807164192199707e-01,9.602335691452026367e-01,9.601864218711853027e-01,9.601392745971679688e-01,9.600922465324401855e-01,9.600450992584228516e-01,9.599979519844055176e-01,9.599508643150329590e-01,9.599037170410156250e-01,9.598565697669982910e-01,9.598094820976257324e-01,9.597623944282531738e-01,9.597152471542358398e-01,9.596681594848632812e-01,9.596210718154907227e-01,9.595739841461181641e-01,9.595268964767456055e-01,9.594799280166625977e-01,9.594328403472900391e-01,9.593857526779174805e-01,9.593386650085449219e-01,9.592916369438171387e-01,9.592445492744445801e-01,9.591975212097167969e-01,9.591504335403442383e-01,9.591034054756164551e-01,9.590563774108886719e-01,9.590093493461608887e-01,9.589623212814331055e-01,9.589152932167053223e-01,9.588683843612670898e-01,9.588213562965393066e-01
9.103651642799377441e-01,9.103227853775024414e-01,9.102804064750671387e-01,9.102380275726318359e-01,9.101956486701965332e-01,9.101532697677612305e-01,9.101109504699707031e-01,9.100685715675354004e-01,9.100261926651000977e-01,9.099838733673095703e-01,9.099414944648742676e-01,9.098991751670837402e-01,9.098569154739379883e-01,9.098145961761474609e-01,9.097722768783569336e-01,9.097299575805664062e-01,9.096876382827758789e-01,9.096453189849853516e-01,9.096029996871948242e-01,9.095606803894042969e-01,9.095183610916137695e-01,9.094760417938232422e-01,9.094337821006774902e-01,9.093914628028869629e-01,9.093492031097412109e-01,9.093070030212402344e-01,9.092646837234497070e-01,9.092224240303039551e-01,9.091801643371582031e-01,9.091379046440124512e-01,9.090956449508666992e-01,9.090533256530761719e-01,9.090110659599304199e-01,9.089688658714294434e-01,9.089266061782836914e-01,9.088843464851379395e-01,9.088420867919921875e-01,9.087998867034912109e-01,9.087577462196350098e-01,9.087154865264892578e-01,9.086732864379882812e-01,9.086310267448425293e-01,9.085888266563415527e-01,9.085466265678405762e-01,9.085043668746948242e-01,9.084621667861938477e-01,9.084199666976928711e-01,9.083777666091918945e-01,9.083355665206909180e-01,9.082933664321899414e-01,9.082512259483337402e-01,9.082090854644775391e-01,9.081669449806213379e-01,9.081247448921203613e-01,9.080826044082641602e-01,9.080404043197631836e-01,9.079982638359069824e-01,9.079560637474060059e-01,9.079139232635498047e-01,9.078717827796936035e-01,9.078296422958374023e-01,9.077875018119812012e-01,9.077453613281250000e-01,9.077032208442687988e-01,9.076611399650573730e-01,9.076190590858459473e-01,9.075769186019897461e-01,9.075347781181335449e-01,9.074926376342773438e-01,9.074505567550659180e-01,9.074084162712097168e-01,9.073663353919982910e-01,9.073242545127868652e-01,9.072821140289306641e-01,9.072400331497192383e-01,9.071979522705078125e-01,9.071558713912963867e-01,9.071137905120849609e-01,9.070717692375183105e-01,9.070297479629516602e-01
8.635482788085937500e-01,8.635101318359375000e-01,8.634719848632812500e-01,8.634338378906250000e-01,8.633957505226135254e-01,8.633576035499572754e-01,8.633195161819458008e-01,8.632813692092895508e-01,8.632432818412780762e-01,8.632051944732666016e-01,8.631670475006103516e-01,8.631290793418884277e-01,8.630909323692321777e-01,8.630528450012207031e-01,8.630147576332092285e-01,8.629766702651977539e-01,8.629385828971862793e-01,8.629004955291748047e-01,8.628624081611633301e-01,8.628243803977966309e-01,8.627862930297851562e-01,8.627482056617736816e-01,8.627101778984069824e-01,8.626720905303955078e-01,8.626341223716735840e-01,8.625960946083068848e-01,8.625580072402954102e-01,8.625199794769287109e-01,8.624819517135620117e-01,8.624438643455505371e-01,8.624058365821838379e-01,8.623678088188171387e-01,8.623297810554504395e-01,8.622917532920837402e-01,8.622537255287170410e-01,8.622156977653503418e-01,8.621777296066284180e-01,8.621397614479064941e-01,8.621017932891845703e-01,8.620637655258178711e-01,8.620257377624511719e-01,8.619877696037292480e-01,8.619497418403625488e-01,8.619117736816406250e-01,8.618737459182739258e-01,8.618357777595520020e-01,8.617978096008300781e-01,8.617598414421081543e-01,8.617218732833862305e-01,8.616838455200195312e-01,8.616459965705871582e-01,8.616080284118652344e-01,8.615700602531433105e-01,8.615320920944213867e-01,8.614941239356994629e-01,8.614561557769775391e-01,8.614182472229003906e-01,8.613802790641784668e-01,8.613423705101013184e-01,8.613044023513793945e-01,8.612664937973022461e-01,8.612285256385803223e-01,8.611906170845031738e-01,8.611526489257812500e-01,8.611148595809936523e-01,8.610769510269165039e-01,8.610389828681945801e-01,8.610010743141174316e-01,8.609631657600402832e-01,8.609252572059631348e-01,8.608873486518859863e-01,8.608494997024536133e-01,8.608115911483764648e-01,8.607736825942993164e-01,8.607357740402221680e-01,8.606979250907897949e-01,8.606600165367126465e-01,8.606222271919250488e-01,8.605843782424926758e-01,8.605464696884155273e-01
8.213111162185668945e-01,8.212766051292419434e-01,8.212420940399169922e-01,8.212076425552368164e-01,8.211731314659118652e-01,8.211386799812316895e-01,8.211041688919067383e-01,8.210697174072265625e-01,8.210352063179016113e-01,8.210007548332214355e-01,8.209663629531860352e-01,8.209319114685058594e-01,8.208974599838256836e-01,8.208629488945007324e-01,8.208284974098205566e-01,8.207940459251403809e-01,8.207595944404602051e-01,8.207251429557800293e-01,8.206906914710998535e-01,8.206562995910644531e-01,8.206218481063842773e-01,8.205873966217041016e-01,8.205529451370239258e-01,8.205186128616333008e-01,8.204841613769531250e-01,8.204497694969177246e-01,8.204153180122375488e-01,8.203809261322021484e-01,8.203464746475219727e-01,8.203120827674865723e-01,8.202776908874511719e-01,8.202432394027709961e-01,8.202088475227355957e-01,8.201744556427001953e-01,8.201400637626647949e-01,8.201056718826293945e-01,8.200712800025939941e-01,8.200369477272033691e-01,8.200025558471679688e-01,8.199681639671325684e-01,8.199337720870971680e-01,8.198994398117065430e-01,8.198650479316711426e-01,8.198306560516357422e-01,8.197962641716003418e-01,8.197619318962097168e-01,8.197275400161743164e-01,8.196932077407836914e-01,8.196588158607482910e-01,8.196244835853576660e-01,8.195902109146118164e-01,8.195558786392211914e-01,8.195214867591857910e-01,8.194871544837951660e-01,8.194528222084045410e-01,8.194184899330139160e-01,8.193841576576232910e-01,8.193498253822326660e-01,8.193154931068420410e-01,8.192811608314514160e-01,8.192468285560607910e-01,8.192124962806701660e-01,8.191781640052795410e-01,8.191439509391784668e-01,8.191096186637878418e-01,8.190752863883972168e-01,8.190410137176513672e-01,8.190066814422607422e-01,8.189724087715148926e-01,8.189380764961242676e-01,8.189038038253784180e-01,8.188695311546325684e-01,8.188351988792419434e-01,8.188009262084960938e-01,8.187666535377502441e-01,8.187323808670043945e-01,8.186981678009033203e-01,8.186638951301574707e-01,8.186296224594116211e-01,8.185953497886657715e-01
7.830130457878112793e-01,7.829816937446594238e-01,7.829503417015075684e-01,7.829189896583557129e-01,7.828876376152038574e-01,7.828562855720520020e-01,7.828249335289001465e-01,7.827936410903930664e-01,7.827622890472412109e-01,7.827309966087341309e-01,7.826997041702270508e-01,7.826683521270751953e-01,7.826370000839233398e-01,7.826057076454162598e-01,7.825743556022644043e-01,7.825430631637573242e-01,7.825117707252502441e-01,7.824804186820983887e-01,7.824491262435913086e-01,7.824178338050842285e-01,7.823864817619323730e-01,7.823551893234252930e-01,7.823238968849182129e-01,7.822926640510559082e-01,7.822613716125488281e-01,7.822300791740417480e-01,7.821987867355346680e-01,7.821674942970275879e-01,7.821362018585205078e-01,7.821049094200134277e-01,7.820736765861511230e-01,7.820423841476440430e-01,7.820110917091369629e-01,7.819797992706298828e-01,7.819485664367675781e-01,7.819172739982604980e-01,7.818861007690429688e-01,7.818548083305358887e-01,7.818235754966735840e-01,7.817922830581665039e-01,7.817610502243041992e-01,7.817298173904418945e-01,7.816985249519348145e-01,7.816672921180725098e-01,7.816360592842102051e-01,7.816048264503479004e-01,7.815735340118408203e-01,7.815423011779785156e-01,7.815110683441162109e-01,7.814799547195434570e-01,7.814487218856811523e-01,7.814174890518188477e-01,7.813862562179565430e-01,7.813550233840942383e-01,7.813237905502319336e-01,7.812925577163696289e-01,7.812613844871520996e-01,7.812301516532897949e-01,7.811989188194274902e-01,7.811677455902099609e-01,7.811365127563476562e-01,7.811053395271301270e-01,7.810741662979125977e-01,7.810429930686950684e-01,7.810118198394775391e-01,7.809805870056152344e-01,7.809494137763977051e-01,7.809182405471801758e-01,7.808870077133178711e-01,7.808558344841003418e-01,7.808246612548828125e-01,7.807934880256652832e-01,7.807623147964477539e-01,7.807311415672302246e-01,7.806999683380126953e-01,7.806688547134399414e-01,7.806376814842224121e-01,7.806065678596496582e-01,7.805753946304321289e-01,7.805442214012145996e-01
7.481275200843811035e-01,7.480989098548889160e-01,7.480702996253967285e-01,7.480416893959045410e-01,7.480130791664123535e-01,7.479844689369201660e-01,7.479558587074279785e-01,7.479272484779357910e-01,7.478986382484436035e-01,7.478700876235961914e-01,7.478414773941040039e-01,7.478128671646118164e-01,7.477842569351196289e-01,7.477557063102722168e-01,7.477270960807800293e-01,7.476984858512878418e-01,7.476699352264404297e-01,7.476413249969482422e-01,7.476127147674560547e-01,7.475841641426086426e-01,7.475555539131164551e-01,7.475270032882690430e-01,7.474985122680664062e-01,7.474699020385742188e-01,7.474413514137268066e-01,7.474127411842346191e-01,7.473841905593872070e-01,7.473556399345397949e-01,7.473270893096923828e-01,7.472985386848449707e-01,7.472699284553527832e-01,7.472413778305053711e-01,7.472128272056579590e-01,7.471842765808105469e-01,7.471557259559631348e-01,7.471272349357604980e-01,7.470986843109130859e-01,7.470701932907104492e-01,7.470416426658630371e-01,7.470130920410156250e-01,7.469845414161682129e-01,7.469559907913208008e-01,7.469274997711181641e-01,7.468989491462707520e-01,7.468703985214233398e-01,7.468419075012207031e-01,7.468133568763732910e-01,7.467848658561706543e-01,7.467563748359680176e-01,7.467278838157653809e-01,7.466993331909179688e-01,7.466708421707153320e-01,7.466423511505126953e-01,7.466138005256652832e-01,7.465853095054626465e-01,7.465568184852600098e-01,7.465283274650573730e-01,7.464998364448547363e-01,7.464712858200073242e-01,7.464427947998046875e-01,7.464143037796020508e-01,7.463858723640441895e-01,7.463573813438415527e-01,7.463289499282836914e-01,7.463004589080810547e-01,7.462719678878784180e-01,7.462434768676757812e-01,7.462149858474731445e-01,7.461864948272705078e-01,7.461580634117126465e-01,7.461295723915100098e-01,7.461010813713073730e-01,7.460726499557495117e-01,7.460441589355468750e-01,7.460157871246337891e-01,7.459872961044311523e-01,7.459588646888732910e-01,7.459303736686706543e-01,7.459019422531127930e-01,7.458735108375549316e-01
7.162179350852966309e-01,7.161917090415954590e-01,7.161654829978942871e-01,7.161392569541931152e-01,7.161130309104919434e-01,7.160868048667907715e-01,7.160605788230895996e-01,7.160343527793884277e-01,7.160081863403320312e-01,7.159819602966308594e-01,7.159557342529296875e-01,7.159295678138732910e-01,7.159033417701721191e-01,7.158771157264709473e-01,7.158508896827697754e-01,7.158247232437133789e-01,7.157984972000122070e-01,7.157723307609558105e-01,7.157461047172546387e-01,7.157198786735534668e-01,7.156937122344970703e-01,7.156676054000854492e-01,7.156413793563842773e-01,7.156152129173278809e-01,7.155889868736267090e-01,7.155628204345703125e-01,7.155366539955139160e-01,7.155104279518127441e-01,7.154842615127563477e-01,7.154580950736999512e-01,7.154319286346435547e-01,7.154057621955871582e-01,7.153795957565307617e-01,7.153533697128295898e-01,7.153272628784179688e-01,7.153010964393615723e-01,7.152749300003051758e-01,7.152488231658935547e-01,7.152226567268371582e-01,7.151964902877807617e-01,7.151703238487243652e-01,7.151441574096679688e-01,7.151179909706115723e-01,7.150918245315551758e-01,7.150657176971435547e-01,7.150395512580871582e-01,7.150133848190307617e-01,7.149873375892639160e-01,7.149611711502075195e-01,7.149350643157958984e-01,7.149088978767395020e-01,7.148827910423278809e-01,7.148566246032714844e-01,7.148305177688598633e-01,7.148043513298034668e-01,7.147782444953918457e-01,7.147521376609802246e-01,7.147259712219238281e-01,7.146998643875122070e-01,7.146737575531005859e-01,7.146477103233337402e-01,7.146215438842773438e-01,7.145954370498657227e-01,7.145693302154541016e-01,7.145432233810424805e-01,7.145171165466308594e-01,7.144910097122192383e-01,7.144649028778076172e-01,7.144387960433959961e-01,7.144126892089843750e-01,7.143865823745727539e-01,7.143604755401611328e-01,7.143344283103942871e-01,7.143083810806274414e-01,7.142822742462158203e-01,7.142561674118041992e-01,7.142301201820373535e-01,7.142040133476257324e-01,7.141779065132141113e-01,7.141518592834472656e-01
6.869190335273742676e-01,6.868949532508850098e-01,6.868708133697509766e-01,6.868466734886169434e-01,6.868225336074829102e-01,6.867983937263488770e-01,6.867743134498596191e-01,6.867502331733703613e-01,6.867260932922363281e-01,6.867020130157470703e-01,6.866778731346130371e-01,6.866537928581237793e-01,6.866296529769897461e-01,6.866055727005004883e-01,6.865814328193664551e-01,6.865573525428771973e-01,6.865332126617431641e-01,6.865091323852539062e-01,6.864850521087646484e-01,6.864609122276306152e-01,6.864368915557861328e-01,6.864128112792968750e-01,6.863886713981628418e-01,6.863645911216735840e-01,6.863405108451843262e-01,6.863164305686950684e-01,6.862923502922058105e-01,6.862682700157165527e-01,6.862441301345825195e-01,6.862200498580932617e-01,6.861959695816040039e-01,6.861718893051147461e-01,6.861478090286254883e-01,6.861237883567810059e-01,6.860997676849365234e-01,6.860756874084472656e-01,6.860516071319580078e-01,6.860275268554687500e-01,6.860034465789794922e-01,6.859793663024902344e-01,6.859553456306457520e-01,6.859312653541564941e-01,6.859071850776672363e-01,6.858831644058227539e-01,6.858590841293334961e-01,6.858350634574890137e-01,6.858110427856445312e-01,6.857869625091552734e-01,6.857629418373107910e-01,6.857388615608215332e-01,6.857148408889770508e-01,6.856907606124877930e-01,6.856667399406433105e-01,6.856427192687988281e-01,6.856186389923095703e-01,6.855946183204650879e-01,6.855705976486206055e-01,6.855465769767761230e-01,6.855224967002868652e-01,6.854985356330871582e-01,6.854745149612426758e-01,6.854504942893981934e-01,6.854264736175537109e-01,6.854024529457092285e-01,6.853784322738647461e-01,6.853543519973754883e-01,6.853303909301757812e-01,6.853063702583312988e-01,6.852823495864868164e-01,6.852583289146423340e-01,6.852343082427978516e-01,6.852102875709533691e-01,6.851862668991088867e-01,6.851623058319091797e-01,6.851382851600646973e-01,6.851143240928649902e-01,6.850903034210205078e-01,6.850662827491760254e-01,6.850423216819763184e-01,6.850183010101318359e-01
