5.000000000000000000e+00,5.000000000000000000e+00,5.000000000000000000e+00,5.000000000000000000e+00,5.000000000000000000e+00,5.000000000000000000e+00,5.000000000000000000e+00,5.000000000000000000e+00,5.000000000000000000e+00,5.000000000000000000e+00,5.000000000000000000e+00,5.000000000000000000e+00,5.000000000000000000e+00,5.000000000000000000e+00,5.000000000000000000e+00,5.000000000000000000e+00,5.000000000000000000e+00,5.000000000000000000e+00,5.000000000000000000e+00,5.000000000000000000e+00,5.000000000000000000e+00,5.000000000000000000e+00,5.000000000000000000e+00,5.000000000000000000e+00,5.000000000000000000e+00,5.000000000000000000e+00,5.000000000000000000e+00,5.000000000000000000e+00,5.000000000000000000e+00,5.000000000000000000e+00,5.000000000000000000e+00,5.000000000000000000e+00,1.850497364997863770e+00,1.835684895515441895e+00,1.840618610382080078e+00,1.857069134712219238e+00,1.838129639625549316e+00,1.827694773674011230e+00,1.830104708671569824e+00,1.831631541252136230e+00,1.853145837783813477e+00,1.871371865272521973e+00,1.884143948554992676e+00,1.927216768264770508e+00,2.035620450973510742e+00,2.046310424804687500e+00,3.772253036499023438e+00,3.656335115432739258e+00,3.547329187393188477e+00,3.444634437561035156e+00,3.347718238830566406e+00,3.256106615066528320e+00,3.169375181198120117e+00,3.087144613265991211e+00,3.009073019027709961e+00,2.934852838516235352e+00,2.864205598831176758e+00,2.796879768371582031e+00,2.732646465301513672e+00,2.671297311782836914e+00,2.612642288208007812e+00,2.556507587432861328e+00,2.502734422683715820e+00,2.451176643371582031e+00,2.401700496673583984e+00,2.354182004928588867e+00,2.308507442474365234e+00,2.264571428298950195e+00,2.222276449203491211e+00,2.181532621383666992e+00,2.142255783081054688e+00,2.104368209838867188e+00,2.067797422409057617e+00,2.032476186752319336e+00,1.998341202735900879e+00,1.965334177017211914e+00,1.933399319648742676e+00,1.902485966682434082e+00,1.872545361518859863e+00,1.843532919883728027e+00
5.000000000000000000e+00,5.000000000000000000e+00,5.000000000000000000e+00,5.000000000000000000e+00,5.000000000000000000e+00,5.000000000000000000e+00,5.000000000000000000e+00,5.000000000000000000e+00,5.000000000000000000e+00,5.000000000000000000e+00,5.000000000000000000e+00,5.000000000000000000e+00,5.000000000000000000e+00,5.000000000000000000e+00,5.000000000000000000e+00,5.000000000000000000e+00,5.000000000000000000e+00,5.000000000000000000e+00,5.000000000000000000e+00,5.000000000000000000e+00,5.000000000000000000e+00,5.000000000000000000e+00,5.000000000000000000e+00,5.000000000000000000e+00,5.000000000000000000e+00,5.000000000000000000e+00,5.000000000000000000e+00,5.000000000000000000e+00,5.000000000000000000e+00,5.000000000000000000e+00,5.000000000000000000e+00,5.000000000000000000e+00,1.851802587509155273e+00,1.833583950996398926e+00,1.839738368988037109e+00,1.867718696594238281e+00,1.844664335250854492e+00,1.840023040771484375e+00,1.838289380073547363e+00,1.836609601974487305e+00,1.845685005187988281e+00,1.864967107772827148e+00,1.885270237922668457e+00,1.926585435867309570e+00,2.042093276977539062e+00,2.061134099960327148e+00,3.772336959838867188e+00,3.656414031982421875e+00,3.547403573989868164e+00,3.444704532623291016e+00,3.347784519195556641e+00,3.256169080734252930e+00,3.169434547424316406e+00,3.087200641632080078e+00,3.009126424789428711e+00,2.934903621673583984e+00,2.864253997802734375e+00,2.796925783157348633e+00,2.732690334320068359e+00,2.671339511871337891e+00,2.612682580947875977e+00,2.556546211242675781e+00,2.502771377563476562e+00,2.451212167739868164e+00,2.401734590530395508e+00,2.354214906692504883e+00,2.308538913726806641e+00,2.264601707458496094e+00,2.222305536270141602e+00,2.181560516357421875e+00,2.142282962799072266e+00,2.104394435882568359e+00,2.067822694778442383e+00,2.032500505447387695e+00,1.998364806175231934e+00,1.965356945991516113e+00,1.933421373367309570e+00,1.902507424354553223e+00,1.872566103935241699e+00,1.843552947044372559e+00
5.000000000000000000e+00,5.000000000000000000e+00,5.000000000000000000e+00,5.000000000000000000e+00,5.000000000000000000e+00,5.000000000000000000e+00,5.000000000000000000e+00,5.000000000000000000e+00,5.000000000000000000e+00,5.000000000000000000e+00,5.000000000000000000e+00,5.000000000000000000e+00,5.000000000000000000e+00,5.000000000000000000e+00,5.000000000000000000e+00,5.000000000000000000e+00,5.000000000000000000e+00,5.000000000000000000e+00,5.000000000000000000e+00,5.000000000000000000e+00,5.000000000000000000e+00,5.000000000000000000e+00,5.000000000000000000e+00,5.000000000000000000e+00,5.000000000000000000e+00,5.000000000000000000e+00,5.000000000000000000e+00,5.000000000000000000e+00,5.000000000000000000e+00,5.000000000000000000e+00,5.000000000000000000e+00,5.000000000000000000e+00,1.849236369132995605e+00,1.831716656684875488e+00,1.836591958999633789e+00,1.855355024337768555e+00,1.848865151405334473e+00,1.841983437538146973e+00,1.837051510810852051e+00,1.837743878364562988e+00,1.841788649559020996e+00,1.859816551208496094e+00,1.891942143440246582e+00,1.944546937942504883e+00,2.046565532684326172e+00,3.895940780639648438e+00,3.772420883178710938e+00,3.656492948532104492e+00,3.547477483749389648e+00,3.444774389266967773e+00,3.347850561141967773e+00,3.256231784820556641e+00,3.169493675231933594e+00,3.087256908416748047e+00,3.009179830551147461e+00,2.934954404830932617e+00,2.864302396774291992e+00,2.796972036361694336e+00,2.732734441757202148e+00,2.671381235122680664e+00,2.612722873687744141e+00,2.556584596633911133e+00,2.502808332443237305e+00,2.451247692108154297e+00,2.401768445968627930e+00,2.354247570037841797e+00,2.308570146560668945e+00,2.264631986618041992e+00,2.222334861755371094e+00,2.181588649749755859e+00,2.142309904098510742e+00,2.104420423507690430e+00,2.067847728729248047e+00,2.032524824142456055e+00,1.998388409614562988e+00,1.965379476547241211e+00,1.933443546295166016e+00,1.902528762817382812e+00,1.872586727142333984e+00,1.843572974205017090e+00
5.000000000000000000e+00,5.000000000000000000e+00,5.000000000000000000e+00,5.000000000000000000e+00,5.000000000000000000e+00,5.000000000000000000e+00,5.000000000000000000e+00,5.000000000000000000e+00,5.000000000000000000e+00,5.000000000000000000e+00,5.000000000000000000e+00,5.000000000000000000e+00,5.000000000000000000e+00,5.000000000000000000e+00,5.000000000000000000e+00,5.000000000000000000e+00,5.000000000000000000e+00,5.000000000000000000e+00,5.000000000000000000e+00,5.000000000000000000e+00,5.000000000000000000e+00,5.000000000000000000e+00,5.000000000000000000e+00,5.000000000000000000e+00,5.000000000000000000e+00,5.000000000000000000e+00,5.000000000000000000e+00,5.000000000000000000e+00,5.000000000000000000e+00,5.000000000000000000e+00,5.000000000000000000e+00,5.000000000000000000e+00,1.847472906112670898e+00,1.830266356468200684e+00,1.831196665763854980e+00,1.847049474716186523e+00,1.858329296112060547e+00,1.841536164283752441e+00,1.835713028907775879e+00,1.836809396743774414e+00,1.845054388046264648e+00,1.860610961914062500e+00,1.888100147247314453e+00,1.957455039024353027e+00,2.052477836608886719e+00,3.896030187606811523e+00,3.772504806518554688e+00,3.656571626663208008e+00,3.547551631927490234e+00,3.444844007492065430e+00,3.347916603088378906e+00,3.256294250488281250e+00,3.169553041458129883e+00,3.087313175201416016e+00,3.009232997894287109e+00,2.935005187988281250e+00,2.864350795745849609e+00,2.797018289566040039e+00,2.732778549194335938e+00,2.671423435211181641e+00,2.612762928009033203e+00,2.556623220443725586e+00,2.502845287322998047e+00,2.451282978057861328e+00,2.401802539825439453e+00,2.354279994964599609e+00,2.308601617813110352e+00,2.264662265777587891e+00,2.222363948822021484e+00,2.181616783142089844e+00,2.142336845397949219e+00,2.104446649551391602e+00,2.067873001098632812e+00,2.032549381256103516e+00,1.998411893844604492e+00,1.965402245521545410e+00,1.933465480804443359e+00,1.902550101280212402e+00,1.872607588768005371e+00,1.843593120574951172e+00
5.000000000000000000e+00,5.000000000000000000e+00,5.000000000000000000e+00,5.000000000000000000e+00,5.000000000000000000e+00,5.000000000000000000e+00,5.000000000000000000e+00,5.000000000000000000e+00,5.000000000000000000e+00,5.000000000000000000e+00,5.000000000000000000e+00,5.000000000000000000e+00,5.000000000000000000e+00,5.000000000000000000e+00,5.000000000000000000e+00,5.000000000000000000e+00,5.000000000000000000e+00,5.000000000000000000e+00,5.000000000000000000e+00,5.000000000000000000e+00,5.000000000000000000e+00,5.000000000000000000e+00,5.000000000000000000e+00,5.000000000000000000e+00,5.000000000000000000e+00,5.000000000000000000e+00,5.000000000000000000e+00,5.000000000000000000e+00,5.000000000000000000e+00,5.000000000000000000e+00,5.000000000000000000e+00,5.000000000000000000e+00,1.850339055061340332e+00,1.830675363540649414e+00,1.831185698509216309e+00,1.860597252845764160e+00,1.868307471275329590e+00,1.845084786415100098e+00,1.839441418647766113e+00,1.840416193008422852e+00,1.848318338394165039e+00,1.863651990890502930e+00,1.888639807701110840e+00,1.945822715759277344e+00,2.058032751083374023e+00,3.896119832992553711e+00,3.772588968276977539e+00,3.656650543212890625e+00,3.547626018524169922e+00,3.444914102554321289e+00,3.347982406616210938e+00,3.256356954574584961e+00,3.169612407684326172e+00,3.087369441986083984e+00,3.009286403656005859e+00,2.935055732727050781e+00,2.864399194717407227e+00,2.797064304351806641e+00,2.732822656631469727e+00,2.671465635299682617e+00,2.612803220748901367e+00,2.556661844253540039e+00,2.502882242202758789e+00,2.451318502426147461e+00,2.401836395263671875e+00,2.354312658309936523e+00,2.308633089065551758e+00,2.264692544937133789e+00,2.222393035888671875e+00,2.181644916534423828e+00,2.142364025115966797e+00,2.104472637176513672e+00,2.067898273468017578e+00,2.032573699951171875e+00,1.998435497283935547e+00,1.965425133705139160e+00,1.933487653732299805e+00,1.902571439743041992e+00,1.872628331184387207e+00,1.843613147735595703e+00
5.000000000000000000e+00,5.000000000000000000e+00,5.000000000000000000e+00,5.000000000000000000e+00,5.000000000000000000e+00,5.000000000000000000e+00,5.000000000000000000e+00,5.000000000000000000e+00,5.000000000000000000e+00,5.000000000000000000e+00,5.000000000000000000e+00,5.000000000000000000e+00,5.000000000000000000e+00,5.000000000000000000e+00,5.000000000000000000e+00,5.000000000000000000e+00,5.000000000000000000e+00,5.000000000000000000e+00,5.000000000000000000e+00,5.000000000000000000e+00,5.000000000000000000e+00,5.000000000000000000e+00,5.000000000000000000e+00,5.000000000000000000e+00,5.000000000000000000e+00,5.000000000000000000e+00,5.000000000000000000e+00,5.000000000000000000e+00,5.000000000000000000e+00,5.000000000000000000e+00,5.000000000000000000e+00,5.000000000000000000e+00,1.854103088378906250e+00,1.829995751380920410e+00,1.835438847541809082e+00,1.873366594314575195e+00,1.861465930938720703e+00,1.835808992385864258e+00,1.830758571624755859e+00,1.835033178329467773e+00,1.853635191917419434e+00,1.870079040527343750e+00,1.892297625541687012e+00,2.045370578765869141e+00,2.057959556579589844e+00,3.896209001541137695e+00,3.772672891616821289e+00,3.656729459762573242e+00,3.547700166702270508e+00,3.444984197616577148e+00,3.348048686981201172e+00,3.256419420242309570e+00,3.169671535491943359e+00,3.087425708770751953e+00,3.009340047836303711e+00,2.935106754302978516e+00,2.864447355270385742e+00,2.797110557556152344e+00,2.732866525650024414e+00,2.671507596969604492e+00,2.612843513488769531e+00,2.556700229644775391e+00,2.502919197082519531e+00,2.451354026794433594e+00,2.401870489120483398e+00,2.354345560073852539e+00,2.308664560317993164e+00,2.264722824096679688e+00,2.222422122955322266e+00,2.181673049926757812e+00,2.142390966415405273e+00,2.104498624801635742e+00,2.067923307418823242e+00,2.032598018646240234e+00,1.998459100723266602e+00,1.965447902679443359e+00,1.933509707450866699e+00,1.902592658996582031e+00,1.872648954391479492e+00,1.843633294105529785e+00
5.000000000000000000e+00,5.000000000000000000e+00,5.000000000000000000e+00,5.000000000000000000e+00,5.000000000000000000e+00,5.000000000000000000e+00,5.000000000000000000e+00,5.000000000000000000e+00,5.000000000000000000e+00,5.000000000000000000e+00,5.000000000000000000e+00,5.000000000000000000e+00,5.000000000000000000e+00,5.000000000000000000e+00,5.000000000000000000e+00,5.000000000000000000e+00,5.000000000000000000e+00,5.000000000000000000e+00,5.000000000000000000e+00,5.000000000000000000e+00,5.000000000000000000e+00,5.000000000000000000e+00,5.000000000000000000e+00,5.000000000000000000e+00,5.000000000000000000e+00,5.000000000000000000e+00,5.000000000000000000e+00,5.000000000000000000e+00,5.000000000000000000e+00,5.000000000000000000e+00,5.000000000000000000e+00,5.000000000000000000e+00,1.849312543869018555e+00,1.825864791870117188e+00,1.840796351432800293e+00,1.886297583580017090e+00,1.853981494903564453e+00,1.830893158912658691e+00,1.823981165885925293e+00,1.830804347991943359e+00,1.844727873802185059e+00,1.862097740173339844e+00,1.880654335021972656e+00,2.055854082107543945e+00,2.067418813705444336e+00,3.896298646926879883e+00,3.772756338119506836e+00,3.656808376312255859e+00,3.547774553298950195e+00,3.445054292678833008e+00,3.348114728927612305e+00,3.256481647491455078e+00,3.169730901718139648e+00,3.087481975555419922e+00,3.009393453598022461e+00,2.935157537460327148e+00,2.864495754241943359e+00,2.797156572341918945e+00,2.732910633087158203e+00,2.671549797058105469e+00,2.612883806228637695e+00,2.556738853454589844e+00,2.502955913543701172e+00,2.451389551162719727e+00,2.401904582977294922e+00,2.354378223419189453e+00,2.308695793151855469e+00,2.264752864837646484e+00,2.222451448440551758e+00,2.181700944900512695e+00,2.142418146133422852e+00,2.104524850845336914e+00,2.067948579788208008e+00,2.032622337341308594e+00,1.998482704162597656e+00,1.965470671653747559e+00,1.933531761169433594e+00,1.902613997459411621e+00,1.872669696807861328e+00,1.843653321266174316e+00
5.000000000000000000e+00,5.000000000000000000e+00,5.000000000000000000e+00,5.000000000000000000e+00,5.000000000000000000e+00,5.000000000000000000e+00,5.000000000000000000e+00,5.000000000000000000e+00,5.000000000000000000e+00,5.000000000000000000e+00,5.000000000000000000e+00,5.000000000000000000e+00,5.000000000000000000e+00,5.000000000000000000e+00,5.000000000000000000e+00,5.000000000000000000e+00,5.000000000000000000e+00,5.000000000000000000e+00,5.000000000000000000e+00,5.000000000000000000e+00,5.000000000000000000e+00,5.000000000000000000e+00,5.000000000000000000e+00,5.000000000000000000e+00,5.000000000000000000e+00,5.000000000000000000e+00,5.000000000000000000e+00,5.000000000000000000e+00,5.000000000000000000e+00,5.000000000000000000e+00,5.000000000000000000e+00,5.000000000000000000e+00,1.848593592643737793e+00,1.797432303428649902e+00,1.805535197257995605e+00,1.879011631011962891e+00,1.849985361099243164e+00,1.843936562538146973e+00,1.839643478393554688e+00,1.843847870826721191e+00,1.839908003807067871e+00,1.856226801872253418e+00,1.877961635589599609e+00,1.927348494529724121e+00,2.077466011047363281e+00,3.896388053894042969e+00,3.772840499877929688e+00,3.656887292861938477e+00,3.547848701477050781e+00,3.445124149322509766e+00,3.348181009292602539e+00,3.256544351577758789e+00,3.169789791107177734e+00,3.087538003921508789e+00,3.009446859359741211e+00,2.935208320617675781e+00,2.864544153213500977e+00,2.797202587127685547e+00,2.732954740524291992e+00,2.671591758728027344e+00,2.612923860549926758e+00,2.556777238845825195e+00,2.502992868423461914e+00,2.451424837112426758e+00,2.401938676834106445e+00,2.354410886764526367e+00,2.308727264404296875e+00,2.264783143997192383e+00,2.222480297088623047e+00,2.181729078292846680e+00,2.142445325851440430e+00,2.104551076889038086e+00,2.067973852157592773e+00,2.032646656036376953e+00,1.998506188392639160e+00,1.965493440628051758e+00,1.933553814888000488e+00,1.902635335922241211e+00,1.872690320014953613e+00,1.843673348426818848e+00
5.000000000000000000e+00,5.000000000000000000e+00,5.000000000000000000e+00,5.000000000000000000e+00,5.000000000000000000e+00,5.000000000000000000e+00,5.000000000000000000e+00,5.000000000000000000e+00,5.000000000000000000e+00,5.000000000000000000e+00,5.000000000000000000e+00,5.000000000000000000e+00,5.000000000000000000e+00,5.000000000000000000e+00,5.000000000000000000e+00,5.000000000000000000e+00,5.000000000000000000e+00,5.000000000000000000e+00,5.000000000000000000e+00,5.000000000000000000e+00,5.000000000000000000e+00,5.000000000000000000e+00,5.000000000000000000e+00,5.000000000000000000e+00,5.000000000000000000e+00,5.000000000000000000e+00,5.000000000000000000e+00,5.000000000000000000e+00,5.000000000000000000e+00,5.000000000000000000e+00,5.000000000000000000e+00,5.000000000000000000e+00,5.000000000000000000e+00,1.780508041381835938e+00,1.778357625007629395e+00,1.830621719360351562e+00,1.844873309135437012e+00,1.838615179061889648e+00,1.835415959358215332e+00,1.841875195503234863e+00,1.848692297935485840e+00,1.867168188095092773e+00,1.899866342544555664e+00,1.923813343048095703e+00,2.090559482574462891e+00,3.896477699279785156e+00,3.772924423217773438e+00,3.656965970993041992e+00,3.547923088073730469e+00,3.445194244384765625e+00,3.348247051239013672e+00,3.256606817245483398e+00,3.169849157333374023e+00,3.087594270706176758e+00,3.009500265121459961e+00,2.935259103775024414e+00,2.864592790603637695e+00,2.797248840332031250e+00,2.732998609542846680e+00,2.671633958816528320e+00,2.612964153289794922e+00,2.556815862655639648e+00,2.503029823303222656e+00,2.451460123062133789e+00,2.401972770690917969e+00,2.354443550109863281e+00,2.308758735656738281e+00,2.264813423156738281e+00,2.222509384155273438e+00,2.181757211685180664e+00,2.142472267150878906e+00,2.104577064514160156e+00,2.067999124526977539e+00,2.032670974731445312e+00,1.998529553413391113e+00,1.965516209602355957e+00,1.933575868606567383e+00,1.902656674385070801e+00,1.872711062431335449e+00,1.843693256378173828e+00
5.000000000000000000e+00,5.000000000000000000e+00,5.000000000000000000e+00,5.000000000000000000e+00,5.000000000000000000e+00,5.000000000000000000e+00,5.000000000000000000e+00,5.000000000000000000e+00,5.000000000000000000e+00,5.000000000000000000e+00,5.000000000000000000e+00,5.000000000000000000e+00,5.000000000000000000e+00,5.000000000000000000e+00,5.000000000000000000e+00,5.000000000000000000e+00,5.000000000000000000e+00,5.000000000000000000e+00,5.000000000000000000e+00,5.000000000000000000e+00,5.000000000000000000e+00,5.000000000000000000e+00,5.000000000000000000e+00,5.000000000000000000e+00,5.000000000000000000e+00,5.000000000000000000e+00,5.000000000000000000e+00,5.000000000000000000e+00,5.000000000000000000e+00,5.000000000000000000e+00,5.000000000000000000e+00,5.000000000000000000e+00,5.000000000000000000e+00,1.764743566513061523e+00,1.748466253280639648e+00,1.793920278549194336e+00,1.842682957649230957e+00,1.839960336685180664e+00,1.839427113533020020e+00,1.844770312309265137e+00,1.852532505989074707e+00,1.878562927246093750e+00,1.903055548667907715e+00,1.959937214851379395e+00,2.083445549011230469e+00,3.896567344665527344e+00,3.773008346557617188e+00,3.657044887542724609e+00,3.547996997833251953e+00,3.445264339447021484e+00,3.348313331604003906e+00,3.256669521331787109e+00,3.169908523559570312e+00,3.087650299072265625e+00,3.009553670883178711e+00,2.935309886932373047e+00,2.864641189575195312e+00,2.797294855117797852e+00,2.733042716979980469e+00,2.671676158905029297e+00,2.613004446029663086e+00,2.556854486465454102e+00,2.503066778182983398e+00,2.451495647430419922e+00,2.402006626129150391e+00,2.354476213455200195e+00,2.308790206909179688e+00,2.264843702316284180e+00,2.222538709640502930e+00,2.181785106658935547e+00,2.142499446868896484e+00,2.104603290557861328e+00,2.068024396896362305e+00,2.032695531845092773e+00,1.998553156852722168e+00,1.965539097785949707e+00,1.933597922325134277e+00,1.902678132057189941e+00,1.872731804847717285e+00,1.843713283538818359e+00
5.000000000000000000e+00,5.000000000000000000e+00,5.000000000000000000e+00,5.000000000000000000e+00,5.000000000000000000e+00,5.000000000000000000e+00,5.000000000000000000e+00,5.000000000000000000e+00,5.000000000000000000e+00,5.000000000000000000e+00,5.000000000000000000e+00,5.000000000000000000e+00,5.000000000000000000e+00,5.000000000000000000e+00,5.000000000000000000e+00,5.000000000000000000e+00,5.000000000000000000e+00,5.000000000000000000e+00,5.000000000000000000e+00,5.000000000000000000e+00,5.000000000000000000e+00,5.000000000000000000e+00,5.000000000000000000e+00,5.000000000000000000e+00,5.000000000000000000e+00,5.000000000000000000e+00,5.000000000000000000e+00,5.000000000000000000e+00,5.000000000000000000e+00,5.000000000000000000e+00,5.000000000000000000e+00,5.000000000000000000e+00,5.000000000000000000e+00,1.743551254272460938e+00,1.730170845985412598e+00,1.745565533638000488e+00,1.842632770538330078e+00,1.841032028198242188e+00,1.851196646690368652e+00,1.862844824790954590e+00,1.852869272232055664e+00,1.896860122680664062e+00,1.913456797599792480e+00,2.066968441009521484e+00,2.073016643524169922e+00,3.896656990051269531e+00,3.773092508316040039e+00,3.657123804092407227e+00,3.548071146011352539e+00,3.445334434509277344e+00,3.348379373550415039e+00,3.256731986999511719e+00,3.169967651367187500e+00,3.087706565856933594e+00,3.009606838226318359e+00,2.935360908508300781e+00,2.864689588546752930e+00,2.797341108322143555e+00,2.733086824417114258e+00,2.671718120574951172e+00,2.613044738769531250e+00,2.556893110275268555e+00,2.503103733062744141e+00,2.451531171798706055e+00,2.402040481567382812e+00,2.354509115219116211e+00,2.308821678161621094e+00,2.264873981475830078e+00,2.222567796707153320e+00,2.181813240051269531e+00,2.142526388168334961e+00,2.104629516601562500e+00,2.068049669265747070e+00,2.032719850540161133e+00,1.998576641082763672e+00,1.965561866760253906e+00,1.933619976043701172e+00,1.902699470520019531e+00,1.872752428054809570e+00,1.843733310699462891e+00
5.000000000000000000e+00,5.000000000000000000e+00,5.000000000000000000e+00,5.000000000000000000e+00,5.000000000000000000e+00,5.000000000000000000e+00,5.000000000000000000e+00,5.000000000000000000e+00,5.000000000000000000e+00,5.000000000000000000e+00,5.000000000000000000e+00,5.000000000000000000e+00,5.000000000000000000e+00,5.000000000000000000e+00,5.000000000000000000e+00,5.000000000000000000e+00,5.000000000000000000e+00,5.000000000000000000e+00,5.000000000000000000e+00,5.000000000000000000e+00,5.000000000000000000e+00,5.000000000000000000e+00,5.000000000000000000e+00,5.000000000000000000e+00,5.000000000000000000e+00,5.000000000000000000e+00,5.000000000000000000e+00,5.000000000000000000e+00,5.000000000000000000e+00,5.000000000000000000e+00,5.000000000000000000e+00,5.000000000000000000e+00,5.000000000000000000e+00,1.739831686019897461e+00,1.722534537315368652e+00,1.737193465232849121e+00,1.844427943229675293e+00,1.844395518302917480e+00,1.857975482940673828e+00,1.885200738906860352e+00,1.896949410438537598e+00,1.887567520141601562e+00,1.861055612564086914e+00,1.871118903160095215e+00,2.065264463424682617e+00,3.896746397018432617e+00,3.773176431655883789e+00,3.657202720642089844e+00,3.548145532608032227e+00,3.445404052734375000e+00,3.348445653915405273e+00,3.256794691085815430e+00,3.170027017593383789e+00,3.087762832641601562e+00,3.009660243988037109e+00,2.935411453247070312e+00,2.864737987518310547e+00,2.797387361526489258e+00,2.733130931854248047e+00,2.671760082244873047e+00,2.613085031509399414e+00,2.556931734085083008e+00,2.503140687942504883e+00,2.451566457748413086e+00,2.402074575424194336e+00,2.354541540145874023e+00,2.308853149414062500e+00,2.264904260635375977e+00,2.222596883773803711e+00,2.181841373443603516e+00,2.142553329467773438e+00,2.104655504226684570e+00,2.068074703216552734e+00,2.032744169235229492e+00,1.998600244522094727e+00,1.965584635734558105e+00,1.933641791343688965e+00,1.902720808982849121e+00,1.872773170471191406e+00,1.843753457069396973e+00
5.000000000000000000e+00,5.000000000000000000e+00,5.000000000000000000e+00,5.000000000000000000e+00,5.000000000000000000e+00,5.000000000000000000e+00,5.000000000000000000e+00,5.000000000000000000e+00,5.000000000000000000e+00,5.000000000000000000e+00,5.000000000000000000e+00,5.000000000000000000e+00,5.000000000000000000e+00,5.000000000000000000e+00,5.000000000000000000e+00,5.000000000000000000e+00,5.000000000000000000e+00,5.000000000000000000e+00,5.000000000000000000e+00,5.000000000000000000e+00,5.000000000000000000e+00,5.000000000000000000e+00,5.000000000000000000e+00,5.000000000000000000e+00,5.000000000000000000e+00,5.000000000000000000e+00,5.000000000000000000e+00,5.000000000000000000e+00,5.000000000000000000e+00,5.000000000000000000e+00,5.000000000000000000e+00,5.000000000000000000e+00,5.000000000000000000e+00,1.758324265480041504e+00,1.697416186332702637e+00,1.692197680473327637e+00,1.843755602836608887e+00,1.846352219581604004e+00,1.856805801391601562e+00,1.918066740036010742e+00,1.878275394439697266e+00,1.843622207641601562e+00,1.836082696914672852e+00,1.828647971153259277e+00,1.888384938240051270e+00,3.896835565567016602e+00,3.773260354995727539e+00,3.657281637191772461e+00,3.548219680786132812e+00,3.445474147796630859e+00,3.348511457443237305e+00,3.256857156753540039e+00,3.170086383819580078e+00,3.087819099426269531e+00,3.009713888168334961e+00,2.935462236404418945e+00,2.864786386489868164e+00,2.797433376312255859e+00,2.733175039291381836e+00,2.671802282333374023e+00,2.613125324249267578e+00,2.556970119476318359e+00,2.503177642822265625e+00,2.451601982116699219e+00,2.402108669281005859e+00,2.354574203491210938e+00,2.308884382247924805e+00,2.264934539794921875e+00,2.222625970840454102e+00,2.181869506835937500e+00,2.142580509185791016e+00,2.104681491851806641e+00,2.068099975585937500e+00,2.032768487930297852e+00,1.998623847961425781e+00,1.965607404708862305e+00,1.933663845062255859e+00,1.902742147445678711e+00,1.872793793678283691e+00,1.843773484230041504e+00
5.000000000000000000e+00,5.000000000000000000e+00,5.000000000000000000e+00,5.000000000000000000e+00,5.000000000000000000e+00,5.000000000000000000e+00,5.000000000000000000e+00,5.000000000000000000e+00,5.000000000000000000e+00,5.000000000000000000e+00,5.000000000000000000e+00,5.000000000000000000e+00,5.000000000000000000e+00,5.000000000000000000e+00,5.000000000000000000e+00,5.000000000000000000e+00,5.000000000000000000e+00,5.000000000000000000e+00,5.000000000000000000e+00,5.000000000000000000e+00,5.000000000000000000e+00,5.000000000000000000e+00,5.000000000000000000e+00,5.000000000000000000e+00,5.000000000000000000e+00,5.000000000000000000e+00,5.000000000000000000e+00,5.000000000000000000e+00,5.000000000000000000e+00,5.000000000000000000e+00,5.000000000000000000e+00,5.000000000000000000e+00,5.000000000000000000e+00,5.000000000000000000e+00,1.674290060997009277e+00,1.660136342048645020e+00,1.680516839027404785e+00,1.846126317977905273e+00,1.852289080619812012e+00,1.899583697319030762e+00,1.871692776679992676e+00,1.832005620002746582e+00,1.823181390762329102e+00,1.817415356636047363e+00,1.850215077400207520e+00,3.896925210952758789e+00,3.773344516754150391e+00,3.657360553741455078e+00,3.548294067382812500e+00,3.445544242858886719e+00,3.348577499389648438e+00,3.256919384002685547e+00,3.170145511627197266e+00,3.087875366210937500e+00,3.009767293930053711e+00,2.935513019561767578e+00,2.864834547042846680e+00,2.797479629516601562e+00,2.733219146728515625e+00,2.671844482421875000e+00,2.613165616989135742e+00,2.557008504867553711e+00,2.503214836120605469e+00,2.451637506484985352e+00,2.402142763137817383e+00,2.354607105255126953e+00,2.308915853500366211e+00,2.264964580535888672e+00,2.222655296325683594e+00,2.181897401809692383e+00,2.142607688903808594e+00,2.104707717895507812e+00,2.068125247955322266e+00,2.032793045043945312e+00,1.998647332191467285e+00,1.965630292892456055e+00,1.933685898780822754e+00,1.902763485908508301e+00,1.872814536094665527e+00,1.843793511390686035e+00
5.000000000000000000e+00,5.000000000000000000e+00,5.000000000000000000e+00,5.000000000000000000e+00,5.000000000000000000e+00,5.000000000000000000e+00,5.000000000000000000e+00,5.000000000000000000e+00,5.000000000000000000e+00,5.000000000000000000e+00,5.000000000000000000e+00,5.000000000000000000e+00,5.000000000000000000e+00,5.000000000000000000e+00,5.000000000000000000e+00,5.000000000000000000e+00,5.000000000000000000e+00,5.000000000000000000e+00,5.000000000000000000e+00,5.000000000000000000e+00,5.000000000000000000e+00,5.000000000000000000e+00,5.000000000000000000e+00,5.000000000000000000e+00,5.000000000000000000e+00,5.000000000000000000e+00,5.000000000000000000e+00,5.000000000000000000e+00,5.000000000000000000e+00,5.000000000000000000e+00,5.000000000000000000e+00,5.000000000000000000e+00,5.000000000000000000e+00,1.707036495208740234e+00,1.661693096160888672e+00,1.644219279289245605e+00,1.851754784584045410e+00,1.851853966712951660e+00,1.853631615638732910e+00,1.898434400558471680e+00,1.872553825378417969e+00,1.831869006156921387e+00,1.810938715934753418e+00,1.806342124938964844e+00,1.816474318504333496e+00,3.897014856338500977e+00,3.773427963256835938e+00,3.657439470291137695e+00,3.548368453979492188e+00,3.445614099502563477e+00,3.348643779754638672e+00,3.256982088088989258e+00,3.170204877853393555e+00,3.087931632995605469e+00,3.009820699691772461e+00,2.935564041137695312e+00,2.864882946014404297e+00,2.797525644302368164e+00,2.733263015747070312e+00,2.671886444091796875e+00,2.613205909729003906e+00,2.557047128677368164e+00,2.503251552581787109e+00,2.451673030853271484e+00,2.402176856994628906e+00,2.354639768600463867e+00,2.308947324752807617e+00,2.264994859695434570e+00,2.222684383392333984e+00,2.181925535202026367e+00,2.142634630203247070e+00,2.104733943939208984e+00,2.068150281906127930e+00,2.032817125320434570e+00,1.998670935630798340e+00,1.965653061866760254e+00,1.933707952499389648e+00,1.902784943580627441e+00,1.872835040092468262e+00,1.843813538551330566e+00
5.000000000000000000e+00,5.000000000000000000e+00,5.000000000000000000e+00,5.000000000000000000e+00,5.000000000000000000e+00,5.000000000000000000e+00,5.000000000000000000e+00,5.000000000000000000e+00,5.000000000000000000e+00,5.000000000000000000e+00,5.000000000000000000e+00,5.000000000000000000e+00,5.000000000000000000e+00,5.000000000000000000e+00,5.000000000000000000e+00,5.000000000000000000e+00,5.000000000000000000e+00,5.000000000000000000e+00,5.000000000000000000e+00,5.000000000000000000e+00,5.000000000000000000e+00,5.000000000000000000e+00,5.000000000000000000e+00,5.000000000000000000e+00,5.000000000000000000e+00,5.000000000000000000e+00,5.000000000000000000e+00,5.000000000000000000e+00,5.000000000000000000e+00,5.000000000000000000e+00,5.000000000000000000e+00,5.000000000000000000e+00,5.000000000000000000e+00,5.000000000000000000e+00,1.662328600883483887e+00,1.870023369789123535e+00,1.859449744224548340e+00,1.859037995338439941e+00,1.859535455703735352e+00,1.907536983489990234e+00,1.883625984191894531e+00,1.831475615501403809e+00,1.796490788459777832e+00,1.793234229087829590e+00,1.789811134338378906e+00,1.847422719001770020e+00,3.773512125015258789e+00,3.657518148422241211e+00,3.548442602157592773e+00,3.445684194564819336e+00,3.348709821701049805e+00,3.257044792175292969e+00,3.170264005661010742e+00,3.087987899780273438e+00,3.009874105453491211e+00,2.935614824295043945e+00,2.864931344985961914e+00,2.797571897506713867e+00,2.733307123184204102e+00,2.671928644180297852e+00,2.613246202468872070e+00,2.557085752487182617e+00,2.503288507461547852e+00,2.451708316802978516e+00,2.402210950851440430e+00,2.354672431945800781e+00,2.308978796005249023e+00,2.265025138854980469e+00,2.222713470458984375e+00,2.181953668594360352e+00,2.142661809921264648e+00,2.104759931564331055e+00,2.068175554275512695e+00,2.032841682434082031e+00,1.998694539070129395e+00,1.965675830841064453e+00,1.933730006217956543e+00,1.902806282043457031e+00,1.872855663299560547e+00,1.843833684921264648e+00
5.000000000000000000e+00,5.000000000000000000e+00,5.000000000000000000e+00,5.000000000000000000e+00,5.000000000000000000e+00,5.000000000000000000e+00,5.000000000000000000e+00,5.000000000000000000e+00,5.000000000000000000e+00,5.000000000000000000e+00,5.000000000000000000e+00,5.000000000000000000e+00,5.000000000000000000e+00,5.000000000000000000e+00,5.000000000000000000e+00,5.000000000000000000e+00,5.000000000000000000e+00,5.000000000000000000e+00,5.000000000000000000e+00,5.000000000000000000e+00,5.000000000000000000e+00,5.000000000000000000e+00,5.000000000000000000e+00,5.000000000000000000e+00,5.000000000000000000e+00,5.000000000000000000e+00,5.000000000000000000e+00,5.000000000000000000e+00,5.000000000000000000e+00,5.000000000000000000e+00,5.000000000000000000e+00,5.000000000000000000e+00,5.000000000000000000e+00,5.000000000000000000e+00,1.641305685043334961e+00,1.885249853134155273e+00,1.868478894233703613e+00,1.867976784706115723e+00,1.872919559478759766e+00,1.919266939163208008e+00,1.899392843246459961e+00,1.831061244010925293e+00,1.790614366531372070e+00,1.779640197753906250e+00,1.776908397674560547e+00,1.808943152427673340e+00,3.773596048355102539e+00,3.657597064971923828e+00,3.548516988754272461e+00,3.445754289627075195e+00,3.348776102066040039e+00,3.257107257843017578e+00,3.170323133468627930e+00,3.088043928146362305e+00,3.009927511215209961e+00,2.935665607452392578e+00,2.864979743957519531e+00,2.797617912292480469e+00,2.733350992202758789e+00,2.671970844268798828e+00,2.613286495208740234e+00,2.557124376296997070e+00,2.503325462341308594e+00,2.451743841171264648e+00,2.402244806289672852e+00,2.354705095291137695e+00,2.309010267257690430e+00,2.265055418014526367e+00,2.222742557525634766e+00,2.181981563568115234e+00,2.142688989639282227e+00,2.104786157608032227e+00,2.068200826644897461e+00,2.032866001129150391e+00,1.998718142509460449e+00,1.965698599815368652e+00,1.933752179145812988e+00,1.902827620506286621e+00,1.872876405715942383e+00,1.843853712081909180e+00
5.000000000000000000e+00,5.000000000000000000e+00,5.000000000000000000e+00,5.000000000000000000e+00,5.000000000000000000e+00,5.000000000000000000e+00,5.000000000000000000e+00,5.000000000000000000e+00,5.000000000000000000e+00,5.000000000000000000e+00,5.000000000000000000e+00,5.000000000000000000e+00,5.000000000000000000e+00,5.000000000000000000e+00,5.000000000000000000e+00,5.000000000000000000e+00,5.000000000000000000e+00,5.000000000000000000e+00,5.000000000000000000e+00,5.000000000000000000e+00,5.000000000000000000e+00,5.000000000000000000e+00,5.000000000000000000e+00,5.000000000000000000e+00,5.000000000000000000e+00,5.000000000000000000e+00,5.000000000000000000e+00,5.000000000000000000e+00,5.000000000000000000e+00,5.000000000000000000e+00,5.000000000000000000e+00,5.000000000000000000e+00,5.000000000000000000e+00,5.000000000000000000e+00,5.000000000000000000e+00,1.900433421134948730e+00,1.878505825996398926e+00,1.877001643180847168e+00,1.886571168899536133e+00,4.850532531738281250e+00,4.660542488098144531e+00,1.830632090568542480e+00,1.787465214729309082e+00,1.764180421829223633e+00,1.764288544654846191e+00,1.763494849205017090e+00,3.773680210113525391e+00,3.657675981521606445e+00,3.548590898513793945e+00,3.445824384689331055e+00,3.348842144012451172e+00,3.257169961929321289e+00,3.170382499694824219e+00,3.088100194931030273e+00,3.009981155395507812e+00,2.935716629028320312e+00,2.865028381347656250e+00,2.797664165496826172e+00,2.733395099639892578e+00,2.672012567520141602e+00,2.613326787948608398e+00,2.557163000106811523e+00,2.503362417221069336e+00,2.451779127120971680e+00,2.402278661727905273e+00,2.354737758636474609e+00,2.309041738510131836e+00,2.265085697174072266e+00,2.222771644592285156e+00,2.182009696960449219e+00,2.142715930938720703e+00,2.104812145233154297e+00,2.068226099014282227e+00,2.032890319824218750e+00,1.998741626739501953e+00,1.965721249580383301e+00,1.933774232864379883e+00,1.902848958969116211e+00,1.872897148132324219e+00,1.843873739242553711e+00
5.000000000000000000e+00,5.000000000000000000e+00,5.000000000000000000e+00,5.000000000000000000e+00,5.000000000000000000e+00,5.000000000000000000e+00,5.000000000000000000e+00,5.000000000000000000e+00,5.000000000000000000e+00,5.000000000000000000e+00,5.000000000000000000e+00,5.000000000000000000e+00,5.000000000000000000e+00,5.000000000000000000e+00,5.000000000000000000e+00,5.000000000000000000e+00,5.000000000000000000e+00,5.000000000000000000e+00,5.000000000000000000e+00,5.000000000000000000e+00,5.000000000000000000e+00,5.000000000000000000e+00,5.000000000000000000e+00,5.000000000000000000e+00,5.000000000000000000e+00,5.000000000000000000e+00,5.000000000000000000e+00,5.000000000000000000e+00,5.000000000000000000e+00,5.000000000000000000e+00,5.000000000000000000e+00,5.000000000000000000e+00,5.000000000000000000e+00,5.000000000000000000e+00,5.000000000000000000e+00,1.915863394737243652e+00,1.888641238212585449e+00,1.886406421661376953e+00,1.900304198265075684e+00,4.850671291351318359e+00,4.660670757293701172e+00,1.843724966049194336e+00,1.784197568893432617e+00,1.753838181495666504e+00,1.747818231582641602e+00,1.749199151992797852e+00,3.773764133453369141e+00,3.657754898071289062e+00,3.548665285110473633e+00,3.445894002914428711e+00,3.348908424377441406e+00,3.257232427597045898e+00,3.170441865921020508e+00,3.088156461715698242e+00,3.010034322738647461e+00,2.935767412185668945e+00,2.865076780319213867e+00,2.797710418701171875e+00,2.733439207077026367e+00,2.672054767608642578e+00,2.613367080688476562e+00,2.557201623916625977e+00,2.503399372100830078e+00,2.451814651489257812e+00,2.402312755584716797e+00,2.354770421981811523e+00,2.309073209762573242e+00,2.265115976333618164e+00,2.222800731658935547e+00,2.182037830352783203e+00,2.142742872238159180e+00,2.104838371276855469e+00,2.068251371383666992e+00,2.032914638519287109e+00,1.998765230178833008e+00,1.965744018554687500e+00,1.933796286582946777e+00,1.902870416641235352e+00,1.872917771339416504e+00,1.843893885612487793e+00
5.000000000000000000e+00,5.000000000000000000e+00,5.000000000000000000e+00,5.000000000000000000e+00,5.000000000000000000e+00,5.000000000000000000e+00,5.000000000000000000e+00,5.000000000000000000e+00,5.000000000000000000e+00,5.000000000000000000e+00,5.000000000000000000e+00,5.000000000000000000e+00,5.000000000000000000e+00,5.000000000000000000e+00,5.000000000000000000e+00,5.000000000000000000e+00,5.000000000000000000e+00,5.000000000000000000e+00,5.000000000000000000e+00,5.000000000000000000e+00,5.000000000000000000e+00,5.000000000000000000e+00,5.000000000000000000e+00,5.000000000000000000e+00,5.000000000000000000e+00,5.000000000000000000e+00,5.000000000000000000e+00,5.000000000000000000e+00,5.000000000000000000e+00,5.000000000000000000e+00,5.000000000000000000e+00,5.000000000000000000e+00,5.000000000000000000e+00,5.000000000000000000e+00,5.000000000000000000e+00,1.932724475860595703e+00,1.897180199623107910e+00,1.895559430122375488e+00,1.911339282989501953e+00,4.850809574127197266e+00,4.660799026489257812e+00,4.485113143920898438e+00,1.780941963195800781e+00,1.751173019409179688e+00,1.731701254844665527e+00,1.734501481056213379e+00,1.779091477394104004e+00,3.657833814620971680e+00,3.548739433288574219e+00,3.445964097976684570e+00,3.348974227905273438e+00,3.257295131683349609e+00,3.170501232147216797e+00,3.088212728500366211e+00,3.010087728500366211e+00,2.935817956924438477e+00,2.865125179290771484e+00,2.797756433486938477e+00,2.733483314514160156e+00,2.672096967697143555e+00,2.613407135009765625e+00,2.557240247726440430e+00,2.503436326980590820e+00,2.451850175857543945e+00,2.402346849441528320e+00,2.354803085327148438e+00,2.309104442596435547e+00,2.265146255493164062e+00,2.222830057144165039e+00,2.182065963745117188e+00,2.142770051956176758e+00,2.104864358901977539e+00,2.068276643753051758e+00,2.032939195632934570e+00,1.998788833618164062e+00,1.965766787528991699e+00,1.933818340301513672e+00,1.902891755104064941e+00,1.872938513755798340e+00,1.843913912773132324e+00
5.000000000000000000e+00,5.000000000000000000e+00,5.000000000000000000e+00,5.000000000000000000e+00,5.000000000000000000e+00,5.000000000000000000e+00,5.000000000000000000e+00,5.000000000000000000e+00,5.000000000000000000e+00,5.000000000000000000e+00,5.000000000000000000e+00,5.000000000000000000e+00,5.000000000000000000e+00,5.000000000000000000e+00,5.000000000000000000e+00,5.000000000000000000e+00,5.000000000000000000e+00,5.000000000000000000e+00,5.000000000000000000e+00,5.000000000000000000e+00,5.000000000000000000e+00,5.000000000000000000e+00,5.000000000000000000e+00,5.000000000000000000e+00,5.000000000000000000e+00,5.000000000000000000e+00,5.000000000000000000e+00,5.000000000000000000e+00,5.000000000000000000e+00,5.000000000000000000e+00,5.000000000000000000e+00,5.000000000000000000e+00,5.000000000000000000e+00,5.000000000000000000e+00,5.000000000000000000e+00,1.950535655021667480e+00,1.905729532241821289e+00,1.902365088462829590e+00,1.923084259033203125e+00,4.850948333740234375e+00,4.660926818847656250e+00,4.485231399536132812e+00,1.793005704879760742e+00,1.747974753379821777e+00,1.722577691078186035e+00,1.726046919822692871e+00,1.738315343856811523e+00,3.657912731170654297e+00,3.548813819885253906e+00,3.446034193038940430e+00,3.349040508270263672e+00,3.257357597351074219e+00,3.170560598373413086e+00,3.088268995285034180e+00,3.010141134262084961e+00,2.935868978500366211e+00,2.865173339843750000e+00,2.797802686691284180e+00,2.733527421951293945e+00,2.672139167785644531e+00,2.613447427749633789e+00,2.557278633117675781e+00,2.503473520278930664e+00,2.451885700225830078e+00,2.402380943298339844e+00,2.354835987091064453e+00,2.309135913848876953e+00,2.265176534652709961e+00,2.222859144210815430e+00,2.182094097137451172e+00,2.142797231674194336e+00,2.104890584945678711e+00,2.068301677703857422e+00,2.032963514328002930e+00,1.998812437057495117e+00,1.965789675712585449e+00,1.933840394020080566e+00,1.902912855148315430e+00,1.872959256172180176e+00,1.843933939933776855e+00
5.000000000000000000e+00,5.000000000000000000e+00,5.000000000000000000e+00,5.000000000000000000e+00,5.000000000000000000e+00,5.000000000000000000e+00,5.000000000000000000e+00,5.000000000000000000e+00,5.000000000000000000e+00,5.000000000000000000e+00,5.000000000000000000e+00,5.000000000000000000e+00,5.000000000000000000e+00,5.000000000000000000e+00,5.000000000000000000e+00,5.000000000000000000e+00,5.000000000000000000e+00,5.000000000000000000e+00,5.000000000000000000e+00,5.000000000000000000e+00,5.000000000000000000e+00,5.000000000000000000e+00,5.000000000000000000e+00,5.000000000000000000e+00,5.000000000000000000e+00,5.000000000000000000e+00,5.000000000000000000e+00,5.000000000000000000e+00,5.000000000000000000e+00,5.000000000000000000e+00,5.000000000000000000e+00,5.000000000000000000e+00,5.000000000000000000e+00,5.000000000000000000e+00,5.000000000000000000e+00,1.974503397941589355e+00,1.917086362838745117e+00,1.909219622611999512e+00,1.933943510055541992e+00,4.851087570190429688e+00,4.661055088043212891e+00,4.485350131988525391e+00,4.322410583496093750e+00,1.751360058784484863e+00,1.726281881332397461e+00,1.728994607925415039e+00,1.746521592140197754e+00,3.657991647720336914e+00,3.548888206481933594e+00,3.446104288101196289e+00,3.349106550216674805e+00,3.257420063018798828e+00,3.170619726181030273e+00,3.088325262069702148e+00,3.010194778442382812e+00,2.935919761657714844e+00,2.865221738815307617e+00,2.797848939895629883e+00,2.733571529388427734e+00,2.672181129455566406e+00,2.613487720489501953e+00,2.557317018508911133e+00,2.503510236740112305e+00,2.451920986175537109e+00,2.402415037155151367e+00,2.354868650436401367e+00,2.309167385101318359e+00,2.265206575393676758e+00,2.222888231277465820e+00,2.182122230529785156e+00,2.142824172973632812e+00,2.104916810989379883e+00,2.068326950073242188e+00,2.032987833023071289e+00,1.998835921287536621e+00,1.965812444686889648e+00,1.933862447738647461e+00,1.902934193611145020e+00,1.872979879379272461e+00,1.843954086303710938e+00
5.000000000000000000e+00,5.000000000000000000e+00,5.000000000000000000e+00,5.000000000000000000e+00,5.000000000000000000e+00,5.000000000000000000e+00,5.000000000000000000e+00,5.000000000000000000e+00,5.000000000000000000e+00,5.000000000000000000e+00,5.000000000000000000e+00,5.000000000000000000e+00,5.000000000000000000e+00,5.000000000000000000e+00,5.000000000000000000e+00,5.000000000000000000e+00,5.000000000000000000e+00,5.000000000000000000e+00,5.000000000000000000e+00,5.000000000000000000e+00,5.000000000000000000e+00,5.000000000000000000e+00,5.000000000000000000e+00,5.000000000000000000e+00,5.000000000000000000e+00,5.000000000000000000e+00,5.000000000000000000e+00,5.000000000000000000e+00,5.000000000000000000e+00,5.000000000000000000e+00,5.000000000000000000e+00,5.000000000000000000e+00,5.000000000000000000e+00,5.000000000000000000e+00,5.000000000000000000e+00,1.992537736892700195e+00,1.928579092025756836e+00,1.916123628616333008e+00,1.941751837730407715e+00,4.851226329803466797e+00,4.661183357238769531e+00,4.485468864440917969e+00,4.322520732879638672e+00,1.760088443756103516e+00,1.735990524291992188e+00,1.735460042953491211e+00,1.771202325820922852e+00,3.658070564270019531e+00,3.548962593078613281e+00,3.446174383163452148e+00,3.349172830581665039e+00,3.257482528686523438e+00,3.170678853988647461e+00,3.088381528854370117e+00,3.010248184204101562e+00,2.935970544815063477e+00,2.865270376205444336e+00,2.797894954681396484e+00,2.733615636825561523e+00,2.672223329544067383e+00,2.613528013229370117e+00,2.557355642318725586e+00,2.503547191619873047e+00,2.451956510543823242e+00,2.402449131011962891e+00,2.354901313781738281e+00,2.309198856353759766e+00,2.265236854553222656e+00,2.222917318344116211e+00,2.182150125503540039e+00,2.142851352691650391e+00,2.104942798614501953e+00,2.068352222442626953e+00,2.033012151718139648e+00,1.998859524726867676e+00,1.965835213661193848e+00,1.933884501457214355e+00,1.902955651283264160e+00,1.873000621795654297e+00,1.843974113464355469e+00
5.000000000000000000e+00,5.000000000000000000e+00,5.000000000000000000e+00,5.000000000000000000e+00,5.000000000000000000e+00,5.000000000000000000e+00,5.000000000000000000e+00,5.000000000000000000e+00,5.000000000000000000e+00,5.000000000000000000e+00,5.000000000000000000e+00,5.000000000000000000e+00,5.000000000000000000e+00,5.000000000000000000e+00,5.000000000000000000e+00,5.000000000000000000e+00,5.000000000000000000e+00,5.000000000000000000e+00,5.000000000000000000e+00,5.000000000000000000e+00,5.000000000000000000e+00,5.000000000000000000e+00,5.000000000000000000e+00,5.000000000000000000e+00,5.000000000000000000e+00,5.000000000000000000e+00,5.000000000000000000e+00,5.000000000000000000e+00,5.000000000000000000e+00,5.000000000000000000e+00,5.000000000000000000e+00,5.000000000000000000e+00,5.000000000000000000e+00,5.000000000000000000e+00,5.000000000000000000e+00,2.009202480316162109e+00,1.942921042442321777e+00,1.925700545310974121e+00,1.952234983444213867e+00,4.851364612579345703e+00,4.661311626434326172e+00,4.485587596893310547e+00,4.322630882263183594e+00,1.770063519477844238e+00,1.746297597885131836e+00,1.741973876953125000e+00,1.776618123054504395e+00,3.658149242401123047e+00,3.549036741256713867e+00,3.446244478225708008e+00,3.349239110946655273e+00,3.257545232772827148e+00,3.170738220214843750e+00,3.088437795639038086e+00,3.010301589965820312e+00,2.936021566390991211e+00,2.865318775177001953e+00,2.797941207885742188e+00,2.733659505844116211e+00,2.672265529632568359e+00,2.613568305969238281e+00,2.557394266128540039e+00,2.503584146499633789e+00,2.451991796493530273e+00,2.402483224868774414e+00,2.354933977127075195e+00,2.309230327606201172e+00,2.265267133712768555e+00,2.222946405410766602e+00,2.182178258895874023e+00,2.142878293991088867e+00,2.104969024658203125e+00,2.068377494812011719e+00,2.033036470413208008e+00,1.998882889747619629e+00,1.965858101844787598e+00,1.933906555175781250e+00,1.902976989746093750e+00,1.873021364212036133e+00,1.843993902206420898e+00
5.000000000000000000e+00,5.000000000000000000e+00,5.000000000000000000e+00,5.000000000000000000e+00,5.000000000000000000e+00,5.000000000000000000e+00,5.000000000000000000e+00,5.000000000000000000e+00,5.000000000000000000e+00,5.000000000000000000e+00,5.000000000000000000e+00,5.000000000000000000e+00,5.000000000000000000e+00,5.000000000000000000e+00,5.000000000000000000e+00,5.000000000000000000e+00,5.000000000000000000e+00,5.000000000000000000e+00,5.000000000000000000e+00,5.000000000000000000e+00,5.000000000000000000e+00,5.000000000000000000e+00,5.000000000000000000e+00,5.000000000000000000e+00,5.000000000000000000e+00,5.000000000000000000e+00,5.000000000000000000e+00,5.000000000000000000e+00,5.000000000000000000e+00,5.000000000000000000e+00,5.000000000000000000e+00,5.000000000000000000e+00,5.000000000000000000e+00,5.000000000000000000e+00,5.000000000000000000e+00,2.005853891372680664e+00,1.963971495628356934e+00,1.944779396057128906e+00,1.981592297554016113e+00,4.851503849029541016e+00,4.661439418792724609e+00,4.485706329345703125e+00,4.322741031646728516e+00,1.778131008148193359e+00,1.756727933883666992e+00,1.751233816146850586e+00,1.782067298889160156e+00,3.658228158950805664e+00,3.549110889434814453e+00,3.446314573287963867e+00,3.349305152893066406e+00,3.257607936859130859e+00,3.170797586441040039e+00,3.088493824005126953e+00,3.010354995727539062e+00,2.936072349548339844e+00,2.865367174148559570e+00,2.797987461090087891e+00,2.733703613281250000e+00,2.672307729721069336e+00,2.613608598709106445e+00,2.557432889938354492e+00,2.503621101379394531e+00,2.452027320861816406e+00,2.402517080307006836e+00,2.354966878890991211e+00,2.309261798858642578e+00,2.265297412872314453e+00,2.222975730895996094e+00,2.182206392288208008e+00,2.142905473709106445e+00,2.104995250701904297e+00,2.068402767181396484e+00,2.033061027526855469e+00,1.998906493186950684e+00,1.965880870819091797e+00,1.933928608894348145e+00,1.902998328208923340e+00,1.873041987419128418e+00,1.844014048576354980e+00
5.000000000000000000e+00,5.000000000000000000e+00,5.000000000000000000e+00,5.000000000000000000e+00,5.000000000000000000e+00,5.000000000000000000e+00,5.000000000000000000e+00,5.000000000000000000e+00,5.000000000000000000e+00,5.000000000000000000e+00,5.000000000000000000e+00,5.000000000000000000e+00,5.000000000000000000e+00,5.000000000000000000e+00,5.000000000000000000e+00,5.000000000000000000e+00,5.000000000000000000e+00,5.000000000000000000e+00,5.000000000000000000e+00,5.000000000000000000e+00,5.000000000000000000e+00,5.000000000000000000e+00,5.000000000000000000e+00,5.000000000000000000e+00,5.000000000000000000e+00,5.000000000000000000e+00,5.000000000000000000e+00,5.000000000000000000e+00,5.000000000000000000e+00,5.000000000000000000e+00,5.000000000000000000e+00,5.000000000000000000e+00,5.000000000000000000e+00,5.000000000000000000e+00,5.000000000000000000e+00,2.009876489639282227e+00,1.988200187683105469e+00,1.981011509895324707e+00,5.000000000000000000e+00,4.851642608642578125e+00,4.661567687988281250e+00,4.485825061798095703e+00,4.322851657867431641e+00,1.782396197319030762e+00,1.760167479515075684e+00,1.754701375961303711e+00,1.780149817466735840e+00,3.658307075500488281e+00,3.549185037612915039e+00,3.446384668350219727e+00,3.349371433258056641e+00,3.257670402526855469e+00,3.170856714248657227e+00,3.088550090789794922e+00,3.010408401489257812e+00,2.936123132705688477e+00,2.865415573120117188e+00,2.798033475875854492e+00,2.733747720718383789e+00,2.672349452972412109e+00,2.613648891448974609e+00,2.557471513748168945e+00,2.503658056259155273e+00,2.452062845230102539e+00,2.402551174163818359e+00,2.354999542236328125e+00,2.309293270111083984e+00,2.265327692031860352e+00,2.223004817962646484e+00,2.182234287261962891e+00,2.142932415008544922e+00,2.105021238327026367e+00,2.068428039550781250e+00,2.033085346221923828e+00,1.998930096626281738e+00,1.965903639793395996e+00,1.933950781822204590e+00,1.903019785881042480e+00,1.873062729835510254e+00,1.844034075736999512e+00
5.000000000000000000e+00,5.000000000000000000e+00,5.000000000000000000e+00,5.000000000000000000e+00,5.000000000000000000e+00,5.000000000000000000e+00,5.000000000000000000e+00,5.000000000000000000e+00,5.000000000000000000e+00,5.000000000000000000e+00,5.000000000000000000e+00,5.000000000000000000e+00,5.000000000000000000e+00,5.000000000000000000e+00,5.000000000000000000e+00,5.000000000000000000e+00,5.000000000000000000e+00,5.000000000000000000e+00,5.000000000000000000e+00,5.000000000000000000e+00,5.000000000000000000e+00,5.000000000000000000e+00,5.000000000000000000e+00,5.000000000000000000e+00,5.000000000000000000e+00,5.000000000000000000e+00,5.000000000000000000e+00,5.000000000000000000e+00,5.000000000000000000e+00,5.000000000000000000e+00,5.000000000000000000e+00,5.000000000000000000e+00,5.000000000000000000e+00,5.000000000000000000e+00,5.000000000000000000e+00,2.026513099670410156e+00,2.011121749877929688e+00,2.027080059051513672e+00,5.000000000000000000e+00,4.851780414581298828e+00,4.661695957183837891e+00,4.485943317413330078e+00,4.322961807250976562e+00,1.783008456230163574e+00,1.757407903671264648e+00,1.752690434455871582e+00,1.768489837646484375e+00,3.658386230468750000e+00,3.549259424209594727e+00,3.446454286575317383e+00,3.349437713623046875e+00,3.257733106613159180e+00,3.170916080474853516e+00,3.088606357574462891e+00,3.010461807250976562e+00,2.936174154281616211e+00,2.865463972091674805e+00,2.798079729080200195e+00,2.733791828155517578e+00,2.672391653060913086e+00,2.613688945770263672e+00,2.557510137557983398e+00,2.503695011138916016e+00,2.452098369598388672e+00,2.402585029602050781e+00,2.355031967163085938e+00,2.309324741363525391e+00,2.265357971191406250e+00,2.223033905029296875e+00,2.182262420654296875e+00,2.142959594726562500e+00,2.105047464370727539e+00,2.068453073501586914e+00,2.033109664916992188e+00,1.998953580856323242e+00,1.965926408767700195e+00,1.933972597122192383e+00,1.903041124343872070e+00,1.873083472251892090e+00,1.844054102897644043e+00
5.000000000000000000e+00,5.000000000000000000e+00,5.000000000000000000e+00,5.000000000000000000e+00,5.000000000000000000e+00,5.000000000000000000e+00,5.000000000000000000e+00,5.000000000000000000e+00,5.000000000000000000e+00,5.000000000000000000e+00,5.000000000000000000e+00,5.000000000000000000e+00,5.000000000000000000e+00,5.000000000000000000e+00,5.000000000000000000e+00,5.000000000000000000e+00,5.000000000000000000e+00,5.000000000000000000e+00,5.000000000000000000e+00,5.000000000000000000e+00,5.000000000000000000e+00,5.000000000000000000e+00,5.000000000000000000e+00,5.000000000000000000e+00,5.000000000000000000e+00,5.000000000000000000e+00,5.000000000000000000e+00,5.000000000000000000e+00,5.000000000000000000e+00,5.000000000000000000e+00,5.000000000000000000e+00,5.000000000000000000e+00,5.000000000000000000e+00,5.000000000000000000e+00,5.000000000000000000e+00,2.042833566665649414e+00,2.028866529464721680e+00,2.057482004165649414e+00,5.000000000000000000e+00,4.851918220520019531e+00,4.661824226379394531e+00,4.486062049865722656e+00,4.323071956634521484e+00,1.783620834350585938e+00,1.754327416419982910e+00,1.750654816627502441e+00,1.756981730461120605e+00,3.658465147018432617e+00,3.549333810806274414e+00,3.446524381637573242e+00,3.349503517150878906e+00,3.257795810699462891e+00,3.170975446701049805e+00,3.088662624359130859e+00,3.010515213012695312e+00,2.936224699020385742e+00,2.865512609481811523e+00,2.798125982284545898e+00,2.733835935592651367e+00,2.672433853149414062e+00,2.613729238510131836e+00,2.557548522949218750e+00,2.503732204437255859e+00,2.452133893966674805e+00,2.402619123458862305e+00,2.355064868927001953e+00,2.309356212615966797e+00,2.265388250350952148e+00,2.223063230514526367e+00,2.182290554046630859e+00,2.142986536026000977e+00,2.105073451995849609e+00,2.068478345870971680e+00,2.033134222030639648e+00,1.998977184295654297e+00,1.965949296951293945e+00,1.933994650840759277e+00,1.903062462806701660e+00,1.873104095458984375e+00,1.844074249267578125e+00
5.000000000000000000e+00,5.000000000000000000e+00,5.000000000000000000e+00,5.000000000000000000e+00,5.000000000000000000e+00,5.000000000000000000e+00,5.000000000000000000e+00,5.000000000000000000e+00,5.000000000000000000e+00,5.000000000000000000e+00,5.000000000000000000e+00,5.000000000000000000e+00,5.000000000000000000e+00,5.000000000000000000e+00,5.000000000000000000e+00,5.000000000000000000e+00,5.000000000000000000e+00,5.000000000000000000e+00,5.000000000000000000e+00,5.000000000000000000e+00,5.000000000000000000e+00,5.000000000000000000e+00,5.000000000000000000e+00,5.000000000000000000e+00,5.000000000000000000e+00,5.000000000000000000e+00,5.000000000000000000e+00,5.000000000000000000e+00,5.000000000000000000e+00,5.000000000000000000e+00,5.000000000000000000e+00,5.000000000000000000e+00,5.000000000000000000e+00,5.000000000000000000e+00,5.000000000000000000e+00,2.059193372726440430e+00,2.041879415512084961e+00,2.075116395950317383e+00,5.000000000000000000e+00,4.852056503295898438e+00,4.661950588226318359e+00,4.486180782318115234e+00,4.323182106018066406e+00,1.784233927726745605e+00,1.751257777214050293e+00,1.747597932815551758e+00,1.745622277259826660e+00,3.658544063568115234e+00,3.549408197402954102e+00,3.446594476699829102e+00,3.349569559097290039e+00,3.257858037948608398e+00,3.171034812927246094e+00,3.088718891143798828e+00,3.010568618774414062e+00,2.936275482177734375e+00,2.865560770034790039e+00,2.798172235488891602e+00,2.733880043029785156e+00,2.672476053237915039e+00,2.613769769668579102e+00,2.557587146759033203e+00,2.503769159317016602e+00,2.452169179916381836e+00,2.402653217315673828e+00,2.355097532272338867e+00,2.309387683868408203e+00,2.265418529510498047e+00,2.223092317581176758e+00,2.182318687438964844e+00,2.143013715744018555e+00,2.105099678039550781e+00,2.068503618240356445e+00,2.033158540725708008e+00,1.999000787734985352e+00,1.965972065925598145e+00,1.934016704559326172e+00,1.903083801269531250e+00,1.873124837875366211e+00,1.844094276428222656e+00
5.000000000000000000e+00,5.000000000000000000e+00,5.000000000000000000e+00,5.000000000000000000e+00,5.000000000000000000e+00,5.000000000000000000e+00,5.000000000000000000e+00,5.000000000000000000e+00,5.000000000000000000e+00,5.000000000000000000e+00,5.000000000000000000e+00,5.000000000000000000e+00,5.000000000000000000e+00,5.000000000000000000e+00,5.000000000000000000e+00,5.000000000000000000e+00,5.000000000000000000e+00,5.000000000000000000e+00,5.000000000000000000e+00,5.000000000000000000e+00,5.000000000000000000e+00,5.000000000000000000e+00,5.000000000000000000e+00,5.000000000000000000e+00,5.000000000000000000e+00,5.000000000000000000e+00,5.000000000000000000e+00,5.000000000000000000e+00,5.000000000000000000e+00,5.000000000000000000e+00,5.000000000000000000e+00,5.000000000000000000e+00,5.000000000000000000e+00,5.000000000000000000e+00,5.000000000000000000e+00,2.075914621353149414e+00,2.055060148239135742e+00,2.092128276824951172e+00,5.000000000000000000e+00,4.852194309234619141e+00,4.662078380584716797e+00,4.486298561096191406e+00,4.323292255401611328e+00,1.820565938949584961e+00,1.752120137214660645e+00,1.744813919067382812e+00,1.741143703460693359e+00,3.658622980117797852e+00,3.549482345581054688e+00,3.446664571762084961e+00,3.349635839462280273e+00,3.257920742034912109e+00,3.171094179153442383e+00,3.088775396347045898e+00,3.010622262954711914e+00,2.936326503753662109e+00,2.865609169006347656e+00,2.798218011856079102e+00,2.733924150466918945e+00,2.672518014907836914e+00,2.613810062408447266e+00,2.557625770568847656e+00,2.503805875778198242e+00,2.452204704284667969e+00,2.402687311172485352e+00,2.355130195617675781e+00,2.309419155120849609e+00,2.265448808670043945e+00,2.223121404647827148e+00,2.182346820831298828e+00,2.143040895462036133e+00,2.105125665664672852e+00,2.068528890609741211e+00,2.033182859420776367e+00,1.999024391174316406e+00,1.965994834899902344e+00,1.934038758277893066e+00,1.903105258941650391e+00,1.873145341873168945e+00,1.844114303588867188e+00
5.000000000000000000e+00,5.000000000000000000e+00,5.000000000000000000e+00,5.000000000000000000e+00,5.000000000000000000e+00,5.000000000000000000e+00,5.000000000000000000e+00,5.000000000000000000e+00,5.000000000000000000e+00,5.000000000000000000e+00,5.000000000000000000e+00,5.000000000000000000e+00,5.000000000000000000e+00,5.000000000000000000e+00,5.000000000000000000e+00,5.000000000000000000e+00,5.000000000000000000e+00,5.000000000000000000e+00,5.000000000000000000e+00,5.000000000000000000e+00,5.000000000000000000e+00,5.000000000000000000e+00,5.000000000000000000e+00,5.000000000000000000e+00,5.000000000000000000e+00,5.000000000000000000e+00,5.000000000000000000e+00,5.000000000000000000e+00,5.000000000000000000e+00,5.000000000000000000e+00,5.000000000000000000e+00,5.000000000000000000e+00,5.000000000000000000e+00,5.000000000000000000e+00,5.000000000000000000e+00,2.093301773071289062e+00,2.070788383483886719e+00,2.110924959182739258e+00,5.000000000000000000e+00,4.852332592010498047e+00,4.662205696105957031e+00,4.486416816711425781e+00,4.323401927947998047e+00,4.171818256378173828e+00,1.755969285964965820e+00,1.742691636085510254e+00,1.744451045989990234e+00,3.658701658248901367e+00,3.549556732177734375e+00,3.446734666824340820e+00,3.349702119827270508e+00,3.257983207702636719e+00,3.171153306961059570e+00,3.088831663131713867e+00,3.010675668716430664e+00,2.936377286911010742e+00,2.865657567977905273e+00,2.798264265060424805e+00,2.733968257904052734e+00,2.672560214996337891e+00,2.613850355148315430e+00,2.557664394378662109e+00,2.503842830657958984e+00,2.452239990234375000e+00,2.402721405029296875e+00,2.355162858963012695e+00,2.309450626373291016e+00,2.265479087829589844e+00,2.223150491714477539e+00,2.182374954223632812e+00,2.143067836761474609e+00,2.105151891708374023e+00,2.068553924560546875e+00,2.033207178115844727e+00,1.999047875404357910e+00,1.966017723083496094e+00,1.934060931205749512e+00,1.903126597404479980e+00,1.873166084289550781e+00,1.844134449958801270e+00
5.000000000000000000e+00,5.000000000000000000e+00,5.000000000000000000e+00,5.000000000000000000e+00,5.000000000000000000e+00,5.000000000000000000e+00,5.000000000000000000e+00,5.000000000000000000e+00,5.000000000000000000e+00,5.000000000000000000e+00,5.000000000000000000e+00,5.000000000000000000e+00,5.000000000000000000e+00,5.000000000000000000e+00,5.000000000000000000e+00,5.000000000000000000e+00,5.000000000000000000e+00,5.000000000000000000e+00,5.000000000000000000e+00,5.000000000000000000e+00,5.000000000000000000e+00,5.000000000000000000e+00,5.000000000000000000e+00,5.000000000000000000e+00,5.000000000000000000e+00,5.000000000000000000e+00,5.000000000000000000e+00,5.000000000000000000e+00,5.000000000000000000e+00,5.000000000000000000e+00,5.000000000000000000e+00,5.000000000000000000e+00,5.000000000000000000e+00,5.000000000000000000e+00,5.000000000000000000e+00,2.112417221069335938e+00,2.094333887100219727e+00,5.000000000000000000e+00,5.000000000000000000e+00,4.852470874786376953e+00,4.662333011627197266e+00,4.486534595489501953e+00,4.323511600494384766e+00,4.171920776367187500e+00,1.759816050529479980e+00,1.740574359893798828e+00,1.751754164695739746e+00,3.658780574798583984e+00,3.549631118774414062e+00,3.446804761886596680e+00,3.349768400192260742e+00,3.258045911788940430e+00,3.171212434768676758e+00,3.088887691497802734e+00,3.010729074478149414e+00,2.936428308486938477e+00,2.865705966949462891e+00,2.798310518264770508e+00,2.734012126922607422e+00,2.672602415084838867e+00,2.613890647888183594e+00,2.557702779769897461e+00,2.503880023956298828e+00,2.452275514602661133e+00,2.402755498886108398e+00,2.355195760726928711e+00,2.309482097625732422e+00,2.265509128570556641e+00,2.223179578781127930e+00,2.182402849197387695e+00,2.143095016479492188e+00,2.105178117752075195e+00,2.068579196929931641e+00,2.033231496810913086e+00,1.999071478843688965e+00,1.966040492057800293e+00,1.934082984924316406e+00,1.903147935867309570e+00,1.873186707496643066e+00,1.844154477119445801e+00
4.875295162200927734e+00,4.874084949493408203e+00,4.872875213623046875e+00,4.871665954589843750e+00,4.870457172393798828e+00,4.869249343872070312e+00,4.868041515350341797e+00,4.866835117340087891e+00,4.865628242492675781e+00,4.864422798156738281e+00,4.863217830657958984e+00,4.862013339996337891e+00,4.860809326171875000e+00,4.859606266021728516e+00,4.858403205871582031e+00,4.857201099395751953e+00,4.855999946594238281e+00,4.854798793792724609e+00,4.853598594665527344e+00,4.852398872375488281e+00,4.851200103759765625e+00,4.850001335144042969e+00,4.848803520202636719e+00,4.847606182098388672e+00,4.846409320831298828e+00,4.845212936401367188e+00,4.844017505645751953e+00,4.842822551727294922e+00,4.841628551483154297e+00,4.840434551239013672e+00,4.839241504669189453e+00,4.838048458099365234e+00,4.836856365203857422e+00,4.835664749145507812e+00,4.834474086761474609e+00,2.132210493087768555e+00,2.116627931594848633e+00,4.830904960632324219e+00,4.829716682434082031e+00,4.828528404235839844e+00,4.662460327148437500e+00,4.486652851104736328e+00,4.323620796203613281e+00,4.172022342681884766e+00,1.763666868209838867e+00,1.739317536354064941e+00,1.747818112373352051e+00,3.658859729766845703e+00,3.549705028533935547e+00,3.446875095367431641e+00,3.349834442138671875e+00,3.258108615875244141e+00,3.171271800994873047e+00,3.088943958282470703e+00,3.010782718658447266e+00,2.936479091644287109e+00,2.865754604339599609e+00,2.798356771469116211e+00,2.734056234359741211e+00,2.672644376754760742e+00,2.613930940628051758e+00,2.557741403579711914e+00,2.503916978836059570e+00,2.452311038970947266e+00,2.402789354324340820e+00,2.355228424072265625e+00,2.309513568878173828e+00,2.265539407730102539e+00,2.223208904266357422e+00,2.182430982589721680e+00,2.143122196197509766e+00,2.105204105377197266e+00,2.068604469299316406e+00,2.033256053924560547e+00,1.999095082283020020e+00,1.966063022613525391e+00,1.934105038642883301e+00,1.903169393539428711e+00,1.873207449913024902e+00,1.844174504280090332e+00
3.778120517730712891e+00,3.777393579483032227e+00,3.776666879653930664e+00,3.775940179824829102e+00,3.775214195251464844e+00,3.774488449096679688e+00,3.773762941360473633e+00,3.773037195205688477e+00,3.772312402725219727e+00,3.771587610244750977e+00,3.770863294601440430e+00,3.770138740539550781e+00,3.769414901733398438e+00,3.768691539764404297e+00,3.767967700958251953e+00,3.767244815826416016e+00,3.766522169113159180e+00,3.765799760818481445e+00,3.765077114105224609e+00,3.764355182647705078e+00,3.763633728027343750e+00,3.762912273406982422e+00,3.762190818786621094e+00,3.761470079421997070e+00,3.760749816894531250e+00,3.760029554367065430e+00,3.759309053421020508e+00,3.758589506149291992e+00,3.757870197296142578e+00,3.757151126861572266e+00,3.756431818008422852e+00,3.755713224411010742e+00,3.754994869232177734e+00,3.754276990890502930e+00,3.753558635711669922e+00,2.163886308670043945e+00,2.134266138076782227e+00,3.751407146453857422e+00,3.750690221786499023e+00,3.749973773956298828e+00,3.749257564544677734e+00,3.748541831970214844e+00,3.747825860977172852e+00,3.747110605239868164e+00,1.767534375190734863e+00,1.739124059677124023e+00,1.743899822235107422e+00,3.658938646316528320e+00,3.549779415130615234e+00,3.446944713592529297e+00,3.349900722503662109e+00,3.258171319961547852e+00,3.171331167221069336e+00,3.089000225067138672e+00,3.010835886001586914e+00,2.936529874801635742e+00,2.865803003311157227e+00,2.798403024673461914e+00,2.734100341796875000e+00,2.672686576843261719e+00,2.613971233367919922e+00,2.557780027389526367e+00,2.503953933715820312e+00,2.452346563339233398e+00,2.402823448181152344e+00,2.355261087417602539e+00,2.309545040130615234e+00,2.265569686889648438e+00,2.223237991333007812e+00,2.182459115982055664e+00,2.143149137496948242e+00,2.105230331420898438e+00,2.068629741668701172e+00,2.033280372619628906e+00,1.999118685722351074e+00,1.966085910797119141e+00,1.934127092361450195e+00,1.903190732002258301e+00,1.873228192329406738e+00,1.844194650650024414e+00
3.084059238433837891e+00,3.083575010299682617e+00,3.083090782165527344e+00,3.082606554031372070e+00,3.082122564315795898e+00,3.081638813018798828e+00,3.081155061721801758e+00,3.080671787261962891e+00,3.080188035964965820e+00,3.079704999923706055e+00,3.079221963882446289e+00,3.078739166259765625e+00,3.078256130218505859e+00,3.077773571014404297e+00,3.077291250228881836e+00,3.076808691024780273e+00,3.076326608657836914e+00,3.075844526290893555e+00,3.075362920761108398e+00,3.074880838394165039e+00,3.074399471282958984e+00,3.073918104171752930e+00,3.073436975479125977e+00,3.072955608367919922e+00,3.072474718093872070e+00,3.071994066238403320e+00,3.071513414382934570e+00,3.071032762527465820e+00,3.070552349090576172e+00,3.070072174072265625e+00,3.069592237472534180e+00,3.069112300872802734e+00,3.068632602691650391e+00,3.068152904510498047e+00,3.067673683166503906e+00,2.177396774291992188e+00,2.153963804244995117e+00,3.066236019134521484e+00,3.065757513046264648e+00,3.065278530120849609e+00,3.064800024032592773e+00,3.064321756362915039e+00,3.063843488693237305e+00,3.063365221023559570e+00,3.062887430191040039e+00,1.752638816833496094e+00,1.762990951538085938e+00,3.061454296112060547e+00,3.060976982116699219e+00,3.060499906539916992e+00,3.060022592544555664e+00,3.059545755386352539e+00,3.059068918228149414e+00,3.058592557907104492e+00,3.010889291763305664e+00,2.936580657958984375e+00,2.865851402282714844e+00,2.798449039459228516e+00,2.734144449234008789e+00,2.672728776931762695e+00,2.614011287689208984e+00,2.557818651199340820e+00,2.503990888595581055e+00,2.452382087707519531e+00,2.402857542037963867e+00,2.355293750762939453e+00,2.309576511383056641e+00,2.265599966049194336e+00,2.223267078399658203e+00,2.182487249374389648e+00,2.143176317214965820e+00,2.105256319046020508e+00,2.068655014038085938e+00,2.033304691314697266e+00,1.999142289161682129e+00,1.966108679771423340e+00,1.934149146080017090e+00,1.903212070465087891e+00,1.873248815536499023e+00,1.844214677810668945e+00
2.605428218841552734e+00,2.605082273483276367e+00,2.604736804962158203e+00,2.604391098022460938e+00,2.604045867919921875e+00,2.603700160980224609e+00,2.603354930877685547e+00,2.603009939193725586e+00,2.602664709091186523e+00,2.602319717407226562e+00,2.601974725723266602e+00,2.601629972457885742e+00,2.601285219192504883e+00,2.600940465927124023e+00,2.600595951080322266e+00,2.600251674652099609e+00,2.599907159805297852e+00,2.599562883377075195e+00,2.599218606948852539e+00,2.598874568939208984e+00,2.598530530929565430e+00,2.598186492919921875e+00,2.597842931747436523e+00,2.597499132156372070e+00,2.597155332565307617e+00,2.596811771392822266e+00,2.596468448638916016e+00,2.596125125885009766e+00,2.595781803131103516e+00,2.595438480377197266e+00,2.595095396041870117e+00,2.594752550125122070e+00,2.594409465789794922e+00,2.594066619873046875e+00,2.593724012374877930e+00,2.161645650863647461e+00,2.125463008880615234e+00,2.120860338211059570e+00,2.592354059219360352e+00,2.592011690139770508e+00,2.591669321060180664e+00,2.591327428817749023e+00,2.590985298156738281e+00,2.590643405914306641e+00,2.590301513671875000e+00,1.740207433700561523e+00,1.710070610046386719e+00,2.589276552200317383e+00,2.588935136795043945e+00,2.588593721389770508e+00,2.588252544403076172e+00,2.587911128997802734e+00,2.587570190429687500e+00,2.587229251861572266e+00,2.586888313293457031e+00,2.586547374725341797e+00,2.586206674575805664e+00,2.585865974426269531e+00,2.585525512695312500e+00,2.585184812545776367e+00,2.584844589233398438e+00,2.557857036590576172e+00,2.504027843475341797e+00,2.452417373657226562e+00,2.402891635894775391e+00,2.355326414108276367e+00,2.309607744216918945e+00,2.265630245208740234e+00,2.223296403884887695e+00,2.182515382766723633e+00,2.143203258514404297e+00,2.105282545089721680e+00,2.068680047988891602e+00,2.033329248428344727e+00,1.999165892601013184e+00,1.966131448745727539e+00,1.934171199798583984e+00,1.903233289718627930e+00,1.873269557952880859e+00,1.844234704971313477e+00
2.255420207977294922e+00,2.255160331726074219e+00,2.254900693893432617e+00,2.254640817642211914e+00,2.254380941390991211e+00,2.254121303558349609e+00,2.253861665725708008e+00,2.253602266311645508e+00,2.253342628479003906e+00,2.253083229064941406e+00,2.252823829650878906e+00,2.252564430236816406e+00,2.252305269241333008e+00,2.252046108245849609e+00,2.251786947250366211e+00,2.251528024673461914e+00,2.251268863677978516e+00,2.251009941101074219e+00,2.250751018524169922e+00,2.250492095947265625e+00,2.250233411788940430e+00,2.249974727630615234e+00,2.249716043472290039e+00,2.249457359313964844e+00,2.249199151992797852e+00,2.248941183090209961e+00,2.248683691024780273e+00,2.248426198959350586e+00,2.248168706893920898e+00,2.247911214828491211e+00,2.247653961181640625e+00,2.247396469116210938e+00,2.247139453887939453e+00,2.246881961822509766e+00,2.246624946594238281e+00,2.246367931365966797e+00,2.091783761978149414e+00,2.079818964004516602e+00,2.073451519012451172e+00,2.245340108871459961e+00,2.245083332061767578e+00,2.244826555252075195e+00,2.244570016860961914e+00,2.244313240051269531e+00,1.794663071632385254e+00,1.735935807228088379e+00,1.679046988487243652e+00,1.640718936920166016e+00,1.597489714622497559e+00,1.612248301506042480e+00,2.242518663406372070e+00,2.242262601852416992e+00,2.242006301879882812e+00,2.241750478744506836e+00,2.241494417190551758e+00,2.241238594055175781e+00,2.240982532501220703e+00,2.240726947784423828e+00,2.240471124649047852e+00,2.240215539932250977e+00,2.239959716796875000e+00,2.239704370498657227e+00,2.239448785781860352e+00,2.239193439483642578e+00,2.238937854766845703e+00,2.238682746887207031e+00,2.238427400588989258e+00,2.238172292709350586e+00,2.223325490951538086e+00,2.182543277740478516e+00,2.143230438232421875e+00,2.105308771133422852e+00,2.068705320358276367e+00,2.033353567123413086e+00,1.999189376831054688e+00,1.966154336929321289e+00,1.934193372726440430e+00,1.903254628181457520e+00,1.873290300369262695e+00,1.844254851341247559e+00
1.988349914550781250e+00,1.988147974014282227e+00,1.987946152687072754e+00,1.987744092941284180e+00,1.987542271614074707e+00,1.987340450286865234e+00,1.987138509750366211e+00,1.986936807632446289e+00,1.986735224723815918e+00,1.986533403396606445e+00,1.986331820487976074e+00,1.986130237579345703e+00,1.985928535461425781e+00,1.985727190971374512e+00,1.985525727272033691e+00,1.985324144363403320e+00,1.985122799873352051e+00,1.984921574592590332e+00,1.984720110893249512e+00,1.984518885612487793e+00,1.984317779541015625e+00,1.984116435050964355e+00,1.983915328979492188e+00,1.983714342117309570e+00,1.983513116836547852e+00,1.983312129974365234e+00,1.983111023902893066e+00,1.982910156250000000e+00,1.982709288597106934e+00,1.982508301734924316e+00,1.982307553291320801e+00,1.982106804847717285e+00,1.981905937194824219e+00,1.981705307960510254e+00,1.981504678726196289e+00,1.981303930282592773e+00,1.981103420257568359e+00,1.980903029441833496e+00,1.980702280998229980e+00,1.980502009391784668e+00,1.980301618576049805e+00,1.980101108551025391e+00,1.979900836944580078e+00,1.979700565338134766e+00,1.979500174522399902e+00,1.753469109535217285e+00,1.747417569160461426e+00,1.638541102409362793e+00,1.700000762939453125e+00,1.978499650955200195e+00,1.978299498558044434e+00,1.978099584579467773e+00,1.977899789810180664e+00,1.977699637413024902e+00,1.977499961853027344e+00,1.977299928665161133e+00,1.977100253105163574e+00,1.976900577545166016e+00,1.976700782775878906e+00,1.976501226425170898e+00,1.976301670074462891e+00,1.976101875305175781e+00,1.975902438163757324e+00,1.975703001022338867e+00,1.975503444671630859e+00,1.975304126739501953e+00,1.975104808807373047e+00,1.974905371665954590e+00,1.974706053733825684e+00,1.974506974220275879e+00,1.974307537078857422e+00,1.974108457565307617e+00,1.973909497261047363e+00,1.973710179328918457e+00,1.973511219024658203e+00,1.966177105903625488e+00,1.934215426445007324e+00,1.903275966644287109e+00,1.873310923576354980e+00,1.844274878501892090e+00
1.777832269668579102e+00,1.777670741081237793e+00,1.777509212493896484e+00,1.777347803115844727e+00,1.777186512947082520e+00,1.777024984359741211e+00,1.776863694190979004e+00,1.776702404022216797e+00,1.776540994644165039e+00,1.776379823684692383e+00,1.776218652725219727e+00,1.776057243347167969e+00,1.775896191596984863e+00,1.775735139846801758e+00,1.775573849678039551e+00,1.775412797927856445e+00,1.775251865386962891e+00,1.775090694427490234e+00,1.774929761886596680e+00,1.774768829345703125e+00,1.774607777595520020e+00,1.774446845054626465e+00,1.774286031723022461e+00,1.774125099182128906e+00,1.773964285850524902e+00,1.773803591728210449e+00,1.773642659187316895e+00,1.773481965065002441e+00,1.773321151733398438e+00,1.773160576820373535e+00,1.773000001907348633e+00,1.772839188575744629e+00,1.772678732872009277e+00,1.772518157958984375e+00,1.772357583045959473e+00,1.772197127342224121e+00,1.772036671638488770e+00,1.771876096725463867e+00,1.771715760231018066e+00,1.771555423736572266e+00,1.771394968032836914e+00,1.771234631538391113e+00,1.771074414253234863e+00,1.770913958549499512e+00,1.770753860473632812e+00,1.770593643188476562e+00,1.770433306694030762e+00,1.770273208618164062e+00,1.770113110542297363e+00,1.769952893257141113e+00,1.769792914390563965e+00,1.769632935523986816e+00,1.769472837448120117e+00,1.769312858581542969e+00,1.769152998924255371e+00,1.768992900848388672e+00,1.768833041191101074e+00,1.768673062324523926e+00,1.768513321876525879e+00,1.768353581428527832e+00,1.768193721771240234e+00,1.768033981323242188e+00,1.767874360084533691e+00,1.767714500427246094e+00,1.767554879188537598e+00,1.767395257949829102e+00,1.767235517501831055e+00,1.767076015472412109e+00,1.766916513442993164e+00,1.766756892204284668e+00,1.766597509384155273e+00,1.766438126564025879e+00,1.766278505325317383e+00,1.766119122505187988e+00,1.765959858894348145e+00,1.765800356864929199e+00,1.765641093254089355e+00,1.765481948852539062e+00,1.765322566032409668e+00,1.765163421630859375e+00
1.607624053955078125e+00,1.607491970062255859e+00,1.607359886169433594e+00,1.607227921485900879e+00,1.607095837593078613e+00,1.606963992118835449e+00,1.606832027435302734e+00,1.606700062751770020e+00,1.606568217277526855e+00,1.606436371803283691e+00,1.606304407119750977e+00,1.606172561645507812e+00,1.606040835380554199e+00,1.605908870697021484e+00,1.605777144432067871e+00,1.605645537376403809e+00,1.605513691902160645e+00,1.605381965637207031e+00,1.605250358581542969e+00,1.605118632316589355e+00,1.604987025260925293e+00,1.604855418205261230e+00,1.604723691940307617e+00,1.604592204093933105e+00,1.604460716247558594e+00,1.604328989982604980e+00,1.604197502136230469e+00,1.604066133499145508e+00,1.603934526443481445e+00,1.603803157806396484e+00,1.603671550750732422e+00,1.603540301322937012e+00,1.603408932685852051e+00,1.603277444839477539e+00,1.603146195411682129e+00,1.603014826774597168e+00,1.602883458137512207e+00,1.602752208709716797e+00,1.602621078491210938e+00,1.602489709854125977e+00,1.602358579635620117e+00,1.602227449417114258e+00,1.602096080780029297e+00,1.601965069770812988e+00,1.601833939552307129e+00,1.601702690124511719e+00,1.601571679115295410e+00,1.601440668106079102e+00,1.601309537887573242e+00,1.601178526878356934e+00,1.601047635078430176e+00,1.600916504859924316e+00,1.600785613059997559e+00,1.600654721260070801e+00,1.600523710250854492e+00,1.600392937660217285e+00,1.600262045860290527e+00,1.600131154060363770e+00,1.600000381469726562e+00,1.599869370460510254e+00,1.599738717079162598e+00,1.599607944488525391e+00,1.599477052688598633e+00,1.599346399307250977e+00,1.599215745925903320e+00,1.599084973335266113e+00,1.598954439163208008e+00,1.598823785781860352e+00,1.598693132400512695e+00,1.598562598228454590e+00,1.598432064056396484e+00,1.598301410675048828e+00,1.598170876502990723e+00,1.598040461540222168e+00,1.597909808158874512e+00,1.597779393196105957e+00,1.597649097442626953e+00,1.597518563270568848e+00,1.597388148307800293e+00,1.597257852554321289e+00
1.467159271240234375e+00,1.467049360275268555e+00,1.466939449310302734e+00,1.466829419136047363e+00,1.466719508171081543e+00,1.466609597206115723e+00,1.466499686241149902e+00,1.466389775276184082e+00,1.466279983520507812e+00,1.466169953346252441e+00,1.466060161590576172e+00,1.465950369834899902e+00,1.465840578079223633e+00,1.465730786323547363e+00,1.465620994567871094e+00,1.465511202812194824e+00,1.465401530265808105e+00,1.465291857719421387e+00,1.465182065963745117e+00,1.465072393417358398e+00,1.464962720870971680e+00,1.464852929115295410e+00,1.464743375778198242e+00,1.464633822441101074e+00,1.464524149894714355e+00,1.464414596557617188e+00,1.464305043220520020e+00,1.464195370674133301e+00,1.464085817337036133e+00,1.463976383209228516e+00,1.463866710662841797e+00,1.463757276535034180e+00,1.463647723197937012e+00,1.463538289070129395e+00,1.463428854942321777e+00,1.463319420814514160e+00,1.463209986686706543e+00,1.463100671768188477e+00,1.462991237640380859e+00,1.462881922721862793e+00,1.462772607803344727e+00,1.462663173675537109e+00,1.462553858757019043e+00,1.462444663047790527e+00,1.462335228919982910e+00,1.462226033210754395e+00,1.462116837501525879e+00,1.462007522583007812e+00,1.461898326873779297e+00,1.461789131164550781e+00,1.461679935455322266e+00,1.461570739746093750e+00,1.461461663246154785e+00,1.461352467536926270e+00,1.461243391036987305e+00,1.461134314537048340e+00,1.461025118827819824e+00,1.460916161537170410e+00,1.460807085037231445e+00,1.460698008537292480e+00,1.460589051246643066e+00,1.460479974746704102e+00,1.460371017456054688e+00,1.460262060165405273e+00,1.460152983665466309e+00,1.460044145584106445e+00,1.459935188293457031e+00,1.459826231002807617e+00,1.459717392921447754e+00,1.459608554840087891e+00,1.459499597549438477e+00,1.459390759468078613e+00,1.459282040596008301e+00,1.459173083305358887e+00,1.459064364433288574e+00,1.458955645561218262e+00,1.458846807479858398e+00,1.458738088607788086e+00,1.458629369735717773e+00,1.458520531654357910e+00
1.349268317222595215e+00,1.349175333976745605e+00,1.349082231521606445e+00,1.348989248275756836e+00,1.348896265029907227e+00,1.348803281784057617e+00,1.348710298538208008e+00,1.348617434501647949e+00,1.348524451255798340e+00,1.348431468009948730e+00,1.348338603973388672e+00,1.348245620727539062e+00,1.348152875900268555e+00,1.348060011863708496e+00,1.347967028617858887e+00,1.347874283790588379e+00,1.347781419754028320e+00,1.347688555717468262e+00,1.347595810890197754e+00,1.347503066062927246e+00,1.347410202026367188e+00,1.347317457199096680e+00,1.347224831581115723e+00,1.347131967544555664e+00,1.347039222717285156e+00,1.346946597099304199e+00,1.346853852272033691e+00,1.346761107444763184e+00,1.346668481826782227e+00,1.346575736999511719e+00,1.346483111381530762e+00,1.346390604972839355e+00,1.346297860145568848e+00,1.346205234527587891e+00,1.346112608909606934e+00,1.346020102500915527e+00,1.345927476882934570e+00,1.345834851264953613e+00,1.345742344856262207e+00,1.345649838447570801e+00,1.345557212829589844e+00,1.345464825630187988e+00,1.345372319221496582e+00,1.345279812812805176e+00,1.345187306404113770e+00,1.345094919204711914e+00,1.345002412796020508e+00,1.344909906387329102e+00,1.344817519187927246e+00,1.344725131988525391e+00,1.344632744789123535e+00,1.344540357589721680e+00,1.344447970390319824e+00,1.344355583190917969e+00,1.344263315200805664e+00,1.344170928001403809e+00,1.344078540802001953e+00,1.343986272811889648e+00,1.343894004821777344e+00,1.343801736831665039e+00,1.343709468841552734e+00,1.343617081642150879e+00,1.343524932861328125e+00,1.343432664871215820e+00,1.343340396881103516e+00,1.343248248100280762e+00,1.343155980110168457e+00,1.343063831329345703e+00,1.342971682548522949e+00,1.342879414558410645e+00,1.342787384986877441e+00,1.342695236206054688e+00,1.342603087425231934e+00,1.342510938644409180e+00,1.342418909072875977e+00,1.342326760292053223e+00,1.342234730720520020e+00,1.342142701148986816e+00,1.342050552368164062e+00,1.341958642005920410e+00
1.248914003372192383e+00,1.248834252357482910e+00,1.248754620552062988e+00,1.248674869537353516e+00,1.248595237731933594e+00,1.248515605926513672e+00,1.248435974121093750e+00,1.248356223106384277e+00,1.248276591300964355e+00,1.248197078704833984e+00,1.248117327690124512e+00,1.248037815093994141e+00,1.247958183288574219e+00,1.247878551483154297e+00,1.247799038887023926e+00,1.247719526290893555e+00,1.247639894485473633e+00,1.247560381889343262e+00,1.247480869293212891e+00,1.247401356697082520e+00,1.247321844100952148e+00,1.247242331504821777e+00,1.247162818908691406e+00,1.247083425521850586e+00,1.247003912925720215e+00,1.246924400329589844e+00,1.246845006942749023e+00,1.246765613555908203e+00,1.246686100959777832e+00,1.246606707572937012e+00,1.246527314186096191e+00,1.246447920799255371e+00,1.246368527412414551e+00,1.246289134025573730e+00,1.246209740638732910e+00,1.246130466461181641e+00,1.246051073074340820e+00,1.245971679687500000e+00,1.245892405509948730e+00,1.245813012123107910e+00,1.245733737945556641e+00,1.245654463768005371e+00,1.245575189590454102e+00,1.245495915412902832e+00,1.245416641235351562e+00,1.245337367057800293e+00,1.245258092880249023e+00,1.245178937911987305e+00,1.245099663734436035e+00,1.245020508766174316e+00,1.244941234588623047e+00,1.244862079620361328e+00,1.244782924652099609e+00,1.244703769683837891e+00,1.244624495506286621e+00,1.244545340538024902e+00,1.244466304779052734e+00,1.244387030601501465e+00,1.244307994842529297e+00,1.244228839874267578e+00,1.244149684906005859e+00,1.244070649147033691e+00,1.243991613388061523e+00,1.243912458419799805e+00,1.243833422660827637e+00,1.243754267692565918e+00,1.243675351142883301e+00,1.243596315383911133e+00,1.243517279624938965e+00,1.243438243865966797e+00,1.243359327316284180e+00,1.243280172348022461e+00,1.243201255798339844e+00,1.243122339248657227e+00,1.243043303489685059e+00,1.242964386940002441e+00,1.242885470390319824e+00,1.242806434631347656e+00,1.242727518081665039e+00,1.242648720741271973e+00
1.162454366683959961e+00,1.162385225296020508e+00,1.162316203117370605e+00,1.162247180938720703e+00,1.162178158760070801e+00,1.162109136581420898e+00,1.162040114402770996e+00,1.161971092224121094e+00,1.161902189254760742e+00,1.161833167076110840e+00,1.161764144897460938e+00,1.161695241928100586e+00,1.161626219749450684e+00,1.161557316780090332e+00,1.161488413810729980e+00,1.161419391632080078e+00,1.161350488662719727e+00,1.161281585693359375e+00,1.161212682723999023e+00,1.161143779754638672e+00,1.161074876785278320e+00,1.161005973815917969e+00,1.160937070846557617e+00,1.160868287086486816e+00,1.160799384117126465e+00,1.160730481147766113e+00,1.160661697387695312e+00,1.160592794418334961e+00,1.160524010658264160e+00,1.160455226898193359e+00,1.160386323928833008e+00,1.160317540168762207e+00,1.160248756408691406e+00,1.160179972648620605e+00,1.160111188888549805e+00,1.160042405128479004e+00,1.159973621368408203e+00,1.159904956817626953e+00,1.159836053848266602e+00,1.159767389297485352e+00,1.159698724746704102e+00,1.159629940986633301e+00,1.159561276435852051e+00,1.159492492675781250e+00,1.159423828125000000e+00,1.159355163574218750e+00,1.159286499023437500e+00,1.159217715263366699e+00,1.159149050712585449e+00,1.159080505371093750e+00,1.159011721611022949e+00,1.158943176269531250e+00,1.158874511718750000e+00,1.158805847167968750e+00,1.158737301826477051e+00,1.158668637275695801e+00,1.158600091934204102e+00,1.158531427383422852e+00,1.158462882041931152e+00,1.158394336700439453e+00,1.158325791358947754e+00,1.158257246017456055e+00,1.158188581466674805e+00,1.158120155334472656e+00,1.158051609992980957e+00,1.157983064651489258e+00,1.157914519309997559e+00,1.157845973968505859e+00,1.157777547836303711e+00,1.157709002494812012e+00,1.157640457153320312e+00,1.157572031021118164e+00,1.157503604888916016e+00,1.157435059547424316e+00,1.157366633415222168e+00,1.157298207283020020e+00,1.157229781150817871e+00,1.157161355018615723e+00,1.157092928886413574e+00,1.157024502754211426e+00
1.087190389633178711e+00,1.087129950523376465e+00,1.087069630622863770e+00,1.087009191513061523e+00,1.086948871612548828e+00,1.086888432502746582e+00,1.086828112602233887e+00,1.086767792701721191e+00,1.086707353591918945e+00,1.086647033691406250e+00,1.086586713790893555e+00,1.086526274681091309e+00,1.086466073989868164e+00,1.086405754089355469e+00,1.086345434188842773e+00,1.086285114288330078e+00,1.086224794387817383e+00,1.086164474487304688e+00,1.086104273796081543e+00,1.086043953895568848e+00,1.085983633995056152e+00,1.085923433303833008e+00,1.085863232612609863e+00,1.085802912712097168e+00,1.085742712020874023e+00,1.085682511329650879e+00,1.085622191429138184e+00,1.085561990737915039e+00,1.085501790046691895e+00,1.085441589355468750e+00,1.085381388664245605e+00,1.085321187973022461e+00,1.085260987281799316e+00,1.085200786590576172e+00,1.085140705108642578e+00,1.085080385208129883e+00,1.085020303726196289e+00,1.084960103034973145e+00,1.084900021553039551e+00,1.084839820861816406e+00,1.084779620170593262e+00,1.084719538688659668e+00,1.084659457206726074e+00,1.084599256515502930e+00,1.084539175033569336e+00,1.084479093551635742e+00,1.084419012069702148e+00,1.084358930587768555e+00,1.084298849105834961e+00,1.084238767623901367e+00,1.084178686141967773e+00,1.084118604660034180e+00,1.084058523178100586e+00,1.083998560905456543e+00,1.083938479423522949e+00,1.083878397941589355e+00,1.083818435668945312e+00,1.083758473396301270e+00,1.083698391914367676e+00,1.083638310432434082e+00,1.083578348159790039e+00,1.083518385887145996e+00,1.083458423614501953e+00,1.083398461341857910e+00,1.083338379859924316e+00,1.083278417587280273e+00,1.083218455314636230e+00,1.083158493041992188e+00,1.083098530769348145e+00,1.083038568496704102e+00,1.082978725433349609e+00,1.082918763160705566e+00,1.082858800888061523e+00,1.082798957824707031e+00,1.082738995552062988e+00,1.082679033279418945e+00,1.082619190216064453e+00,1.082559347152709961e+00,1.082499384880065918e+00,1.082439541816711426e+00
1.021079897880554199e+00,1.021026611328125000e+00,1.020973324775695801e+00,1.020920038223266602e+00,1.020866751670837402e+00,1.020813465118408203e+00,1.020760297775268555e+00,1.020707011222839355e+00,1.020653724670410156e+00,1.020600557327270508e+00,1.020547270774841309e+00,1.020494103431701660e+00,1.020440936088562012e+00,1.020387649536132812e+00,1.020334482192993164e+00,1.020281314849853516e+00,1.020228028297424316e+00,1.020174860954284668e+00,1.020121693611145020e+00,1.020068526268005371e+00,1.020015358924865723e+00,1.019962191581726074e+00,1.019909024238586426e+00,1.019855856895446777e+00,1.019802808761596680e+00,1.019749641418457031e+00,1.019696474075317383e+00,1.019643425941467285e+00,1.019590258598327637e+00,1.019537091255187988e+00,1.019484043121337891e+00,1.019430875778198242e+00,1.019377827644348145e+00,1.019324660301208496e+00,1.019271612167358398e+00,1.019218564033508301e+00,1.019165396690368652e+00,1.019112348556518555e+00,1.019059300422668457e+00,1.019006133079528809e+00,1.018953084945678711e+00,1.018900156021118164e+00,1.018846988677978516e+00,1.018793940544128418e+00,1.018741011619567871e+00,1.018687963485717773e+00,1.018634915351867676e+00,1.018581867218017578e+00,1.018528819084167480e+00,1.018475890159606934e+00,1.018422842025756836e+00,1.018369793891906738e+00,1.018316864967346191e+00,1.018263936042785645e+00,1.018210887908935547e+00,1.018157958984375000e+00,1.018104910850524902e+00,1.018051981925964355e+00,1.017999053001403809e+00,1.017946124076843262e+00,1.017893075942993164e+00,1.017840147018432617e+00,1.017787218093872070e+00,1.017734289169311523e+00,1.017681360244750977e+00,1.017628431320190430e+00,1.017575502395629883e+00,1.017522573471069336e+00,1.017469763755798340e+00,1.017416834831237793e+00,1.017363905906677246e+00,1.017310976982116699e+00,1.017258167266845703e+00,1.017205238342285156e+00,1.017152428627014160e+00,1.017099499702453613e+00,1.017046689987182617e+00,1.016993761062622070e+00,1.016940951347351074e+00,1.016888141632080078e+00
9.625487327575683594e-01,9.625013470649719238e-01,9.624539613723754883e-01,9.624066948890686035e-01,9.623593091964721680e-01,9.623119235038757324e-01,9.622647166252136230e-01,9.622173309326171875e-01,9.621700048446655273e-01,9.621227979660034180e-01,9.620754122734069824e-01,9.620280861854553223e-01,9.619807600975036621e-01,9.619335532188415527e-01,9.618862271308898926e-01,9.618389606475830078e-01,9.617917537689208984e-01,9.617444276809692383e-01,9.616971611976623535e-01,9.616499543190002441e-01,9.616026878356933594e-01,9.615553617477416992e-01,9.615082144737243652e-01,9.614609479904174805e-01,9.614136815071105957e-01,9.613664746284484863e-01,9.613192081451416016e-01,9.612720012664794922e-01,9.612248539924621582e-01,9.611775875091552734e-01,9.611303210258483887e-01,9.610832333564758301e-01,9.610359668731689453e-01,9.609887599945068359e-01,9.609416127204895020e-01,9.608944058418273926e-01,9.608471989631652832e-01,9.608001112937927246e-01,9.607529044151306152e-01,9.607056975364685059e-01,9.606586098670959473e-01,9.606114029884338379e-01,9.605641961097717285e-01,9.605171084403991699e-01,9.604699611663818359e-01,9.604227542877197266e-01,9.603757262229919434e-01,9.603285789489746094e-01,9.602813720703125000e-01,9.602343440055847168e-01,9.601871967315673828e-01,9.601400494575500488e-01,9.600930213928222656e-01,9.600458741188049316e-01,9.599987268447875977e-01,9.599516987800598145e-01,9.599046111106872559e-01,9.598574638366699219e-01,9.598104953765869141e-01,9.597633481025695801e-01,9.597162604331970215e-01,9.596692919731140137e-01,9.596221446990966797e-01,9.595750570297241211e-01,9.595280885696411133e-01,9.594810009002685547e-01,9.594339132308959961e-01,9.593869447708129883e-01,9.593399167060852051e-01,9.592928290367126465e-01,9.592458605766296387e-01,9.591988325119018555e-01,9.591518044471740723e-01,9.591047167778015137e-01,9.590578079223632812e-01,9.590107798576354980e-01,9.589637517929077148e-01,9.589167833328247070e-01,9.588698148727416992e-01,9.588227868080139160e-01
