5.000000000000000000e+00,5.000000000000000000e+00,5.000000000000000000e+00,5.000000000000000000e+00,5.000000000000000000e+00,5.000000000000000000e+00,5.000000000000000000e+00,5.000000000000000000e+00,5.000000000000000000e+00,5.000000000000000000e+00,5.000000000000000000e+00,5.000000000000000000e+00,2.724642992019653320e+00,2.735103130340576172e+00,2.762359857559204102e+00,2.806988000869750977e+00,5.000000000000000000e+00,5.000000000000000000e+00,5.000000000000000000e+00,5.000000000000000000e+00,5.000000000000000000e+00,5.000000000000000000e+00,5.000000000000000000e+00,5.000000000000000000e+00,5.000000000000000000e+00,5.000000000000000000e+00,5.000000000000000000e+00,5.000000000000000000e+00,5.000000000000000000e+00,5.000000000000000000e+00,5.000000000000000000e+00,5.000000000000000000e+00,5.000000000000000000e+00,5.000000000000000000e+00,5.000000000000000000e+00,5.000000000000000000e+00,5.000000000000000000e+00,5.000000000000000000e+00,5.000000000000000000e+00,4.858700752258300781e+00,4.668012619018554688e+00,4.491726875305175781e+00,4.328271389007568359e+00,4.176294326782226562e+00,4.034628391265869141e+00,3.902258157730102539e+00,3.778297424316406250e+00,3.661969900131225586e+00,3.552591562271118164e+00,3.449557542800903320e+00,3.352331638336181641e+00,3.260436058044433594e+00,3.173444271087646484e+00,3.090973854064941406e+00,3.012681484222412109e+00,2.938257217407226562e+00,2.867421388626098633e+00,2.799920558929443359e+00,2.735524654388427734e+00,2.674024343490600586e+00,2.615228414535522461e+00,2.558962583541870117e+00,2.505066871643066406e+00,2.453394412994384766e+00,2.403810501098632812e+00,2.356191396713256836e+00,2.310422182083129883e+00,2.266397237777709961e+00,2.224018573760986328e+00,2.183195829391479492e+00,2.143844604492187500e+00,2.105886936187744141e+00,2.069249868392944336e+00,2.033865928649902344e+00,1.999671697616577148e+00,1.966608405113220215e+00,1.934620380401611328e+00,1.903656482696533203e+00,1.873668074607849121e+00,1.844609856605529785e+00
5.000000000000000000e+00,5.000000000000000000e+00,5.000000000000000000e+00,5.000000000000000000e+00,5.000000000000000000e+00,5.000000000000000000e+00,5.000000000000000000e+00,5.000000000000000000e+00,5.000000000000000000e+00,5.000000000000000000e+00,5.000000000000000000e+00,5.000000000000000000e+00,2.759811401367187500e+00,2.743925333023071289e+00,2.770652055740356445e+00,2.820504188537597656e+00,5.000000000000000000e+00,5.000000000000000000e+00,5.000000000000000000e+00,5.000000000000000000e+00,5.000000000000000000e+00,5.000000000000000000e+00,5.000000000000000000e+00,5.000000000000000000e+00,5.000000000000000000e+00,5.000000000000000000e+00,5.000000000000000000e+00,5.000000000000000000e+00,5.000000000000000000e+00,5.000000000000000000e+00,5.000000000000000000e+00,5.000000000000000000e+00,5.000000000000000000e+00,5.000000000000000000e+00,5.000000000000000000e+00,5.000000000000000000e+00,5.000000000000000000e+00,5.000000000000000000e+00,5.000000000000000000e+00,4.858839035034179688e+00,4.668140411376953125e+00,4.491845607757568359e+00,4.328381538391113281e+00,4.176396846771240234e+00,4.034723758697509766e+00,3.902347564697265625e+00,3.778381109237670898e+00,3.662048578262329102e+00,3.552665472030639648e+00,3.449627399444580078e+00,3.352397441864013672e+00,3.260498523712158203e+00,3.173503398895263672e+00,3.091029882431030273e+00,3.012734651565551758e+00,2.938307762145996094e+00,2.867469549179077148e+00,2.799966573715209961e+00,2.735568523406982422e+00,2.674066305160522461e+00,2.615268707275390625e+00,2.559000968933105469e+00,2.505103588104248047e+00,2.453429698944091797e+00,2.403844594955444336e+00,2.356224060058593750e+00,2.310453414916992188e+00,2.266427278518676758e+00,2.224047660827636719e+00,2.183223962783813477e+00,2.143871784210205078e+00,2.105913162231445312e+00,2.069275140762329102e+00,2.033890247344970703e+00,1.999695301055908203e+00,1.966631174087524414e+00,1.934642553329467773e+00,1.903677940368652344e+00,1.873688817024230957e+00,1.844630002975463867e+00
5.000000000000000000e+00,5.000000000000000000e+00,5.000000000000000000e+00,5.000000000000000000e+00,5.000000000000000000e+00,5.000000000000000000e+00,5.000000000000000000e+00,5.000000000000000000e+00,5.000000000000000000e+00,5.000000000000000000e+00,5.000000000000000000e+00,5.000000000000000000e+00,5.000000000000000000e+00,2.774504899978637695e+00,2.802843570709228516e+00,2.826110839843750000e+00,5.000000000000000000e+00,5.000000000000000000e+00,5.000000000000000000e+00,5.000000000000000000e+00,5.000000000000000000e+00,5.000000000000000000e+00,5.000000000000000000e+00,5.000000000000000000e+00,5.000000000000000000e+00,5.000000000000000000e+00,5.000000000000000000e+00,5.000000000000000000e+00,5.000000000000000000e+00,5.000000000000000000e+00,5.000000000000000000e+00,5.000000000000000000e+00,5.000000000000000000e+00,5.000000000000000000e+00,5.000000000000000000e+00,5.000000000000000000e+00,5.000000000000000000e+00,5.000000000000000000e+00,5.000000000000000000e+00,4.858977794647216797e+00,4.668268203735351562e+00,4.491963863372802734e+00,4.328491210937500000e+00,4.176499366760253906e+00,4.034819126129150391e+00,3.902436971664428711e+00,3.778465032577514648e+00,3.662127256393432617e+00,3.552739620208740234e+00,3.449697256088256836e+00,3.352463483810424805e+00,3.260560989379882812e+00,3.173562526702880859e+00,3.091086149215698242e+00,3.012788057327270508e+00,2.938358545303344727e+00,2.867517948150634766e+00,2.800012588500976562e+00,2.735612392425537109e+00,2.674108266830444336e+00,2.615308761596679688e+00,2.559039354324340820e+00,2.505140542984008789e+00,2.453464984893798828e+00,2.403878450393676758e+00,2.356256723403930664e+00,2.310484886169433594e+00,2.266457557678222656e+00,2.224076747894287109e+00,2.183251857757568359e+00,2.143898725509643555e+00,2.105939149856567383e+00,2.069300174713134766e+00,2.033914566040039062e+00,1.999718666076660156e+00,1.966653704643249512e+00,1.934664368629455566e+00,1.903699040412902832e+00,1.873709321022033691e+00,1.844649791717529297e+00
5.000000000000000000e+00,5.000000000000000000e+00,5.000000000000000000e+00,5.000000000000000000e+00,5.000000000000000000e+00,5.000000000000000000e+00,5.000000000000000000e+00,5.000000000000000000e+00,5.000000000000000000e+00,5.000000000000000000e+00,5.000000000000000000e+00,5.000000000000000000e+00,2.847200393676757812e+00,2.733885288238525391e+00,2.758087635040283203e+00,2.765150785446166992e+00,2.735033750534057617e+00,2.724615097045898438e+00,2.778934240341186523e+00,5.000000000000000000e+00,5.000000000000000000e+00,5.000000000000000000e+00,5.000000000000000000e+00,5.000000000000000000e+00,5.000000000000000000e+00,5.000000000000000000e+00,5.000000000000000000e+00,5.000000000000000000e+00,5.000000000000000000e+00,5.000000000000000000e+00,5.000000000000000000e+00,5.000000000000000000e+00,5.000000000000000000e+00,5.000000000000000000e+00,5.000000000000000000e+00,5.000000000000000000e+00,5.000000000000000000e+00,5.000000000000000000e+00,5.000000000000000000e+00,4.859117031097412109e+00,4.668396472930908203e+00,4.492082595825195312e+00,4.328601837158203125e+00,4.176601886749267578e+00,4.034914970397949219e+00,3.902526378631591797e+00,3.778548955917358398e+00,3.662205934524536133e+00,3.552813768386840820e+00,3.449767112731933594e+00,3.352529525756835938e+00,3.260623216629028320e+00,3.173621654510498047e+00,3.091142177581787109e+00,3.012841224670410156e+00,2.938409328460693359e+00,2.867566108703613281e+00,2.800058603286743164e+00,2.735656499862670898e+00,2.674150228500366211e+00,2.615349054336547852e+00,2.559077978134155273e+00,2.505177259445190430e+00,2.453500509262084961e+00,2.403912305831909180e+00,2.356289148330688477e+00,2.310516119003295898e+00,2.266487598419189453e+00,2.224105834960937500e+00,2.183279752731323242e+00,2.143925666809082031e+00,2.105965137481689453e+00,2.069325208663940430e+00,2.033938884735107422e+00,1.999742269515991211e+00,1.966676592826843262e+00,1.934686422348022461e+00,1.903720498085021973e+00,1.873730063438415527e+00,1.844669938087463379e+00
5.000000000000000000e+00,5.000000000000000000e+00,5.000000000000000000e+00,5.000000000000000000e+00,5.000000000000000000e+00,5.000000000000000000e+00,5.000000000000000000e+00,5.000000000000000000e+00,5.000000000000000000e+00,5.000000000000000000e+00,5.000000000000000000e+00,2.793697118759155273e+00,2.751634597778320312e+00,2.729980945587158203e+00,2.715851783752441406e+00,2.717937231063842773e+00,2.733514547348022461e+00,2.720309257507324219e+00,2.746404170989990234e+00,5.000000000000000000e+00,5.000000000000000000e+00,5.000000000000000000e+00,5.000000000000000000e+00,5.000000000000000000e+00,5.000000000000000000e+00,5.000000000000000000e+00,5.000000000000000000e+00,5.000000000000000000e+00,5.000000000000000000e+00,5.000000000000000000e+00,5.000000000000000000e+00,5.000000000000000000e+00,5.000000000000000000e+00,5.000000000000000000e+00,5.000000000000000000e+00,5.000000000000000000e+00,5.000000000000000000e+00,5.000000000000000000e+00,5.000000000000000000e+00,4.859255313873291016e+00,4.668524742126464844e+00,4.492201328277587891e+00,4.328711509704589844e+00,4.176704406738281250e+00,4.035010814666748047e+00,3.902615785598754883e+00,3.778632640838623047e+00,3.662284851074218750e+00,3.552887916564941406e+00,3.449836969375610352e+00,3.352595567703247070e+00,3.260685682296752930e+00,3.173680782318115234e+00,3.091198205947875977e+00,3.012894630432128906e+00,2.938459873199462891e+00,2.867614507675170898e+00,2.800104618072509766e+00,2.735700368881225586e+00,2.674192190170288086e+00,2.615389108657836914e+00,2.559116363525390625e+00,2.505214214324951172e+00,2.453535795211791992e+00,2.403946399688720703e+00,2.356321811676025391e+00,2.310547590255737305e+00,2.266517877578735352e+00,2.224134922027587891e+00,2.183307886123657227e+00,2.143952608108520508e+00,2.105991125106811523e+00,2.069350481033325195e+00,2.033963203430175781e+00,1.999765634536743164e+00,1.966699123382568359e+00,1.934708356857299805e+00,1.903741598129272461e+00,1.873750567436218262e+00,1.844689846038818359e+00
5.000000000000000000e+00,5.000000000000000000e+00,5.000000000000000000e+00,5.000000000000000000e+00,5.000000000000000000e+00,5.000000000000000000e+00,5.000000000000000000e+00,5.000000000000000000e+00,5.000000000000000000e+00,5.000000000000000000e+00,2.829430818557739258e+00,2.723018169403076172e+00,2.703410148620605469e+00,2.693587303161621094e+00,2.698039054870605469e+00,2.717748641967773438e+00,2.737639188766479492e+00,2.739279270172119141e+00,2.751711368560791016e+00,2.808631181716918945e+00,5.000000000000000000e+00,5.000000000000000000e+00,5.000000000000000000e+00,5.000000000000000000e+00,5.000000000000000000e+00,5.000000000000000000e+00,5.000000000000000000e+00,5.000000000000000000e+00,5.000000000000000000e+00,5.000000000000000000e+00,5.000000000000000000e+00,5.000000000000000000e+00,5.000000000000000000e+00,5.000000000000000000e+00,5.000000000000000000e+00,5.000000000000000000e+00,5.000000000000000000e+00,5.000000000000000000e+00,5.000000000000000000e+00,4.859394073486328125e+00,4.668652534484863281e+00,4.492319583892822266e+00,4.328821659088134766e+00,4.176806926727294922e+00,4.035106182098388672e+00,3.902705192565917969e+00,3.778716564178466797e+00,3.662363529205322266e+00,3.552962064743041992e+00,3.449906826019287109e+00,3.352661371231079102e+00,3.260748147964477539e+00,3.173739910125732422e+00,3.091254472732543945e+00,3.012947797775268555e+00,2.938510656356811523e+00,2.867662668228149414e+00,2.800150632858276367e+00,2.735744237899780273e+00,2.674234151840209961e+00,2.615429162979125977e+00,2.559154748916625977e+00,2.505250930786132812e+00,2.453571081161499023e+00,2.403980255126953125e+00,2.356354475021362305e+00,2.310578823089599609e+00,2.266547918319702148e+00,2.224163770675659180e+00,2.183335781097412109e+00,2.143979549407958984e+00,2.106017112731933594e+00,2.069375514984130859e+00,2.033987522125244141e+00,1.999789237976074219e+00,1.966722011566162109e+00,1.934730410575866699e+00,1.903763055801391602e+00,1.873771309852600098e+00,1.844709873199462891e+00
5.000000000000000000e+00,5.000000000000000000e+00,5.000000000000000000e+00,5.000000000000000000e+00,5.000000000000000000e+00,5.000000000000000000e+00,5.000000000000000000e+00,5.000000000000000000e+00,5.000000000000000000e+00,5.000000000000000000e+00,2.857226848602294922e+00,2.728045940399169922e+00,2.710045576095581055e+00,2.697014093399047852e+00,2.701755523681640625e+00,2.719594478607177734e+00,2.754609346389770508e+00,2.754253149032592773e+00,2.761581420898437500e+00,2.816114425659179688e+00,5.000000000000000000e+00,5.000000000000000000e+00,5.000000000000000000e+00,5.000000000000000000e+00,5.000000000000000000e+00,5.000000000000000000e+00,5.000000000000000000e+00,5.000000000000000000e+00,5.000000000000000000e+00,5.000000000000000000e+00,5.000000000000000000e+00,5.000000000000000000e+00,5.000000000000000000e+00,5.000000000000000000e+00,5.000000000000000000e+00,5.000000000000000000e+00,5.000000000000000000e+00,5.000000000000000000e+00,5.000000000000000000e+00,4.859532833099365234e+00,4.668780803680419922e+00,4.492438316345214844e+00,4.328931808471679688e+00,4.176909446716308594e+00,4.035202026367187500e+00,3.902795076370239258e+00,3.778800725936889648e+00,3.662442684173583984e+00,3.553036451339721680e+00,3.449977159500122070e+00,3.352727890014648438e+00,3.260810852050781250e+00,3.173799276351928711e+00,3.091310739517211914e+00,3.013001441955566406e+00,2.938561677932739258e+00,2.867711305618286133e+00,2.800196886062622070e+00,2.735788345336914062e+00,2.674276351928710938e+00,2.615469694137573242e+00,2.559193372726440430e+00,2.505288124084472656e+00,2.453606605529785156e+00,2.404014348983764648e+00,2.356387138366699219e+00,2.310610294342041016e+00,2.266578197479248047e+00,2.224193096160888672e+00,2.183363914489746094e+00,2.144006729125976562e+00,2.106043338775634766e+00,2.069400787353515625e+00,2.034011840820312500e+00,1.999812841415405273e+00,1.966744780540466309e+00,1.934752464294433594e+00,1.903784394264221191e+00,1.873791933059692383e+00,1.844729900360107422e+00
5.000000000000000000e+00,5.000000000000000000e+00,5.000000000000000000e+00,5.000000000000000000e+00,5.000000000000000000e+00,5.000000000000000000e+00,5.000000000000000000e+00,5.000000000000000000e+00,5.000000000000000000e+00,5.000000000000000000e+00,2.859775543212890625e+00,2.725688457489013672e+00,2.697155475616455078e+00,2.695199012756347656e+00,2.705991983413696289e+00,2.719987630844116211e+00,2.762008428573608398e+00,2.758945703506469727e+00,2.767363309860229492e+00,2.816621303558349609e+00,5.000000000000000000e+00,5.000000000000000000e+00,5.000000000000000000e+00,5.000000000000000000e+00,5.000000000000000000e+00,5.000000000000000000e+00,5.000000000000000000e+00,5.000000000000000000e+00,5.000000000000000000e+00,5.000000000000000000e+00,5.000000000000000000e+00,5.000000000000000000e+00,5.000000000000000000e+00,5.000000000000000000e+00,5.000000000000000000e+00,5.000000000000000000e+00,5.000000000000000000e+00,5.000000000000000000e+00,5.000000000000000000e+00,4.859671592712402344e+00,4.668908596038818359e+00,4.492557048797607422e+00,4.329041957855224609e+00,4.177011966705322266e+00,4.035297870635986328e+00,3.902884483337402344e+00,3.778884649276733398e+00,3.662521362304687500e+00,3.553110599517822266e+00,3.450047016143798828e+00,3.352793693542480469e+00,3.260873317718505859e+00,3.173858404159545898e+00,3.091366767883300781e+00,3.013054609298706055e+00,2.938612222671508789e+00,2.867759466171264648e+00,2.800242900848388672e+00,2.735832452774047852e+00,2.674318313598632812e+00,2.615509748458862305e+00,2.559231996536254883e+00,2.505324840545654297e+00,2.453641891479492188e+00,2.404048204421997070e+00,2.356419801712036133e+00,2.310641765594482422e+00,2.266608476638793945e+00,2.224222183227539062e+00,2.183392047882080078e+00,2.144033670425415039e+00,2.106069326400756836e+00,2.069426059722900391e+00,2.034036159515380859e+00,1.999836206436157227e+00,1.966767430305480957e+00,1.934774398803710938e+00,1.903805613517761230e+00,1.873812437057495117e+00,1.844749808311462402e+00
5.000000000000000000e+00,5.000000000000000000e+00,5.000000000000000000e+00,5.000000000000000000e+00,5.000000000000000000e+00,5.000000000000000000e+00,5.000000000000000000e+00,5.000000000000000000e+00,5.000000000000000000e+00,5.000000000000000000e+00,2.859073400497436523e+00,2.727030277252197266e+00,2.698244810104370117e+00,2.691535234451293945e+00,2.700731277465820312e+00,2.726725816726684570e+00,2.768427371978759766e+00,2.761186361312866211e+00,2.773813724517822266e+00,2.816723823547363281e+00,5.000000000000000000e+00,5.000000000000000000e+00,5.000000000000000000e+00,5.000000000000000000e+00,5.000000000000000000e+00,5.000000000000000000e+00,5.000000000000000000e+00,5.000000000000000000e+00,5.000000000000000000e+00,5.000000000000000000e+00,5.000000000000000000e+00,5.000000000000000000e+00,5.000000000000000000e+00,5.000000000000000000e+00,5.000000000000000000e+00,5.000000000000000000e+00,5.000000000000000000e+00,5.000000000000000000e+00,5.000000000000000000e+00,4.859810352325439453e+00,4.669036865234375000e+00,4.492675304412841797e+00,4.329152107238769531e+00,4.177114486694335938e+00,4.035393238067626953e+00,3.902973890304565430e+00,3.778968334197998047e+00,3.662600278854370117e+00,3.553184747695922852e+00,3.450116872787475586e+00,3.352859735488891602e+00,3.260935783386230469e+00,3.173917770385742188e+00,3.091423034667968750e+00,3.013108015060424805e+00,2.938663005828857422e+00,2.867807865142822266e+00,2.800288915634155273e+00,2.735876321792602539e+00,2.674360513687133789e+00,2.615550041198730469e+00,2.559270381927490234e+00,2.505361795425415039e+00,2.453677415847778320e+00,2.404082298278808594e+00,2.356452465057373047e+00,2.310672998428344727e+00,2.266638517379760742e+00,2.224251031875610352e+00,2.183419942855834961e+00,2.144060611724853516e+00,2.106095552444458008e+00,2.069451093673706055e+00,2.034060478210449219e+00,1.999859809875488281e+00,1.966790199279785156e+00,1.934796452522277832e+00,1.903826951980590820e+00,1.873833179473876953e+00,1.844769954681396484e+00
5.000000000000000000e+00,5.000000000000000000e+00,5.000000000000000000e+00,5.000000000000000000e+00,5.000000000000000000e+00,5.000000000000000000e+00,5.000000000000000000e+00,5.000000000000000000e+00,5.000000000000000000e+00,5.000000000000000000e+00,2.846361398696899414e+00,2.734849452972412109e+00,2.703441381454467773e+00,2.689219713211059570e+00,2.699877500534057617e+00,2.730361461639404297e+00,2.773044109344482422e+00,2.787324428558349609e+00,2.781494617462158203e+00,2.824401378631591797e+00,5.000000000000000000e+00,5.000000000000000000e+00,5.000000000000000000e+00,5.000000000000000000e+00,5.000000000000000000e+00,5.000000000000000000e+00,5.000000000000000000e+00,5.000000000000000000e+00,5.000000000000000000e+00,5.000000000000000000e+00,5.000000000000000000e+00,5.000000000000000000e+00,5.000000000000000000e+00,5.000000000000000000e+00,5.000000000000000000e+00,5.000000000000000000e+00,5.000000000000000000e+00,5.000000000000000000e+00,5.000000000000000000e+00,4.859949588775634766e+00,4.669165134429931641e+00,4.492794036865234375e+00,4.329262256622314453e+00,4.177217006683349609e+00,4.035489082336425781e+00,3.903063297271728516e+00,3.779052257537841797e+00,3.662678956985473633e+00,3.553258895874023438e+00,3.450186729431152344e+00,3.352925777435302734e+00,3.260998249053955078e+00,3.173976898193359375e+00,3.091479063034057617e+00,3.013161420822143555e+00,2.938713788986206055e+00,2.867856025695800781e+00,2.800335168838500977e+00,2.735920190811157227e+00,2.674402475357055664e+00,2.615590095520019531e+00,2.559308767318725586e+00,2.505398511886596680e+00,2.453712701797485352e+00,2.404116153717041016e+00,2.356485128402709961e+00,2.310704469680786133e+00,2.266668796539306641e+00,2.224280118942260742e+00,2.183447837829589844e+00,2.144087791442871094e+00,2.106121540069580078e+00,2.069476366043090820e+00,2.034084796905517578e+00,1.999883174896240234e+00,1.966812849044799805e+00,1.934818387031555176e+00,1.903848171234130859e+00,1.873853683471679688e+00,1.844789743423461914e+00
5.000000000000000000e+00,5.000000000000000000e+00,5.000000000000000000e+00,5.000000000000000000e+00,5.000000000000000000e+00,5.000000000000000000e+00,5.000000000000000000e+00,5.000000000000000000e+00,5.000000000000000000e+00,5.000000000000000000e+00,2.851226568222045898e+00,2.717111349105834961e+00,2.689470052719116211e+00,2.680410861968994141e+00,2.693703174591064453e+00,2.719713926315307617e+00,2.758402585983276367e+00,5.000000000000000000e+00,2.793687820434570312e+00,2.824270009994506836e+00,5.000000000000000000e+00,5.000000000000000000e+00,5.000000000000000000e+00,5.000000000000000000e+00,5.000000000000000000e+00,5.000000000000000000e+00,5.000000000000000000e+00,5.000000000000000000e+00,5.000000000000000000e+00,5.000000000000000000e+00,5.000000000000000000e+00,5.000000000000000000e+00,5.000000000000000000e+00,5.000000000000000000e+00,5.000000000000000000e+00,5.000000000000000000e+00,5.000000000000000000e+00,5.000000000000000000e+00,5.000000000000000000e+00,4.860087871551513672e+00,4.669292926788330078e+00,4.492912769317626953e+00,4.329372406005859375e+00,4.177319526672363281e+00,4.035584926605224609e+00,3.903152704238891602e+00,3.779136180877685547e+00,3.662757635116577148e+00,3.553333044052124023e+00,3.450256586074829102e+00,3.352991819381713867e+00,3.261060714721679688e+00,3.174036026000976562e+00,3.091535091400146484e+00,3.013214588165283203e+00,2.938764333724975586e+00,2.867904424667358398e+00,2.800381183624267578e+00,2.735964298248291016e+00,2.674444437026977539e+00,2.615630388259887695e+00,2.559347152709960938e+00,2.505435466766357422e+00,2.453747987747192383e+00,2.404150009155273438e+00,2.356517553329467773e+00,2.310735702514648438e+00,2.266698837280273438e+00,2.224309206008911133e+00,2.183475971221923828e+00,2.144114732742309570e+00,2.106147527694702148e+00,2.069501399993896484e+00,2.034109115600585938e+00,1.999906778335571289e+00,1.966835618019104004e+00,1.934840440750122070e+00,1.903869509696960449e+00,1.873874425888061523e+00,1.844809889793395996e+00
5.000000000000000000e+00,5.000000000000000000e+00,5.000000000000000000e+00,5.000000000000000000e+00,5.000000000000000000e+00,5.000000000000000000e+00,5.000000000000000000e+00,5.000000000000000000e+00,5.000000000000000000e+00,5.000000000000000000e+00,2.862475395202636719e+00,2.738378047943115234e+00,2.699119091033935547e+00,2.693128108978271484e+00,2.701308965682983398e+00,2.719597578048706055e+00,2.754319667816162109e+00,5.000000000000000000e+00,2.790536165237426758e+00,2.814592599868774414e+00,5.000000000000000000e+00,5.000000000000000000e+00,5.000000000000000000e+00,5.000000000000000000e+00,5.000000000000000000e+00,5.000000000000000000e+00,5.000000000000000000e+00,5.000000000000000000e+00,5.000000000000000000e+00,5.000000000000000000e+00,5.000000000000000000e+00,5.000000000000000000e+00,5.000000000000000000e+00,5.000000000000000000e+00,5.000000000000000000e+00,5.000000000000000000e+00,5.000000000000000000e+00,5.000000000000000000e+00,5.000000000000000000e+00,4.860226631164550781e+00,4.669421195983886719e+00,4.493031024932861328e+00,4.329482555389404297e+00,4.177422046661376953e+00,4.035680294036865234e+00,3.903242111206054688e+00,3.779219865798950195e+00,3.662836551666259766e+00,3.553407192230224609e+00,3.450326442718505859e+00,3.353057861328125000e+00,3.261122941970825195e+00,3.174095153808593750e+00,3.091591358184814453e+00,3.013267993927001953e+00,2.938815116882324219e+00,2.867952585220336914e+00,2.800427198410034180e+00,2.736008167266845703e+00,2.674486398696899414e+00,2.615670442581176758e+00,2.559385776519775391e+00,2.505472183227539062e+00,2.453783273696899414e+00,2.404184103012084961e+00,2.356550216674804688e+00,2.310767173767089844e+00,2.266729116439819336e+00,2.224338293075561523e+00,2.183503866195678711e+00,2.144141674041748047e+00,2.106173515319824219e+00,2.069526672363281250e+00,2.034133434295654297e+00,1.999930143356323242e+00,1.966858267784118652e+00,1.934862256050109863e+00,1.903890728950500488e+00,1.873894929885864258e+00,1.844829797744750977e+00
5.000000000000000000e+00,5.000000000000000000e+00,5.000000000000000000e+00,5.000000000000000000e+00,5.000000000000000000e+00,5.000000000000000000e+00,5.000000000000000000e+00,5.000000000000000000e+00,5.000000000000000000e+00,5.000000000000000000e+00,2.816282033920288086e+00,2.738631010055541992e+00,2.705769300460815430e+00,2.700741291046142578e+00,2.704085111618041992e+00,2.719369888305664062e+00,2.756686210632324219e+00,5.000000000000000000e+00,2.783913850784301758e+00,2.815404891967773438e+00,5.000000000000000000e+00,5.000000000000000000e+00,5.000000000000000000e+00,5.000000000000000000e+00,5.000000000000000000e+00,5.000000000000000000e+00,5.000000000000000000e+00,5.000000000000000000e+00,5.000000000000000000e+00,5.000000000000000000e+00,5.000000000000000000e+00,5.000000000000000000e+00,5.000000000000000000e+00,5.000000000000000000e+00,5.000000000000000000e+00,5.000000000000000000e+00,5.000000000000000000e+00,5.000000000000000000e+00,5.000000000000000000e+00,4.860365390777587891e+00,4.669548988342285156e+00,4.493149757385253906e+00,4.329592704772949219e+00,4.177524566650390625e+00,4.035776138305664062e+00,3.903331756591796875e+00,3.779303789138793945e+00,3.662915229797363281e+00,3.553481101989746094e+00,3.450396299362182617e+00,3.353123903274536133e+00,3.261185646057128906e+00,3.174154281616210938e+00,3.091647386550903320e+00,3.013321161270141602e+00,2.938865900039672852e+00,2.868000984191894531e+00,2.800473213195800781e+00,2.736052036285400391e+00,2.674528360366821289e+00,2.615710735321044922e+00,2.559424161911010742e+00,2.505509138107299805e+00,2.453818798065185547e+00,2.404217958450317383e+00,2.356582880020141602e+00,2.310798406600952148e+00,2.266759157180786133e+00,2.224367380142211914e+00,2.183531999588012695e+00,2.144168615341186523e+00,2.106199741363525391e+00,2.069551706314086914e+00,2.034157514572143555e+00,1.999953746795654297e+00,1.966881036758422852e+00,1.934884428977966309e+00,1.903912067413330078e+00,1.873915672302246094e+00,1.844849824905395508e+00
5.000000000000000000e+00,5.000000000000000000e+00,5.000000000000000000e+00,5.000000000000000000e+00,5.000000000000000000e+00,5.000000000000000000e+00,5.000000000000000000e+00,5.000000000000000000e+00,5.000000000000000000e+00,2.783533811569213867e+00,2.805609703063964844e+00,2.757590770721435547e+00,2.725677013397216797e+00,2.655357122421264648e+00,2.657532930374145508e+00,2.704881668090820312e+00,2.753038167953491211e+00,2.829343557357788086e+00,2.779107570648193359e+00,2.824136018753051758e+00,5.000000000000000000e+00,5.000000000000000000e+00,5.000000000000000000e+00,5.000000000000000000e+00,5.000000000000000000e+00,5.000000000000000000e+00,5.000000000000000000e+00,5.000000000000000000e+00,5.000000000000000000e+00,5.000000000000000000e+00,5.000000000000000000e+00,5.000000000000000000e+00,5.000000000000000000e+00,5.000000000000000000e+00,5.000000000000000000e+00,5.000000000000000000e+00,5.000000000000000000e+00,5.000000000000000000e+00,5.000000000000000000e+00,4.860504627227783203e+00,4.669677257537841797e+00,4.493268489837646484e+00,4.329702854156494141e+00,4.177627086639404297e+00,4.035871982574462891e+00,3.903421640396118164e+00,3.779388189315795898e+00,3.662994384765625000e+00,3.553555727005004883e+00,3.450466632843017578e+00,3.353190183639526367e+00,3.261248350143432617e+00,3.174213647842407227e+00,3.091703891754150391e+00,3.013374805450439453e+00,2.938916683197021484e+00,2.868049383163452148e+00,2.800519466400146484e+00,2.736096382141113281e+00,2.674570560455322266e+00,2.615751028060913086e+00,2.559462785720825195e+00,2.505546092987060547e+00,2.453854322433471680e+00,2.404252052307128906e+00,2.356615543365478516e+00,2.310829877853393555e+00,2.266789674758911133e+00,2.224396467208862305e+00,2.183560132980346680e+00,2.144195795059204102e+00,2.106225728988647461e+00,2.069576978683471680e+00,2.034182071685791016e+00,1.999977350234985352e+00,1.966903924942016602e+00,1.934906482696533203e+00,1.903933525085449219e+00,1.873936414718627930e+00,1.844869971275329590e+00
5.000000000000000000e+00,5.000000000000000000e+00,5.000000000000000000e+00,5.000000000000000000e+00,5.000000000000000000e+00,5.000000000000000000e+00,5.000000000000000000e+00,5.000000000000000000e+00,2.748926162719726562e+00,2.774246454238891602e+00,2.818005084991455078e+00,2.767150878906250000e+00,2.624666452407836914e+00,2.629571437835693359e+00,2.643594026565551758e+00,2.688952922821044922e+00,2.749699354171752930e+00,5.000000000000000000e+00,2.768497467041015625e+00,2.810420036315917969e+00,5.000000000000000000e+00,5.000000000000000000e+00,5.000000000000000000e+00,5.000000000000000000e+00,5.000000000000000000e+00,5.000000000000000000e+00,5.000000000000000000e+00,5.000000000000000000e+00,5.000000000000000000e+00,5.000000000000000000e+00,5.000000000000000000e+00,5.000000000000000000e+00,5.000000000000000000e+00,5.000000000000000000e+00,5.000000000000000000e+00,5.000000000000000000e+00,5.000000000000000000e+00,5.000000000000000000e+00,5.000000000000000000e+00,4.860643386840820312e+00,4.669805526733398438e+00,4.493387222290039062e+00,4.329813003540039062e+00,4.177729606628417969e+00,4.035967826843261719e+00,3.903511047363281250e+00,3.779471874237060547e+00,3.663073301315307617e+00,3.553629875183105469e+00,3.450536489486694336e+00,3.353256225585937500e+00,3.261310815811157227e+00,3.174272775650024414e+00,3.091759920120239258e+00,3.013428211212158203e+00,2.938967466354370117e+00,2.868097782135009766e+00,2.800565481185913086e+00,2.736140251159667969e+00,2.674612522125244141e+00,2.615791082382202148e+00,2.559501171112060547e+00,2.505583047866821289e+00,2.453889608383178711e+00,2.404285907745361328e+00,2.356648206710815430e+00,2.310861349105834961e+00,2.266819715499877930e+00,2.224425554275512695e+00,2.183588027954101562e+00,2.144222736358642578e+00,2.106251955032348633e+00,2.069602251052856445e+00,2.034206390380859375e+00,2.000000715255737305e+00,1.966926455497741699e+00,1.934928297996520996e+00,1.903954625129699707e+00,1.873956918716430664e+00,1.844889760017395020e+00
5.000000000000000000e+00,5.000000000000000000e+00,5.000000000000000000e+00,5.000000000000000000e+00,5.000000000000000000e+00,5.000000000000000000e+00,5.000000000000000000e+00,5.000000000000000000e+00,2.730391740798950195e+00,2.802146196365356445e+00,5.000000000000000000e+00,2.766994476318359375e+00,2.607294082641601562e+00,2.613074779510498047e+00,2.642965793609619141e+00,2.688013076782226562e+00,2.753554821014404297e+00,5.000000000000000000e+00,2.777386903762817383e+00,5.000000000000000000e+00,5.000000000000000000e+00,5.000000000000000000e+00,5.000000000000000000e+00,5.000000000000000000e+00,5.000000000000000000e+00,5.000000000000000000e+00,5.000000000000000000e+00,5.000000000000000000e+00,5.000000000000000000e+00,5.000000000000000000e+00,5.000000000000000000e+00,5.000000000000000000e+00,5.000000000000000000e+00,5.000000000000000000e+00,5.000000000000000000e+00,5.000000000000000000e+00,5.000000000000000000e+00,5.000000000000000000e+00,5.000000000000000000e+00,4.860781669616699219e+00,4.669933319091796875e+00,4.493505477905273438e+00,4.329923152923583984e+00,4.177832126617431641e+00,4.036063194274902344e+00,3.903600454330444336e+00,3.779555797576904297e+00,3.663151979446411133e+00,3.553704023361206055e+00,3.450606346130371094e+00,3.353322267532348633e+00,3.261373281478881836e+00,3.174332141876220703e+00,3.091816186904907227e+00,3.013481378555297852e+00,2.939018249511718750e+00,2.868146181106567383e+00,2.800611495971679688e+00,2.736184120178222656e+00,2.674654483795166016e+00,2.615831375122070312e+00,2.559539794921875000e+00,2.505620002746582031e+00,2.453924894332885742e+00,2.404320001602172852e+00,2.356680870056152344e+00,2.310892581939697266e+00,2.266849994659423828e+00,2.224454641342163086e+00,2.183615922927856445e+00,2.144249916076660156e+00,2.106277942657470703e+00,2.069627285003662109e+00,2.034230709075927734e+00,2.000024318695068359e+00,1.966949343681335449e+00,1.934950470924377441e+00,1.903976082801818848e+00,1.873977661132812500e+00,1.844909906387329102e+00
5.000000000000000000e+00,5.000000000000000000e+00,5.000000000000000000e+00,5.000000000000000000e+00,5.000000000000000000e+00,5.000000000000000000e+00,2.681970596313476562e+00,2.678619146347045898e+00,2.768212318420410156e+00,5.000000000000000000e+00,5.000000000000000000e+00,2.585522174835205078e+00,2.591972112655639648e+00,2.605908632278442383e+00,2.646204948425292969e+00,2.697899341583251953e+00,5.000000000000000000e+00,2.763131141662597656e+00,2.761115550994873047e+00,2.807822227478027344e+00,5.000000000000000000e+00,5.000000000000000000e+00,5.000000000000000000e+00,5.000000000000000000e+00,5.000000000000000000e+00,5.000000000000000000e+00,5.000000000000000000e+00,5.000000000000000000e+00,5.000000000000000000e+00,5.000000000000000000e+00,5.000000000000000000e+00,5.000000000000000000e+00,5.000000000000000000e+00,5.000000000000000000e+00,5.000000000000000000e+00,5.000000000000000000e+00,5.000000000000000000e+00,5.000000000000000000e+00,5.000000000000000000e+00,4.860920906066894531e+00,4.670062065124511719e+00,4.493624687194824219e+00,4.330033302307128906e+00,4.177934646606445312e+00,4.036159038543701172e+00,3.903689861297607422e+00,3.779639720916748047e+00,3.663230657577514648e+00,3.553778171539306641e+00,3.450676441192626953e+00,3.353388309478759766e+00,3.261435747146606445e+00,3.174391269683837891e+00,3.091872215270996094e+00,3.013534784317016602e+00,2.939068794250488281e+00,2.868194341659545898e+00,2.800657510757446289e+00,2.736228227615356445e+00,2.674696683883666992e+00,2.615871429443359375e+00,2.559578180313110352e+00,2.505656719207763672e+00,2.453960180282592773e+00,2.404353857040405273e+00,2.356713533401489258e+00,2.310924053192138672e+00,2.266880035400390625e+00,2.224483728408813477e+00,2.183644056320190430e+00,2.144276857376098633e+00,2.106303930282592773e+00,2.069652557373046875e+00,2.034255027770996094e+00,2.000047683715820312e+00,1.966971993446350098e+00,1.934972286224365234e+00,1.903997182846069336e+00,1.873998165130615234e+00,1.844929814338684082e+00
5.000000000000000000e+00,5.000000000000000000e+00,5.000000000000000000e+00,5.000000000000000000e+00,5.000000000000000000e+00,5.000000000000000000e+00,2.690914869308471680e+00,2.754322290420532227e+00,5.000000000000000000e+00,5.000000000000000000e+00,5.000000000000000000e+00,2.567161321640014648e+00,2.575038194656372070e+00,2.609519958496093750e+00,2.654422998428344727e+00,2.906606674194335938e+00,5.000000000000000000e+00,2.754554510116577148e+00,2.769944190979003906e+00,2.806606769561767578e+00,5.000000000000000000e+00,5.000000000000000000e+00,5.000000000000000000e+00,5.000000000000000000e+00,5.000000000000000000e+00,5.000000000000000000e+00,5.000000000000000000e+00,5.000000000000000000e+00,5.000000000000000000e+00,5.000000000000000000e+00,5.000000000000000000e+00,5.000000000000000000e+00,5.000000000000000000e+00,5.000000000000000000e+00,5.000000000000000000e+00,5.000000000000000000e+00,5.000000000000000000e+00,5.000000000000000000e+00,5.000000000000000000e+00,4.861059665679931641e+00,4.670189857482910156e+00,4.493742942810058594e+00,4.330143451690673828e+00,4.178037166595458984e+00,4.036254882812500000e+00,3.903779506683349609e+00,3.779723644256591797e+00,3.663309574127197266e+00,3.553852319717407227e+00,3.450746297836303711e+00,3.353454113006591797e+00,3.261497974395751953e+00,3.174450397491455078e+00,3.091928243637084961e+00,3.013588190078735352e+00,2.939119577407836914e+00,2.868242740631103516e+00,2.800703763961791992e+00,2.736272096633911133e+00,2.674738645553588867e+00,2.615911722183227539e+00,2.559616565704345703e+00,2.505693674087524414e+00,2.453995704650878906e+00,2.404387712478637695e+00,2.356745958328247070e+00,2.310955286026000977e+00,2.266910314559936523e+00,2.224512815475463867e+00,2.183671951293945312e+00,2.144303798675537109e+00,2.106329917907714844e+00,2.069677591323852539e+00,2.034279108047485352e+00,2.000071287155151367e+00,1.966994762420654297e+00,1.934994459152221680e+00,1.904018640518188477e+00,1.874018907546997070e+00,1.844949841499328613e+00
5.000000000000000000e+00,5.000000000000000000e+00,5.000000000000000000e+00,5.000000000000000000e+00,5.000000000000000000e+00,5.000000000000000000e+00,5.000000000000000000e+00,5.000000000000000000e+00,5.000000000000000000e+00,5.000000000000000000e+00,2.579222679138183594e+00,2.549031019210815430e+00,2.573615312576293945e+00,2.614380836486816406e+00,2.664109468460083008e+00,2.906301498413085938e+00,5.000000000000000000e+00,5.000000000000000000e+00,5.000000000000000000e+00,2.809635400772094727e+00,5.000000000000000000e+00,5.000000000000000000e+00,5.000000000000000000e+00,5.000000000000000000e+00,5.000000000000000000e+00,5.000000000000000000e+00,5.000000000000000000e+00,5.000000000000000000e+00,5.000000000000000000e+00,5.000000000000000000e+00,5.000000000000000000e+00,5.000000000000000000e+00,5.000000000000000000e+00,5.000000000000000000e+00,5.000000000000000000e+00,5.000000000000000000e+00,5.000000000000000000e+00,5.000000000000000000e+00,5.000000000000000000e+00,4.861198425292968750e+00,4.670318126678466797e+00,4.493861675262451172e+00,4.330253601074218750e+00,4.178139686584472656e+00,4.036350250244140625e+00,3.903868913650512695e+00,3.779807567596435547e+00,3.663388252258300781e+00,3.553926467895507812e+00,3.450816154479980469e+00,3.353520154953002930e+00,3.261560440063476562e+00,3.174509525299072266e+00,3.091984510421752930e+00,3.013641357421875000e+00,2.939170360565185547e+00,2.868290901184082031e+00,2.800749778747558594e+00,2.736315965652465820e+00,2.674780607223510742e+00,2.615951776504516602e+00,2.559655189514160156e+00,2.505730390548706055e+00,2.454030990600585938e+00,2.404421806335449219e+00,2.356778621673583984e+00,2.310986757278442383e+00,2.266940355300903320e+00,2.224541664123535156e+00,2.183700084686279297e+00,2.144330739974975586e+00,2.106356143951416016e+00,2.069702863693237305e+00,2.034303426742553711e+00,2.000094652175903320e+00,1.967017412185668945e+00,1.935016274452209473e+00,1.904039740562438965e+00,1.874039411544799805e+00,1.844969749450683594e+00
5.000000000000000000e+00,5.000000000000000000e+00,5.000000000000000000e+00,5.000000000000000000e+00,5.000000000000000000e+00,5.000000000000000000e+00,5.000000000000000000e+00,5.000000000000000000e+00,5.000000000000000000e+00,5.000000000000000000e+00,2.523197650909423828e+00,2.540636777877807617e+00,2.579022169113159180e+00,2.623411893844604492e+00,2.845162391662597656e+00,2.905137062072753906e+00,5.000000000000000000e+00,5.000000000000000000e+00,5.000000000000000000e+00,5.000000000000000000e+00,5.000000000000000000e+00,5.000000000000000000e+00,5.000000000000000000e+00,5.000000000000000000e+00,5.000000000000000000e+00,5.000000000000000000e+00,5.000000000000000000e+00,5.000000000000000000e+00,5.000000000000000000e+00,5.000000000000000000e+00,5.000000000000000000e+00,5.000000000000000000e+00,5.000000000000000000e+00,5.000000000000000000e+00,5.000000000000000000e+00,5.000000000000000000e+00,5.000000000000000000e+00,5.000000000000000000e+00,5.000000000000000000e+00,4.861337661743164062e+00,4.670446395874023438e+00,4.493980407714843750e+00,4.330363750457763672e+00,4.178242683410644531e+00,4.036446094512939453e+00,3.903958797454833984e+00,3.779891729354858398e+00,3.663467645645141602e+00,3.554001092910766602e+00,3.450886487960815430e+00,3.353586673736572266e+00,3.261623382568359375e+00,3.174568891525268555e+00,3.092040777206420898e+00,3.013695001602172852e+00,2.939221382141113281e+00,2.868339538574218750e+00,2.800796031951904297e+00,2.736360311508178711e+00,2.674822807312011719e+00,2.615992307662963867e+00,2.559693813323974609e+00,2.505767583847045898e+00,2.454066514968872070e+00,2.404455900192260742e+00,2.356811523437500000e+00,2.311018228530883789e+00,2.266970872879028320e+00,2.224570989608764648e+00,2.183728218078613281e+00,2.144357919692993164e+00,2.106382131576538086e+00,2.069728136062622070e+00,2.034327983856201172e+00,2.000118255615234375e+00,1.967040181159973145e+00,1.935038328170776367e+00,1.904061198234558105e+00,1.874060153961181641e+00,1.844989776611328125e+00
5.000000000000000000e+00,5.000000000000000000e+00,5.000000000000000000e+00,5.000000000000000000e+00,5.000000000000000000e+00,5.000000000000000000e+00,5.000000000000000000e+00,5.000000000000000000e+00,5.000000000000000000e+00,5.000000000000000000e+00,2.519634246826171875e+00,2.541706800460815430e+00,2.583983659744262695e+00,2.826194047927856445e+00,2.846210002899169922e+00,2.900901317596435547e+00,5.000000000000000000e+00,5.000000000000000000e+00,5.000000000000000000e+00,5.000000000000000000e+00,5.000000000000000000e+00,5.000000000000000000e+00,5.000000000000000000e+00,5.000000000000000000e+00,5.000000000000000000e+00,5.000000000000000000e+00,5.000000000000000000e+00,5.000000000000000000e+00,5.000000000000000000e+00,5.000000000000000000e+00,5.000000000000000000e+00,5.000000000000000000e+00,5.000000000000000000e+00,5.000000000000000000e+00,5.000000000000000000e+00,5.000000000000000000e+00,5.000000000000000000e+00,5.000000000000000000e+00,5.000000000000000000e+00,4.861476421356201172e+00,4.670574665069580078e+00,4.494099140167236328e+00,4.330473899841308594e+00,4.178345203399658203e+00,4.036541938781738281e+00,3.904048204421997070e+00,3.779975652694702148e+00,3.663546323776245117e+00,3.554075241088867188e+00,3.450956344604492188e+00,3.353652715682983398e+00,3.261685848236083984e+00,3.174628257751464844e+00,3.092097043991088867e+00,3.013748407363891602e+00,2.939271926879882812e+00,2.868387699127197266e+00,2.800842046737670898e+00,2.736404180526733398e+00,2.674864768981933594e+00,2.616032361984252930e+00,2.559732198715209961e+00,2.505804300308227539e+00,2.454101800918579102e+00,2.404489755630493164e+00,2.356843948364257812e+00,2.311049699783325195e+00,2.267000913619995117e+00,2.224600076675415039e+00,2.183756113052368164e+00,2.144384860992431641e+00,2.106408357620239258e+00,2.069753170013427734e+00,2.034352302551269531e+00,2.000141859054565430e+00,1.967063069343566895e+00,1.935060501098632812e+00,1.904082536697387695e+00,1.874080777168273926e+00,1.845009922981262207e+00
5.000000000000000000e+00,5.000000000000000000e+00,5.000000000000000000e+00,5.000000000000000000e+00,5.000000000000000000e+00,5.000000000000000000e+00,5.000000000000000000e+00,5.000000000000000000e+00,5.000000000000000000e+00,5.000000000000000000e+00,2.527377128601074219e+00,2.544301033020019531e+00,2.581551790237426758e+00,2.836607694625854492e+00,2.852967977523803711e+00,2.904307603836059570e+00,5.000000000000000000e+00,5.000000000000000000e+00,5.000000000000000000e+00,5.000000000000000000e+00,5.000000000000000000e+00,5.000000000000000000e+00,5.000000000000000000e+00,5.000000000000000000e+00,5.000000000000000000e+00,5.000000000000000000e+00,5.000000000000000000e+00,5.000000000000000000e+00,5.000000000000000000e+00,5.000000000000000000e+00,5.000000000000000000e+00,5.000000000000000000e+00,5.000000000000000000e+00,5.000000000000000000e+00,5.000000000000000000e+00,5.000000000000000000e+00,5.000000000000000000e+00,5.000000000000000000e+00,5.000000000000000000e+00,4.861615180969238281e+00,4.670702457427978516e+00,4.494217395782470703e+00,4.330584049224853516e+00,4.178447723388671875e+00,4.036637783050537109e+00,3.904137849807739258e+00,3.780059576034545898e+00,3.663625240325927734e+00,3.554149389266967773e+00,3.451026201248168945e+00,3.353718757629394531e+00,3.261748313903808594e+00,3.174687385559082031e+00,3.092153072357177734e+00,3.013801574707031250e+00,2.939322710037231445e+00,2.868436098098754883e+00,2.800888061523437500e+00,2.736448287963867188e+00,2.674906730651855469e+00,2.616072654724121094e+00,2.559770822525024414e+00,2.505841255187988281e+00,2.454137325286865234e+00,2.404523849487304688e+00,2.356876611709594727e+00,2.311080932617187500e+00,2.267031192779541016e+00,2.224629163742065430e+00,2.183784246444702148e+00,2.144411802291870117e+00,2.106434345245361328e+00,2.069778442382812500e+00,2.034376621246337891e+00,2.000165224075317383e+00,1.967085599899291992e+00,1.935082316398620605e+00,1.904103755950927734e+00,1.874101400375366211e+00,1.845029830932617188e+00
5.000000000000000000e+00,5.000000000000000000e+00,5.000000000000000000e+00,5.000000000000000000e+00,5.000000000000000000e+00,5.000000000000000000e+00,5.000000000000000000e+00,5.000000000000000000e+00,5.000000000000000000e+00,5.000000000000000000e+00,2.550645351409912109e+00,2.551299810409545898e+00,2.574963808059692383e+00,2.851048469543457031e+00,2.859688043594360352e+00,2.898453950881958008e+00,2.987042903900146484e+00,5.000000000000000000e+00,5.000000000000000000e+00,5.000000000000000000e+00,5.000000000000000000e+00,5.000000000000000000e+00,5.000000000000000000e+00,5.000000000000000000e+00,5.000000000000000000e+00,5.000000000000000000e+00,5.000000000000000000e+00,5.000000000000000000e+00,5.000000000000000000e+00,5.000000000000000000e+00,5.000000000000000000e+00,5.000000000000000000e+00,5.000000000000000000e+00,5.000000000000000000e+00,5.000000000000000000e+00,5.000000000000000000e+00,5.000000000000000000e+00,5.000000000000000000e+00,5.000000000000000000e+00,4.861753940582275391e+00,4.670830726623535156e+00,4.494336128234863281e+00,4.330694198608398438e+00,4.178550243377685547e+00,4.036733150482177734e+00,3.904227256774902344e+00,3.780143499374389648e+00,3.663703918457031250e+00,3.554223537445068359e+00,3.451096296310424805e+00,3.353784799575805664e+00,3.261810779571533203e+00,3.174746513366699219e+00,3.092209339141845703e+00,3.013854980468750000e+00,2.939373493194580078e+00,2.868484497070312500e+00,2.800934076309204102e+00,2.736492156982421875e+00,2.674948930740356445e+00,2.616112709045410156e+00,2.559809207916259766e+00,2.505878210067749023e+00,2.454172611236572266e+00,2.404557704925537109e+00,2.356909275054931641e+00,2.311112403869628906e+00,2.267061233520507812e+00,2.224658250808715820e+00,2.183812141418457031e+00,2.144438982009887695e+00,2.106460332870483398e+00,2.069803476333618164e+00,2.034400939941406250e+00,2.000188827514648438e+00,1.967108488082885742e+00,1.935104489326477051e+00,1.904125094413757324e+00,1.874122023582458496e+00,1.845049858093261719e+00
5.000000000000000000e+00,5.000000000000000000e+00,5.000000000000000000e+00,5.000000000000000000e+00,5.000000000000000000e+00,5.000000000000000000e+00,5.000000000000000000e+00,5.000000000000000000e+00,5.000000000000000000e+00,5.000000000000000000e+00,5.000000000000000000e+00,2.557206392288208008e+00,2.576711416244506836e+00,2.625871181488037109e+00,2.893324375152587891e+00,2.921374082565307617e+00,2.972551584243774414e+00,3.053499221801757812e+00,5.000000000000000000e+00,5.000000000000000000e+00,5.000000000000000000e+00,5.000000000000000000e+00,5.000000000000000000e+00,5.000000000000000000e+00,5.000000000000000000e+00,5.000000000000000000e+00,5.000000000000000000e+00,5.000000000000000000e+00,5.000000000000000000e+00,5.000000000000000000e+00,5.000000000000000000e+00,5.000000000000000000e+00,5.000000000000000000e+00,5.000000000000000000e+00,5.000000000000000000e+00,5.000000000000000000e+00,5.000000000000000000e+00,5.000000000000000000e+00,5.000000000000000000e+00,4.861891746520996094e+00,4.670958995819091797e+00,4.494454860687255859e+00,4.330804347991943359e+00,4.178652763366699219e+00,4.036828994750976562e+00,3.904316663742065430e+00,3.780227422714233398e+00,3.663782835006713867e+00,3.554297685623168945e+00,3.451166152954101562e+00,3.353850841522216797e+00,3.261873245239257812e+00,3.174805641174316406e+00,3.092265367507934570e+00,3.013908386230468750e+00,2.939424276351928711e+00,2.868532657623291016e+00,2.800980329513549805e+00,2.736536026000976562e+00,2.674990892410278320e+00,2.616153001785278320e+00,2.559847593307495117e+00,2.505914926528930664e+00,2.454207897186279297e+00,2.404591560363769531e+00,2.356941938400268555e+00,2.311143636703491211e+00,2.267091512680053711e+00,2.224687099456787109e+00,2.183840036392211914e+00,2.144465923309326172e+00,2.106486320495605469e+00,2.069828510284423828e+00,2.034425020217895508e+00,2.000212192535400391e+00,1.967131018638610840e+00,1.935126304626464844e+00,1.904146313667297363e+00,1.874142646789550781e+00,1.845069766044616699e+00
5.000000000000000000e+00,5.000000000000000000e+00,5.000000000000000000e+00,5.000000000000000000e+00,5.000000000000000000e+00,5.000000000000000000e+00,5.000000000000000000e+00,5.000000000000000000e+00,5.000000000000000000e+00,5.000000000000000000e+00,5.000000000000000000e+00,2.554521083831787109e+00,2.578805208206176758e+00,2.631952762603759766e+00,5.000000000000000000e+00,2.971672773361206055e+00,2.986535549163818359e+00,3.031014204025268555e+00,5.000000000000000000e+00,5.000000000000000000e+00,5.000000000000000000e+00,5.000000000000000000e+00,5.000000000000000000e+00,5.000000000000000000e+00,5.000000000000000000e+00,5.000000000000000000e+00,5.000000000000000000e+00,5.000000000000000000e+00,5.000000000000000000e+00,5.000000000000000000e+00,5.000000000000000000e+00,5.000000000000000000e+00,5.000000000000000000e+00,5.000000000000000000e+00,5.000000000000000000e+00,5.000000000000000000e+00,5.000000000000000000e+00,5.000000000000000000e+00,5.000000000000000000e+00,4.862029552459716797e+00,4.671086311340332031e+00,4.494573593139648438e+00,4.330914497375488281e+00,4.178755283355712891e+00,4.036924839019775391e+00,3.904406309127807617e+00,3.780311346054077148e+00,3.663861513137817383e+00,3.554371833801269531e+00,3.451236009597778320e+00,3.353916883468627930e+00,3.261935710906982422e+00,3.174864768981933594e+00,3.092321634292602539e+00,3.013961553573608398e+00,2.939474821090698242e+00,2.868581056594848633e+00,2.801026344299316406e+00,2.736580133438110352e+00,2.675032854080200195e+00,2.616193056106567383e+00,2.559886217117309570e+00,2.505951881408691406e+00,2.454243421554565430e+00,2.404625654220581055e+00,2.356974601745605469e+00,2.311175107955932617e+00,2.267121553421020508e+00,2.224716186523437500e+00,2.183868169784545898e+00,2.144492864608764648e+00,2.106512546539306641e+00,2.069853782653808594e+00,2.034449338912963867e+00,2.000235795974731445e+00,1.967153906822204590e+00,1.935148358345031738e+00,1.904167771339416504e+00,1.874163269996643066e+00,1.845089793205261230e+00
5.000000000000000000e+00,5.000000000000000000e+00,5.000000000000000000e+00,5.000000000000000000e+00,5.000000000000000000e+00,5.000000000000000000e+00,5.000000000000000000e+00,5.000000000000000000e+00,5.000000000000000000e+00,5.000000000000000000e+00,2.588738203048706055e+00,2.554868936538696289e+00,2.580881118774414062e+00,2.636661767959594727e+00,5.000000000000000000e+00,5.000000000000000000e+00,3.018030881881713867e+00,3.040418624877929688e+00,3.111283063888549805e+00,5.000000000000000000e+00,5.000000000000000000e+00,5.000000000000000000e+00,5.000000000000000000e+00,5.000000000000000000e+00,5.000000000000000000e+00,5.000000000000000000e+00,5.000000000000000000e+00,5.000000000000000000e+00,5.000000000000000000e+00,5.000000000000000000e+00,5.000000000000000000e+00,5.000000000000000000e+00,5.000000000000000000e+00,5.000000000000000000e+00,5.000000000000000000e+00,5.000000000000000000e+00,5.000000000000000000e+00,5.000000000000000000e+00,5.000000000000000000e+00,4.862167835235595703e+00,4.671213626861572266e+00,4.494692325592041016e+00,4.331024646759033203e+00,4.178857803344726562e+00,4.037020683288574219e+00,3.904495716094970703e+00,3.780395269393920898e+00,3.663940429687500000e+00,3.554445981979370117e+00,3.451305866241455078e+00,3.353982925415039062e+00,3.261998176574707031e+00,3.174924135208129883e+00,3.092377662658691406e+00,3.014014959335327148e+00,2.939525604248046875e+00,2.868629455566406250e+00,2.801072359085083008e+00,2.736624002456665039e+00,2.675074815750122070e+00,2.616233348846435547e+00,2.559924602508544922e+00,2.505988836288452148e+00,2.454278707504272461e+00,2.404659509658813477e+00,2.357007026672363281e+00,2.311206340789794922e+00,2.267151832580566406e+00,2.224745273590087891e+00,2.183896064758300781e+00,2.144519805908203125e+00,2.106538534164428711e+00,2.069879055023193359e+00,2.034473657608032227e+00,2.000259160995483398e+00,1.967176556587219238e+00,1.935170292854309082e+00,1.904188871383666992e+00,1.874183773994445801e+00,1.845109701156616211e+00
5.000000000000000000e+00,5.000000000000000000e+00,5.000000000000000000e+00,5.000000000000000000e+00,5.000000000000000000e+00,5.000000000000000000e+00,5.000000000000000000e+00,5.000000000000000000e+00,5.000000000000000000e+00,5.000000000000000000e+00,2.571157693862915039e+00,2.556960344314575195e+00,2.583129644393920898e+00,5.000000000000000000e+00,5.000000000000000000e+00,5.000000000000000000e+00,5.000000000000000000e+00,3.063962936401367188e+00,3.103951215744018555e+00,5.000000000000000000e+00,5.000000000000000000e+00,5.000000000000000000e+00,5.000000000000000000e+00,5.000000000000000000e+00,5.000000000000000000e+00,5.000000000000000000e+00,5.000000000000000000e+00,5.000000000000000000e+00,5.000000000000000000e+00,5.000000000000000000e+00,5.000000000000000000e+00,5.000000000000000000e+00,5.000000000000000000e+00,5.000000000000000000e+00,5.000000000000000000e+00,5.000000000000000000e+00,5.000000000000000000e+00,5.000000000000000000e+00,5.000000000000000000e+00,4.862306594848632812e+00,4.671341419219970703e+00,4.494809627532958984e+00,4.331135272979736328e+00,4.178960800170898438e+00,4.037116527557373047e+00,3.904585838317871094e+00,3.780479431152343750e+00,3.664019584655761719e+00,3.554520606994628906e+00,3.451376199722290039e+00,3.354049205780029297e+00,3.262060880661010742e+00,3.174983501434326172e+00,3.092434167861938477e+00,3.014068603515625000e+00,2.939576625823974609e+00,2.868677854537963867e+00,2.801118612289428711e+00,2.736668348312377930e+00,2.675117015838623047e+00,2.616273641586303711e+00,2.559963226318359375e+00,2.506025791168212891e+00,2.454314231872558594e+00,2.404693603515625000e+00,2.357039928436279297e+00,2.311237812042236328e+00,2.267182111740112305e+00,2.224774599075317383e+00,2.183924198150634766e+00,2.144546985626220703e+00,2.106564760208129883e+00,2.069904327392578125e+00,2.034498214721679688e+00,2.000282764434814453e+00,1.967199325561523438e+00,1.935192346572875977e+00,1.904210329055786133e+00,1.874204516410827637e+00,1.845129847526550293e+00
5.000000000000000000e+00,5.000000000000000000e+00,5.000000000000000000e+00,5.000000000000000000e+00,5.000000000000000000e+00,5.000000000000000000e+00,5.000000000000000000e+00,5.000000000000000000e+00,5.000000000000000000e+00,5.000000000000000000e+00,2.558757781982421875e+00,2.560266256332397461e+00,2.586229801177978516e+00,5.000000000000000000e+00,5.000000000000000000e+00,5.000000000000000000e+00,5.000000000000000000e+00,5.000000000000000000e+00,3.117649078369140625e+00,3.194802284240722656e+00,5.000000000000000000e+00,5.000000000000000000e+00,5.000000000000000000e+00,5.000000000000000000e+00,5.000000000000000000e+00,5.000000000000000000e+00,5.000000000000000000e+00,5.000000000000000000e+00,5.000000000000000000e+00,5.000000000000000000e+00,5.000000000000000000e+00,5.000000000000000000e+00,5.000000000000000000e+00,5.000000000000000000e+00,5.000000000000000000e+00,5.000000000000000000e+00,5.000000000000000000e+00,5.000000000000000000e+00,5.000000000000000000e+00,4.862444400787353516e+00,4.671469211578369141e+00,4.494927883148193359e+00,4.331244468688964844e+00,4.179063320159912109e+00,4.037212371826171875e+00,3.904675245285034180e+00,3.780563354492187500e+00,3.664098501205444336e+00,3.554594755172729492e+00,3.451446294784545898e+00,3.354115247726440430e+00,3.262123346328735352e+00,3.175042629241943359e+00,3.092490196228027344e+00,3.014122009277343750e+00,2.939627408981323242e+00,2.868726253509521484e+00,2.801164627075195312e+00,2.736712217330932617e+00,2.675159215927124023e+00,2.616313934326171875e+00,2.560001850128173828e+00,2.506062746047973633e+00,2.454349517822265625e+00,2.404727697372436523e+00,2.357072591781616211e+00,2.311269283294677734e+00,2.267212390899658203e+00,2.224803686141967773e+00,2.183952331542968750e+00,2.144573926925659180e+00,2.106590747833251953e+00,2.069929361343383789e+00,2.034522533416748047e+00,2.000306367874145508e+00,1.967222213745117188e+00,1.935214519500732422e+00,1.904231667518615723e+00,1.874225258827209473e+00,1.845149874687194824e+00
5.000000000000000000e+00,5.000000000000000000e+00,5.000000000000000000e+00,5.000000000000000000e+00,5.000000000000000000e+00,5.000000000000000000e+00,5.000000000000000000e+00,5.000000000000000000e+00,5.000000000000000000e+00,5.000000000000000000e+00,2.553986072540283203e+00,2.563637018203735352e+00,2.589480400085449219e+00,5.000000000000000000e+00,5.000000000000000000e+00,5.000000000000000000e+00,5.000000000000000000e+00,5.000000000000000000e+00,5.000000000000000000e+00,3.180696010589599609e+00,5.000000000000000000e+00,5.000000000000000000e+00,5.000000000000000000e+00,5.000000000000000000e+00,5.000000000000000000e+00,5.000000000000000000e+00,5.000000000000000000e+00,5.000000000000000000e+00,5.000000000000000000e+00,5.000000000000000000e+00,5.000000000000000000e+00,5.000000000000000000e+00,5.000000000000000000e+00,5.000000000000000000e+00,5.000000000000000000e+00,5.000000000000000000e+00,5.000000000000000000e+00,5.000000000000000000e+00,5.000000000000000000e+00,4.862583160400390625e+00,4.671596527099609375e+00,4.495046138763427734e+00,4.331354141235351562e+00,4.179164886474609375e+00,4.037307739257812500e+00,3.904764652252197266e+00,3.780647277832031250e+00,3.664177179336547852e+00,3.554668903350830078e+00,3.451516151428222656e+00,3.354181289672851562e+00,3.262185811996459961e+00,3.175101995468139648e+00,3.092546463012695312e+00,3.014175176620483398e+00,2.939678192138671875e+00,2.868774652481079102e+00,2.801210880279541016e+00,2.736756086349487305e+00,2.675201177597045898e+00,2.616353988647460938e+00,2.560040235519409180e+00,2.506099462509155273e+00,2.454385042190551758e+00,2.404761552810668945e+00,2.357105016708374023e+00,2.311300754547119141e+00,2.267242431640625000e+00,2.224832534790039062e+00,2.183980226516723633e+00,2.144601106643676758e+00,2.106616735458374023e+00,2.069954633712768555e+00,2.034546852111816406e+00,2.000329732894897461e+00,1.967244744300842285e+00,1.935236334800720215e+00,1.904252886772155762e+00,1.874245762825012207e+00,1.845169782638549805e+00
4.875435829162597656e+00,4.874224662780761719e+00,4.873013973236083984e+00,4.871804237365722656e+00,4.870594978332519531e+00,4.869386196136474609e+00,4.868178367614746094e+00,4.866970539093017578e+00,4.865764141082763672e+00,4.864557743072509766e+00,2.559643983840942383e+00,2.576792955398559570e+00,2.597829341888427734e+00,4.859738349914550781e+00,4.858535289764404297e+00,4.857332706451416016e+00,4.856130599975585938e+00,4.854928970336914062e+00,3.155725240707397461e+00,3.179403543472290039e+00,4.851328372955322266e+00,4.850129127502441406e+00,4.848930835723876953e+00,4.847732543945312500e+00,4.846535205841064453e+00,4.845338344573974609e+00,4.844141960144042969e+00,4.842946529388427734e+00,4.841751575469970703e+00,4.840557098388671875e+00,4.839363574981689453e+00,4.838170051574707031e+00,4.836977481842041016e+00,4.835785388946533203e+00,4.834594249725341797e+00,4.833403110504150391e+00,4.832212924957275391e+00,4.831023216247558594e+00,4.829833984375000000e+00,4.828645706176757812e+00,4.671724319458007812e+00,4.495164394378662109e+00,4.331463813781738281e+00,4.179266929626464844e+00,4.037404060363769531e+00,3.904854297637939453e+00,3.780731201171875000e+00,3.664256095886230469e+00,3.554743051528930664e+00,3.451586008071899414e+00,3.354247331619262695e+00,3.262248277664184570e+00,3.175161123275756836e+00,3.092602491378784180e+00,3.014228582382202148e+00,2.939728975296020508e+00,2.868822813034057617e+00,2.801256895065307617e+00,2.736800193786621094e+00,2.675243139266967773e+00,2.616394281387329102e+00,2.560078620910644531e+00,2.506136417388916016e+00,2.454420328140258789e+00,2.404795646667480469e+00,2.357137680053710938e+00,2.311331987380981445e+00,2.267272710800170898e+00,2.224861621856689453e+00,2.184008359909057617e+00,2.144628047943115234e+00,2.106642961502075195e+00,2.069979667663574219e+00,2.034571170806884766e+00,2.000353336334228516e+00,1.967267632484436035e+00,1.935258507728576660e+00,1.904274225234985352e+00,1.874266505241394043e+00,1.845189929008483887e+00
3.778239011764526367e+00,3.777511835098266602e+00,3.776784658432006836e+00,3.776057958602905273e+00,3.775331258773803711e+00,3.774605035781860352e+00,3.773879051208496094e+00,3.773153543472290039e+00,3.772428035736083984e+00,3.771703004837036133e+00,2.547881603240966797e+00,2.571145057678222656e+00,2.630366563796997070e+00,3.768805265426635742e+00,3.768081665039062500e+00,3.767358064651489258e+00,3.766634941101074219e+00,3.765912055969238281e+00,3.110329389572143555e+00,3.764467239379882812e+00,3.763745069503784180e+00,3.763023376464843750e+00,3.762301921844482422e+00,3.761580705642700195e+00,3.760859727859497070e+00,3.760138988494873047e+00,3.759418725967407227e+00,3.758698463439941406e+00,3.757978677749633789e+00,3.757259130477905273e+00,3.756539821624755859e+00,3.755820751190185547e+00,3.755101680755615234e+00,3.754383087158203125e+00,3.753664970397949219e+00,3.752947092056274414e+00,3.752229452133178711e+00,3.751512050628662109e+00,3.750794887542724609e+00,3.750078201293945312e+00,3.749361515045166016e+00,3.748645305633544922e+00,3.747929334640502930e+00,3.747213602066040039e+00,3.746498107910156250e+00,3.745782852172851562e+00,3.745068073272705078e+00,3.664334774017333984e+00,3.554817199707031250e+00,3.451656103134155273e+00,3.354313373565673828e+00,3.262310743331909180e+00,3.175220251083374023e+00,3.092658758163452148e+00,3.014281988143920898e+00,2.939779520034790039e+00,2.868871212005615234e+00,2.801302909851074219e+00,2.736844062805175781e+00,2.675285100936889648e+00,2.616434574127197266e+00,2.560117244720458984e+00,2.506173372268676758e+00,2.454455614089965820e+00,2.404829502105712891e+00,2.357170343399047852e+00,2.311363458633422852e+00,2.267302751541137695e+00,2.224890708923339844e+00,2.184036254882812500e+00,2.144654989242553711e+00,2.106668949127197266e+00,2.070004940032958984e+00,2.034595251083374023e+00,2.000376939773559570e+00,1.967290282249450684e+00,1.935280323028564453e+00,1.904295444488525391e+00,1.874287009239196777e+00,1.845209836959838867e+00
3.084161281585693359e+00,3.083676576614379883e+00,3.083192110061645508e+00,3.082707643508911133e+00,3.082223653793334961e+00,3.081739425659179688e+00,3.081255674362182617e+00,2.466873168945312500e+00,2.488982677459716797e+00,2.493031263351440430e+00,2.517409324645996094e+00,2.561219215393066406e+00,2.620259284973144531e+00,3.077872514724731445e+00,3.077389717102050781e+00,3.076907157897949219e+00,3.076424837112426758e+00,3.075942516326904297e+00,3.075460433959960938e+00,3.074978351593017578e+00,3.074496746063232422e+00,3.074014902114868164e+00,3.073533535003662109e+00,3.073052167892456055e+00,3.072571039199829102e+00,3.072089910507202148e+00,3.071609020233154297e+00,3.071128368377685547e+00,3.070647716522216797e+00,3.070167303085327148e+00,3.069686889648437500e+00,3.069206714630126953e+00,3.068726778030395508e+00,3.068247079849243164e+00,3.067767381668090820e+00,3.067287683486938477e+00,3.066808462142944336e+00,3.066329240798950195e+00,3.065850019454956055e+00,3.065371274948120117e+00,3.064892053604125977e+00,3.064413547515869141e+00,3.063935041427612305e+00,3.063456773757934570e+00,3.062978506088256836e+00,3.062500476837158203e+00,3.062022447586059570e+00,3.061544895172119141e+00,3.061067104339599609e+00,3.060589790344238281e+00,3.060112476348876953e+00,3.059635400772094727e+00,3.059158325195312500e+00,3.058681488037109375e+00,3.014335155487060547e+00,2.939830303192138672e+00,2.868919610977172852e+00,2.801348924636840820e+00,2.736888170242309570e+00,2.675327301025390625e+00,2.616474628448486328e+00,2.560155630111694336e+00,2.506210088729858398e+00,2.454491138458251953e+00,2.404863357543945312e+00,2.357203006744384766e+00,2.311394691467285156e+00,2.267333030700683594e+00,2.224919795989990234e+00,2.184064388275146484e+00,2.144682168960571289e+00,2.106694936752319336e+00,2.070029973983764648e+00,2.034619569778442383e+00,2.000400304794311523e+00,1.967313051223754883e+00,1.935302376747131348e+00,1.904316902160644531e+00,1.874307751655578613e+00,1.845229864120483398e+00
2.605517148971557617e+00,2.605171442031860352e+00,2.604825496673583984e+00,2.604479789733886719e+00,2.604134082794189453e+00,2.603788614273071289e+00,2.603443145751953125e+00,2.603097677230834961e+00,2.602752447128295898e+00,2.602407217025756836e+00,2.602062225341796875e+00,2.601717233657836914e+00,2.601372241973876953e+00,2.601027488708496094e+00,2.600682735443115234e+00,2.600337982177734375e+00,2.599993467330932617e+00,2.599648952484130859e+00,2.599304676055908203e+00,2.598960399627685547e+00,2.598616123199462891e+00,2.598272085189819336e+00,2.597928047180175781e+00,2.597584247589111328e+00,2.597240447998046875e+00,2.596896648406982422e+00,2.596553087234497070e+00,2.596209526062011719e+00,2.595865964889526367e+00,2.595522642135620117e+00,2.595179319381713867e+00,2.594836235046386719e+00,2.594493150711059570e+00,2.594150066375732422e+00,2.593807220458984375e+00,2.593464374542236328e+00,2.593121767044067383e+00,2.592778921127319336e+00,2.592436552047729492e+00,2.592093944549560547e+00,2.591751575469970703e+00,2.591409444808959961e+00,2.591067075729370117e+00,2.590725183486938477e+00,2.590383052825927734e+00,2.590041160583496094e+00,2.589699268341064453e+00,2.589357614517211914e+00,2.589015722274780273e+00,2.588674306869506836e+00,2.588332653045654297e+00,2.587991476058959961e+00,2.587650060653686523e+00,2.587308883666992188e+00,2.586967945098876953e+00,2.586626768112182617e+00,2.586285829544067383e+00,2.585945129394531250e+00,2.585604429244995117e+00,2.585263729095458984e+00,2.584923028945922852e+00,2.560194253921508789e+00,2.506247043609619141e+00,2.454526424407958984e+00,2.404897451400756836e+00,2.357235670089721680e+00,2.311426162719726562e+00,2.267363309860229492e+00,2.224948883056640625e+00,2.184092283248901367e+00,2.144709110260009766e+00,2.106721162796020508e+00,2.070055246353149414e+00,2.034643888473510742e+00,2.000423908233642578e+00,1.967335700988769531e+00,1.935324311256408691e+00,1.904338002204895020e+00,1.874328255653381348e+00,1.845249772071838379e+00
2.255496025085449219e+00,2.255235910415649414e+00,2.254976034164428711e+00,2.254716396331787109e+00,2.254456520080566406e+00,2.254196882247924805e+00,2.253937244415283203e+00,2.253677606582641602e+00,2.253418207168579102e+00,2.253158569335937500e+00,2.252899408340454102e+00,2.252640008926391602e+00,2.252380609512329102e+00,2.252121448516845703e+00,2.251862287521362305e+00,2.251603126525878906e+00,2.251343965530395508e+00,2.251085042953491211e+00,2.250826120376586914e+00,2.250567436218261719e+00,2.250308513641357422e+00,2.250049829483032227e+00,2.249791145324707031e+00,2.249532699584960938e+00,2.249274969100952148e+00,2.249017000198364258e+00,2.248759269714355469e+00,2.248501777648925781e+00,2.248244047164916992e+00,2.247986555099487305e+00,2.247729063034057617e+00,2.247471570968627930e+00,2.247214078903198242e+00,2.246956825256347656e+00,2.246699571609497070e+00,2.246442317962646484e+00,2.246185302734375000e+00,2.245928049087524414e+00,2.245671033859252930e+00,2.245414018630981445e+00,2.245157241821289062e+00,2.244900226593017578e+00,2.244643449783325195e+00,2.244386672973632812e+00,2.244130134582519531e+00,2.243873357772827148e+00,2.243616819381713867e+00,2.243360280990600586e+00,2.243103981018066406e+00,2.242847442626953125e+00,2.242591142654418945e+00,2.242334842681884766e+00,2.242078781127929688e+00,2.241822481155395508e+00,2.241566419601440430e+00,2.241310358047485352e+00,2.241054296493530273e+00,2.240798473358154297e+00,2.240542650222778320e+00,2.240286827087402344e+00,2.240031003952026367e+00,2.239775419235229492e+00,2.239519596099853516e+00,2.239264249801635742e+00,2.239008665084838867e+00,2.238753080368041992e+00,2.238497734069824219e+00,2.238242387771606445e+00,2.224978208541870117e+00,2.184120416641235352e+00,2.144736289978027344e+00,2.106747150421142578e+00,2.070080518722534180e+00,2.034668445587158203e+00,2.000447511672973633e+00,1.967358469963073730e+00,1.935346364974975586e+00,1.904359459877014160e+00,1.874348998069763184e+00,1.845269799232482910e+00
1.988411426544189453e+00,1.988209486007690430e+00,1.988007426261901855e+00,1.987805485725402832e+00,1.987603664398193359e+00,1.987401723861694336e+00,1.987199902534484863e+00,1.986998200416564941e+00,1.986796379089355469e+00,1.986594796180725098e+00,1.986393213272094727e+00,1.986191391944885254e+00,1.985989928245544434e+00,1.985788226127624512e+00,1.985586881637573242e+00,1.985385537147521973e+00,1.985183954238891602e+00,1.984982609748840332e+00,1.984781384468078613e+00,1.984579920768737793e+00,1.984378814697265625e+00,1.984177589416503906e+00,1.983976364135742188e+00,1.983775258064270020e+00,1.983574032783508301e+00,1.983373045921325684e+00,1.983172178268432617e+00,1.982971072196960449e+00,1.982770204544067383e+00,1.982569456100463867e+00,1.982368469238281250e+00,1.982167720794677734e+00,1.981967091560363770e+00,1.981766223907470703e+00,1.981565594673156738e+00,1.981364846229553223e+00,1.981164336204528809e+00,1.980963826179504395e+00,1.980763077735900879e+00,1.980562686920166016e+00,1.980362415313720703e+00,1.980161905288696289e+00,1.979961514472961426e+00,1.979761362075805664e+00,1.979560971260070801e+00,1.979360699653625488e+00,1.979160428047180176e+00,1.978960394859313965e+00,1.978760361671447754e+00,1.978560090065002441e+00,1.978360176086425781e+00,1.978160262107849121e+00,1.977960109710693359e+00,1.977760314941406250e+00,1.977560281753540039e+00,1.977360486984252930e+00,1.977160811424255371e+00,1.976960897445678711e+00,1.976761341094970703e+00,1.976561665534973145e+00,1.976361870765686035e+00,1.976162433624267578e+00,1.975962996482849121e+00,1.975763320922851562e+00,1.975563883781433105e+00,1.975364327430725098e+00,1.975165009498596191e+00,1.974965810775756836e+00,1.974766373634338379e+00,1.974567174911499023e+00,1.974367976188659668e+00,1.974168658256530762e+00,1.973969578742980957e+00,1.973770618438720703e+00,1.973571300506591797e+00,1.967381358146667480e+00,1.935368537902832031e+00,1.904380798339843750e+00,1.874369740486145020e+00,1.845289945602416992e+00
1.777883410453796387e+00,1.777722001075744629e+00,1.777560353279113770e+00,1.777399063110351562e+00,1.777237653732299805e+00,1.777076125144958496e+00,1.776914834976196289e+00,1.776753544807434082e+00,1.776592135429382324e+00,1.776430964469909668e+00,1.776269793510437012e+00,1.776108384132385254e+00,1.775947332382202148e+00,1.775786042213439941e+00,1.775624990463256836e+00,1.775463938713073730e+00,1.775302767753601074e+00,1.775141716003417969e+00,1.774980783462524414e+00,1.774819731712341309e+00,1.774658799171447754e+00,1.774497985839843750e+00,1.774336934089660645e+00,1.774176120758056641e+00,1.774015188217163086e+00,1.773854374885559082e+00,1.773693680763244629e+00,1.773532867431640625e+00,1.773372173309326172e+00,1.773211479187011719e+00,1.773050785064697266e+00,1.772890210151672363e+00,1.772729635238647461e+00,1.772568941116333008e+00,1.772408485412597656e+00,1.772247791290283203e+00,1.772087335586547852e+00,1.771926999092102051e+00,1.771766424179077148e+00,1.771606087684631348e+00,1.771445751190185547e+00,1.771285295486450195e+00,1.771125078201293945e+00,1.770964860916137695e+00,1.770804405212402344e+00,1.770644307136535645e+00,1.770483970642089844e+00,1.770323872566223145e+00,1.770163774490356445e+00,1.770003557205200195e+00,1.769843578338623047e+00,1.769683480262756348e+00,1.769523382186889648e+00,1.769363403320312500e+00,1.769203305244445801e+00,1.769043445587158203e+00,1.768883585929870605e+00,1.768723607063293457e+00,1.768563866615295410e+00,1.768404126167297363e+00,1.768244147300720215e+00,1.768084526062011719e+00,1.767924785614013672e+00,1.767764925956726074e+00,1.767605304718017578e+00,1.767445564270019531e+00,1.767286062240600586e+00,1.767126441001892090e+00,1.766966819763183594e+00,1.766807317733764648e+00,1.766647934913635254e+00,1.766488313674926758e+00,1.766328930854797363e+00,1.766169548034667969e+00,1.766010046005249023e+00,1.765850782394409180e+00,1.765691280364990234e+00,1.765532016754150391e+00,1.765372872352600098e+00,1.765213489532470703e+00
1.607667684555053711e+00,1.607535600662231445e+00,1.607403516769409180e+00,1.607271552085876465e+00,1.607139587402343750e+00,1.607007503509521484e+00,1.606875658035278320e+00,1.606743693351745605e+00,1.606611728668212891e+00,1.606479883193969727e+00,1.606348037719726562e+00,1.606216073036193848e+00,1.606084346771240234e+00,1.605952382087707520e+00,1.605820655822753906e+00,1.605688929557800293e+00,1.605557084083557129e+00,1.605425477027893066e+00,1.605293869972229004e+00,1.605162024497985840e+00,1.605030417442321777e+00,1.604898810386657715e+00,1.604767203330993652e+00,1.604635596275329590e+00,1.604503989219665527e+00,1.604372501373291016e+00,1.604241013526916504e+00,1.604109406471252441e+00,1.603977918624877930e+00,1.603846549987792969e+00,1.603714942932128906e+00,1.603583574295043945e+00,1.603452324867248535e+00,1.603320837020874023e+00,1.603189468383789062e+00,1.603058099746704102e+00,1.602926850318908691e+00,1.602795600891113281e+00,1.602664232254028320e+00,1.602532982826232910e+00,1.602401852607727051e+00,1.602270483970642090e+00,1.602139472961425781e+00,1.602008342742919922e+00,1.601877093315124512e+00,1.601745963096618652e+00,1.601614832878112793e+00,1.601483821868896484e+00,1.601352810859680176e+00,1.601221680641174316e+00,1.601090669631958008e+00,1.600959777832031250e+00,1.600828766822814941e+00,1.600697875022888184e+00,1.600566744804382324e+00,1.600435972213745117e+00,1.600305080413818359e+00,1.600174188613891602e+00,1.600043416023254395e+00,1.599912524223327637e+00,1.599781632423400879e+00,1.599650979042053223e+00,1.599520206451416016e+00,1.599389433860778809e+00,1.599258780479431152e+00,1.599128007888793945e+00,1.598997354507446289e+00,1.598866820335388184e+00,1.598736047744750977e+00,1.598605513572692871e+00,1.598474979400634766e+00,1.598344326019287109e+00,1.598213791847229004e+00,1.598083376884460449e+00,1.597952723503112793e+00,1.597822308540344238e+00,1.597691774368286133e+00,1.597561478614807129e+00,1.597431063652038574e+00,1.597300529479980469e+00
1.467197179794311523e+00,1.467087268829345703e+00,1.466977119445800781e+00,1.466867208480834961e+00,1.466757297515869141e+00,1.466647267341613770e+00,1.466537475585937500e+00,1.466427564620971680e+00,1.466317653656005859e+00,1.466207742691040039e+00,1.466097950935363770e+00,1.465988039970397949e+00,1.465878248214721680e+00,1.465768456459045410e+00,1.465658664703369141e+00,1.465548992156982422e+00,1.465439081192016602e+00,1.465329408645629883e+00,1.465219736099243164e+00,1.465109944343566895e+00,1.465000391006469727e+00,1.464890718460083008e+00,1.464780926704406738e+00,1.464671373367309570e+00,1.464561700820922852e+00,1.464452147483825684e+00,1.464342594146728516e+00,1.464232921600341797e+00,1.464123368263244629e+00,1.464013934135437012e+00,1.463904261589050293e+00,1.463794827461242676e+00,1.463685393333435059e+00,1.463575839996337891e+00,1.463466405868530273e+00,1.463356971740722656e+00,1.463247537612915039e+00,1.463138222694396973e+00,1.463028669357299805e+00,1.462919354438781738e+00,1.462810039520263672e+00,1.462700605392456055e+00,1.462591409683227539e+00,1.462482094764709473e+00,1.462372779846191406e+00,1.462263464927673340e+00,1.462154150009155273e+00,1.462044954299926758e+00,1.461935758590698242e+00,1.461826443672180176e+00,1.461717367172241211e+00,1.461608171463012695e+00,1.461498975753784180e+00,1.461389899253845215e+00,1.461280703544616699e+00,1.461171627044677734e+00,1.461062550544738770e+00,1.460953354835510254e+00,1.460844397544860840e+00,1.460735321044921875e+00,1.460626244544982910e+00,1.460517287254333496e+00,1.460408329963684082e+00,1.460299253463745117e+00,1.460190296173095703e+00,1.460081338882446289e+00,1.459972381591796875e+00,1.459863543510437012e+00,1.459754586219787598e+00,1.459645748138427734e+00,1.459536910057067871e+00,1.459427952766418457e+00,1.459319233894348145e+00,1.459210395812988281e+00,1.459101557731628418e+00,1.458992838859558105e+00,1.458883881568908691e+00,1.458775281906127930e+00,1.458666563034057617e+00,1.458557724952697754e+00
1.349301457405090332e+00,1.349208474159240723e+00,1.349115371704101562e+00,1.349022388458251953e+00,1.348929524421691895e+00,1.348836421966552734e+00,1.348743438720703125e+00,1.348650574684143066e+00,1.348557591438293457e+00,1.348464727401733398e+00,1.348371744155883789e+00,1.348278880119323730e+00,1.348186016082763672e+00,1.348093032836914062e+00,1.348000168800354004e+00,1.347907423973083496e+00,1.347814440727233887e+00,1.347721695899963379e+00,1.347628951072692871e+00,1.347536087036132812e+00,1.347443342208862305e+00,1.347350597381591797e+00,1.347257733345031738e+00,1.347165107727050781e+00,1.347072243690490723e+00,1.346979618072509766e+00,1.346886873245239258e+00,1.346794128417968750e+00,1.346701502799987793e+00,1.346608877182006836e+00,1.346516132354736328e+00,1.346423506736755371e+00,1.346330881118774414e+00,1.346238255500793457e+00,1.346145629882812500e+00,1.346053004264831543e+00,1.345960497856140137e+00,1.345867872238159180e+00,1.345775246620178223e+00,1.345682740211486816e+00,1.345590233802795410e+00,1.345497727394104004e+00,1.345405220985412598e+00,1.345312714576721191e+00,1.345220208168029785e+00,1.345127820968627930e+00,1.345035314559936523e+00,1.344942808151245117e+00,1.344850420951843262e+00,1.344757914543151855e+00,1.344665646553039551e+00,1.344573259353637695e+00,1.344480752944946289e+00,1.344388484954833984e+00,1.344295978546142578e+00,1.344203710556030273e+00,1.344111442565917969e+00,1.344019055366516113e+00,1.343926787376403809e+00,1.343834519386291504e+00,1.343742132186889648e+00,1.343649983406066895e+00,1.343557715415954590e+00,1.343465447425842285e+00,1.343373179435729980e+00,1.343280911445617676e+00,1.343188762664794922e+00,1.343096613883972168e+00,1.343004345893859863e+00,1.342912197113037109e+00,1.342820167541503906e+00,1.342727899551391602e+00,1.342635869979858398e+00,1.342543721199035645e+00,1.342451572418212891e+00,1.342359542846679688e+00,1.342267394065856934e+00,1.342175364494323730e+00,1.342083334922790527e+00,1.341991186141967773e+00
1.248943448066711426e+00,1.248863697052001953e+00,1.248783946037292480e+00,1.248704314231872559e+00,1.248624682426452637e+00,1.248545050621032715e+00,1.248465418815612793e+00,1.248385787010192871e+00,1.248306035995483398e+00,1.248226523399353027e+00,1.248146891593933105e+00,1.248067259788513184e+00,1.247987627983093262e+00,1.247907996177673340e+00,1.247828483581542969e+00,1.247748970985412598e+00,1.247669339179992676e+00,1.247589826583862305e+00,1.247510313987731934e+00,1.247430682182312012e+00,1.247351288795471191e+00,1.247271776199340820e+00,1.247192263603210449e+00,1.247112751007080078e+00,1.247033238410949707e+00,1.246953845024108887e+00,1.246874332427978516e+00,1.246794939041137695e+00,1.246715426445007324e+00,1.246636033058166504e+00,1.246556639671325684e+00,1.246477246284484863e+00,1.246397852897644043e+00,1.246318459510803223e+00,1.246239066123962402e+00,1.246159672737121582e+00,1.246080398559570312e+00,1.246001005172729492e+00,1.245921611785888672e+00,1.245842337608337402e+00,1.245763063430786133e+00,1.245683670043945312e+00,1.245604515075683594e+00,1.245525240898132324e+00,1.245445847511291504e+00,1.245366692543029785e+00,1.245287299156188965e+00,1.245208144187927246e+00,1.245128989219665527e+00,1.245049715042114258e+00,1.244970440864562988e+00,1.244891285896301270e+00,1.244812011718750000e+00,1.244732856750488281e+00,1.244653701782226562e+00,1.244574546813964844e+00,1.244495391845703125e+00,1.244416236877441406e+00,1.244337081909179688e+00,1.244258046150207520e+00,1.244178891181945801e+00,1.244099855422973633e+00,1.244020700454711914e+00,1.243941664695739746e+00,1.243862628936767578e+00,1.243783473968505859e+00,1.243704438209533691e+00,1.243625402450561523e+00,1.243546366691589355e+00,1.243467330932617188e+00,1.243388414382934570e+00,1.243309378623962402e+00,1.243230342864990234e+00,1.243151426315307617e+00,1.243072390556335449e+00,1.242993474006652832e+00,1.242914438247680664e+00,1.242835521697998047e+00,1.242756605148315430e+00,1.242677688598632812e+00
1.162480711936950684e+00,1.162411689758300781e+00,1.162342667579650879e+00,1.162273645401000977e+00,1.162204623222351074e+00,1.162135601043701172e+00,1.162066578865051270e+00,1.161997556686401367e+00,1.161928534507751465e+00,1.161859631538391113e+00,1.161790609359741211e+00,1.161721587181091309e+00,1.161652684211730957e+00,1.161583662033081055e+00,1.161514759063720703e+00,1.161445856094360352e+00,1.161376833915710449e+00,1.161307930946350098e+00,1.161239027976989746e+00,1.161170125007629395e+00,1.161101222038269043e+00,1.161032438278198242e+00,1.160963416099548340e+00,1.160894632339477539e+00,1.160825729370117188e+00,1.160756826400756836e+00,1.160688042640686035e+00,1.160619139671325684e+00,1.160550355911254883e+00,1.160481572151184082e+00,1.160412669181823730e+00,1.160343885421752930e+00,1.160275101661682129e+00,1.160206317901611328e+00,1.160137534141540527e+00,1.160068631172180176e+00,1.159999966621398926e+00,1.159931182861328125e+00,1.159862399101257324e+00,1.159793734550476074e+00,1.159724950790405273e+00,1.159656167030334473e+00,1.159587502479553223e+00,1.159518837928771973e+00,1.159450054168701172e+00,1.159381389617919922e+00,1.159312725067138672e+00,1.159244060516357422e+00,1.159175395965576172e+00,1.159106612205505371e+00,1.159038066864013672e+00,1.158969402313232422e+00,1.158900737762451172e+00,1.158832073211669922e+00,1.158763408660888672e+00,1.158694863319396973e+00,1.158626317977905273e+00,1.158557653427124023e+00,1.158489108085632324e+00,1.158420562744140625e+00,1.158351898193359375e+00,1.158283352851867676e+00,1.158214807510375977e+00,1.158146262168884277e+00,1.158077716827392578e+00,1.158009171485900879e+00,1.157940626144409180e+00,1.157872200012207031e+00,1.157803654670715332e+00,1.157735109329223633e+00,1.157666683197021484e+00,1.157598137855529785e+00,1.157529711723327637e+00,1.157461285591125488e+00,1.157392740249633789e+00,1.157324314117431641e+00,1.157255887985229492e+00,1.157187461853027344e+00,1.157119035720825195e+00,1.157050609588623047e+00
1.087214350700378418e+00,1.087153911590576172e+00,1.087093472480773926e+00,1.087033152580261230e+00,1.086972713470458984e+00,1.086912393569946289e+00,1.086851954460144043e+00,1.086791634559631348e+00,1.086731314659118652e+00,1.086670994758605957e+00,1.086610674858093262e+00,1.086550235748291016e+00,1.086489915847778320e+00,1.086429595947265625e+00,1.086369276046752930e+00,1.086309075355529785e+00,1.086248636245727539e+00,1.086188435554504395e+00,1.086128115653991699e+00,1.086067795753479004e+00,1.086007595062255859e+00,1.085947275161743164e+00,1.085887074470520020e+00,1.085826754570007324e+00,1.085766553878784180e+00,1.085706233978271484e+00,1.085646033287048340e+00,1.085585832595825195e+00,1.085525631904602051e+00,1.085465431213378906e+00,1.085405230522155762e+00,1.085345029830932617e+00,1.085284829139709473e+00,1.085224628448486328e+00,1.085164427757263184e+00,1.085104227066040039e+00,1.085044145584106445e+00,1.084983944892883301e+00,1.084923744201660156e+00,1.084863662719726562e+00,1.084803581237792969e+00,1.084743261337280273e+00,1.084683179855346680e+00,1.084623098373413086e+00,1.084563016891479492e+00,1.084502935409545898e+00,1.084442734718322754e+00,1.084382653236389160e+00,1.084322571754455566e+00,1.084262490272521973e+00,1.084202408790588379e+00,1.084142446517944336e+00,1.084082245826721191e+00,1.084022283554077148e+00,1.083962202072143555e+00,1.083902120590209961e+00,1.083842158317565918e+00,1.083782076835632324e+00,1.083722114562988281e+00,1.083662152290344238e+00,1.083602070808410645e+00,1.083542108535766602e+00,1.083482146263122559e+00,1.083422064781188965e+00,1.083362102508544922e+00,1.083302140235900879e+00,1.083242177963256836e+00,1.083182215690612793e+00,1.083122253417968750e+00,1.083062291145324707e+00,1.083002328872680664e+00,1.082942366600036621e+00,1.082882523536682129e+00,1.082822561264038086e+00,1.082762598991394043e+00,1.082702755928039551e+00,1.082642793655395508e+00,1.082582950592041016e+00,1.082523107528686523e+00,1.082463145256042480e+00
1.021101713180541992e+00,1.021048426628112793e+00,1.020995140075683594e+00,1.020941853523254395e+00,1.020888566970825195e+00,1.020835280418395996e+00,1.020782113075256348e+00,1.020728826522827148e+00,1.020675539970397949e+00,1.020622372627258301e+00,1.020569205284118652e+00,1.020515918731689453e+00,1.020462751388549805e+00,1.020409464836120605e+00,1.020356297492980957e+00,1.020303130149841309e+00,1.020249843597412109e+00,1.020196676254272461e+00,1.020143508911132812e+00,1.020090341567993164e+00,1.020037174224853516e+00,1.019984006881713867e+00,1.019930839538574219e+00,1.019877672195434570e+00,1.019824504852294922e+00,1.019771337509155273e+00,1.019718289375305176e+00,1.019665122032165527e+00,1.019611954689025879e+00,1.019558906555175781e+00,1.019505739212036133e+00,1.019452571868896484e+00,1.019399523735046387e+00,1.019346356391906738e+00,1.019293308258056641e+00,1.019240140914916992e+00,1.019187092781066895e+00,1.019134044647216797e+00,1.019080996513366699e+00,1.019027948379516602e+00,1.018974900245666504e+00,1.018921732902526855e+00,1.018868684768676758e+00,1.018815755844116211e+00,1.018762588500976562e+00,1.018709659576416016e+00,1.018656492233276367e+00,1.018603563308715820e+00,1.018550515174865723e+00,1.018497467041015625e+00,1.018444538116455078e+00,1.018391489982604980e+00,1.018338441848754883e+00,1.018285512924194336e+00,1.018232464790344238e+00,1.018179535865783691e+00,1.018126606941223145e+00,1.018073558807373047e+00,1.018020629882812500e+00,1.017967700958251953e+00,1.017914652824401855e+00,1.017861843109130859e+00,1.017808914184570312e+00,1.017755866050720215e+00,1.017702937126159668e+00,1.017650008201599121e+00,1.017597079277038574e+00,1.017544269561767578e+00,1.017491340637207031e+00,1.017438411712646484e+00,1.017385482788085938e+00,1.017332553863525391e+00,1.017279744148254395e+00,1.017226815223693848e+00,1.017174005508422852e+00,1.017121076583862305e+00,1.017068147659301758e+00,1.017015337944030762e+00,1.016962528228759766e+00,1.016909599304199219e+00
9.625687003135681152e-01,9.625213146209716797e-01,9.624739289283752441e-01,9.624266624450683594e-01,9.623792767524719238e-01,9.623319506645202637e-01,9.622846841812133789e-01,9.622373580932617188e-01,9.621899724006652832e-01,9.621427655220031738e-01,9.620954394340515137e-01,9.620480537414550781e-01,9.620008468627929688e-01,9.619535207748413086e-01,9.619061946868896484e-01,9.618589878082275391e-01,9.618117213249206543e-01,9.617643952369689941e-01,9.617171883583068848e-01,9.616699218750000000e-01,9.616225957870483398e-01,9.615754485130310059e-01,9.615281820297241211e-01,9.614808559417724609e-01,9.614335894584655762e-01,9.613864421844482422e-01,9.613391757011413574e-01,9.612919092178344727e-01,9.612447619438171387e-01,9.611974954605102539e-01,9.611502885818481445e-01,9.611031413078308105e-01,9.610558748245239258e-01,9.610086679458618164e-01,9.609615802764892578e-01,9.609143137931823730e-01,9.608671069145202637e-01,9.608200192451477051e-01,9.607728123664855957e-01,9.607256054878234863e-01,9.606785178184509277e-01,9.606313109397888184e-01,9.605841040611267090e-01,9.605370163917541504e-01,9.604898691177368164e-01,9.604426622390747070e-01,9.603955149650573730e-01,9.603484272956848145e-01,9.603012800216674805e-01,9.602541327476501465e-01,9.602071046829223633e-01,9.601599574089050293e-01,9.601128101348876953e-01,9.600657820701599121e-01,9.600186347961425781e-01,9.599714875221252441e-01,9.599244594573974609e-01,9.598773717880249023e-01,9.598302245140075684e-01,9.597832560539245605e-01,9.597361087799072266e-01,9.596890211105346680e-01,9.596420526504516602e-01,9.595949649810791016e-01,9.595478773117065430e-01,9.595007896423339844e-01,9.594538211822509766e-01,9.594067335128784180e-01,9.593596458435058594e-01,9.593126773834228516e-01,9.592656493186950684e-01,9.592185616493225098e-01,9.591716527938842773e-01,9.591245651245117188e-01,9.590775370597839355e-01,9.590306282043457031e-01,9.589836001396179199e-01,9.589365720748901367e-01,9.588896036148071289e-01,9.588426351547241211e-01
9.103824496269226074e-01,9.103400707244873047e-01,9.102976918220520020e-01,9.102554321289062500e-01,9.102130532264709473e-01,9.101706743240356445e-01,9.101284146308898926e-01,9.100860357284545898e-01,9.100437164306640625e-01,9.100014567375183105e-01,9.099590778350830078e-01,9.099167585372924805e-01,9.098744988441467285e-01,9.098321795463562012e-01,9.097898602485656738e-01,9.097476005554199219e-01,9.097052812576293945e-01,9.096629619598388672e-01,9.096207618713378906e-01,9.095784425735473633e-01,9.095361232757568359e-01,9.094939231872558594e-01,9.094516038894653320e-01,9.094093441963195801e-01,9.093670248985290527e-01,9.093248248100280762e-01,9.092825651168823242e-01,9.092402458190917969e-01,9.091981053352355957e-01,9.091558456420898438e-01,9.091135263442993164e-01,9.090713858604431152e-01,9.090291261672973633e-01,9.089868664741516113e-01,9.089447259902954102e-01,9.089024662971496582e-01,9.088602066040039062e-01,9.088180661201477051e-01,9.087758064270019531e-01,9.087336063385009766e-01,9.086914658546447754e-01,9.086492657661437988e-01,9.086070060729980469e-01,9.085649251937866211e-01,9.085226655006408691e-01,9.084804654121398926e-01,9.084382653236389160e-01,9.083961844444274902e-01,9.083539843559265137e-01,9.083117842674255371e-01,9.082697033882141113e-01,9.082275032997131348e-01,9.081853032112121582e-01,9.081432223320007324e-01,9.081010818481445312e-01,9.080588817596435547e-01,9.080168008804321289e-01,9.079746603965759277e-01,9.079325199127197266e-01,9.078904390335083008e-01,9.078482985496520996e-01,9.078061580657958984e-01,9.077640771865844727e-01,9.077219367027282715e-01,9.076797962188720703e-01,9.076377153396606445e-01,9.075956344604492188e-01,9.075535535812377930e-01,9.075114130973815918e-01,9.074693918228149414e-01,9.074273109436035156e-01,9.073851704597473145e-01,9.073431491851806641e-01,9.073010683059692383e-01,9.072589874267578125e-01,9.072169661521911621e-01,9.071748852729797363e-01,9.071328043937683105e-01,9.070908427238464355e-01,9.070487618446350098e-01
8.635638356208801270e-01,8.635256886482238770e-01,8.634875416755676270e-01,8.634495139122009277e-01,8.634113669395446777e-01,8.633732795715332031e-01,8.633352518081665039e-01,8.632971048355102539e-01,8.632590174674987793e-01,8.632209897041320801e-01,8.631829023361206055e-01,8.631447553634643555e-01,8.631067872047424316e-01,8.630686402320861816e-01,8.630305528640747070e-01,8.629925847053527832e-01,8.629544973373413086e-01,8.629164099693298340e-01,8.628784418106079102e-01,8.628403544425964355e-01,8.628022670745849609e-01,8.627642989158630371e-01,8.627262115478515625e-01,8.626881837844848633e-01,8.626500964164733887e-01,8.626121282577514648e-01,8.625741004943847656e-01,8.625360131263732910e-01,8.624980449676513672e-01,8.624600172042846680e-01,8.624219894409179688e-01,8.623840212821960449e-01,8.623459935188293457e-01,8.623079657554626465e-01,8.622700572013854980e-01,8.622320294380187988e-01,8.621940016746520996e-01,8.621560931205749512e-01,8.621180653572082520e-01,8.620800375938415527e-01,8.620421290397644043e-01,8.620041608810424805e-01,8.619661331176757812e-01,8.619282245635986328e-01,8.618902564048767090e-01,8.618522286415100098e-01,8.618142604827880859e-01,8.617763519287109375e-01,8.617383837699890137e-01,8.617004156112670898e-01,8.616625666618347168e-01,8.616245985031127930e-01,8.615866303443908691e-01,8.615487217903137207e-01,8.615107536315917969e-01,8.614728450775146484e-01,8.614349365234375000e-01,8.613970279693603516e-01,8.613590598106384277e-01,8.613212108612060547e-01,8.612832427024841309e-01,8.612453341484069824e-01,8.612074851989746094e-01,8.611695766448974609e-01,8.611316680908203125e-01,8.610936999320983887e-01,8.610559105873107910e-01,8.610179424285888672e-01,8.609800338745117188e-01,8.609422445297241211e-01,8.609043359756469727e-01,8.608664274215698242e-01,8.608286380767822266e-01,8.607907295227050781e-01,8.607528209686279297e-01,8.607150316238403320e-01,8.606771230697631836e-01,8.606392741203308105e-01,8.606014847755432129e-01,8.605635762214660645e-01
8.213251829147338867e-01,8.212906718254089355e-01,8.212561607360839844e-01,8.212217688560485840e-01,8.211872577667236328e-01,8.211528062820434570e-01,8.211184144020080566e-01,8.210839033126831055e-01,8.210494518280029297e-01,8.210150599479675293e-01,8.209806084632873535e-01,8.209460973739624023e-01,8.209117054939270020e-01,8.208772540092468262e-01,8.208428025245666504e-01,8.208084106445312500e-01,8.207739591598510742e-01,8.207395076751708984e-01,8.207051753997802734e-01,8.206707239151000977e-01,8.206362724304199219e-01,8.206019401550292969e-01,8.205674886703491211e-01,8.205330371856689453e-01,8.204986453056335449e-01,8.204642534255981445e-01,8.204298615455627441e-01,8.203954100608825684e-01,8.203610777854919434e-01,8.203266859054565430e-01,8.202922940254211426e-01,8.202579617500305176e-01,8.202235102653503418e-01,8.201891183853149414e-01,8.201547861099243164e-01,8.201203942298889160e-01,8.200860023498535156e-01,8.200517296791076660e-01,8.200173377990722656e-01,8.199829459190368652e-01,8.199486136436462402e-01,8.199142217636108398e-01,8.198798894882202148e-01,8.198455572128295898e-01,8.198111653327941895e-01,8.197768330574035645e-01,8.197424411773681641e-01,8.197081685066223145e-01,8.196738362312316895e-01,8.196394443511962891e-01,8.196051716804504395e-01,8.195708394050598145e-01,8.195364475250244141e-01,8.195022344589233398e-01,8.194678425788879395e-01,8.194335103034973145e-01,8.193992376327514648e-01,8.193649053573608398e-01,8.193305730819702148e-01,8.192963600158691406e-01,8.192620277404785156e-01,8.192276954650878906e-01,8.191934823989868164e-01,8.191591501235961914e-01,8.191248178482055664e-01,8.190904855728149414e-01,8.190562725067138672e-01,8.190219998359680176e-01,8.189876675605773926e-01,8.189534544944763184e-01,8.189191222190856934e-01,8.188848495483398438e-01,8.188506364822387695e-01,8.188163638114929199e-01,8.187820911407470703e-01,8.187478780746459961e-01,8.187136054039001465e-01,8.186792731285095215e-01,8.186451196670532227e-01,8.186108469963073730e-01
