5.000000000000000000e+00,5.000000000000000000e+00,5.000000000000000000e+00,5.000000000000000000e+00,5.000000000000000000e+00,5.000000000000000000e+00,5.000000000000000000e+00,5.000000000000000000e+00,5.000000000000000000e+00,5.000000000000000000e+00,5.000000000000000000e+00,5.000000000000000000e+00,5.000000000000000000e+00,5.000000000000000000e+00,5.000000000000000000e+00,5.000000000000000000e+00,5.000000000000000000e+00,5.000000000000000000e+00,5.000000000000000000e+00,5.000000000000000000e+00,5.000000000000000000e+00,5.000000000000000000e+00,5.000000000000000000e+00,5.000000000000000000e+00,5.000000000000000000e+00,5.000000000000000000e+00,5.000000000000000000e+00,5.000000000000000000e+00,5.000000000000000000e+00,5.000000000000000000e+00,5.000000000000000000e+00,5.000000000000000000e+00,5.000000000000000000e+00,5.000000000000000000e+00,5.000000000000000000e+00,5.000000000000000000e+00,5.000000000000000000e+00,5.000000000000000000e+00,5.000000000000000000e+00,4.850915431976318359e+00,4.660882949829101562e+00,4.485177993774414062e+00,4.322238922119140625e+00,4.170723915100097656e+00,4.029471397399902344e+00,1.263479590415954590e+00,1.221890807151794434e+00,1.224001169204711914e+00,1.225564002990722656e+00,1.199410796165466309e+00,1.170816540718078613e+00,1.146962165832519531e+00,1.141465544700622559e+00,1.138340353965759277e+00,1.135232210159301758e+00,1.132140994071960449e+00,1.138630151748657227e+00,1.175285220146179199e+00,1.198259234428405762e+00,1.184549093246459961e+00,1.181150555610656738e+00,1.177771568298339844e+00,1.174411654472351074e+00,1.210513830184936523e+00,1.338592410087585449e+00,1.284101366996765137e+00,1.264849781990051270e+00,1.276835083961486816e+00,2.222762107849121094e+00,2.181997537612915039e+00,2.142701148986816406e+00,2.104795217514038086e+00,2.068207025527954102e+00,2.032869338989257812e+00,1.998718857765197754e+00,1.965696811676025391e+00,1.933748126029968262e+00,1.902821421623229980e+00,1.872868299484252930e+00,1.843843579292297363e+00
5.000000000000000000e+00,5.000000000000000000e+00,5.000000000000000000e+00,5.000000000000000000e+00,5.000000000000000000e+00,5.000000000000000000e+00,5.000000000000000000e+00,5.000000000000000000e+00,5.000000000000000000e+00,5.000000000000000000e+00,5.000000000000000000e+00,5.000000000000000000e+00,5.000000000000000000e+00,5.000000000000000000e+00,5.000000000000000000e+00,5.000000000000000000e+00,5.000000000000000000e+00,5.000000000000000000e+00,5.000000000000000000e+00,5.000000000000000000e+00,5.000000000000000000e+00,5.000000000000000000e+00,5.000000000000000000e+00,5.000000000000000000e+00,5.000000000000000000e+00,5.000000000000000000e+00,5.000000000000000000e+00,5.000000000000000000e+00,5.000000000000000000e+00,5.000000000000000000e+00,5.000000000000000000e+00,5.000000000000000000e+00,5.000000000000000000e+00,5.000000000000000000e+00,5.000000000000000000e+00,5.000000000000000000e+00,5.000000000000000000e+00,5.000000000000000000e+00,5.000000000000000000e+00,4.851054191589355469e+00,4.661010742187500000e+00,4.485296249389648438e+00,4.322349071502685547e+00,4.170826435089111328e+00,4.029567241668701172e+00,3.897562980651855469e+00,1.228737711906433105e+00,1.221205592155456543e+00,1.258115291595458984e+00,1.204745769500732422e+00,1.176446437835693359e+00,1.152330040931701660e+00,1.141293168067932129e+00,1.137578368186950684e+00,1.134474396705627441e+00,1.131387352943420410e+00,1.135400891304016113e+00,1.170363783836364746e+00,1.199743390083312988e+00,1.181880116462707520e+00,1.178723692893981934e+00,1.175925374031066895e+00,1.173140525817871094e+00,1.198127031326293945e+00,2.402316093444824219e+00,1.263935446739196777e+00,1.243415951728820801e+00,1.252545475959777832e+00,2.222791194915771484e+00,2.182025671005249023e+00,2.142728328704833984e+00,2.104821443557739258e+00,2.068232297897338867e+00,2.032893657684326172e+00,1.998742341995239258e+00,1.965719580650329590e+00,1.933770179748535156e+00,1.902842760086059570e+00,1.872888922691345215e+00,1.843863606452941895e+00
5.000000000000000000e+00,5.000000000000000000e+00,5.000000000000000000e+00,5.000000000000000000e+00,5.000000000000000000e+00,5.000000000000000000e+00,5.000000000000000000e+00,5.000000000000000000e+00,5.000000000000000000e+00,5.000000000000000000e+00,5.000000000000000000e+00,5.000000000000000000e+00,5.000000000000000000e+00,5.000000000000000000e+00,5.000000000000000000e+00,5.000000000000000000e+00,5.000000000000000000e+00,5.000000000000000000e+00,5.000000000000000000e+00,5.000000000000000000e+00,5.000000000000000000e+00,5.000000000000000000e+00,5.000000000000000000e+00,5.000000000000000000e+00,5.000000000000000000e+00,5.000000000000000000e+00,5.000000000000000000e+00,5.000000000000000000e+00,5.000000000000000000e+00,5.000000000000000000e+00,5.000000000000000000e+00,5.000000000000000000e+00,5.000000000000000000e+00,5.000000000000000000e+00,5.000000000000000000e+00,5.000000000000000000e+00,5.000000000000000000e+00,5.000000000000000000e+00,5.000000000000000000e+00,4.851192474365234375e+00,4.661139011383056641e+00,4.485414981842041016e+00,4.322459220886230469e+00,4.170928955078125000e+00,4.029662609100341797e+00,3.897652626037597656e+00,1.220278620719909668e+00,1.207604050636291504e+00,1.204599976539611816e+00,1.215107679367065430e+00,1.182130575180053711e+00,1.157748341560363770e+00,1.141303777694702148e+00,1.137294769287109375e+00,1.133717536926269531e+00,1.130634665489196777e+00,1.132189869880676270e+00,1.166258096694946289e+00,1.201135635375976562e+00,1.181993722915649414e+00,1.177465319633483887e+00,1.174673080444335938e+00,1.171894073486328125e+00,1.187701463699340820e+00,2.402350187301635742e+00,2.354802846908569336e+00,1.234129667282104492e+00,1.253050565719604492e+00,1.238519310951232910e+00,2.182053565979003906e+00,2.142755270004272461e+00,2.104847431182861328e+00,2.068257570266723633e+00,2.032917976379394531e+00,1.998765945434570312e+00,1.965742468833923340e+00,1.933792233467102051e+00,1.902864098548889160e+00,1.872909665107727051e+00,1.843883752822875977e+00
5.000000000000000000e+00,5.000000000000000000e+00,5.000000000000000000e+00,5.000000000000000000e+00,5.000000000000000000e+00,5.000000000000000000e+00,5.000000000000000000e+00,5.000000000000000000e+00,5.000000000000000000e+00,5.000000000000000000e+00,5.000000000000000000e+00,5.000000000000000000e+00,5.000000000000000000e+00,5.000000000000000000e+00,5.000000000000000000e+00,5.000000000000000000e+00,5.000000000000000000e+00,5.000000000000000000e+00,5.000000000000000000e+00,5.000000000000000000e+00,5.000000000000000000e+00,5.000000000000000000e+00,5.000000000000000000e+00,5.000000000000000000e+00,5.000000000000000000e+00,5.000000000000000000e+00,5.000000000000000000e+00,5.000000000000000000e+00,5.000000000000000000e+00,5.000000000000000000e+00,5.000000000000000000e+00,5.000000000000000000e+00,5.000000000000000000e+00,5.000000000000000000e+00,5.000000000000000000e+00,5.000000000000000000e+00,5.000000000000000000e+00,5.000000000000000000e+00,5.000000000000000000e+00,4.851331233978271484e+00,4.661266803741455078e+00,4.485533714294433594e+00,4.322568893432617188e+00,4.171030998229980469e+00,4.029758453369140625e+00,3.897742271423339844e+00,1.211673378944396973e+00,1.192047595977783203e+00,1.193452239036560059e+00,1.193422079086303711e+00,1.187869906425476074e+00,1.163217782974243164e+00,1.141314387321472168e+00,1.137305259704589844e+00,1.133324146270751953e+00,1.129883050918579102e+00,1.128996968269348145e+00,1.161170721054077148e+00,1.201991915702819824e+00,1.182753443717956543e+00,1.175099968910217285e+00,1.173423409461975098e+00,1.170650243759155273e+00,1.177455902099609375e+00,2.402384042739868164e+00,2.354835510253906250e+00,1.234609127044677734e+00,1.223251342773437500e+00,1.230464816093444824e+00,2.182081699371337891e+00,2.142782449722290039e+00,2.104873418807983398e+00,2.068282604217529297e+00,2.032942295074462891e+00,1.998789310455322266e+00,1.965764999389648438e+00,1.933814287185668945e+00,1.902885437011718750e+00,1.872930407524108887e+00,1.843903779983520508e+00
3.649487972259521484e+00,3.686081647872924805e+00,5.000000000000000000e+00,5.000000000000000000e+00,5.000000000000000000e+00,5.000000000000000000e+00,5.000000000000000000e+00,5.000000000000000000e+00,5.000000000000000000e+00,5.000000000000000000e+00,5.000000000000000000e+00,5.000000000000000000e+00,5.000000000000000000e+00,5.000000000000000000e+00,5.000000000000000000e+00,5.000000000000000000e+00,5.000000000000000000e+00,5.000000000000000000e+00,5.000000000000000000e+00,5.000000000000000000e+00,5.000000000000000000e+00,5.000000000000000000e+00,5.000000000000000000e+00,5.000000000000000000e+00,5.000000000000000000e+00,5.000000000000000000e+00,5.000000000000000000e+00,5.000000000000000000e+00,5.000000000000000000e+00,5.000000000000000000e+00,5.000000000000000000e+00,5.000000000000000000e+00,5.000000000000000000e+00,5.000000000000000000e+00,5.000000000000000000e+00,5.000000000000000000e+00,5.000000000000000000e+00,5.000000000000000000e+00,5.000000000000000000e+00,4.851469993591308594e+00,4.661394596099853516e+00,4.485651969909667969e+00,4.322679519653320312e+00,4.171133995056152344e+00,4.029854297637939453e+00,3.897831439971923828e+00,1.203113317489624023e+00,1.183244347572326660e+00,1.203034520149230957e+00,1.182235598564147949e+00,1.194259524345397949e+00,1.168739318847656250e+00,1.143241524696350098e+00,1.137315869331359863e+00,1.133334636688232422e+00,1.129381418228149414e+00,1.126074194908142090e+00,1.156127214431762695e+00,1.202849268913269043e+00,1.183514356613159180e+00,1.172338247299194336e+00,1.171132564544677734e+00,1.169409036636352539e+00,1.167385339736938477e+00,2.402418136596679688e+00,2.354868173599243164e+00,2.309163570404052734e+00,1.302959680557250977e+00,1.258616924285888672e+00,1.209350347518920898e+00,2.142809391021728516e+00,2.104899644851684570e+00,2.068307876586914062e+00,2.032966613769531250e+00,1.998812913894653320e+00,1.965787768363952637e+00,1.933836221694946289e+00,1.902906656265258789e+00,1.872950911521911621e+00,1.843923568725585938e+00
3.660148859024047852e+00,3.689010143280029297e+00,5.000000000000000000e+00,5.000000000000000000e+00,5.000000000000000000e+00,5.000000000000000000e+00,5.000000000000000000e+00,5.000000000000000000e+00,5.000000000000000000e+00,5.000000000000000000e+00,5.000000000000000000e+00,5.000000000000000000e+00,5.000000000000000000e+00,5.000000000000000000e+00,5.000000000000000000e+00,5.000000000000000000e+00,5.000000000000000000e+00,5.000000000000000000e+00,5.000000000000000000e+00,5.000000000000000000e+00,5.000000000000000000e+00,5.000000000000000000e+00,5.000000000000000000e+00,5.000000000000000000e+00,5.000000000000000000e+00,5.000000000000000000e+00,5.000000000000000000e+00,5.000000000000000000e+00,5.000000000000000000e+00,5.000000000000000000e+00,5.000000000000000000e+00,5.000000000000000000e+00,5.000000000000000000e+00,5.000000000000000000e+00,5.000000000000000000e+00,5.000000000000000000e+00,5.000000000000000000e+00,5.000000000000000000e+00,5.000000000000000000e+00,4.851608753204345703e+00,4.661522388458251953e+00,4.485770702362060547e+00,4.322789192199707031e+00,4.171236038208007812e+00,4.029949665069580078e+00,1.241292357444763184e+00,1.200001478195190430e+00,1.176476359367370605e+00,3.549095869064331055e+00,1.177051663398742676e+00,1.204441189765930176e+00,1.174313306808471680e+00,1.148574590682983398e+00,1.137326478958129883e+00,1.133345127105712891e+00,1.129311800003051758e+00,1.125245928764343262e+00,1.151127576828002930e+00,1.203690052032470703e+00,1.184276103973388672e+00,1.169589519500732422e+00,1.168389558792114258e+00,1.167191982269287109e+00,1.165422081947326660e+00,1.223974466323852539e+00,2.354900836944580078e+00,2.309195041656494141e+00,2.265229940414428711e+00,1.278980970382690430e+00,1.238785505294799805e+00,2.142836332321166992e+00,2.104925632476806641e+00,2.068332910537719727e+00,2.032991170883178711e+00,1.998836398124694824e+00,1.965810537338256836e+00,1.933858275413513184e+00,1.902927994728088379e+00,1.872971534729003906e+00,1.843943715095520020e+00
3.668440341949462891e+00,3.696071624755859375e+00,5.000000000000000000e+00,5.000000000000000000e+00,5.000000000000000000e+00,5.000000000000000000e+00,5.000000000000000000e+00,5.000000000000000000e+00,5.000000000000000000e+00,5.000000000000000000e+00,5.000000000000000000e+00,5.000000000000000000e+00,5.000000000000000000e+00,5.000000000000000000e+00,5.000000000000000000e+00,5.000000000000000000e+00,5.000000000000000000e+00,5.000000000000000000e+00,5.000000000000000000e+00,5.000000000000000000e+00,5.000000000000000000e+00,5.000000000000000000e+00,5.000000000000000000e+00,5.000000000000000000e+00,5.000000000000000000e+00,5.000000000000000000e+00,5.000000000000000000e+00,5.000000000000000000e+00,5.000000000000000000e+00,5.000000000000000000e+00,5.000000000000000000e+00,5.000000000000000000e+00,5.000000000000000000e+00,5.000000000000000000e+00,5.000000000000000000e+00,5.000000000000000000e+00,5.000000000000000000e+00,5.000000000000000000e+00,5.000000000000000000e+00,4.851747512817382812e+00,4.661650657653808594e+00,4.485888957977294922e+00,4.322899341583251953e+00,4.171338558197021484e+00,4.030045509338378906e+00,1.248753666877746582e+00,1.194389104843139648e+00,1.168254017829895020e+00,3.549170017242431641e+00,1.176037549972534180e+00,1.213940024375915527e+00,1.179940938949584961e+00,1.154343962669372559e+00,1.135326266288757324e+00,1.131217241287231445e+00,1.127137660980224609e+00,1.123087525367736816e+00,1.146369338035583496e+00,1.204478144645690918e+00,1.185038805007934570e+00,1.166853666305541992e+00,1.165659308433532715e+00,1.164602875709533691e+00,1.163703680038452148e+00,1.214986681938171387e+00,2.354933261871337891e+00,2.309226512908935547e+00,2.265260219573974609e+00,1.296793818473815918e+00,1.261473417282104492e+00,1.229676008224487305e+00,2.104951858520507812e+00,2.068358182907104492e+00,2.033015489578247070e+00,1.998860001564025879e+00,1.965833425521850586e+00,1.933880329132080078e+00,1.902949333190917969e+00,1.872992277145385742e+00,1.843963742256164551e+00
3.727661848068237305e+00,3.758122444152832031e+00,5.000000000000000000e+00,5.000000000000000000e+00,5.000000000000000000e+00,5.000000000000000000e+00,5.000000000000000000e+00,5.000000000000000000e+00,5.000000000000000000e+00,5.000000000000000000e+00,5.000000000000000000e+00,5.000000000000000000e+00,5.000000000000000000e+00,5.000000000000000000e+00,5.000000000000000000e+00,5.000000000000000000e+00,5.000000000000000000e+00,5.000000000000000000e+00,5.000000000000000000e+00,5.000000000000000000e+00,5.000000000000000000e+00,5.000000000000000000e+00,5.000000000000000000e+00,5.000000000000000000e+00,5.000000000000000000e+00,5.000000000000000000e+00,5.000000000000000000e+00,5.000000000000000000e+00,5.000000000000000000e+00,5.000000000000000000e+00,5.000000000000000000e+00,5.000000000000000000e+00,5.000000000000000000e+00,5.000000000000000000e+00,5.000000000000000000e+00,5.000000000000000000e+00,5.000000000000000000e+00,5.000000000000000000e+00,5.000000000000000000e+00,4.851885795593261719e+00,4.661778926849365234e+00,4.486007690429687500e+00,4.323009490966796875e+00,4.171441555023193359e+00,4.030141353607177734e+00,1.248438954353332520e+00,1.189136266708374023e+00,1.162309646606445312e+00,3.549244403839111328e+00,3.446432828903198242e+00,1.223054647445678711e+00,1.186221003532409668e+00,1.160439491271972656e+00,1.136386036872863770e+00,1.129035711288452148e+00,1.124971866607666016e+00,1.120937228202819824e+00,1.141806960105895996e+00,1.205267071723937988e+00,1.185516595840454102e+00,1.166628003120422363e+00,1.164153218269348145e+00,1.163254618644714355e+00,1.162357568740844727e+00,1.199888229370117188e+00,2.354966163635253906e+00,2.309257984161376953e+00,2.265290498733520508e+00,2.222965717315673828e+00,2.182193756103515625e+00,2.142890691757202148e+00,2.104977846145629883e+00,2.068383455276489258e+00,2.033039808273315430e+00,1.998883605003356934e+00,1.965856194496154785e+00,1.933902382850646973e+00,1.902970790863037109e+00,1.873012900352478027e+00,1.843983769416809082e+00
3.663109064102172852e+00,3.699933767318725586e+00,3.742002010345458984e+00,3.801246166229248047e+00,3.843563079833984375e+00,5.000000000000000000e+00,5.000000000000000000e+00,5.000000000000000000e+00,5.000000000000000000e+00,5.000000000000000000e+00,5.000000000000000000e+00,5.000000000000000000e+00,5.000000000000000000e+00,5.000000000000000000e+00,5.000000000000000000e+00,5.000000000000000000e+00,5.000000000000000000e+00,5.000000000000000000e+00,5.000000000000000000e+00,5.000000000000000000e+00,5.000000000000000000e+00,5.000000000000000000e+00,5.000000000000000000e+00,5.000000000000000000e+00,5.000000000000000000e+00,5.000000000000000000e+00,5.000000000000000000e+00,5.000000000000000000e+00,5.000000000000000000e+00,5.000000000000000000e+00,5.000000000000000000e+00,5.000000000000000000e+00,5.000000000000000000e+00,5.000000000000000000e+00,5.000000000000000000e+00,5.000000000000000000e+00,5.000000000000000000e+00,5.000000000000000000e+00,5.000000000000000000e+00,4.852024555206298828e+00,4.661906719207763672e+00,4.486126422882080078e+00,4.323119640350341797e+00,4.171543598175048828e+00,4.030236721038818359e+00,1.244453191757202148e+00,1.182414770126342773e+00,3.658457040786743164e+00,3.549318313598632812e+00,3.446502447128295898e+00,1.233510255813598633e+00,1.195302128791809082e+00,1.166599631309509277e+00,1.140367388725280762e+00,1.128624796867370605e+00,1.122814416885375977e+00,1.118795156478881836e+00,1.137280702590942383e+00,1.160376906394958496e+00,1.184673666954040527e+00,1.167073607444763184e+00,1.162007093429565430e+00,1.161909580230712891e+00,1.161014556884765625e+00,1.183317065238952637e+00,2.354998826980590820e+00,2.309289455413818359e+00,2.265320777893066406e+00,2.222995042800903320e+00,2.182221889495849609e+00,2.142917633056640625e+00,2.105004072189331055e+00,2.068408489227294922e+00,2.033064126968383789e+00,1.998907208442687988e+00,1.965878963470458984e+00,1.933924436569213867e+00,1.902992129325866699e+00,1.873033642768859863e+00,1.844003915786743164e+00
3.628659009933471680e+00,3.659734249114990234e+00,3.704119443893432617e+00,3.772522449493408203e+00,3.846052169799804688e+00,5.000000000000000000e+00,5.000000000000000000e+00,5.000000000000000000e+00,5.000000000000000000e+00,5.000000000000000000e+00,5.000000000000000000e+00,5.000000000000000000e+00,5.000000000000000000e+00,5.000000000000000000e+00,5.000000000000000000e+00,5.000000000000000000e+00,5.000000000000000000e+00,5.000000000000000000e+00,5.000000000000000000e+00,5.000000000000000000e+00,5.000000000000000000e+00,5.000000000000000000e+00,5.000000000000000000e+00,5.000000000000000000e+00,5.000000000000000000e+00,5.000000000000000000e+00,5.000000000000000000e+00,5.000000000000000000e+00,5.000000000000000000e+00,5.000000000000000000e+00,5.000000000000000000e+00,5.000000000000000000e+00,5.000000000000000000e+00,5.000000000000000000e+00,5.000000000000000000e+00,5.000000000000000000e+00,5.000000000000000000e+00,5.000000000000000000e+00,5.000000000000000000e+00,4.852163314819335938e+00,4.662034988403320312e+00,4.486244678497314453e+00,4.323229789733886719e+00,4.171646118164062500e+00,4.030332565307617188e+00,3.898279428482055664e+00,1.176485061645507812e+00,3.658536195755004883e+00,3.549392700195312500e+00,3.446572542190551758e+00,3.349541902542114258e+00,1.205576658248901367e+00,1.172825574874877930e+00,1.146537423133850098e+00,1.129762172698974609e+00,1.120969057083129883e+00,1.116661310195922852e+00,1.132790207862854004e+00,1.153758764266967773e+00,1.183832049369812012e+00,1.167519569396972656e+00,1.158405303955078125e+00,1.160567641258239746e+00,1.159674525260925293e+00,1.167197346687316895e+00,2.355031490325927734e+00,2.309320926666259766e+00,2.265351057052612305e+00,2.223024129867553711e+00,2.182250022888183594e+00,2.142944574356079102e+00,2.105030059814453125e+00,2.068433761596679688e+00,2.033088445663452148e+00,1.998930573463439941e+00,1.965901613235473633e+00,1.933946251869201660e+00,1.903013467788696289e+00,1.873054385185241699e+00,1.844023942947387695e+00
3.628612756729125977e+00,3.662129402160644531e+00,3.704896688461303711e+00,3.769409179687500000e+00,3.855080127716064453e+00,3.923052072525024414e+00,5.000000000000000000e+00,5.000000000000000000e+00,5.000000000000000000e+00,5.000000000000000000e+00,5.000000000000000000e+00,5.000000000000000000e+00,5.000000000000000000e+00,5.000000000000000000e+00,5.000000000000000000e+00,5.000000000000000000e+00,5.000000000000000000e+00,5.000000000000000000e+00,5.000000000000000000e+00,5.000000000000000000e+00,5.000000000000000000e+00,5.000000000000000000e+00,5.000000000000000000e+00,5.000000000000000000e+00,5.000000000000000000e+00,5.000000000000000000e+00,5.000000000000000000e+00,5.000000000000000000e+00,5.000000000000000000e+00,5.000000000000000000e+00,5.000000000000000000e+00,5.000000000000000000e+00,5.000000000000000000e+00,5.000000000000000000e+00,5.000000000000000000e+00,5.000000000000000000e+00,5.000000000000000000e+00,5.000000000000000000e+00,5.000000000000000000e+00,4.852302074432373047e+00,4.662162780761718750e+00,4.486363410949707031e+00,4.323339462280273438e+00,4.171749114990234375e+00,4.030428409576416016e+00,3.898368597030639648e+00,3.774688243865966797e+00,3.658614635467529297e+00,3.549466609954833984e+00,3.446642637252807617e+00,3.349608182907104492e+00,1.214807868003845215e+00,1.179118394851684570e+00,1.152774572372436523e+00,1.130901813507080078e+00,1.122090935707092285e+00,1.114535570144653320e+00,1.126690149307250977e+00,1.147215723991394043e+00,1.182991504669189453e+00,1.167965769767761230e+00,1.154825806617736816e+00,1.157004833221435547e+00,1.158337712287902832e+00,1.157448172569274902e+00,2.355064153671264648e+00,2.309352159500122070e+00,2.265381097793579102e+00,2.223053216934204102e+00,2.182277917861938477e+00,2.142971754074096680e+00,2.105056285858154297e+00,2.068459033966064453e+00,2.033112764358520508e+00,1.998954057693481445e+00,1.965924382209777832e+00,1.933968305587768555e+00,1.903034567832946777e+00,1.873074889183044434e+00,1.844043850898742676e+00
3.624876737594604492e+00,3.655954360961914062e+00,3.704659223556518555e+00,3.775789976119995117e+00,3.865133762359619141e+00,5.000000000000000000e+00,5.000000000000000000e+00,5.000000000000000000e+00,5.000000000000000000e+00,5.000000000000000000e+00,5.000000000000000000e+00,5.000000000000000000e+00,5.000000000000000000e+00,5.000000000000000000e+00,5.000000000000000000e+00,5.000000000000000000e+00,5.000000000000000000e+00,5.000000000000000000e+00,5.000000000000000000e+00,5.000000000000000000e+00,5.000000000000000000e+00,5.000000000000000000e+00,5.000000000000000000e+00,5.000000000000000000e+00,5.000000000000000000e+00,5.000000000000000000e+00,5.000000000000000000e+00,5.000000000000000000e+00,5.000000000000000000e+00,5.000000000000000000e+00,5.000000000000000000e+00,5.000000000000000000e+00,5.000000000000000000e+00,5.000000000000000000e+00,5.000000000000000000e+00,5.000000000000000000e+00,5.000000000000000000e+00,5.000000000000000000e+00,5.000000000000000000e+00,4.852440834045410156e+00,4.662290573120117188e+00,4.486481666564941406e+00,4.323450088500976562e+00,4.171851158142089844e+00,4.030523777008056641e+00,3.898458242416381836e+00,3.774772405624389648e+00,3.658693790435791016e+00,3.549540996551513672e+00,3.446712493896484375e+00,3.349673986434936523e+00,1.221453070640563965e+00,1.188872814178466797e+00,1.159080028533935547e+00,1.132043719291687012e+00,1.123215198516845703e+00,1.114523172378540039e+00,1.120449662208557129e+00,1.140746474266052246e+00,1.182452321052551270e+00,1.168412446975708008e+00,1.154701948165893555e+00,1.153433799743652344e+00,1.155607700347900391e+00,1.156116485595703125e+00,2.355096817016601562e+00,2.309383630752563477e+00,2.265411376953125000e+00,2.223082304000854492e+00,2.182306051254272461e+00,2.142998695373535156e+00,2.105082273483276367e+00,2.068484067916870117e+00,2.033137083053588867e+00,1.998977661132812500e+00,1.965947151184082031e+00,1.933990478515625000e+00,1.903056025505065918e+00,1.873095512390136719e+00,1.844063878059387207e+00
3.629791259765625000e+00,3.658692121505737305e+00,3.704227685928344727e+00,3.804823160171508789e+00,3.871269464492797852e+00,5.000000000000000000e+00,5.000000000000000000e+00,5.000000000000000000e+00,5.000000000000000000e+00,5.000000000000000000e+00,5.000000000000000000e+00,5.000000000000000000e+00,5.000000000000000000e+00,5.000000000000000000e+00,5.000000000000000000e+00,5.000000000000000000e+00,5.000000000000000000e+00,5.000000000000000000e+00,5.000000000000000000e+00,5.000000000000000000e+00,5.000000000000000000e+00,5.000000000000000000e+00,5.000000000000000000e+00,5.000000000000000000e+00,5.000000000000000000e+00,5.000000000000000000e+00,5.000000000000000000e+00,5.000000000000000000e+00,5.000000000000000000e+00,5.000000000000000000e+00,5.000000000000000000e+00,5.000000000000000000e+00,5.000000000000000000e+00,5.000000000000000000e+00,5.000000000000000000e+00,5.000000000000000000e+00,5.000000000000000000e+00,5.000000000000000000e+00,5.000000000000000000e+00,4.852579116821289062e+00,4.662418842315673828e+00,4.486600399017333984e+00,4.323559761047363281e+00,4.171953678131103516e+00,4.030619621276855469e+00,3.898547649383544922e+00,3.774856567382812500e+00,3.658772706985473633e+00,3.549615383148193359e+00,3.446782588958740234e+00,3.349740266799926758e+00,1.228171229362487793e+00,1.196045398712158203e+00,1.165454745292663574e+00,1.137751817703247070e+00,1.123517990112304688e+00,1.114590525627136230e+00,1.118845582008361816e+00,1.137302756309509277e+00,1.182910084724426270e+00,1.168859362602233887e+00,1.155138492584228516e+00,1.149884939193725586e+00,1.152045369148254395e+00,1.154214024543762207e+00,2.355129480361938477e+00,2.309414863586425781e+00,2.265441656112670898e+00,2.223111391067504883e+00,2.182334184646606445e+00,2.143025875091552734e+00,2.105108499526977539e+00,2.068509340286254883e+00,2.033161401748657227e+00,1.999001264572143555e+00,1.965970039367675781e+00,1.934012532234191895e+00,1.903077363967895508e+00,1.873116254806518555e+00,1.844083905220031738e+00
3.618405818939208984e+00,3.648165225982666016e+00,3.687174081802368164e+00,3.776963233947753906e+00,3.895103216171264648e+00,5.000000000000000000e+00,5.000000000000000000e+00,5.000000000000000000e+00,5.000000000000000000e+00,5.000000000000000000e+00,5.000000000000000000e+00,5.000000000000000000e+00,5.000000000000000000e+00,5.000000000000000000e+00,5.000000000000000000e+00,5.000000000000000000e+00,5.000000000000000000e+00,5.000000000000000000e+00,5.000000000000000000e+00,5.000000000000000000e+00,5.000000000000000000e+00,5.000000000000000000e+00,5.000000000000000000e+00,5.000000000000000000e+00,5.000000000000000000e+00,5.000000000000000000e+00,5.000000000000000000e+00,5.000000000000000000e+00,5.000000000000000000e+00,5.000000000000000000e+00,5.000000000000000000e+00,5.000000000000000000e+00,5.000000000000000000e+00,5.000000000000000000e+00,5.000000000000000000e+00,5.000000000000000000e+00,5.000000000000000000e+00,5.000000000000000000e+00,5.000000000000000000e+00,4.852718353271484375e+00,4.662547111511230469e+00,4.486719131469726562e+00,4.323669910430908203e+00,4.172056198120117188e+00,4.030715465545654297e+00,3.898637294769287109e+00,3.774940252304077148e+00,3.658851385116577148e+00,3.549689292907714844e+00,3.446852684020996094e+00,3.349806547164916992e+00,3.258075237274169922e+00,1.202651500701904297e+00,1.172217130661010742e+00,1.144662380218505859e+00,1.127461075782775879e+00,1.116267800331115723e+00,1.118523120880126953e+00,1.135264873504638672e+00,1.183384180068969727e+00,1.169324159622192383e+00,1.155720114707946777e+00,1.149151563644409180e+00,1.151636242866516113e+00,1.154088020324707031e+00,2.355162143707275391e+00,2.309446334838867188e+00,2.265471696853637695e+00,2.223140478134155273e+00,2.182362079620361328e+00,2.143052816390991211e+00,2.105134487152099609e+00,2.068534612655639648e+00,2.033185958862304688e+00,1.999024868011474609e+00,1.965992808341979980e+00,1.934034585952758789e+00,1.903098702430725098e+00,1.873136997222900391e+00,1.844104051589965820e+00
3.625519752502441406e+00,3.655318260192871094e+00,3.695736169815063477e+00,3.761994838714599609e+00,3.892858743667602539e+00,5.000000000000000000e+00,5.000000000000000000e+00,5.000000000000000000e+00,5.000000000000000000e+00,5.000000000000000000e+00,5.000000000000000000e+00,5.000000000000000000e+00,5.000000000000000000e+00,5.000000000000000000e+00,5.000000000000000000e+00,5.000000000000000000e+00,5.000000000000000000e+00,5.000000000000000000e+00,5.000000000000000000e+00,5.000000000000000000e+00,5.000000000000000000e+00,5.000000000000000000e+00,5.000000000000000000e+00,5.000000000000000000e+00,5.000000000000000000e+00,5.000000000000000000e+00,5.000000000000000000e+00,5.000000000000000000e+00,5.000000000000000000e+00,5.000000000000000000e+00,5.000000000000000000e+00,5.000000000000000000e+00,5.000000000000000000e+00,5.000000000000000000e+00,5.000000000000000000e+00,5.000000000000000000e+00,5.000000000000000000e+00,5.000000000000000000e+00,5.000000000000000000e+00,4.852856636047363281e+00,4.662674903869628906e+00,4.486837387084960938e+00,4.323780536651611328e+00,4.172158718109130859e+00,4.030810832977294922e+00,3.898726940155029297e+00,3.775024175643920898e+00,3.658930301666259766e+00,3.549763679504394531e+00,3.446922540664672852e+00,3.349872350692749023e+00,3.258137702941894531e+00,1.210952043533325195e+00,1.178775310516357422e+00,1.148244023323059082e+00,1.132453799247741699e+00,1.120626807212829590e+00,1.127748727798461914e+00,1.146017193794250488e+00,1.183983325958251953e+00,1.171158313751220703e+00,1.158608198165893555e+00,1.152085900306701660e+00,1.155292987823486328e+00,1.157906055450439453e+00,2.355194807052612305e+00,2.309477806091308594e+00,2.265501976013183594e+00,2.223169565200805664e+00,2.182390213012695312e+00,2.143079757690429688e+00,2.105160713195800781e+00,2.068559885025024414e+00,2.033210039138793945e+00,1.999048352241516113e+00,1.966015577316284180e+00,1.934056639671325684e+00,1.903120160102844238e+00,1.873157620429992676e+00,1.844124078750610352e+00
3.647831916809082031e+00,3.678033113479614258e+00,3.690301895141601562e+00,3.740489721298217773e+00,3.885668992996215820e+00,5.000000000000000000e+00,5.000000000000000000e+00,5.000000000000000000e+00,5.000000000000000000e+00,5.000000000000000000e+00,5.000000000000000000e+00,5.000000000000000000e+00,5.000000000000000000e+00,5.000000000000000000e+00,5.000000000000000000e+00,5.000000000000000000e+00,5.000000000000000000e+00,5.000000000000000000e+00,5.000000000000000000e+00,5.000000000000000000e+00,5.000000000000000000e+00,5.000000000000000000e+00,5.000000000000000000e+00,5.000000000000000000e+00,5.000000000000000000e+00,5.000000000000000000e+00,5.000000000000000000e+00,5.000000000000000000e+00,5.000000000000000000e+00,5.000000000000000000e+00,5.000000000000000000e+00,5.000000000000000000e+00,5.000000000000000000e+00,5.000000000000000000e+00,5.000000000000000000e+00,5.000000000000000000e+00,5.000000000000000000e+00,5.000000000000000000e+00,5.000000000000000000e+00,4.852995395660400391e+00,4.662802696228027344e+00,4.486956119537353516e+00,4.323890209197998047e+00,4.172261238098144531e+00,4.030906677246093750e+00,3.898816108703613281e+00,3.775108337402343750e+00,3.659009218215942383e+00,3.549838066101074219e+00,3.446992635726928711e+00,3.349938631057739258e+00,3.258200407028198242e+00,1.210529804229736328e+00,1.175862669944763184e+00,1.152508497238159180e+00,1.140033006668090820e+00,1.127766132354736328e+00,1.140000820159912109e+00,1.161581277847290039e+00,1.192297101020812988e+00,1.177511930465698242e+00,1.163023710250854492e+00,1.155654668807983398e+00,1.158461928367614746e+00,1.161500573158264160e+00,2.355227470397949219e+00,2.309509277343750000e+00,2.265532016754150391e+00,2.223198890686035156e+00,2.182418346405029297e+00,2.143106937408447266e+00,2.105186700820922852e+00,2.068584918975830078e+00,2.033234596252441406e+00,1.999071717262268066e+00,1.966038227081298828e+00,1.934078454971313477e+00,1.903141260147094727e+00,1.873178362846374512e+00,1.844144105911254883e+00
3.641578912734985352e+00,3.643908023834228516e+00,3.652382135391235352e+00,3.706212997436523438e+00,3.884653329849243164e+00,3.937439680099487305e+00,5.000000000000000000e+00,5.000000000000000000e+00,5.000000000000000000e+00,5.000000000000000000e+00,5.000000000000000000e+00,5.000000000000000000e+00,5.000000000000000000e+00,5.000000000000000000e+00,5.000000000000000000e+00,5.000000000000000000e+00,5.000000000000000000e+00,5.000000000000000000e+00,5.000000000000000000e+00,5.000000000000000000e+00,5.000000000000000000e+00,5.000000000000000000e+00,5.000000000000000000e+00,5.000000000000000000e+00,5.000000000000000000e+00,5.000000000000000000e+00,5.000000000000000000e+00,5.000000000000000000e+00,5.000000000000000000e+00,5.000000000000000000e+00,5.000000000000000000e+00,5.000000000000000000e+00,5.000000000000000000e+00,5.000000000000000000e+00,5.000000000000000000e+00,5.000000000000000000e+00,5.000000000000000000e+00,5.000000000000000000e+00,5.000000000000000000e+00,4.853134155273437500e+00,4.662930965423583984e+00,4.487074851989746094e+00,4.324000358581542969e+00,4.172363758087158203e+00,4.031002044677734375e+00,3.898905754089355469e+00,3.775192022323608398e+00,3.659087896347045898e+00,3.549911975860595703e+00,3.447062253952026367e+00,3.350004673004150391e+00,3.258262872695922852e+00,1.207854986190795898e+00,1.176885247230529785e+00,1.157045841217041016e+00,1.149148583412170410e+00,1.136685848236083984e+00,1.153278708457946777e+00,1.225177645683288574e+00,1.203611135482788086e+00,1.184051275253295898e+00,1.169184923171997070e+00,1.168866872787475586e+00,1.171101093292236328e+00,2.402826070785522461e+00,2.355260133743286133e+00,2.309540748596191406e+00,2.265562295913696289e+00,2.223227739334106445e+00,2.182446241378784180e+00,2.143133878707885742e+00,2.105212926864624023e+00,2.068610191345214844e+00,2.033258914947509766e+00,1.999095320701599121e+00,1.966060996055603027e+00,1.934100508689880371e+00,1.903162598609924316e+00,1.873198866844177246e+00,1.844164013862609863e+00
3.630051374435424805e+00,3.629420518875122070e+00,3.638763427734375000e+00,3.691727399826049805e+00,3.870632886886596680e+00,5.000000000000000000e+00,5.000000000000000000e+00,5.000000000000000000e+00,5.000000000000000000e+00,5.000000000000000000e+00,5.000000000000000000e+00,5.000000000000000000e+00,5.000000000000000000e+00,5.000000000000000000e+00,5.000000000000000000e+00,5.000000000000000000e+00,5.000000000000000000e+00,5.000000000000000000e+00,5.000000000000000000e+00,5.000000000000000000e+00,5.000000000000000000e+00,5.000000000000000000e+00,5.000000000000000000e+00,5.000000000000000000e+00,5.000000000000000000e+00,5.000000000000000000e+00,5.000000000000000000e+00,5.000000000000000000e+00,5.000000000000000000e+00,5.000000000000000000e+00,5.000000000000000000e+00,5.000000000000000000e+00,5.000000000000000000e+00,5.000000000000000000e+00,5.000000000000000000e+00,5.000000000000000000e+00,5.000000000000000000e+00,5.000000000000000000e+00,5.000000000000000000e+00,4.853272914886474609e+00,4.663059234619140625e+00,4.487193107604980469e+00,4.324110507965087891e+00,4.172466754913330078e+00,4.031097888946533203e+00,3.898995637893676758e+00,3.775276184082031250e+00,3.659166812896728516e+00,3.549986362457275391e+00,3.447132349014282227e+00,3.350070714950561523e+00,3.258325338363647461e+00,1.204686999320983887e+00,1.178477168083190918e+00,1.163940787315368652e+00,1.158411145210266113e+00,1.147797942161560059e+00,1.169728279113769531e+00,1.243214726448059082e+00,1.220548868179321289e+00,1.197395086288452148e+00,1.186906576156616211e+00,1.186328768730163574e+00,1.185751676559448242e+00,2.402860164642333984e+00,2.355292797088623047e+00,2.309572219848632812e+00,2.265592575073242188e+00,2.223257064819335938e+00,2.182474374771118164e+00,2.143161058425903320e+00,2.105238914489746094e+00,2.068635463714599609e+00,2.033283233642578125e+00,1.999118924140930176e+00,1.966083765029907227e+00,1.934122681617736816e+00,1.903184056282043457e+00,1.873219609260559082e+00,1.844184041023254395e+00
3.627668142318725586e+00,3.615335226058959961e+00,3.628129005432128906e+00,3.681844234466552734e+00,3.846970796585083008e+00,3.908268451690673828e+00,5.000000000000000000e+00,5.000000000000000000e+00,5.000000000000000000e+00,5.000000000000000000e+00,5.000000000000000000e+00,5.000000000000000000e+00,5.000000000000000000e+00,5.000000000000000000e+00,5.000000000000000000e+00,5.000000000000000000e+00,5.000000000000000000e+00,5.000000000000000000e+00,5.000000000000000000e+00,5.000000000000000000e+00,5.000000000000000000e+00,5.000000000000000000e+00,5.000000000000000000e+00,5.000000000000000000e+00,5.000000000000000000e+00,5.000000000000000000e+00,5.000000000000000000e+00,5.000000000000000000e+00,5.000000000000000000e+00,5.000000000000000000e+00,5.000000000000000000e+00,5.000000000000000000e+00,5.000000000000000000e+00,5.000000000000000000e+00,5.000000000000000000e+00,5.000000000000000000e+00,5.000000000000000000e+00,5.000000000000000000e+00,5.000000000000000000e+00,4.853411674499511719e+00,4.663187026977539062e+00,4.487312316894531250e+00,4.324220657348632812e+00,4.172569274902343750e+00,4.031193733215332031e+00,3.899084806442260742e+00,3.775359869003295898e+00,3.659245967864990234e+00,3.550060749053955078e+00,3.447202444076538086e+00,3.350136756896972656e+00,1.256149291992187500e+00,1.203326106071472168e+00,1.183828353881835938e+00,1.171346187591552734e+00,1.166525125503540039e+00,1.161259293556213379e+00,1.201895833015441895e+00,1.253455519676208496e+00,1.233717322349548340e+00,1.221479773521423340e+00,1.217046856880187988e+00,1.216439485549926758e+00,2.452424049377441406e+00,2.402894020080566406e+00,2.355325460433959961e+00,2.309603452682495117e+00,2.265622854232788086e+00,2.223286151885986328e+00,2.182502508163452148e+00,2.143188238143920898e+00,2.105265140533447266e+00,2.068660736083984375e+00,2.033307552337646484e+00,1.999142527580261230e+00,1.966106653213500977e+00,1.934144735336303711e+00,1.903205394744873047e+00,1.873240232467651367e+00,1.844204187393188477e+00
3.632512569427490234e+00,3.605120897293090820e+00,3.615687370300292969e+00,3.668829441070556641e+00,5.000000000000000000e+00,3.897365570068359375e+00,5.000000000000000000e+00,5.000000000000000000e+00,5.000000000000000000e+00,5.000000000000000000e+00,5.000000000000000000e+00,5.000000000000000000e+00,5.000000000000000000e+00,5.000000000000000000e+00,5.000000000000000000e+00,5.000000000000000000e+00,5.000000000000000000e+00,5.000000000000000000e+00,5.000000000000000000e+00,5.000000000000000000e+00,5.000000000000000000e+00,5.000000000000000000e+00,5.000000000000000000e+00,5.000000000000000000e+00,5.000000000000000000e+00,5.000000000000000000e+00,5.000000000000000000e+00,5.000000000000000000e+00,5.000000000000000000e+00,5.000000000000000000e+00,5.000000000000000000e+00,5.000000000000000000e+00,5.000000000000000000e+00,5.000000000000000000e+00,5.000000000000000000e+00,5.000000000000000000e+00,5.000000000000000000e+00,5.000000000000000000e+00,5.000000000000000000e+00,4.853550434112548828e+00,4.663315296173095703e+00,4.487430572509765625e+00,4.324330806732177734e+00,4.172671794891357422e+00,4.031289577484130859e+00,3.899174451828002930e+00,3.775444030761718750e+00,3.659324407577514648e+00,3.550134658813476562e+00,3.447272300720214844e+00,3.350202798843383789e+00,1.249783515930175781e+00,1.206272959709167480e+00,1.189228534698486328e+00,1.178846478462219238e+00,1.173963546752929688e+00,1.177990317344665527e+00,1.287470579147338867e+00,1.274773597717285156e+00,1.261712193489074707e+00,1.249398112297058105e+00,2.557911157608032227e+00,2.504075527191162109e+00,2.452459335327148438e+00,2.402928113937377930e+00,2.355358123779296875e+00,2.309634923934936523e+00,2.265653133392333984e+00,2.223315238952636719e+00,2.182530403137207031e+00,2.143215179443359375e+00,2.105291128158569336e+00,2.068686008453369141e+00,2.033331871032714844e+00,1.999166131019592285e+00,1.966129422187805176e+00,1.934166789054870605e+00,1.903226733207702637e+00,1.873260974884033203e+00,1.844224214553833008e+00
3.632951021194458008e+00,3.596369028091430664e+00,3.601756095886230469e+00,5.000000000000000000e+00,5.000000000000000000e+00,5.000000000000000000e+00,5.000000000000000000e+00,5.000000000000000000e+00,5.000000000000000000e+00,5.000000000000000000e+00,5.000000000000000000e+00,5.000000000000000000e+00,5.000000000000000000e+00,5.000000000000000000e+00,5.000000000000000000e+00,5.000000000000000000e+00,5.000000000000000000e+00,5.000000000000000000e+00,5.000000000000000000e+00,5.000000000000000000e+00,5.000000000000000000e+00,5.000000000000000000e+00,5.000000000000000000e+00,5.000000000000000000e+00,5.000000000000000000e+00,5.000000000000000000e+00,5.000000000000000000e+00,5.000000000000000000e+00,5.000000000000000000e+00,5.000000000000000000e+00,5.000000000000000000e+00,5.000000000000000000e+00,5.000000000000000000e+00,5.000000000000000000e+00,5.000000000000000000e+00,5.000000000000000000e+00,5.000000000000000000e+00,5.000000000000000000e+00,5.000000000000000000e+00,4.853689193725585938e+00,4.663443565368652344e+00,4.487549304962158203e+00,4.324440956115722656e+00,4.172773838043212891e+00,4.031385421752929688e+00,3.899264335632324219e+00,3.775527954101562500e+00,3.659403562545776367e+00,3.550209045410156250e+00,3.447342395782470703e+00,3.350269079208374023e+00,1.247674226760864258e+00,1.211823225021362305e+00,1.194561123847961426e+00,1.185184597969055176e+00,1.180024743080139160e+00,1.194165825843811035e+00,1.303261876106262207e+00,1.295997619628906250e+00,1.288512825965881348e+00,2.614152431488037109e+00,2.557949542999267578e+00,2.504112482070922852e+00,2.452494621276855469e+00,2.402962207794189453e+00,2.355391025543212891e+00,2.309666395187377930e+00,2.265683412551879883e+00,2.223344326019287109e+00,2.182558536529541016e+00,2.143242120742797852e+00,2.105317354202270508e+00,2.068711042404174805e+00,2.033356189727783203e+00,1.999189376831054688e+00,1.966152071952819824e+00,1.934188842773437500e+00,1.903248190879821777e+00,1.873281717300415039e+00,1.844244241714477539e+00
3.636947631835937500e+00,3.595126628875732422e+00,3.598763704299926758e+00,5.000000000000000000e+00,5.000000000000000000e+00,5.000000000000000000e+00,5.000000000000000000e+00,5.000000000000000000e+00,5.000000000000000000e+00,5.000000000000000000e+00,5.000000000000000000e+00,5.000000000000000000e+00,5.000000000000000000e+00,5.000000000000000000e+00,5.000000000000000000e+00,5.000000000000000000e+00,5.000000000000000000e+00,5.000000000000000000e+00,5.000000000000000000e+00,5.000000000000000000e+00,5.000000000000000000e+00,5.000000000000000000e+00,5.000000000000000000e+00,5.000000000000000000e+00,5.000000000000000000e+00,5.000000000000000000e+00,5.000000000000000000e+00,5.000000000000000000e+00,5.000000000000000000e+00,5.000000000000000000e+00,5.000000000000000000e+00,5.000000000000000000e+00,5.000000000000000000e+00,5.000000000000000000e+00,5.000000000000000000e+00,5.000000000000000000e+00,5.000000000000000000e+00,5.000000000000000000e+00,5.000000000000000000e+00,4.853827953338623047e+00,4.663571357727050781e+00,4.487667560577392578e+00,4.324551105499267578e+00,4.172876834869384766e+00,4.031480789184570312e+00,3.899353504180908203e+00,3.775611639022827148e+00,3.659482479095458984e+00,3.550283432006835938e+00,3.447412490844726562e+00,3.350335121154785156e+00,1.261764049530029297e+00,1.216856837272644043e+00,1.199451923370361328e+00,1.187954545021057129e+00,1.182770371437072754e+00,1.197321772575378418e+00,1.321911454200744629e+00,1.314399361610412598e+00,1.309073686599731445e+00,2.614192724227905273e+00,2.557988166809082031e+00,2.504149436950683594e+00,2.452530145645141602e+00,2.402996063232421875e+00,2.355423450469970703e+00,2.309697628021240234e+00,2.265713453292846680e+00,2.223373413085937500e+00,2.182586669921875000e+00,2.143269300460815430e+00,2.105343341827392578e+00,2.068736314773559570e+00,2.033380746841430664e+00,1.999212980270385742e+00,1.966174840927124023e+00,1.934210658073425293e+00,1.903269290924072266e+00,1.873302221298217773e+00,1.844264388084411621e+00
3.670797348022460938e+00,3.618309020996093750e+00,3.619497537612915039e+00,5.000000000000000000e+00,5.000000000000000000e+00,5.000000000000000000e+00,5.000000000000000000e+00,5.000000000000000000e+00,5.000000000000000000e+00,5.000000000000000000e+00,5.000000000000000000e+00,5.000000000000000000e+00,5.000000000000000000e+00,5.000000000000000000e+00,5.000000000000000000e+00,5.000000000000000000e+00,5.000000000000000000e+00,5.000000000000000000e+00,5.000000000000000000e+00,5.000000000000000000e+00,5.000000000000000000e+00,5.000000000000000000e+00,5.000000000000000000e+00,5.000000000000000000e+00,5.000000000000000000e+00,5.000000000000000000e+00,5.000000000000000000e+00,5.000000000000000000e+00,5.000000000000000000e+00,5.000000000000000000e+00,5.000000000000000000e+00,5.000000000000000000e+00,5.000000000000000000e+00,5.000000000000000000e+00,5.000000000000000000e+00,5.000000000000000000e+00,5.000000000000000000e+00,5.000000000000000000e+00,5.000000000000000000e+00,4.853965759277343750e+00,4.663699626922607422e+00,4.487786293029785156e+00,4.324661254882812500e+00,4.172979354858398438e+00,4.031576633453369141e+00,3.899443149566650391e+00,3.775695800781250000e+00,3.659561157226562500e+00,3.550357580184936523e+00,3.447482347488403320e+00,3.350401163101196289e+00,1.271455883979797363e+00,1.221932411193847656e+00,1.204496622085571289e+00,1.191093802452087402e+00,1.185528874397277832e+00,1.200494289398193359e+00,1.341102480888366699e+00,1.333331227302551270e+00,2.672964811325073242e+00,2.614233016967773438e+00,2.558026552200317383e+00,2.504186391830444336e+00,2.452565670013427734e+00,2.403030157089233398e+00,2.355456352233886719e+00,2.309729099273681641e+00,2.265743732452392578e+00,2.223402500152587891e+00,2.182614564895629883e+00,2.143296241760253906e+00,2.105369329452514648e+00,2.068761587142944336e+00,2.033405065536499023e+00,1.999236583709716797e+00,1.966197609901428223e+00,1.934232831001281738e+00,1.903290629386901855e+00,1.873322844505310059e+00,1.844284176826477051e+00
3.790820121765136719e+00,3.633397102355957031e+00,3.642377614974975586e+00,5.000000000000000000e+00,5.000000000000000000e+00,5.000000000000000000e+00,5.000000000000000000e+00,5.000000000000000000e+00,5.000000000000000000e+00,5.000000000000000000e+00,5.000000000000000000e+00,5.000000000000000000e+00,5.000000000000000000e+00,5.000000000000000000e+00,5.000000000000000000e+00,5.000000000000000000e+00,5.000000000000000000e+00,5.000000000000000000e+00,5.000000000000000000e+00,5.000000000000000000e+00,5.000000000000000000e+00,5.000000000000000000e+00,5.000000000000000000e+00,5.000000000000000000e+00,5.000000000000000000e+00,5.000000000000000000e+00,5.000000000000000000e+00,5.000000000000000000e+00,5.000000000000000000e+00,5.000000000000000000e+00,5.000000000000000000e+00,5.000000000000000000e+00,5.000000000000000000e+00,5.000000000000000000e+00,5.000000000000000000e+00,5.000000000000000000e+00,5.000000000000000000e+00,5.000000000000000000e+00,5.000000000000000000e+00,4.854104042053222656e+00,4.663827896118164062e+00,4.487905025482177734e+00,4.324771404266357422e+00,4.173081874847412109e+00,4.031672477722167969e+00,3.899533033370971680e+00,3.775779962539672852e+00,3.659640073776245117e+00,3.550431966781616211e+00,3.447552442550659180e+00,3.350467443466186523e+00,1.279216170310974121e+00,1.227050542831420898e+00,1.209591865539550781e+00,1.195112705230712891e+00,1.188300371170043945e+00,1.203683614730834961e+00,1.360858917236328125e+00,2.734440326690673828e+00,2.673007011413574219e+00,2.614273309707641602e+00,2.558065176010131836e+00,2.504223108291625977e+00,2.452600955963134766e+00,2.403064250946044922e+00,2.355488777160644531e+00,2.309760808944702148e+00,2.265774011611938477e+00,2.223431587219238281e+00,2.182642698287963867e+00,2.143323421478271484e+00,2.105395555496215820e+00,2.068786621093750000e+00,2.033429384231567383e+00,1.999260187149047852e+00,1.966220498085021973e+00,1.934254884719848633e+00,1.903312087059020996e+00,1.873343586921691895e+00,1.844304323196411133e+00
3.878287076950073242e+00,3.635906934738159180e+00,3.648121356964111328e+00,5.000000000000000000e+00,5.000000000000000000e+00,5.000000000000000000e+00,5.000000000000000000e+00,5.000000000000000000e+00,5.000000000000000000e+00,5.000000000000000000e+00,5.000000000000000000e+00,5.000000000000000000e+00,5.000000000000000000e+00,5.000000000000000000e+00,5.000000000000000000e+00,5.000000000000000000e+00,5.000000000000000000e+00,5.000000000000000000e+00,5.000000000000000000e+00,5.000000000000000000e+00,5.000000000000000000e+00,5.000000000000000000e+00,5.000000000000000000e+00,5.000000000000000000e+00,5.000000000000000000e+00,5.000000000000000000e+00,5.000000000000000000e+00,5.000000000000000000e+00,5.000000000000000000e+00,5.000000000000000000e+00,5.000000000000000000e+00,5.000000000000000000e+00,5.000000000000000000e+00,5.000000000000000000e+00,5.000000000000000000e+00,5.000000000000000000e+00,5.000000000000000000e+00,5.000000000000000000e+00,5.000000000000000000e+00,4.854242324829101562e+00,4.663954734802246094e+00,4.488023757934570312e+00,4.324881553649902344e+00,4.173184394836425781e+00,4.031768321990966797e+00,3.899622201919555664e+00,3.775863647460937500e+00,3.659718751907348633e+00,3.550506353378295898e+00,3.447622537612915039e+00,3.350533723831176758e+00,1.287071585655212402e+00,1.232211709022521973e+00,1.214730381965637207e+00,1.199158668518066406e+00,1.191084742546081543e+00,1.206114649772644043e+00,1.381206154823303223e+00,2.734484195709228516e+00,2.673049211502075195e+00,2.614313602447509766e+00,2.558103799819946289e+00,2.504260301589965820e+00,2.452636480331420898e+00,2.403098344802856445e+00,2.355521678924560547e+00,2.309792041778564453e+00,2.265804290771484375e+00,2.223460674285888672e+00,2.182670831680297852e+00,2.143350601196289062e+00,2.105421781539916992e+00,2.068811893463134766e+00,2.033453702926635742e+00,1.999283790588378906e+00,1.966243267059326172e+00,1.934276938438415527e+00,1.903333425521850586e+00,1.873364329338073730e+00,1.844324350357055664e+00
5.000000000000000000e+00,3.638868093490600586e+00,3.657796621322631836e+00,5.000000000000000000e+00,5.000000000000000000e+00,5.000000000000000000e+00,5.000000000000000000e+00,5.000000000000000000e+00,5.000000000000000000e+00,5.000000000000000000e+00,5.000000000000000000e+00,5.000000000000000000e+00,5.000000000000000000e+00,5.000000000000000000e+00,5.000000000000000000e+00,5.000000000000000000e+00,5.000000000000000000e+00,5.000000000000000000e+00,5.000000000000000000e+00,5.000000000000000000e+00,5.000000000000000000e+00,5.000000000000000000e+00,5.000000000000000000e+00,5.000000000000000000e+00,5.000000000000000000e+00,5.000000000000000000e+00,5.000000000000000000e+00,5.000000000000000000e+00,5.000000000000000000e+00,5.000000000000000000e+00,5.000000000000000000e+00,5.000000000000000000e+00,5.000000000000000000e+00,5.000000000000000000e+00,5.000000000000000000e+00,5.000000000000000000e+00,5.000000000000000000e+00,5.000000000000000000e+00,5.000000000000000000e+00,4.854380130767822266e+00,4.664082527160644531e+00,4.488141536712646484e+00,4.324992179870605469e+00,4.173286914825439453e+00,4.031863689422607422e+00,3.899712085723876953e+00,3.775947809219360352e+00,3.659797906875610352e+00,3.550580263137817383e+00,3.447692394256591797e+00,3.350599527359008789e+00,3.258825540542602539e+00,1.237416386604309082e+00,1.219912767410278320e+00,1.203232288360595703e+00,1.194451332092285156e+00,1.208285212516784668e+00,2.798856258392333984e+00,2.734528303146362305e+00,2.673091173171997070e+00,2.614353656768798828e+00,2.558142185211181641e+00,2.504297256469726562e+00,2.452672004699707031e+00,2.403132200241088867e+00,2.355554342269897461e+00,2.309823513031005859e+00,2.265834569931030273e+00,2.223489999771118164e+00,2.182698965072631836e+00,2.143377542495727539e+00,2.105447769165039062e+00,2.068836927413940430e+00,2.033478021621704102e+00,1.999307394027709961e+00,1.966266036033630371e+00,1.934298992156982422e+00,1.903354763984680176e+00,1.873385071754455566e+00,1.844344377517700195e+00
5.000000000000000000e+00,3.643939256668090820e+00,3.674866914749145508e+00,5.000000000000000000e+00,5.000000000000000000e+00,5.000000000000000000e+00,5.000000000000000000e+00,5.000000000000000000e+00,5.000000000000000000e+00,5.000000000000000000e+00,5.000000000000000000e+00,5.000000000000000000e+00,5.000000000000000000e+00,5.000000000000000000e+00,5.000000000000000000e+00,5.000000000000000000e+00,5.000000000000000000e+00,5.000000000000000000e+00,5.000000000000000000e+00,5.000000000000000000e+00,5.000000000000000000e+00,5.000000000000000000e+00,5.000000000000000000e+00,5.000000000000000000e+00,5.000000000000000000e+00,5.000000000000000000e+00,5.000000000000000000e+00,5.000000000000000000e+00,5.000000000000000000e+00,5.000000000000000000e+00,5.000000000000000000e+00,5.000000000000000000e+00,5.000000000000000000e+00,5.000000000000000000e+00,5.000000000000000000e+00,5.000000000000000000e+00,5.000000000000000000e+00,5.000000000000000000e+00,5.000000000000000000e+00,4.854518413543701172e+00,4.664209842681884766e+00,4.488259315490722656e+00,4.325101375579833984e+00,4.173389434814453125e+00,4.031959533691406250e+00,3.899801731109619141e+00,3.776031970977783203e+00,3.659876823425292969e+00,3.550654649734497070e+00,3.447762489318847656e+00,3.350665807723999023e+00,1.579564929008483887e+00,1.242775917053222656e+00,1.225139498710632324e+00,1.207996606826782227e+00,1.198492884635925293e+00,1.210940957069396973e+00,2.798902511596679688e+00,2.734572410583496094e+00,2.673133134841918945e+00,2.614393949508666992e+00,2.558180809020996094e+00,2.504333972930908203e+00,2.452707290649414062e+00,2.403166294097900391e+00,2.355587005615234375e+00,2.309854984283447266e+00,2.265864849090576172e+00,2.223519086837768555e+00,2.182726860046386719e+00,2.143404483795166016e+00,2.105473995208740234e+00,2.068862199783325195e+00,2.033502340316772461e+00,1.999330759048461914e+00,1.966288685798645020e+00,1.934320926666259766e+00,1.903376221656799316e+00,1.873405694961547852e+00,1.844364523887634277e+00
3.972945451736450195e+00,3.668673515319824219e+00,3.702186346054077148e+00,5.000000000000000000e+00,5.000000000000000000e+00,5.000000000000000000e+00,5.000000000000000000e+00,5.000000000000000000e+00,5.000000000000000000e+00,5.000000000000000000e+00,5.000000000000000000e+00,5.000000000000000000e+00,5.000000000000000000e+00,5.000000000000000000e+00,5.000000000000000000e+00,5.000000000000000000e+00,5.000000000000000000e+00,5.000000000000000000e+00,5.000000000000000000e+00,5.000000000000000000e+00,5.000000000000000000e+00,5.000000000000000000e+00,5.000000000000000000e+00,5.000000000000000000e+00,5.000000000000000000e+00,5.000000000000000000e+00,5.000000000000000000e+00,5.000000000000000000e+00,5.000000000000000000e+00,5.000000000000000000e+00,5.000000000000000000e+00,5.000000000000000000e+00,5.000000000000000000e+00,5.000000000000000000e+00,5.000000000000000000e+00,5.000000000000000000e+00,5.000000000000000000e+00,5.000000000000000000e+00,5.000000000000000000e+00,4.854656219482421875e+00,4.664337158203125000e+00,4.488377571105957031e+00,4.325211048126220703e+00,4.173492431640625000e+00,4.032055377960205078e+00,3.899891138076782227e+00,3.776115655899047852e+00,3.659955501556396484e+00,3.550728797912597656e+00,3.447832584381103516e+00,3.350732088088989258e+00,1.563464045524597168e+00,1.248753666877746582e+00,1.231057524681091309e+00,1.213950037956237793e+00,1.205859184265136719e+00,1.214864850044250488e+00,2.798948526382446289e+00,2.734616279602050781e+00,2.673175334930419922e+00,2.614434480667114258e+00,2.558219432830810547e+00,2.504370927810668945e+00,2.452742815017700195e+00,2.403200387954711914e+00,2.355619668960571289e+00,2.309886217117309570e+00,2.265894889831542969e+00,2.223548173904418945e+00,2.182754993438720703e+00,2.143431663513183594e+00,2.105499982833862305e+00,2.068887472152709961e+00,2.033526897430419922e+00,1.999354243278503418e+00,1.966311454772949219e+00,1.934342980384826660e+00,1.903397321701049805e+00,1.873426198959350586e+00,1.844384431838989258e+00
4.875089168548583984e+00,3.624907493591308594e+00,4.872668743133544922e+00,4.871459484100341797e+00,4.870250225067138672e+00,4.869042396545410156e+00,4.867834568023681641e+00,4.866627693176269531e+00,4.865421295166015625e+00,4.864215850830078125e+00,4.863010406494140625e+00,4.861805915832519531e+00,4.860601902008056641e+00,4.859398841857910156e+00,4.858195781707763672e+00,4.856993198394775391e+00,4.855792045593261719e+00,4.854590892791748047e+00,4.853390693664550781e+00,4.852190971374511719e+00,4.850991725921630859e+00,4.849792957305908203e+00,4.848595142364501953e+00,4.847397804260253906e+00,4.846200466156005859e+00,4.845004081726074219e+00,4.843808650970458984e+00,4.842613697052001953e+00,4.841419219970703125e+00,4.840225219726562500e+00,4.839031696319580078e+00,4.837839126586914062e+00,4.836647033691406250e+00,4.835455417633056641e+00,4.834264278411865234e+00,4.833074092864990234e+00,4.831883907318115234e+00,4.830694675445556641e+00,4.829506397247314453e+00,4.828318119049072266e+00,4.664464473724365234e+00,4.488495349884033203e+00,4.325320720672607422e+00,4.173593997955322266e+00,4.032151222229003906e+00,3.899980783462524414e+00,3.776199817657470703e+00,3.660034656524658203e+00,3.550803184509277344e+00,3.447902441024780273e+00,3.350797891616821289e+00,1.565656661987304688e+00,1.255044937133789062e+00,1.237171173095703125e+00,1.220033288002014160e+00,1.213449478149414062e+00,1.218814492225646973e+00,2.798994779586791992e+00,2.734660387039184570e+00,2.673217296600341797e+00,2.614474534988403320e+00,2.558257818222045898e+00,2.504407882690429688e+00,2.452778339385986328e+00,2.403234481811523438e+00,2.355652332305908203e+00,2.309917688369750977e+00,2.265925407409667969e+00,2.223577260971069336e+00,2.182783126831054688e+00,2.143458604812622070e+00,2.105526208877563477e+00,2.068912744522094727e+00,2.033550977706909180e+00,1.999377846717834473e+00,1.966334342956542969e+00,1.934365034103393555e+00,1.903418660163879395e+00,1.873446941375732422e+00,1.844404458999633789e+00
3.777904272079467773e+00,3.549978494644165039e+00,3.776450634002685547e+00,3.775724411010742188e+00,3.774997949600219727e+00,3.774272203445434570e+00,3.773546457290649414e+00,3.772820949554443359e+00,3.772096157073974609e+00,3.771371126174926758e+00,3.770646810531616211e+00,3.769922256469726562e+00,3.769198656082153320e+00,3.768474817276000977e+00,3.767751693725585938e+00,3.767028331756591797e+00,3.766305208206176758e+00,3.765583038330078125e+00,3.764860391616821289e+00,3.764138698577880859e+00,3.763416767120361328e+00,3.762695550918579102e+00,3.761974096298217773e+00,3.761253356933593750e+00,3.760532617568969727e+00,3.759812593460083008e+00,3.759092330932617188e+00,3.758372306823730469e+00,3.757652997970581055e+00,3.756933450698852539e+00,3.756214857101440430e+00,3.755495786666870117e+00,3.754777669906616211e+00,3.754059314727783203e+00,3.753341674804687500e+00,3.752623796463012695e+00,3.751906394958496094e+00,3.751189470291137695e+00,3.750472545623779297e+00,3.749756336212158203e+00,3.749039888381958008e+00,3.748324155807495117e+00,3.747608184814453125e+00,3.746893167495727539e+00,3.746177673339843750e+00,3.745462656021118164e+00,3.744748353958129883e+00,3.660113573074340820e+00,3.550877571105957031e+00,3.447972536087036133e+00,3.350864171981811523e+00,3.259075880050659180e+00,1.261399626731872559e+00,1.243345975875854492e+00,1.226177811622619629e+00,1.221050739288330078e+00,1.222789645195007324e+00,2.799041032791137695e+00,2.734704494476318359e+00,2.673259496688842773e+00,2.614514827728271484e+00,2.558296442031860352e+00,2.504444837570190430e+00,2.452813625335693359e+00,2.403268337249755859e+00,2.355684995651245117e+00,2.309949159622192383e+00,2.265955686569213867e+00,2.223606348037719727e+00,2.182811260223388672e+00,2.143485784530639648e+00,2.105552196502685547e+00,2.068938016891479492e+00,2.033575534820556641e+00,1.999401450157165527e+00,1.966357111930847168e+00,1.934387087821960449e+00,1.903440117835998535e+00,1.873467683792114258e+00,1.844424486160278320e+00
3.083853960037231445e+00,3.083369493484497070e+00,3.082885265350341797e+00,3.082401037216186523e+00,3.081917285919189453e+00,3.081433296203613281e+00,3.080949783325195312e+00,3.080466032028198242e+00,3.079982757568359375e+00,3.079499483108520508e+00,3.079016208648681641e+00,3.078533411026000977e+00,3.078050613403320312e+00,3.077568054199218750e+00,3.077085494995117188e+00,3.076603412628173828e+00,3.076121091842651367e+00,3.075639009475708008e+00,3.075157165527343750e+00,3.074675321578979492e+00,3.074193716049194336e+00,3.073712348937988281e+00,3.073231220245361328e+00,3.072749853134155273e+00,3.072268962860107422e+00,3.071788072586059570e+00,3.071307659149169922e+00,3.070827007293701172e+00,3.070346355438232422e+00,3.069866418838500977e+00,3.069386243820190430e+00,3.068906545639038086e+00,3.068426609039306641e+00,3.067947149276733398e+00,3.067467451095581055e+00,3.066988229751586914e+00,3.066509008407592773e+00,3.066030263900756836e+00,3.065551280975341797e+00,3.065072536468505859e+00,3.064594030380249023e+00,3.064115524291992188e+00,3.063637256622314453e+00,3.063158988952636719e+00,3.062681198120117188e+00,3.062203407287597656e+00,3.061725854873657227e+00,3.061248064041137695e+00,3.060770750045776367e+00,3.060293674468994141e+00,3.059816360473632812e+00,3.059339523315429688e+00,1.274640798568725586e+00,1.249625205993652344e+00,1.232384681701660156e+00,1.225207090377807617e+00,1.226791024208068848e+00,2.799086809158325195e+00,2.734748601913452148e+00,2.673301458358764648e+00,2.614555120468139648e+00,2.558335065841674805e+00,2.504481792449951172e+00,2.452849149703979492e+00,2.403302431106567383e+00,2.355717658996582031e+00,2.309980630874633789e+00,2.265985727310180664e+00,2.223635435104370117e+00,2.182839155197143555e+00,2.143512964248657227e+00,2.105578422546386719e+00,2.068963289260864258e+00,2.033599853515625000e+00,1.999425053596496582e+00,1.966379880905151367e+00,1.934409260749816895e+00,1.903461456298828125e+00,1.873488426208496094e+00,1.844444632530212402e+00
2.605237960815429688e+00,2.604892015457153320e+00,2.604546308517456055e+00,2.604200839996337891e+00,2.603855133056640625e+00,2.603509902954101562e+00,2.603164672851562500e+00,2.602819442749023438e+00,2.602474212646484375e+00,2.602129459381103516e+00,2.601784229278564453e+00,2.601439714431762695e+00,2.601094722747802734e+00,2.600749969482421875e+00,2.600405454635620117e+00,2.600060939788818359e+00,2.599716663360595703e+00,2.599372386932373047e+00,2.599028348922729492e+00,2.598684072494506836e+00,2.598340034484863281e+00,2.597995996475219727e+00,2.597652196884155273e+00,2.597308635711669922e+00,2.596964836120605469e+00,2.596621274948120117e+00,2.596277713775634766e+00,2.595934629440307617e+00,2.595591068267822266e+00,2.595247983932495117e+00,2.594904899597167969e+00,2.594561815261840820e+00,2.594218969345092773e+00,2.593875885009765625e+00,2.593533277511596680e+00,2.593190670013427734e+00,2.592848062515258789e+00,2.592505693435668945e+00,2.592163324356079102e+00,2.591820955276489258e+00,2.591478586196899414e+00,2.591136693954467773e+00,2.590794563293457031e+00,2.590452671051025391e+00,2.590110778808593750e+00,2.589769124984741211e+00,2.589427471160888672e+00,2.589085817337036133e+00,2.588744401931762695e+00,2.588402986526489258e+00,2.588061571121215820e+00,2.587720394134521484e+00,1.286193847656250000e+00,1.256072282791137695e+00,1.238654613494873047e+00,1.229391932487487793e+00,1.230818629264831543e+00,2.585675001144409180e+00,2.585334539413452148e+00,2.584994077682495117e+00,2.584653615951538086e+00,2.558373451232910156e+00,2.504518747329711914e+00,2.452884435653686523e+00,2.403336524963378906e+00,2.355750560760498047e+00,2.310012102127075195e+00,2.266016006469726562e+00,2.223664522171020508e+00,2.182867288589477539e+00,2.143539905548095703e+00,2.105604410171508789e+00,2.068988323211669922e+00,2.033624172210693359e+00,1.999448657035827637e+00,1.966402769088745117e+00,1.934431314468383789e+00,1.903482913970947266e+00,1.873509049415588379e+00,1.844464659690856934e+00
2.255254268646240234e+00,2.254993915557861328e+00,2.254733562469482422e+00,2.254473447799682617e+00,2.254213333129882812e+00,2.253953218460083008e+00,2.253693103790283203e+00,2.253432989120483398e+00,2.253173112869262695e+00,2.252913475036621094e+00,2.252653598785400391e+00,2.252393722534179688e+00,2.252134084701538086e+00,2.251874446868896484e+00,2.251615047454833984e+00,2.251355409622192383e+00,2.251096010208129883e+00,2.250836610794067383e+00,2.250577211380004883e+00,2.250318050384521484e+00,2.250058650970458984e+00,2.249799489974975586e+00,2.249540328979492188e+00,2.249281406402587891e+00,2.249023437500000000e+00,2.248765707015991211e+00,2.248508214950561523e+00,2.248250484466552734e+00,2.247992992401123047e+00,2.247735500335693359e+00,2.247478246688842773e+00,2.247220993041992188e+00,2.246963739395141602e+00,2.246706485748291016e+00,2.246449232101440430e+00,2.246192216873168945e+00,2.245935201644897461e+00,2.245678186416625977e+00,2.245421171188354492e+00,2.245164394378662109e+00,2.244907617568969727e+00,2.244651079177856445e+00,2.244394302368164062e+00,2.244137525558471680e+00,2.243881225585937500e+00,2.243624448776245117e+00,2.243368148803710938e+00,2.243111848831176758e+00,2.242855548858642578e+00,2.242599248886108398e+00,2.242342948913574219e+00,2.242086887359619141e+00,1.495784401893615723e+00,1.262586236000061035e+00,1.244988560676574707e+00,1.233605384826660156e+00,1.235336899757385254e+00,2.240551233291625977e+00,2.240295410156250000e+00,2.240039825439453125e+00,2.239784240722656250e+00,2.239528656005859375e+00,2.239273071289062500e+00,2.239017486572265625e+00,2.238762378692626953e+00,2.238506793975830078e+00,2.238251686096191406e+00,2.237996339797973633e+00,2.223693847656250000e+00,2.182895421981811523e+00,2.143566846847534180e+00,2.105630636215209961e+00,2.069013595581054688e+00,2.033648490905761719e+00,1.999472022056579590e+00,1.966425299644470215e+00,1.934453129768371582e+00,1.903504014015197754e+00,1.873529791831970215e+00,1.844484806060791016e+00
1.988221764564514160e+00,1.988019347190856934e+00,1.987817049026489258e+00,1.987614989280700684e+00,1.987412691116333008e+00,1.987210512161254883e+00,1.987008333206176758e+00,1.986806273460388184e+00,1.986604213714599609e+00,1.986402153968811035e+00,1.986200094223022461e+00,1.985998153686523438e+00,1.985796213150024414e+00,1.985594630241394043e+00,1.985392808914184570e+00,1.985190987586975098e+00,1.984989166259765625e+00,1.984787464141845703e+00,1.984585881233215332e+00,1.984384179115295410e+00,1.984182596206665039e+00,1.983981013298034668e+00,1.983779549598693848e+00,1.983578324317932129e+00,1.983376860618591309e+00,1.983175396919250488e+00,1.982974052429199219e+00,1.982772827148437500e+00,1.982571601867675781e+00,1.982370257377624512e+00,1.982169151306152344e+00,1.981968045234680176e+00,1.981766819953918457e+00,1.981566071510314941e+00,1.981365084648132324e+00,1.981164097785949707e+00,1.980963110923767090e+00,1.980762243270874023e+00,1.980561375617980957e+00,1.980360507965087891e+00,1.980159759521484375e+00,1.979959011077880859e+00,1.979758262634277344e+00,1.979557871818542480e+00,1.979357242584228516e+00,1.979156732559204102e+00,1.978956103324890137e+00,1.978755593299865723e+00,1.978555202484130859e+00,1.978354811668395996e+00,1.978154420852661133e+00,1.977954030036926270e+00,1.483262062072753906e+00,1.281167864799499512e+00,1.260537028312683105e+00,1.249706506729125977e+00,1.976953268051147461e+00,1.976753115653991699e+00,1.976553082466125488e+00,1.976353049278259277e+00,1.976153135299682617e+00,1.975953221321105957e+00,1.975753307342529297e+00,1.975553393363952637e+00,1.975353837013244629e+00,1.975154161453247070e+00,1.974954366683959961e+00,1.974754691123962402e+00,1.974555015563964844e+00,1.974355459213256836e+00,1.974155902862548828e+00,1.973956346511840820e+00,1.973756909370422363e+00,1.973557472229003906e+00,1.973358273506164551e+00,1.966448187828063965e+00,1.934475183486938477e+00,1.903525471687316895e+00,1.873550295829772949e+00,1.844504594802856445e+00
1.777730345726013184e+00,1.777568459510803223e+00,1.777406692504882812e+00,1.777245163917541504e+00,1.777083516120910645e+00,1.776921868324279785e+00,1.776760220527648926e+00,1.776598572731018066e+00,1.776436924934387207e+00,1.776275396347045898e+00,1.776113867759704590e+00,1.775952339172363281e+00,1.775790929794311523e+00,1.775629639625549316e+00,1.775468230247497559e+00,1.775306820869445801e+00,1.775145530700683594e+00,1.774984240531921387e+00,1.774822950363159180e+00,1.774661660194396973e+00,1.774500370025634766e+00,1.774339199066162109e+00,1.774178028106689453e+00,1.774017095565795898e+00,1.773855924606323242e+00,1.773694872856140137e+00,1.773533821105957031e+00,1.773372769355773926e+00,1.773211717605590820e+00,1.773050785064697266e+00,1.772889852523803711e+00,1.772728919982910156e+00,1.772567987442016602e+00,1.772407293319702148e+00,1.772246479988098145e+00,1.772085666656494141e+00,1.771924972534179688e+00,1.771764159202575684e+00,1.771603465080261230e+00,1.771442770957946777e+00,1.771282076835632324e+00,1.771121501922607422e+00,1.770960927009582520e+00,1.770800590515136719e+00,1.770640015602111816e+00,1.770479440689086914e+00,1.770318984985351562e+00,1.770158529281616211e+00,1.769998073577880859e+00,1.769837737083435059e+00,1.769677400588989258e+00,1.769517064094543457e+00,1.769356727600097656e+00,1.283926129341125488e+00,1.260788202285766602e+00,1.246981978416442871e+00,1.242386937141418457e+00,1.768555879592895508e+00,1.768395662307739258e+00,1.768235564231872559e+00,1.768075466156005859e+00,1.767915487289428711e+00,1.767755508422851562e+00,1.767595648765563965e+00,1.767435669898986816e+00,1.767275810241699219e+00,1.767115831375122070e+00,1.766955971717834473e+00,1.766796231269836426e+00,1.766636371612548828e+00,1.766476631164550781e+00,1.766316771507263184e+00,1.766157150268554688e+00,1.765997648239135742e+00,1.765837907791137695e+00,1.765678286552429199e+00,1.765518665313720703e+00,1.765359163284301758e+00,1.765199661254882812e+00,1.765040040016174316e+00
1.607541203498840332e+00,1.607408881187438965e+00,1.607276797294616699e+00,1.607144474983215332e+00,1.607012271881103516e+00,1.606880068778991699e+00,1.606747865676879883e+00,1.606615662574768066e+00,1.606483578681945801e+00,1.606351375579833984e+00,1.606219291687011719e+00,1.606087207794189453e+00,1.605955362319946289e+00,1.605823278427124023e+00,1.605691313743591309e+00,1.605559229850769043e+00,1.605427265167236328e+00,1.605295300483703613e+00,1.605163455009460449e+00,1.605031490325927734e+00,1.604899644851684570e+00,1.604767799377441406e+00,1.604636073112487793e+00,1.604504227638244629e+00,1.604372501373291016e+00,1.604240655899047852e+00,1.604108929634094238e+00,1.603977203369140625e+00,1.603845477104187012e+00,1.603713750839233398e+00,1.603582143783569336e+00,1.603450417518615723e+00,1.603318929672241211e+00,1.603187322616577148e+00,1.603055715560913086e+00,1.602924227714538574e+00,1.602792620658874512e+00,1.602661132812500000e+00,1.602529644966125488e+00,1.602398157119750977e+00,1.602266669273376465e+00,1.602135300636291504e+00,1.602004051208496094e+00,1.601872682571411133e+00,1.601741313934326172e+00,1.601609945297241211e+00,1.601478576660156250e+00,1.601347327232360840e+00,1.601215958595275879e+00,1.601084709167480469e+00,1.600953459739685059e+00,1.600822329521179199e+00,1.600691318511962891e+00,1.289830923080444336e+00,1.254009008407592773e+00,1.234426259994506836e+00,1.223239183425903320e+00,1.222569108009338379e+00,1.599904537200927734e+00,1.599773406982421875e+00,1.599642395973205566e+00,1.599511384963989258e+00,1.599380612373352051e+00,1.599249601364135742e+00,1.599118709564208984e+00,1.598987817764282227e+00,1.598856925964355469e+00,1.598726034164428711e+00,1.598595142364501953e+00,1.598464369773864746e+00,1.598333477973937988e+00,1.598202705383300781e+00,1.598072171211242676e+00,1.597941398620605469e+00,1.597810626029968262e+00,1.597679972648620605e+00,1.597549200057983398e+00,1.597418546676635742e+00,1.597288012504577637e+00,1.597157359123229980e+00
1.467090845108032227e+00,1.466980576515197754e+00,1.466870546340942383e+00,1.466760396957397461e+00,1.466650247573852539e+00,1.466540098190307617e+00,1.466430068016052246e+00,1.466319918632507324e+00,1.466209888458251953e+00,1.466099739074707031e+00,1.465989708900451660e+00,1.465879678726196289e+00,1.465769886970520020e+00,1.465659856796264648e+00,1.465549826622009277e+00,1.465439915657043457e+00,1.465330004692077637e+00,1.465219974517822266e+00,1.465110063552856445e+00,1.465000152587890625e+00,1.464890360832214355e+00,1.464780449867248535e+00,1.464670777320861816e+00,1.464560866355895996e+00,1.464451074600219727e+00,1.464341282844543457e+00,1.464231491088867188e+00,1.464121699333190918e+00,1.464012026786804199e+00,1.463902235031127930e+00,1.463792562484741211e+00,1.463682889938354492e+00,1.463573336601257324e+00,1.463463664054870605e+00,1.463353991508483887e+00,1.463244318962097168e+00,1.463134765625000000e+00,1.463025093078613281e+00,1.462915539741516113e+00,1.462805986404418945e+00,1.462696433067321777e+00,1.462586879730224609e+00,1.462477564811706543e+00,1.462368011474609375e+00,1.462258577346801758e+00,1.462149024009704590e+00,1.462039589881896973e+00,1.461930155754089355e+00,1.461820721626281738e+00,1.461711406707763672e+00,1.461601972579956055e+00,1.461492657661437988e+00,1.461383342742919922e+00,1.289942502975463867e+00,1.243082165718078613e+00,1.223281979560852051e+00,1.210431218147277832e+00,1.202258586883544922e+00,1.200641036033630371e+00,1.460618376731872559e+00,1.460509181022644043e+00,1.460399985313415527e+00,1.460290908813476562e+00,1.460181713104248047e+00,1.460072517395019531e+00,1.459963440895080566e+00,1.459854245185852051e+00,1.459745168685913086e+00,1.459636092185974121e+00,1.459527015686035156e+00,1.459417939186096191e+00,1.459308862686157227e+00,1.459200024604797363e+00,1.459090948104858398e+00,1.458981990814208984e+00,1.458873033523559570e+00,1.458764076232910156e+00,1.458655118942260742e+00,1.458546161651611328e+00,1.458437323570251465e+00
1.349210619926452637e+00,1.349117517471313477e+00,1.349024415016174316e+00,1.348931193351745605e+00,1.348838090896606445e+00,1.348744869232177734e+00,1.348651766777038574e+00,1.348558664321899414e+00,1.348465561866760254e+00,1.348372459411621094e+00,1.348279356956481934e+00,1.348186373710632324e+00,1.348093390464782715e+00,1.348000288009643555e+00,1.347907304763793945e+00,1.347814321517944336e+00,1.347721219062805176e+00,1.347628235816955566e+00,1.347535252571105957e+00,1.347442388534545898e+00,1.347349405288696289e+00,1.347256541252136230e+00,1.347163677215576172e+00,1.347070693969726562e+00,1.346977829933166504e+00,1.346884965896606445e+00,1.346792101860046387e+00,1.346699237823486328e+00,1.346606373786926270e+00,1.346513509750366211e+00,1.346420645713806152e+00,1.346328020095825195e+00,1.346235156059265137e+00,1.346142411231994629e+00,1.346049666404724121e+00,1.345956921577453613e+00,1.345864176750183105e+00,1.345771431922912598e+00,1.345678687095642090e+00,1.345585942268371582e+00,1.345493316650390625e+00,1.345400691032409668e+00,1.345308065414428711e+00,1.345215320587158203e+00,1.345122694969177246e+00,1.345030069351196289e+00,1.344937443733215332e+00,1.344844818115234375e+00,1.344752311706542969e+00,1.344659686088562012e+00,1.344567060470581055e+00,1.344474673271179199e+00,1.344382047653198242e+00,1.344289541244506836e+00,1.243595838546752930e+00,1.206395030021667480e+00,1.193413734436035156e+00,1.184812903404235840e+00,1.179248690605163574e+00,1.177044153213500977e+00,1.343642234802246094e+00,1.343549847602844238e+00,1.343457460403442383e+00,1.343365073204040527e+00,1.343272686004638672e+00,1.343180298805236816e+00,1.343087911605834961e+00,1.342995524406433105e+00,1.342903256416320801e+00,1.342810869216918945e+00,1.342718601226806641e+00,1.342626333236694336e+00,1.342534065246582031e+00,1.342441797256469727e+00,1.342349529266357422e+00,1.342257261276245117e+00,1.342164993286132812e+00,1.342072844505310059e+00,1.341980576515197754e+00,1.341888427734375000e+00
1.248865008354187012e+00,1.248785138130187988e+00,1.248705267906188965e+00,1.248625516891479492e+00,1.248545646667480469e+00,1.248465895652770996e+00,1.248386025428771973e+00,1.248306274414062500e+00,1.248226523399353027e+00,1.248146653175354004e+00,1.248067021369934082e+00,1.247987270355224609e+00,1.247907519340515137e+00,1.247827887535095215e+00,1.247748136520385742e+00,1.247668385505676270e+00,1.247588753700256348e+00,1.247509002685546875e+00,1.247429370880126953e+00,1.247349619865417480e+00,1.247270107269287109e+00,1.247190475463867188e+00,1.247110843658447266e+00,1.247031211853027344e+00,1.246951580047607422e+00,1.246871948242187500e+00,1.246792435646057129e+00,1.246712803840637207e+00,1.246633172035217285e+00,1.246553659439086914e+00,1.246474146842956543e+00,1.246394634246826172e+00,1.246315121650695801e+00,1.246235609054565430e+00,1.246156096458435059e+00,1.246076583862304688e+00,1.245997071266174316e+00,1.245917558670043945e+00,1.245838165283203125e+00,1.245758652687072754e+00,1.245679259300231934e+00,1.245599865913391113e+00,1.245520353317260742e+00,1.245440959930419922e+00,1.245361566543579102e+00,1.245282173156738281e+00,1.245202779769897461e+00,1.245123386383056641e+00,1.245043992996215820e+00,1.244964599609375000e+00,1.244885444641113281e+00,1.244806051254272461e+00,1.244726777076721191e+00,1.244647383689880371e+00,1.244568109512329102e+00,1.195231795310974121e+00,1.171914339065551758e+00,1.163653135299682617e+00,1.154985666275024414e+00,1.151498436927795410e+00,1.151407837867736816e+00,1.244013309478759766e+00,1.243934035301208496e+00,1.243854880332946777e+00,1.243775606155395508e+00,1.243696451187133789e+00,1.243617177009582520e+00,1.243538022041320801e+00,1.243458867073059082e+00,1.243379712104797363e+00,1.243300557136535645e+00,1.243221521377563477e+00,1.243142366409301758e+00,1.243063330650329590e+00,1.242984175682067871e+00,1.242905020713806152e+00,1.242825984954833984e+00,1.242746949195861816e+00,1.242667794227600098e+00,1.242588758468627930e+00
1.162412166595458984e+00,1.162342905998229980e+00,1.162273764610290527e+00,1.162204623222351074e+00,1.162135481834411621e+00,1.162066340446472168e+00,1.161997199058532715e+00,1.161928057670593262e+00,1.161858916282653809e+00,1.161789774894714355e+00,1.161720752716064453e+00,1.161651730537414551e+00,1.161582589149475098e+00,1.161513566970825195e+00,1.161444425582885742e+00,1.161375403404235840e+00,1.161306381225585938e+00,1.161237359046936035e+00,1.161168217658996582e+00,1.161099195480346680e+00,1.161030292510986328e+00,1.160961270332336426e+00,1.160892248153686523e+00,1.160823225975036621e+00,1.160754323005676270e+00,1.160685300827026367e+00,1.160616278648376465e+00,1.160547375679016113e+00,1.160478353500366211e+00,1.160409450531005859e+00,1.160340547561645508e+00,1.160271644592285156e+00,1.160202741622924805e+00,1.160133838653564453e+00,1.160064935684204102e+00,1.159996032714843750e+00,1.159927129745483398e+00,1.159858226776123047e+00,1.159789323806762695e+00,1.159720540046691895e+00,1.159651756286621094e+00,1.159582853317260742e+00,1.159514069557189941e+00,1.159445166587829590e+00,1.159376382827758789e+00,1.159307599067687988e+00,1.159238696098327637e+00,1.159169912338256836e+00,1.159101128578186035e+00,1.159032344818115234e+00,1.158963680267333984e+00,1.158894896507263184e+00,1.158826112747192383e+00,1.158757328987121582e+00,1.158688664436340332e+00,1.158619880676269531e+00,1.158551096916198730e+00,1.151390790939331055e+00,1.144831895828247070e+00,1.136699080467224121e+00,1.136424303054809570e+00,1.132918238639831543e+00,1.158139109611511230e+00,1.158070445060729980e+00,1.158001780509948730e+00,1.157933115959167480e+00,1.157864451408386230e+00,1.157795786857604980e+00,1.157727122306823730e+00,1.157658576965332031e+00,1.157590031623840332e+00,1.157521367073059082e+00,1.157452821731567383e+00,1.157384276390075684e+00,1.157315611839294434e+00,1.157247066497802734e+00,1.157178521156311035e+00,1.157109975814819336e+00,1.157041430473327637e+00,1.156972885131835938e+00
1.087153673171997070e+00,1.087093234062194824e+00,1.087032675743103027e+00,1.086972236633300781e+00,1.086911678314208984e+00,1.086851239204406738e+00,1.086790800094604492e+00,1.086730241775512695e+00,1.086669802665710449e+00,1.086609482765197754e+00,1.086549043655395508e+00,1.086488604545593262e+00,1.086428165435791016e+00,1.086367726325988770e+00,1.086307287216186523e+00,1.086246848106384277e+00,1.086186408996582031e+00,1.086126089096069336e+00,1.086065649986267090e+00,1.086005330085754395e+00,1.085944890975952148e+00,1.085884571075439453e+00,1.085824251174926758e+00,1.085763812065124512e+00,1.085703492164611816e+00,1.085643172264099121e+00,1.085582733154296875e+00,1.085522413253784180e+00,1.085462093353271484e+00,1.085401892662048340e+00,1.085341572761535645e+00,1.085281252861022949e+00,1.085220932960510254e+00,1.085160613059997559e+00,1.085100412368774414e+00,1.085040092468261719e+00,1.084979772567749023e+00,1.084919571876525879e+00,1.084859251976013184e+00,1.084799051284790039e+00,1.084738850593566895e+00,1.084678530693054199e+00,1.084618330001831055e+00,1.084558129310607910e+00,1.084497928619384766e+00,1.084437727928161621e+00,1.084377527236938477e+00,1.084317326545715332e+00,1.084257125854492188e+00,1.084196925163269043e+00,1.084136843681335449e+00,1.084076642990112305e+00,1.084016442298889160e+00,1.083956241607666016e+00,1.083896160125732422e+00,1.083835959434509277e+00,1.083775877952575684e+00,1.083715677261352539e+00,1.083655595779418945e+00,1.083595514297485352e+00,1.083535432815551758e+00,1.083475351333618164e+00,1.083415150642395020e+00,1.083355069160461426e+00,1.083294987678527832e+00,1.083234906196594238e+00,1.083174824714660645e+00,1.083114743232727051e+00,1.083054780960083008e+00,1.082994699478149414e+00,1.082934737205505371e+00,1.082874655723571777e+00,1.082814574241638184e+00,1.082754611968994141e+00,1.082694530487060547e+00,1.082634568214416504e+00,1.082574605941772461e+00,1.082514524459838867e+00,1.082454562187194824e+00,1.082394599914550781e+00
1.021047711372375488e+00,1.020994305610656738e+00,1.020941019058227539e+00,1.020887613296508789e+00,1.020834207534790039e+00,1.020780920982360840e+00,1.020727515220642090e+00,1.020674228668212891e+00,1.020620822906494141e+00,1.020567655563354492e+00,1.020514249801635742e+00,1.020460963249206543e+00,1.020407676696777344e+00,1.020354390144348145e+00,1.020300984382629395e+00,1.020247697830200195e+00,1.020194411277770996e+00,1.020141124725341797e+00,1.020087838172912598e+00,1.020034670829772949e+00,1.019981384277343750e+00,1.019928097724914551e+00,1.019874930381774902e+00,1.019821643829345703e+00,1.019768357276916504e+00,1.019715189933776855e+00,1.019661903381347656e+00,1.019608616828918457e+00,1.019555449485778809e+00,1.019502282142639160e+00,1.019449114799499512e+00,1.019395828247070312e+00,1.019342660903930664e+00,1.019289493560791016e+00,1.019236326217651367e+00,1.019183039665222168e+00,1.019129872322082520e+00,1.019076704978942871e+00,1.019023537635803223e+00,1.018970489501953125e+00,1.018917322158813477e+00,1.018864154815673828e+00,1.018810987472534180e+00,1.018757820129394531e+00,1.018704771995544434e+00,1.018651604652404785e+00,1.018598437309265137e+00,1.018545389175415039e+00,1.018492221832275391e+00,1.018439173698425293e+00,1.018386125564575195e+00,1.018332958221435547e+00,1.018279910087585449e+00,1.018226861953735352e+00,1.018173694610595703e+00,1.018120646476745605e+00,1.018067598342895508e+00,1.018014550209045410e+00,1.017961502075195312e+00,1.017908453941345215e+00,1.017855405807495117e+00,1.017802357673645020e+00,1.017749309539794922e+00,1.017696261405944824e+00,1.017643332481384277e+00,1.017590284347534180e+00,1.017537236213684082e+00,1.017484188079833984e+00,1.017431259155273438e+00,1.017378330230712891e+00,1.017325282096862793e+00,1.017272353172302246e+00,1.017219305038452148e+00,1.017166376113891602e+00,1.017113447189331055e+00,1.017060399055480957e+00,1.017007470130920410e+00,1.016954541206359863e+00,1.016901612281799316e+00,1.016848683357238770e+00
9.625203013420104980e-01,9.624728560447692871e-01,9.624254703521728516e-01,9.623779654502868652e-01,9.623305797576904297e-01,9.622831344604492188e-01,9.622358083724975586e-01,9.621883034706115723e-01,9.621409773826599121e-01,9.620936512947082520e-01,9.620462059974670410e-01,9.619988799095153809e-01,9.619514346122741699e-01,9.619041085243225098e-01,9.618567228317260742e-01,9.618093967437744141e-01,9.617619514465332031e-01,9.617146849632263184e-01,9.616673588752746582e-01,9.616199731826782227e-01,9.615727066993713379e-01,9.615252614021301270e-01,9.614779949188232422e-01,9.614306092262268066e-01,9.613833427429199219e-01,9.613359570503234863e-01,9.612887501716613770e-01,9.612413644790649414e-01,9.611940979957580566e-01,9.611468315124511719e-01,9.610995054244995117e-01,9.610522389411926270e-01,9.610049128532409668e-01,9.609577059745788574e-01,9.609103798866271973e-01,9.608631730079650879e-01,9.608158469200134277e-01,9.607686400413513184e-01,9.607214331626892090e-01,9.606741070747375488e-01,9.606269001960754395e-01,9.605796337127685547e-01,9.605324268341064453e-01,9.604851603507995605e-01,9.604379534721374512e-01,9.603906869888305664e-01,9.603434801101684570e-01,9.602962136268615723e-01,9.602490663528442383e-01,9.602019190788269043e-01,9.601546525955200195e-01,9.601075053215026855e-01,9.600602984428405762e-01,9.600131511688232422e-01,9.599658846855163574e-01,9.599187374114990234e-01,9.598715305328369141e-01,9.598244428634643555e-01,9.597772955894470215e-01,9.597300887107849121e-01,9.596830010414123535e-01,9.596357941627502441e-01,9.595887064933776855e-01,9.595414996147155762e-01,9.594944119453430176e-01,9.594472050666809082e-01,9.594001173973083496e-01,9.593529701232910156e-01,9.593058824539184570e-01,9.592587947845458984e-01,9.592116475105285645e-01,9.591646194458007812e-01,9.591174721717834473e-01,9.590703845024108887e-01,9.590232372283935547e-01,9.589762091636657715e-01,9.589290618896484375e-01,9.588820934295654297e-01,9.588350653648376465e-01,9.587879180908203125e-01
9.103387594223022461e-01,9.102963209152221680e-01,9.102539420127868652e-01,9.102114439010620117e-01,9.101690649986267090e-01,9.101266264915466309e-01,9.100842475891113281e-01,9.100419282913208008e-01,9.099994897842407227e-01,9.099571108818054199e-01,9.099146723747253418e-01,9.098723530769348145e-01,9.098299145698547363e-01,9.097875356674194336e-01,9.097451567649841309e-01,9.097028374671936035e-01,9.096603989601135254e-01,9.096180796623229980e-01,9.095757603645324707e-01,9.095333814620971680e-01,9.094910621643066406e-01,9.094486236572265625e-01,9.094063639640808105e-01,9.093639850616455078e-01,9.093216657638549805e-01,9.092792868614196777e-01,9.092370271682739258e-01,9.091947674751281738e-01,9.091523885726928711e-01,9.091101288795471191e-01,9.090677499771118164e-01,9.090254902839660645e-01,9.089831113815307617e-01,9.089408516883850098e-01,9.088985323905944824e-01,9.088562726974487305e-01,9.088139533996582031e-01,9.087716937065124512e-01,9.087294936180114746e-01,9.086871147155761719e-01,9.086449146270751953e-01,9.086025953292846680e-01,9.085603952407836914e-01,9.085180759429931641e-01,9.084758758544921875e-01,9.084335565567016602e-01,9.083913564682006836e-01,9.083491563796997070e-01,9.083068370819091797e-01,9.082646965980529785e-01,9.082223773002624512e-01,9.081801772117614746e-01,9.081379175186157227e-01,9.080957770347595215e-01,9.080534577369689941e-01,9.080113172531127930e-01,9.079690575599670410e-01,9.079269170761108398e-01,9.078847765922546387e-01,9.078425168991088867e-01,9.078003168106079102e-01,9.077581167221069336e-01,9.077159762382507324e-01,9.076737165451049805e-01,9.076315760612487793e-01,9.075893759727478027e-01,9.075472354888916016e-01,9.075051546096801758e-01,9.074628949165344238e-01,9.074208140373229980e-01,9.073786139488220215e-01,9.073364734649658203e-01,9.072942733764648438e-01,9.072521924972534180e-01,9.072099924087524414e-01,9.071679115295410156e-01,9.071257710456848145e-01,9.070836901664733887e-01,9.070416092872619629e-01,9.069994091987609863e-01
8.635241985321044922e-01,8.634859323501586914e-01,8.634478449821472168e-01,8.634095788002014160e-01,8.633714914321899414e-01,8.633332848548889160e-01,8.632951378822326660e-01,8.632570505142211914e-01,8.632188439369201660e-01,8.631807565689086914e-01,8.631425499916076660e-01,8.631044626235961914e-01,8.630662560462951660e-01,8.630281686782836914e-01,8.629900217056274414e-01,8.629519343376159668e-01,8.629137277603149414e-01,8.628756403923034668e-01,8.628376126289367676e-01,8.627994060516357422e-01,8.627613782882690430e-01,8.627232313156127930e-01,8.626851439476013184e-01,8.626469969749450684e-01,8.626089692115783691e-01,8.625708222389221191e-01,8.625327348709106445e-01,8.624947071075439453e-01,8.624565601348876953e-01,8.624185323715209961e-01,8.623803853988647461e-01,8.623423576354980469e-01,8.623042702674865723e-01,8.622662425041198730e-01,8.622280955314636230e-01,8.621901273727416992e-01,8.621519804000854492e-01,8.621140122413635254e-01,8.620759844779968262e-01,8.620378971099853516e-01,8.619998693466186523e-01,8.619617819786071777e-01,8.619238138198852539e-01,8.618857264518737793e-01,8.618477582931518555e-01,8.618096709251403809e-01,8.617717027664184570e-01,8.617337346076965332e-01,8.616956472396850586e-01,8.616576790809631348e-01,8.616195917129516602e-01,8.615816235542297363e-01,8.615435957908630371e-01,8.615056276321411133e-01,8.614675998687744141e-01,8.614296317100524902e-01,8.613916039466857910e-01,8.613536953926086426e-01,8.613157272338867188e-01,8.612776994705200195e-01,8.612397909164428711e-01,8.612017631530761719e-01,8.611637949943542480e-01,8.611258268356323242e-01,8.610878586769104004e-01,8.610498905181884766e-01,8.610119819641113281e-01,8.609740734100341797e-01,8.609360456466674805e-01,8.608981370925903320e-01,8.608601689338684082e-01,8.608222603797912598e-01,8.607842922210693359e-01,8.607463836669921875e-01,8.607084155082702637e-01,8.606705069541931152e-01,8.606325387954711914e-01,8.605946898460388184e-01,8.605567812919616699e-01,8.605188727378845215e-01
8.212890028953552246e-01,8.212544322013854980e-01,8.212199211120605469e-01,8.211853504180908203e-01,8.211508989334106445e-01,8.211163282394409180e-01,8.210818171501159668e-01,8.210473656654357910e-01,8.210127949714660645e-01,8.209783434867858887e-01,8.209437727928161621e-01,8.209093213081359863e-01,8.208747506141662598e-01,8.208402991294860840e-01,8.208057880401611328e-01,8.207713365554809570e-01,8.207368850708007812e-01,8.207023739814758301e-01,8.206679224967956543e-01,8.206334114074707031e-01,8.205989599227905273e-01,8.205644488334655762e-01,8.205299973487854004e-01,8.204954862594604492e-01,8.204610943794250488e-01,8.204265832901000977e-01,8.203921318054199219e-01,8.203577399253845215e-01,8.203232288360595703e-01,8.202888369560241699e-01,8.202543258666992188e-01,8.202199339866638184e-01,8.201854228973388672e-01,8.201510310173034668e-01,8.201165795326232910e-01,8.200821876525878906e-01,8.200477957725524902e-01,8.200132846832275391e-01,8.199788928031921387e-01,8.199444413185119629e-01,8.199100494384765625e-01,8.198755979537963867e-01,8.198412656784057617e-01,8.198068141937255859e-01,8.197724223136901855e-01,8.197379708290100098e-01,8.197035789489746094e-01,8.196692466735839844e-01,8.196347951889038086e-01,8.196004629135131836e-01,8.195660114288330078e-01,8.195316791534423828e-01,8.194972276687622070e-01,8.194628953933715820e-01,8.194285035133361816e-01,8.193941712379455566e-01,8.193597793579101562e-01,8.193253874778747559e-01,8.192910552024841309e-01,8.192566633224487305e-01,8.192223310470581055e-01,8.191879391670227051e-01,8.191536068916320801e-01,8.191192150115966797e-01,8.190848827362060547e-01,8.190505504608154297e-01,8.190162181854248047e-01,8.189818859100341797e-01,8.189475536346435547e-01,8.189132213592529297e-01,8.188788294792175293e-01,8.188445568084716797e-01,8.188102245330810547e-01,8.187758922576904297e-01,8.187415599822998047e-01,8.187072873115539551e-01,8.186730146408081055e-01,8.186386227607727051e-01,8.186043500900268555e-01,8.185700178146362305e-01
7.829926609992980957e-01,7.829611897468566895e-01,7.829298973083496094e-01,7.828984260559082031e-01,7.828671336174011230e-01,7.828357815742492676e-01,7.828043699264526367e-01,7.827730178833007812e-01,7.827416062355041504e-01,7.827102541923522949e-01,7.826788425445556641e-01,7.826475501060485840e-01,7.826161384582519531e-01,7.825848460197448730e-01,7.825534343719482422e-01,7.825221419334411621e-01,7.824907898902893066e-01,7.824594378471374512e-01,7.824280858039855957e-01,7.823967337608337402e-01,7.823654413223266602e-01,7.823340296745300293e-01,7.823027372360229492e-01,7.822713851928710938e-01,7.822400927543640137e-01,7.822088003158569336e-01,7.821774482727050781e-01,7.821461558341979980e-01,7.821148037910461426e-01,7.820835113525390625e-01,7.820521593093872070e-01,7.820208668708801270e-01,7.819895148277282715e-01,7.819582223892211914e-01,7.819269299507141113e-01,7.818956375122070312e-01,7.818643450736999512e-01,7.818330526351928711e-01,7.818017601966857910e-01,7.817704677581787109e-01,7.817391753196716309e-01,7.817078828811645508e-01,7.816765904426574707e-01,7.816452980041503906e-01,7.816140651702880859e-01,7.815828323364257812e-01,7.815514802932739258e-01,7.815202474594116211e-01,7.814889550209045410e-01,7.814577221870422363e-01,7.814264297485351562e-01,7.813951969146728516e-01,7.813639044761657715e-01,7.813326716423034668e-01,7.813013792037963867e-01,7.812701463699340820e-01,7.812389731407165527e-01,7.812076807022094727e-01,7.811764478683471680e-01,7.811451554298400879e-01,7.811139822006225586e-01,7.810826897621154785e-01,7.810515165328979492e-01,7.810202240943908691e-01,7.809890508651733398e-01,7.809578180313110352e-01,7.809265851974487305e-01,7.808954119682312012e-01,7.808641195297241211e-01,7.808329463005065918e-01,7.808017134666442871e-01,7.807705402374267578e-01,7.807392477989196777e-01,7.807080745697021484e-01,7.806768417358398438e-01,7.806456685066223145e-01,7.806145548820495605e-01,7.805833220481872559e-01,7.805521488189697266e-01,7.805209159851074219e-01
