5.000000000000000000e+00,5.000000000000000000e+00,5.000000000000000000e+00,5.000000000000000000e+00,5.000000000000000000e+00,5.000000000000000000e+00,5.000000000000000000e+00,5.000000000000000000e+00,5.000000000000000000e+00,5.000000000000000000e+00,5.000000000000000000e+00,5.000000000000000000e+00,5.000000000000000000e+00,5.000000000000000000e+00,5.000000000000000000e+00,5.000000000000000000e+00,5.000000000000000000e+00,5.000000000000000000e+00,5.000000000000000000e+00,5.000000000000000000e+00,5.000000000000000000e+00,5.000000000000000000e+00,5.000000000000000000e+00,5.000000000000000000e+00,5.000000000000000000e+00,5.000000000000000000e+00,5.000000000000000000e+00,5.000000000000000000e+00,5.000000000000000000e+00,5.000000000000000000e+00,5.000000000000000000e+00,5.000000000000000000e+00,5.000000000000000000e+00,5.000000000000000000e+00,5.000000000000000000e+00,5.000000000000000000e+00,5.000000000000000000e+00,5.000000000000000000e+00,5.000000000000000000e+00,4.848741054534912109e+00,4.658890247344970703e+00,4.483346462249755859e+00,1.506295084953308105e+00,1.468206882476806641e+00,1.461036205291748047e+00,1.472240924835205078e+00,1.449896454811096191e+00,1.398822546005249023e+00,1.382338047027587891e+00,1.372424960136413574e+00,1.364596724510192871e+00,1.448058485984802246e+00,1.453340530395507812e+00,1.445138216018676758e+00,1.482632875442504883e+00,1.503109335899353027e+00,1.626505017280578613e+00,1.618909597396850586e+00,1.633519649505615234e+00,2.671476364135742188e+00,2.612813949584960938e+00,2.556672096252441406e+00,2.502892494201660156e+00,2.451328754425048828e+00,2.401846647262573242e+00,2.354322910308837891e+00,2.308643102645874023e+00,2.264702320098876953e+00,2.222402811050415039e+00,2.181654453277587891e+00,2.142373323440551758e+00,2.104481935501098633e+00,2.067907571792602539e+00,2.032582759857177734e+00,1.998444557189941406e+00,1.965434074401855469e+00,1.933496475219726562e+00,1.902580142021179199e+00,1.872636795043945312e+00,1.843621730804443359e+00
5.000000000000000000e+00,5.000000000000000000e+00,5.000000000000000000e+00,5.000000000000000000e+00,5.000000000000000000e+00,5.000000000000000000e+00,5.000000000000000000e+00,5.000000000000000000e+00,5.000000000000000000e+00,5.000000000000000000e+00,5.000000000000000000e+00,5.000000000000000000e+00,5.000000000000000000e+00,5.000000000000000000e+00,5.000000000000000000e+00,5.000000000000000000e+00,5.000000000000000000e+00,5.000000000000000000e+00,5.000000000000000000e+00,5.000000000000000000e+00,5.000000000000000000e+00,5.000000000000000000e+00,5.000000000000000000e+00,5.000000000000000000e+00,5.000000000000000000e+00,5.000000000000000000e+00,5.000000000000000000e+00,5.000000000000000000e+00,5.000000000000000000e+00,5.000000000000000000e+00,5.000000000000000000e+00,5.000000000000000000e+00,5.000000000000000000e+00,5.000000000000000000e+00,5.000000000000000000e+00,5.000000000000000000e+00,5.000000000000000000e+00,5.000000000000000000e+00,5.000000000000000000e+00,4.848880290985107422e+00,4.659018516540527344e+00,4.483465194702148438e+00,4.320661067962646484e+00,1.463187098503112793e+00,1.450414776802062988e+00,1.458515524864196777e+00,1.434719443321228027e+00,1.383618116378784180e+00,1.364163279533386230e+00,1.357060790061950684e+00,1.350031852722167969e+00,1.343203186988830566e+00,1.459916353225708008e+00,1.483486294746398926e+00,1.499592661857604980e+00,1.500466108322143555e+00,1.624681711196899414e+00,1.615575194358825684e+00,1.620945811271667480e+00,2.671518564224243164e+00,2.612854242324829102e+00,2.556710958480834961e+00,2.502929687500000000e+00,2.451364278793334961e+00,2.401880741119384766e+00,2.354355573654174805e+00,2.308674573898315430e+00,2.264732599258422852e+00,2.222431898117065430e+00,2.181682586669921875e+00,2.142400741577148438e+00,2.104508161544799805e+00,2.067932605743408203e+00,2.032607078552246094e+00,1.998468160629272461e+00,1.965456843376159668e+00,1.933518528938293457e+00,1.902601480484008789e+00,1.872657775878906250e+00,1.843641757965087891e+00
5.000000000000000000e+00,5.000000000000000000e+00,5.000000000000000000e+00,5.000000000000000000e+00,5.000000000000000000e+00,5.000000000000000000e+00,5.000000000000000000e+00,5.000000000000000000e+00,5.000000000000000000e+00,5.000000000000000000e+00,5.000000000000000000e+00,5.000000000000000000e+00,5.000000000000000000e+00,5.000000000000000000e+00,5.000000000000000000e+00,5.000000000000000000e+00,5.000000000000000000e+00,5.000000000000000000e+00,5.000000000000000000e+00,5.000000000000000000e+00,5.000000000000000000e+00,5.000000000000000000e+00,5.000000000000000000e+00,5.000000000000000000e+00,5.000000000000000000e+00,5.000000000000000000e+00,5.000000000000000000e+00,5.000000000000000000e+00,5.000000000000000000e+00,5.000000000000000000e+00,5.000000000000000000e+00,5.000000000000000000e+00,5.000000000000000000e+00,5.000000000000000000e+00,5.000000000000000000e+00,5.000000000000000000e+00,5.000000000000000000e+00,5.000000000000000000e+00,5.000000000000000000e+00,4.849019050598144531e+00,4.659146785736083984e+00,4.483583927154541016e+00,4.320771217346191406e+00,1.454234123229980469e+00,1.437980294227600098e+00,1.442127346992492676e+00,1.415763378143310547e+00,1.370669960975646973e+00,1.350885987281799316e+00,1.344393014907836914e+00,1.337962150573730469e+00,1.331592440605163574e+00,1.351514458656311035e+00,1.494173407554626465e+00,1.492340445518493652e+00,1.494334220886230469e+00,1.632274150848388672e+00,1.614865779876708984e+00,1.605497241020202637e+00,2.671560525894165039e+00,2.612894535064697266e+00,2.556749582290649414e+00,2.502966642379760742e+00,2.451399803161621094e+00,2.401914834976196289e+00,2.354388475418090820e+00,2.308705806732177734e+00,2.264762878417968750e+00,2.222460985183715820e+00,2.181710720062255859e+00,2.142427682876586914e+00,2.104534387588500977e+00,2.067958116531372070e+00,2.032631635665893555e+00,1.998491644859313965e+00,1.965479612350463867e+00,1.933540582656860352e+00,1.902622818946838379e+00,1.872678399085998535e+00,1.843661785125732422e+00
5.000000000000000000e+00,5.000000000000000000e+00,5.000000000000000000e+00,5.000000000000000000e+00,5.000000000000000000e+00,5.000000000000000000e+00,5.000000000000000000e+00,5.000000000000000000e+00,5.000000000000000000e+00,5.000000000000000000e+00,5.000000000000000000e+00,5.000000000000000000e+00,5.000000000000000000e+00,5.000000000000000000e+00,5.000000000000000000e+00,5.000000000000000000e+00,5.000000000000000000e+00,5.000000000000000000e+00,5.000000000000000000e+00,5.000000000000000000e+00,5.000000000000000000e+00,5.000000000000000000e+00,5.000000000000000000e+00,5.000000000000000000e+00,5.000000000000000000e+00,5.000000000000000000e+00,5.000000000000000000e+00,5.000000000000000000e+00,5.000000000000000000e+00,5.000000000000000000e+00,5.000000000000000000e+00,5.000000000000000000e+00,5.000000000000000000e+00,5.000000000000000000e+00,5.000000000000000000e+00,5.000000000000000000e+00,5.000000000000000000e+00,5.000000000000000000e+00,5.000000000000000000e+00,4.849158287048339844e+00,4.659275054931640625e+00,4.483702659606933594e+00,4.320881843566894531e+00,1.447577357292175293e+00,1.431032299995422363e+00,1.428869485855102539e+00,1.409723758697509766e+00,1.368128299713134766e+00,1.341042280197143555e+00,1.333735227584838867e+00,1.327405810356140137e+00,1.321135997772216797e+00,1.326335072517395020e+00,1.374855756759643555e+00,1.481649279594421387e+00,1.481655478477478027e+00,1.521359562873840332e+00,1.611462473869323730e+00,1.600795269012451172e+00,1.602962970733642578e+00,2.612934827804565430e+00,2.556787967681884766e+00,2.503003597259521484e+00,2.451435327529907227e+00,2.401948928833007812e+00,2.354421138763427734e+00,2.308737516403198242e+00,2.264793157577514648e+00,2.222490310668945312e+00,2.181738853454589844e+00,2.142454862594604492e+00,2.104560375213623047e+00,2.067983388900756836e+00,2.032655954360961914e+00,1.998515248298645020e+00,1.965502738952636719e+00,1.933562636375427246e+00,1.902644157409667969e+00,1.872699141502380371e+00,1.843681931495666504e+00
5.000000000000000000e+00,5.000000000000000000e+00,5.000000000000000000e+00,5.000000000000000000e+00,5.000000000000000000e+00,5.000000000000000000e+00,5.000000000000000000e+00,5.000000000000000000e+00,5.000000000000000000e+00,5.000000000000000000e+00,5.000000000000000000e+00,5.000000000000000000e+00,5.000000000000000000e+00,5.000000000000000000e+00,5.000000000000000000e+00,5.000000000000000000e+00,5.000000000000000000e+00,5.000000000000000000e+00,5.000000000000000000e+00,5.000000000000000000e+00,5.000000000000000000e+00,5.000000000000000000e+00,5.000000000000000000e+00,5.000000000000000000e+00,5.000000000000000000e+00,5.000000000000000000e+00,5.000000000000000000e+00,5.000000000000000000e+00,5.000000000000000000e+00,5.000000000000000000e+00,5.000000000000000000e+00,5.000000000000000000e+00,5.000000000000000000e+00,5.000000000000000000e+00,5.000000000000000000e+00,5.000000000000000000e+00,5.000000000000000000e+00,5.000000000000000000e+00,5.000000000000000000e+00,4.849297046661376953e+00,4.659403324127197266e+00,4.483821868896484375e+00,4.320991992950439453e+00,1.447425723075866699e+00,1.433138489723205566e+00,1.485413432121276855e+00,1.410340905189514160e+00,1.371500730514526367e+00,1.338876128196716309e+00,1.324658036231994629e+00,1.317401647567749023e+00,1.310842514038085938e+00,1.304727911949157715e+00,1.347517013549804688e+00,1.469991087913513184e+00,1.470516204833984375e+00,1.488537073135375977e+00,1.625227093696594238e+00,1.601188063621520996e+00,1.589863300323486328e+00,2.612975358963012695e+00,2.556826829910278320e+00,2.503040790557861328e+00,2.451470851898193359e+00,2.401983022689819336e+00,2.354453802108764648e+00,2.308768987655639648e+00,2.264823436737060547e+00,2.222519397735595703e+00,2.181766986846923828e+00,2.142482042312622070e+00,2.104586601257324219e+00,2.068008422851562500e+00,2.032680511474609375e+00,1.998538851737976074e+00,1.965525507926940918e+00,1.933584809303283691e+00,1.902665734291076660e+00,1.872719883918762207e+00,1.843701958656311035e+00
5.000000000000000000e+00,5.000000000000000000e+00,5.000000000000000000e+00,5.000000000000000000e+00,5.000000000000000000e+00,5.000000000000000000e+00,5.000000000000000000e+00,5.000000000000000000e+00,5.000000000000000000e+00,5.000000000000000000e+00,5.000000000000000000e+00,5.000000000000000000e+00,5.000000000000000000e+00,5.000000000000000000e+00,5.000000000000000000e+00,5.000000000000000000e+00,5.000000000000000000e+00,5.000000000000000000e+00,5.000000000000000000e+00,5.000000000000000000e+00,5.000000000000000000e+00,5.000000000000000000e+00,5.000000000000000000e+00,5.000000000000000000e+00,5.000000000000000000e+00,5.000000000000000000e+00,5.000000000000000000e+00,5.000000000000000000e+00,5.000000000000000000e+00,5.000000000000000000e+00,5.000000000000000000e+00,5.000000000000000000e+00,5.000000000000000000e+00,5.000000000000000000e+00,5.000000000000000000e+00,5.000000000000000000e+00,5.000000000000000000e+00,5.000000000000000000e+00,5.000000000000000000e+00,4.849435806274414062e+00,4.659531593322753906e+00,4.483940124511718750e+00,4.321102142333984375e+00,1.449232101440429688e+00,1.424366950988769531e+00,1.421536207199096680e+00,1.419787406921386719e+00,1.374889612197875977e+00,1.342537522315979004e+00,1.315829873085021973e+00,1.308669328689575195e+00,1.301586508750915527e+00,1.294687390327453613e+00,1.320442438125610352e+00,1.465724945068359375e+00,1.466339230537414551e+00,1.478444933891296387e+00,1.659012794494628906e+00,1.624302387237548828e+00,1.597310900688171387e+00,2.613015651702880859e+00,2.556865453720092773e+00,2.503077745437622070e+00,2.451506376266479492e+00,2.402017116546630859e+00,2.354486465454101562e+00,2.308800458908081055e+00,2.264853715896606445e+00,2.222548723220825195e+00,2.181795120239257812e+00,2.142509222030639648e+00,2.104612827301025391e+00,2.068033933639526367e+00,2.032704830169677734e+00,1.998562335968017578e+00,1.965548276901245117e+00,1.933606863021850586e+00,1.902687191963195801e+00,1.872740507125854492e+00,1.843722224235534668e+00
5.000000000000000000e+00,5.000000000000000000e+00,5.000000000000000000e+00,5.000000000000000000e+00,5.000000000000000000e+00,5.000000000000000000e+00,5.000000000000000000e+00,5.000000000000000000e+00,5.000000000000000000e+00,5.000000000000000000e+00,5.000000000000000000e+00,5.000000000000000000e+00,5.000000000000000000e+00,5.000000000000000000e+00,5.000000000000000000e+00,5.000000000000000000e+00,5.000000000000000000e+00,5.000000000000000000e+00,5.000000000000000000e+00,5.000000000000000000e+00,5.000000000000000000e+00,5.000000000000000000e+00,5.000000000000000000e+00,5.000000000000000000e+00,5.000000000000000000e+00,5.000000000000000000e+00,5.000000000000000000e+00,5.000000000000000000e+00,5.000000000000000000e+00,5.000000000000000000e+00,5.000000000000000000e+00,5.000000000000000000e+00,5.000000000000000000e+00,5.000000000000000000e+00,5.000000000000000000e+00,5.000000000000000000e+00,5.000000000000000000e+00,5.000000000000000000e+00,5.000000000000000000e+00,4.849575042724609375e+00,4.659659862518310547e+00,4.484059333801269531e+00,4.321212768554687500e+00,4.169780254364013672e+00,1.413609504699707031e+00,1.396982312202453613e+00,1.402250885963439941e+00,1.381230473518371582e+00,1.346218943595886230e+00,1.313175559043884277e+00,1.299780607223510742e+00,1.292242169380187988e+00,1.284790515899658203e+00,1.295238256454467773e+00,1.333685994148254395e+00,1.464692354202270508e+00,1.473322153091430664e+00,2.797352790832519531e+00,2.733098268508911133e+00,1.565108180046081543e+00,1.580787658691406250e+00,2.556904077529907227e+00,2.503114700317382812e+00,2.451541900634765625e+00,2.402051210403442383e+00,2.354519367218017578e+00,2.308832168579101562e+00,2.264884233474731445e+00,2.222577810287475586e+00,2.181823253631591797e+00,2.142536163330078125e+00,2.104639053344726562e+00,2.068059206008911133e+00,2.032729387283325195e+00,1.998586177825927734e+00,1.965571045875549316e+00,1.933628916740417480e+00,1.902708530426025391e+00,1.872761249542236328e+00,1.843742251396179199e+00
5.000000000000000000e+00,5.000000000000000000e+00,5.000000000000000000e+00,5.000000000000000000e+00,5.000000000000000000e+00,5.000000000000000000e+00,5.000000000000000000e+00,5.000000000000000000e+00,5.000000000000000000e+00,5.000000000000000000e+00,5.000000000000000000e+00,5.000000000000000000e+00,5.000000000000000000e+00,5.000000000000000000e+00,5.000000000000000000e+00,5.000000000000000000e+00,5.000000000000000000e+00,5.000000000000000000e+00,5.000000000000000000e+00,5.000000000000000000e+00,5.000000000000000000e+00,5.000000000000000000e+00,5.000000000000000000e+00,5.000000000000000000e+00,5.000000000000000000e+00,5.000000000000000000e+00,5.000000000000000000e+00,5.000000000000000000e+00,5.000000000000000000e+00,5.000000000000000000e+00,5.000000000000000000e+00,5.000000000000000000e+00,5.000000000000000000e+00,5.000000000000000000e+00,5.000000000000000000e+00,5.000000000000000000e+00,5.000000000000000000e+00,5.000000000000000000e+00,5.000000000000000000e+00,4.849713802337646484e+00,4.659788131713867188e+00,4.484178066253662109e+00,4.321322917938232422e+00,1.445148348808288574e+00,1.403228640556335449e+00,1.383568644523620605e+00,1.408234238624572754e+00,1.392979741096496582e+00,1.349920630455017090e+00,1.316979169845581055e+00,1.289877057075500488e+00,1.281424880027770996e+00,1.274097323417663574e+00,1.273309350013732910e+00,1.309006571769714355e+00,1.464427471160888672e+00,1.472183346748352051e+00,2.797399044036865234e+00,2.733142375946044922e+00,1.551553368568420410e+00,1.568145751953125000e+00,2.556942701339721680e+00,2.503151655197143555e+00,2.451577425003051758e+00,2.402085304260253906e+00,2.354552030563354492e+00,2.308863401412963867e+00,2.264914512634277344e+00,2.222607135772705078e+00,2.181851387023925781e+00,2.142563343048095703e+00,2.104665279388427734e+00,2.068084478378295898e+00,2.032753705978393555e+00,1.998609781265258789e+00,1.965593814849853516e+00,1.933651208877563477e+00,1.902729868888854980e+00,1.872781872749328613e+00,1.843762278556823730e+00
5.000000000000000000e+00,5.000000000000000000e+00,5.000000000000000000e+00,5.000000000000000000e+00,5.000000000000000000e+00,5.000000000000000000e+00,5.000000000000000000e+00,5.000000000000000000e+00,5.000000000000000000e+00,5.000000000000000000e+00,5.000000000000000000e+00,5.000000000000000000e+00,5.000000000000000000e+00,5.000000000000000000e+00,5.000000000000000000e+00,5.000000000000000000e+00,5.000000000000000000e+00,5.000000000000000000e+00,5.000000000000000000e+00,5.000000000000000000e+00,5.000000000000000000e+00,5.000000000000000000e+00,5.000000000000000000e+00,5.000000000000000000e+00,5.000000000000000000e+00,5.000000000000000000e+00,5.000000000000000000e+00,5.000000000000000000e+00,5.000000000000000000e+00,5.000000000000000000e+00,5.000000000000000000e+00,5.000000000000000000e+00,5.000000000000000000e+00,5.000000000000000000e+00,5.000000000000000000e+00,5.000000000000000000e+00,5.000000000000000000e+00,5.000000000000000000e+00,5.000000000000000000e+00,4.849853038787841797e+00,4.659916400909423828e+00,4.484296798706054688e+00,4.321433544158935547e+00,1.438927650451660156e+00,1.396420955657958984e+00,1.380787849426269531e+00,3.773273944854736328e+00,1.383188486099243164e+00,1.355484485626220703e+00,1.321047902107238770e+00,1.288962483406066895e+00,1.271879434585571289e+00,1.263580560684204102e+00,1.256454944610595703e+00,1.286612987518310547e+00,1.464162468910217285e+00,1.471046209335327148e+00,2.797445058822631836e+00,2.733186483383178711e+00,1.634596824645996094e+00,1.542969584465026855e+00,1.553447365760803223e+00,2.503188848495483398e+00,2.451612949371337891e+00,2.402119398117065430e+00,2.354584932327270508e+00,2.308894872665405273e+00,2.264944791793823242e+00,2.222636222839355469e+00,2.181879520416259766e+00,2.142590522766113281e+00,2.104691505432128906e+00,2.068109512329101562e+00,2.032778024673461914e+00,1.998633384704589844e+00,1.965616703033447266e+00,1.933673262596130371e+00,1.902751207351684570e+00,1.872802853584289551e+00,1.843782424926757812e+00
5.000000000000000000e+00,5.000000000000000000e+00,5.000000000000000000e+00,5.000000000000000000e+00,5.000000000000000000e+00,5.000000000000000000e+00,5.000000000000000000e+00,5.000000000000000000e+00,5.000000000000000000e+00,5.000000000000000000e+00,5.000000000000000000e+00,5.000000000000000000e+00,5.000000000000000000e+00,5.000000000000000000e+00,5.000000000000000000e+00,5.000000000000000000e+00,5.000000000000000000e+00,5.000000000000000000e+00,5.000000000000000000e+00,5.000000000000000000e+00,5.000000000000000000e+00,5.000000000000000000e+00,5.000000000000000000e+00,5.000000000000000000e+00,5.000000000000000000e+00,5.000000000000000000e+00,5.000000000000000000e+00,5.000000000000000000e+00,5.000000000000000000e+00,5.000000000000000000e+00,5.000000000000000000e+00,5.000000000000000000e+00,5.000000000000000000e+00,5.000000000000000000e+00,5.000000000000000000e+00,5.000000000000000000e+00,5.000000000000000000e+00,5.000000000000000000e+00,5.000000000000000000e+00,4.849991798400878906e+00,4.660044670104980469e+00,4.484416007995605469e+00,4.321543693542480469e+00,1.441152572631835938e+00,1.408944606781005859e+00,3.896939277648925781e+00,1.356513619422912598e+00,3.657374143600463867e+00,1.365981698036193848e+00,1.325141787528991699e+00,1.293874859809875488e+00,1.265773892402648926e+00,1.254377007484436035e+00,1.246226310729980469e+00,1.264333605766296387e+00,1.289018154144287109e+00,1.469910979270935059e+00,2.797491550445556641e+00,2.733230829238891602e+00,2.671855926513671875e+00,1.615341782569885254e+00,1.544885277748107910e+00,2.503225803375244141e+00,2.451648473739624023e+00,2.402153491973876953e+00,2.354617834091186523e+00,2.308926582336425781e+00,2.264975070953369141e+00,2.222665309906005859e+00,2.181907653808593750e+00,2.142617702484130859e+00,2.104717493057250977e+00,2.068135023117065430e+00,2.032802581787109375e+00,1.998656868934631348e+00,1.965639472007751465e+00,1.933695316314697266e+00,1.902772545814514160e+00,1.872823476791381836e+00,1.843802452087402344e+00
5.000000000000000000e+00,5.000000000000000000e+00,5.000000000000000000e+00,5.000000000000000000e+00,5.000000000000000000e+00,5.000000000000000000e+00,5.000000000000000000e+00,5.000000000000000000e+00,5.000000000000000000e+00,5.000000000000000000e+00,5.000000000000000000e+00,5.000000000000000000e+00,5.000000000000000000e+00,5.000000000000000000e+00,5.000000000000000000e+00,5.000000000000000000e+00,5.000000000000000000e+00,5.000000000000000000e+00,5.000000000000000000e+00,5.000000000000000000e+00,5.000000000000000000e+00,5.000000000000000000e+00,5.000000000000000000e+00,5.000000000000000000e+00,5.000000000000000000e+00,5.000000000000000000e+00,5.000000000000000000e+00,5.000000000000000000e+00,5.000000000000000000e+00,5.000000000000000000e+00,5.000000000000000000e+00,5.000000000000000000e+00,5.000000000000000000e+00,5.000000000000000000e+00,5.000000000000000000e+00,5.000000000000000000e+00,5.000000000000000000e+00,5.000000000000000000e+00,5.000000000000000000e+00,4.850131034851074219e+00,4.660173416137695312e+00,4.484534263610839844e+00,4.321654319763183594e+00,4.170191287994384766e+00,1.398061752319335938e+00,1.374052405357360840e+00,1.348093748092651367e+00,3.657453060150146484e+00,1.376734256744384766e+00,1.333579182624816895e+00,1.297801852226257324e+00,1.264701843261718750e+00,1.248438119888305664e+00,1.237349748611450195e+00,1.242159366607666016e+00,1.265977263450622559e+00,1.468849658966064453e+00,2.797537803649902344e+00,2.733274936676025391e+00,2.671898126602172852e+00,1.631220221519470215e+00,1.577000141143798828e+00,2.503262758255004883e+00,2.451683998107910156e+00,2.402187585830688477e+00,2.354650497436523438e+00,2.308958053588867188e+00,2.265005350112915039e+00,2.222694635391235352e+00,2.181935787200927734e+00,2.142644643783569336e+00,2.104743719100952148e+00,2.068160295486450195e+00,2.032826900482177734e+00,1.998680472373962402e+00,1.965662479400634766e+00,1.933717370033264160e+00,1.902794003486633301e+00,1.872844219207763672e+00,1.843822479248046875e+00
5.000000000000000000e+00,5.000000000000000000e+00,5.000000000000000000e+00,5.000000000000000000e+00,5.000000000000000000e+00,5.000000000000000000e+00,5.000000000000000000e+00,5.000000000000000000e+00,5.000000000000000000e+00,5.000000000000000000e+00,5.000000000000000000e+00,5.000000000000000000e+00,5.000000000000000000e+00,5.000000000000000000e+00,5.000000000000000000e+00,5.000000000000000000e+00,5.000000000000000000e+00,5.000000000000000000e+00,5.000000000000000000e+00,5.000000000000000000e+00,5.000000000000000000e+00,5.000000000000000000e+00,5.000000000000000000e+00,5.000000000000000000e+00,5.000000000000000000e+00,5.000000000000000000e+00,5.000000000000000000e+00,5.000000000000000000e+00,5.000000000000000000e+00,5.000000000000000000e+00,5.000000000000000000e+00,5.000000000000000000e+00,5.000000000000000000e+00,5.000000000000000000e+00,5.000000000000000000e+00,5.000000000000000000e+00,5.000000000000000000e+00,5.000000000000000000e+00,5.000000000000000000e+00,4.850270271301269531e+00,4.660301685333251953e+00,4.484653472900390625e+00,4.321764469146728516e+00,4.170293807983398438e+00,1.388504028320312500e+00,1.362737178802490234e+00,3.773526430130004883e+00,3.657532453536987305e+00,3.548456192016601562e+00,1.342839241027832031e+00,1.302678227424621582e+00,1.269650459289550781e+00,1.242669582366943359e+00,1.232480883598327637e+00,1.228312134742736816e+00,1.246922612190246582e+00,1.463783740997314453e+00,2.797583818435668945e+00,2.733319044113159180e+00,2.671940326690673828e+00,2.613257646560668945e+00,2.557097196578979492e+00,1.566062331199645996e+00,2.451719522476196289e+00,2.402221679687500000e+00,2.354683160781860352e+00,2.308989524841308594e+00,2.265035629272460938e+00,2.222723722457885742e+00,2.181963920593261719e+00,2.142671823501586914e+00,2.104769945144653320e+00,2.068185329437255859e+00,2.032851219177246094e+00,1.998704075813293457e+00,1.965685248374938965e+00,1.933739423751831055e+00,1.902815580368041992e+00,1.872864961624145508e+00,1.843842744827270508e+00
5.000000000000000000e+00,5.000000000000000000e+00,5.000000000000000000e+00,5.000000000000000000e+00,5.000000000000000000e+00,5.000000000000000000e+00,5.000000000000000000e+00,5.000000000000000000e+00,5.000000000000000000e+00,5.000000000000000000e+00,5.000000000000000000e+00,5.000000000000000000e+00,5.000000000000000000e+00,5.000000000000000000e+00,5.000000000000000000e+00,5.000000000000000000e+00,5.000000000000000000e+00,5.000000000000000000e+00,5.000000000000000000e+00,5.000000000000000000e+00,5.000000000000000000e+00,5.000000000000000000e+00,5.000000000000000000e+00,5.000000000000000000e+00,5.000000000000000000e+00,5.000000000000000000e+00,5.000000000000000000e+00,5.000000000000000000e+00,5.000000000000000000e+00,5.000000000000000000e+00,5.000000000000000000e+00,5.000000000000000000e+00,5.000000000000000000e+00,5.000000000000000000e+00,5.000000000000000000e+00,5.000000000000000000e+00,5.000000000000000000e+00,5.000000000000000000e+00,5.000000000000000000e+00,4.850409030914306641e+00,4.660429954528808594e+00,4.484772205352783203e+00,4.321874618530273438e+00,4.170396804809570312e+00,4.029177188873291016e+00,3.897208690643310547e+00,3.773610591888427734e+00,3.657611370086669922e+00,3.548530817031860352e+00,1.348736166954040527e+00,1.310559630393981934e+00,1.274638056755065918e+00,1.242325901985168457e+00,1.229640960693359375e+00,1.222932696342468262e+00,1.240571498870849609e+00,1.462823867797851562e+00,2.797630310058593750e+00,2.733363151550292969e+00,2.671982526779174805e+00,2.613297939300537109e+00,2.557135820388793945e+00,2.503336906433105469e+00,2.451755046844482422e+00,2.402256011962890625e+00,2.354716062545776367e+00,2.309020996093750000e+00,2.265065908432006836e+00,2.222753047943115234e+00,2.181992053985595703e+00,2.142699003219604492e+00,2.104796171188354492e+00,2.068210840225219727e+00,2.032875776290893555e+00,1.998727679252624512e+00,1.965708136558532715e+00,1.933761477470397949e+00,1.902836918830871582e+00,1.872885584831237793e+00,1.843862891197204590e+00
5.000000000000000000e+00,5.000000000000000000e+00,5.000000000000000000e+00,5.000000000000000000e+00,5.000000000000000000e+00,5.000000000000000000e+00,5.000000000000000000e+00,5.000000000000000000e+00,5.000000000000000000e+00,5.000000000000000000e+00,5.000000000000000000e+00,5.000000000000000000e+00,5.000000000000000000e+00,5.000000000000000000e+00,5.000000000000000000e+00,5.000000000000000000e+00,5.000000000000000000e+00,5.000000000000000000e+00,5.000000000000000000e+00,5.000000000000000000e+00,5.000000000000000000e+00,5.000000000000000000e+00,5.000000000000000000e+00,5.000000000000000000e+00,5.000000000000000000e+00,5.000000000000000000e+00,5.000000000000000000e+00,5.000000000000000000e+00,5.000000000000000000e+00,5.000000000000000000e+00,5.000000000000000000e+00,5.000000000000000000e+00,5.000000000000000000e+00,5.000000000000000000e+00,5.000000000000000000e+00,5.000000000000000000e+00,5.000000000000000000e+00,5.000000000000000000e+00,5.000000000000000000e+00,4.850548267364501953e+00,4.660558700561523438e+00,4.484890937805175781e+00,4.321985244750976562e+00,4.170499324798583984e+00,4.029273033142089844e+00,3.897298336029052734e+00,3.773694515228271484e+00,3.657690286636352539e+00,3.548605203628540039e+00,3.445838212966918945e+00,1.316246628761291504e+00,1.280447721481323242e+00,1.246965527534484863e+00,1.230591535568237305e+00,1.221808433532714844e+00,1.236832261085510254e+00,1.461865544319152832e+00,2.797676563262939453e+00,2.733407497406005859e+00,2.672024726867675781e+00,2.613338470458984375e+00,2.557174444198608398e+00,2.503373861312866211e+00,2.451790571212768555e+00,2.402289867401123047e+00,2.354748725891113281e+00,2.309052467346191406e+00,2.265096426010131836e+00,2.222782373428344727e+00,2.182020187377929688e+00,2.142726182937622070e+00,2.104822397232055664e+00,2.068236112594604492e+00,2.032900333404541016e+00,1.998751401901245117e+00,1.965730905532836914e+00,1.933783769607543945e+00,1.902858257293701172e+00,1.872906327247619629e+00,1.843882918357849121e+00
5.000000000000000000e+00,5.000000000000000000e+00,5.000000000000000000e+00,5.000000000000000000e+00,5.000000000000000000e+00,5.000000000000000000e+00,5.000000000000000000e+00,5.000000000000000000e+00,5.000000000000000000e+00,5.000000000000000000e+00,5.000000000000000000e+00,5.000000000000000000e+00,5.000000000000000000e+00,5.000000000000000000e+00,5.000000000000000000e+00,5.000000000000000000e+00,5.000000000000000000e+00,5.000000000000000000e+00,5.000000000000000000e+00,5.000000000000000000e+00,5.000000000000000000e+00,5.000000000000000000e+00,5.000000000000000000e+00,5.000000000000000000e+00,5.000000000000000000e+00,5.000000000000000000e+00,5.000000000000000000e+00,5.000000000000000000e+00,5.000000000000000000e+00,5.000000000000000000e+00,5.000000000000000000e+00,5.000000000000000000e+00,5.000000000000000000e+00,5.000000000000000000e+00,5.000000000000000000e+00,5.000000000000000000e+00,5.000000000000000000e+00,5.000000000000000000e+00,5.000000000000000000e+00,4.850687026977539062e+00,4.660686492919921875e+00,4.485010147094726562e+00,4.322095870971679688e+00,4.170602321624755859e+00,4.029368877410888672e+00,3.897388219833374023e+00,3.773778915405273438e+00,3.657769203186035156e+00,3.548679590225219727e+00,3.445908308029174805e+00,1.322144389152526855e+00,1.279788732528686523e+00,1.249454379081726074e+00,1.233933329582214355e+00,1.228253483772277832e+00,1.243929028511047363e+00,1.460908412933349609e+00,2.797722816467285156e+00,2.733451366424560547e+00,2.672066926956176758e+00,2.613378763198852539e+00,2.557213306427001953e+00,2.503411054611206055e+00,2.451825857162475586e+00,2.402323961257934570e+00,2.354781389236450195e+00,2.309083938598632812e+00,2.265126705169677734e+00,2.222811460494995117e+00,2.182048320770263672e+00,2.142753362655639648e+00,2.104848384857177734e+00,2.068261384963989258e+00,2.032924652099609375e+00,1.998775005340576172e+00,1.965753674507141113e+00,1.933805823326110840e+00,1.902879595756530762e+00,1.872927188873291016e+00,1.843902945518493652e+00
5.000000000000000000e+00,5.000000000000000000e+00,5.000000000000000000e+00,5.000000000000000000e+00,5.000000000000000000e+00,5.000000000000000000e+00,5.000000000000000000e+00,5.000000000000000000e+00,5.000000000000000000e+00,5.000000000000000000e+00,5.000000000000000000e+00,5.000000000000000000e+00,5.000000000000000000e+00,5.000000000000000000e+00,5.000000000000000000e+00,5.000000000000000000e+00,5.000000000000000000e+00,5.000000000000000000e+00,5.000000000000000000e+00,5.000000000000000000e+00,5.000000000000000000e+00,5.000000000000000000e+00,5.000000000000000000e+00,5.000000000000000000e+00,5.000000000000000000e+00,5.000000000000000000e+00,5.000000000000000000e+00,5.000000000000000000e+00,5.000000000000000000e+00,5.000000000000000000e+00,5.000000000000000000e+00,5.000000000000000000e+00,5.000000000000000000e+00,5.000000000000000000e+00,5.000000000000000000e+00,5.000000000000000000e+00,5.000000000000000000e+00,5.000000000000000000e+00,5.000000000000000000e+00,4.850826263427734375e+00,4.660815238952636719e+00,4.485128879547119141e+00,4.322206020355224609e+00,4.170705318450927734e+00,4.029465198516845703e+00,3.897477865219116211e+00,3.773863077163696289e+00,3.657848596572875977e+00,3.548754215240478516e+00,3.445978403091430664e+00,1.314242124557495117e+00,1.278504610061645508e+00,1.257285833358764648e+00,1.242296218872070312e+00,1.241228342056274414e+00,1.258281826972961426e+00,1.458946585655212402e+00,2.797768831253051758e+00,2.733495473861694336e+00,2.672109127044677734e+00,2.613419055938720703e+00,2.557251930236816406e+00,2.503448009490966797e+00,2.451861619949340820e+00,2.402358293533325195e+00,2.354814291000366211e+00,2.309115409851074219e+00,2.265156984329223633e+00,2.222840547561645508e+00,2.182076454162597656e+00,2.142780542373657227e+00,2.104874610900878906e+00,2.068286657333374023e+00,2.032948970794677734e+00,1.998798608779907227e+00,1.965776562690734863e+00,1.933827877044677734e+00,1.902901053428649902e+00,1.872947931289672852e+00,1.843922972679138184e+00
5.000000000000000000e+00,5.000000000000000000e+00,5.000000000000000000e+00,5.000000000000000000e+00,5.000000000000000000e+00,5.000000000000000000e+00,5.000000000000000000e+00,5.000000000000000000e+00,5.000000000000000000e+00,5.000000000000000000e+00,5.000000000000000000e+00,5.000000000000000000e+00,5.000000000000000000e+00,5.000000000000000000e+00,5.000000000000000000e+00,5.000000000000000000e+00,5.000000000000000000e+00,5.000000000000000000e+00,5.000000000000000000e+00,5.000000000000000000e+00,5.000000000000000000e+00,5.000000000000000000e+00,5.000000000000000000e+00,5.000000000000000000e+00,5.000000000000000000e+00,5.000000000000000000e+00,5.000000000000000000e+00,5.000000000000000000e+00,5.000000000000000000e+00,5.000000000000000000e+00,5.000000000000000000e+00,5.000000000000000000e+00,5.000000000000000000e+00,5.000000000000000000e+00,5.000000000000000000e+00,5.000000000000000000e+00,5.000000000000000000e+00,5.000000000000000000e+00,5.000000000000000000e+00,4.850965499877929688e+00,4.660943508148193359e+00,4.485247611999511719e+00,4.322316646575927734e+00,4.170807838439941406e+00,4.029561042785644531e+00,3.897567510604858398e+00,3.773947000503540039e+00,3.657927513122558594e+00,3.548828601837158203e+00,1.363628745079040527e+00,1.307751059532165527e+00,1.282865166664123535e+00,1.269965648651123047e+00,1.254916191101074219e+00,1.264638304710388184e+00,1.452055811882019043e+00,1.459742307662963867e+00,2.797815322875976562e+00,2.733539819717407227e+00,2.672151327133178711e+00,2.613459348678588867e+00,2.557290315628051758e+00,2.503484964370727539e+00,2.451897144317626953e+00,2.402392387390136719e+00,2.354847192764282227e+00,2.309147119522094727e+00,2.265187263488769531e+00,2.222869873046875000e+00,2.182104587554931641e+00,2.142807483673095703e+00,2.104900836944580078e+00,2.068311929702758789e+00,2.032973527908325195e+00,1.998822212219238281e+00,1.965799570083618164e+00,1.933849930763244629e+00,1.902922391891479492e+00,1.872968673706054688e+00,1.843943119049072266e+00
5.000000000000000000e+00,5.000000000000000000e+00,5.000000000000000000e+00,5.000000000000000000e+00,5.000000000000000000e+00,5.000000000000000000e+00,5.000000000000000000e+00,5.000000000000000000e+00,5.000000000000000000e+00,5.000000000000000000e+00,5.000000000000000000e+00,5.000000000000000000e+00,5.000000000000000000e+00,5.000000000000000000e+00,5.000000000000000000e+00,5.000000000000000000e+00,5.000000000000000000e+00,5.000000000000000000e+00,5.000000000000000000e+00,5.000000000000000000e+00,5.000000000000000000e+00,5.000000000000000000e+00,5.000000000000000000e+00,5.000000000000000000e+00,5.000000000000000000e+00,5.000000000000000000e+00,5.000000000000000000e+00,5.000000000000000000e+00,5.000000000000000000e+00,5.000000000000000000e+00,5.000000000000000000e+00,5.000000000000000000e+00,5.000000000000000000e+00,5.000000000000000000e+00,5.000000000000000000e+00,5.000000000000000000e+00,5.000000000000000000e+00,5.000000000000000000e+00,5.000000000000000000e+00,4.851104259490966797e+00,4.661071777343750000e+00,4.485366821289062500e+00,4.322426795959472656e+00,4.170910835266113281e+00,4.029656887054443359e+00,3.897657632827758789e+00,3.774031162261962891e+00,3.658006429672241211e+00,3.548902750015258789e+00,1.342007994651794434e+00,1.312054872512817383e+00,1.290823101997375488e+00,1.282903790473937988e+00,1.271059393882751465e+00,1.295939207077026367e+00,1.456721544265747070e+00,1.464011549949645996e+00,2.797861576080322266e+00,2.733583927154541016e+00,2.672193527221679688e+00,2.613499879837036133e+00,2.557329177856445312e+00,2.503521919250488281e+00,2.451932668685913086e+00,2.402426242828369141e+00,2.354879856109619141e+00,2.309178590774536133e+00,2.265217542648315430e+00,2.222898960113525391e+00,2.182132720947265625e+00,2.142834663391113281e+00,2.104927062988281250e+00,2.068337202072143555e+00,2.032997846603393555e+00,1.998845696449279785e+00,1.965822339057922363e+00,1.933872103691101074e+00,1.902943968772888184e+00,1.872989296913146973e+00,1.843963146209716797e+00
5.000000000000000000e+00,5.000000000000000000e+00,5.000000000000000000e+00,5.000000000000000000e+00,5.000000000000000000e+00,5.000000000000000000e+00,5.000000000000000000e+00,5.000000000000000000e+00,5.000000000000000000e+00,5.000000000000000000e+00,5.000000000000000000e+00,5.000000000000000000e+00,5.000000000000000000e+00,5.000000000000000000e+00,5.000000000000000000e+00,5.000000000000000000e+00,5.000000000000000000e+00,5.000000000000000000e+00,5.000000000000000000e+00,5.000000000000000000e+00,5.000000000000000000e+00,5.000000000000000000e+00,5.000000000000000000e+00,5.000000000000000000e+00,5.000000000000000000e+00,5.000000000000000000e+00,5.000000000000000000e+00,5.000000000000000000e+00,5.000000000000000000e+00,5.000000000000000000e+00,5.000000000000000000e+00,5.000000000000000000e+00,5.000000000000000000e+00,5.000000000000000000e+00,5.000000000000000000e+00,5.000000000000000000e+00,5.000000000000000000e+00,5.000000000000000000e+00,5.000000000000000000e+00,4.851243495941162109e+00,4.661200523376464844e+00,4.485485553741455078e+00,4.322537422180175781e+00,4.171013355255126953e+00,4.029752731323242188e+00,3.897747278213500977e+00,3.774115562438964844e+00,3.658085823059082031e+00,3.548977613449096680e+00,1.342603802680969238e+00,1.319978237152099609e+00,1.304191946983337402e+00,1.296108245849609375e+00,1.295619368553161621e+00,1.465441942214965820e+00,1.470084071159362793e+00,2.865283489227294922e+00,2.797907829284667969e+00,2.733628034591674805e+00,2.672235727310180664e+00,2.613540172576904297e+00,2.557367801666259766e+00,2.503559112548828125e+00,2.451968193054199219e+00,2.402460575103759766e+00,2.354912519454956055e+00,2.309210062026977539e+00,2.265247821807861328e+00,2.222928285598754883e+00,2.182160854339599609e+00,2.142861843109130859e+00,2.104953289031982422e+00,2.068362474441528320e+00,2.033022165298461914e+00,1.998869299888610840e+00,1.965845108032226562e+00,1.933894157409667969e+00,1.902965307235717773e+00,1.873010039329528809e+00,1.843983411788940430e+00
5.000000000000000000e+00,5.000000000000000000e+00,5.000000000000000000e+00,5.000000000000000000e+00,5.000000000000000000e+00,5.000000000000000000e+00,5.000000000000000000e+00,5.000000000000000000e+00,5.000000000000000000e+00,5.000000000000000000e+00,5.000000000000000000e+00,5.000000000000000000e+00,5.000000000000000000e+00,5.000000000000000000e+00,5.000000000000000000e+00,5.000000000000000000e+00,5.000000000000000000e+00,5.000000000000000000e+00,5.000000000000000000e+00,5.000000000000000000e+00,5.000000000000000000e+00,5.000000000000000000e+00,5.000000000000000000e+00,5.000000000000000000e+00,5.000000000000000000e+00,5.000000000000000000e+00,5.000000000000000000e+00,5.000000000000000000e+00,5.000000000000000000e+00,5.000000000000000000e+00,5.000000000000000000e+00,5.000000000000000000e+00,5.000000000000000000e+00,5.000000000000000000e+00,5.000000000000000000e+00,5.000000000000000000e+00,5.000000000000000000e+00,5.000000000000000000e+00,5.000000000000000000e+00,4.851382255554199219e+00,4.661328792572021484e+00,4.485604763031005859e+00,4.322648048400878906e+00,4.171116352081298828e+00,4.029848575592041016e+00,3.897836923599243164e+00,3.774199724197387695e+00,3.658164739608764648e+00,3.549051761627197266e+00,1.350871682167053223e+00,1.327983260154724121e+00,1.317380666732788086e+00,1.309587359428405762e+00,1.340235352516174316e+00,1.483382225036621094e+00,1.488138794898986816e+00,2.865331888198852539e+00,2.797954320907592773e+00,2.733672380447387695e+00,2.672277927398681641e+00,2.613580465316772461e+00,2.557406425476074219e+00,2.503596067428588867e+00,2.452003717422485352e+00,2.402494668960571289e+00,2.354945421218872070e+00,2.309241771697998047e+00,2.265278100967407227e+00,2.222957372665405273e+00,2.182188987731933594e+00,2.142889022827148438e+00,2.104979515075683594e+00,2.068387746810913086e+00,2.033046722412109375e+00,1.998893141746520996e+00,1.965867996215820312e+00,1.933916211128234863e+00,1.902986645698547363e+00,1.873030781745910645e+00,1.844003438949584961e+00
5.000000000000000000e+00,5.000000000000000000e+00,5.000000000000000000e+00,5.000000000000000000e+00,5.000000000000000000e+00,5.000000000000000000e+00,5.000000000000000000e+00,5.000000000000000000e+00,5.000000000000000000e+00,5.000000000000000000e+00,5.000000000000000000e+00,5.000000000000000000e+00,5.000000000000000000e+00,5.000000000000000000e+00,5.000000000000000000e+00,5.000000000000000000e+00,5.000000000000000000e+00,5.000000000000000000e+00,5.000000000000000000e+00,5.000000000000000000e+00,5.000000000000000000e+00,5.000000000000000000e+00,5.000000000000000000e+00,5.000000000000000000e+00,5.000000000000000000e+00,5.000000000000000000e+00,5.000000000000000000e+00,5.000000000000000000e+00,5.000000000000000000e+00,5.000000000000000000e+00,5.000000000000000000e+00,5.000000000000000000e+00,5.000000000000000000e+00,5.000000000000000000e+00,5.000000000000000000e+00,5.000000000000000000e+00,5.000000000000000000e+00,5.000000000000000000e+00,5.000000000000000000e+00,4.851521492004394531e+00,4.661457061767578125e+00,4.485723495483398438e+00,4.322758197784423828e+00,4.171219348907470703e+00,4.029944896697998047e+00,3.897926568984985352e+00,3.774283647537231445e+00,3.658243656158447266e+00,1.414568424224853516e+00,1.359226822853088379e+00,1.336305260658264160e+00,1.326356172561645508e+00,1.320525646209716797e+00,1.362051010131835938e+00,1.501767277717590332e+00,2.936085700988769531e+00,2.865380287170410156e+00,2.798000335693359375e+00,2.733716487884521484e+00,2.672320127487182617e+00,2.613620996475219727e+00,2.557445049285888672e+00,2.503633022308349609e+00,2.452039241790771484e+00,2.402528762817382812e+00,2.354978084564208984e+00,2.309273242950439453e+00,2.265308618545532227e+00,2.222986698150634766e+00,2.182217121124267578e+00,2.142915964126586914e+00,2.105005502700805664e+00,2.068413019180297852e+00,2.033071279525756836e+00,1.998916745185852051e+00,1.965890765190124512e+00,1.933938503265380859e+00,1.903008103370666504e+00,1.873051404953002930e+00,1.844023585319519043e+00
5.000000000000000000e+00,5.000000000000000000e+00,5.000000000000000000e+00,5.000000000000000000e+00,5.000000000000000000e+00,5.000000000000000000e+00,5.000000000000000000e+00,5.000000000000000000e+00,5.000000000000000000e+00,5.000000000000000000e+00,5.000000000000000000e+00,5.000000000000000000e+00,5.000000000000000000e+00,5.000000000000000000e+00,5.000000000000000000e+00,5.000000000000000000e+00,5.000000000000000000e+00,5.000000000000000000e+00,5.000000000000000000e+00,5.000000000000000000e+00,5.000000000000000000e+00,5.000000000000000000e+00,5.000000000000000000e+00,5.000000000000000000e+00,5.000000000000000000e+00,5.000000000000000000e+00,5.000000000000000000e+00,5.000000000000000000e+00,5.000000000000000000e+00,5.000000000000000000e+00,5.000000000000000000e+00,5.000000000000000000e+00,5.000000000000000000e+00,5.000000000000000000e+00,5.000000000000000000e+00,5.000000000000000000e+00,5.000000000000000000e+00,5.000000000000000000e+00,5.000000000000000000e+00,4.851660728454589844e+00,4.661585330963134766e+00,4.485842227935791016e+00,4.322868824005126953e+00,4.171321868896484375e+00,4.030040740966796875e+00,3.898016691207885742e+00,3.774368286132812500e+00,3.658323049545288086e+00,1.401603937149047852e+00,1.367685794830322266e+00,1.345077276229858398e+00,1.335454821586608887e+00,1.343089103698730469e+00,1.519245147705078125e+00,3.010422229766845703e+00,2.936136722564697266e+00,2.865428924560546875e+00,2.798046588897705078e+00,2.733760595321655273e+00,2.672362327575683594e+00,2.613661289215087891e+00,2.557483673095703125e+00,2.503670215606689453e+00,2.452074766159057617e+00,2.402562856674194336e+00,2.355010986328125000e+00,2.309304714202880859e+00,2.265338897705078125e+00,2.223015785217285156e+00,2.182245254516601562e+00,2.142943382263183594e+00,2.105031728744506836e+00,2.068438291549682617e+00,2.033095598220825195e+00,1.998940229415893555e+00,1.965913534164428711e+00,1.933960556983947754e+00,1.903029441833496094e+00,1.873072385787963867e+00,1.844043612480163574e+00
5.000000000000000000e+00,5.000000000000000000e+00,5.000000000000000000e+00,5.000000000000000000e+00,5.000000000000000000e+00,5.000000000000000000e+00,5.000000000000000000e+00,5.000000000000000000e+00,5.000000000000000000e+00,5.000000000000000000e+00,5.000000000000000000e+00,5.000000000000000000e+00,5.000000000000000000e+00,5.000000000000000000e+00,5.000000000000000000e+00,5.000000000000000000e+00,5.000000000000000000e+00,5.000000000000000000e+00,5.000000000000000000e+00,5.000000000000000000e+00,5.000000000000000000e+00,5.000000000000000000e+00,5.000000000000000000e+00,5.000000000000000000e+00,5.000000000000000000e+00,5.000000000000000000e+00,5.000000000000000000e+00,5.000000000000000000e+00,5.000000000000000000e+00,5.000000000000000000e+00,5.000000000000000000e+00,5.000000000000000000e+00,5.000000000000000000e+00,5.000000000000000000e+00,5.000000000000000000e+00,5.000000000000000000e+00,5.000000000000000000e+00,5.000000000000000000e+00,5.000000000000000000e+00,4.851798057556152344e+00,4.661714076995849609e+00,4.485961437225341797e+00,4.322978973388671875e+00,4.171424865722656250e+00,4.030136585235595703e+00,3.898106336593627930e+00,3.774452209472656250e+00,3.658402204513549805e+00,1.400848865509033203e+00,1.376566529273986816e+00,1.354907631874084473e+00,1.344679117202758789e+00,1.365543961524963379e+00,1.531201601028442383e+00,3.010475873947143555e+00,2.936187744140625000e+00,2.865477561950683594e+00,2.798093080520629883e+00,2.733804702758789062e+00,2.672404527664184570e+00,2.613701581954956055e+00,2.557522296905517578e+00,2.503707170486450195e+00,2.452110290527343750e+00,2.402596950531005859e+00,2.355043888092041016e+00,2.309336185455322266e+00,2.265369176864624023e+00,2.223045110702514648e+00,2.182273387908935547e+00,2.142970323562622070e+00,2.105057954788208008e+00,2.068463563919067383e+00,2.033120155334472656e+00,1.998963832855224609e+00,1.965936422348022461e+00,1.933982610702514648e+00,1.903050780296325684e+00,1.873093008995056152e+00,1.844063639640808105e+00
5.000000000000000000e+00,5.000000000000000000e+00,5.000000000000000000e+00,5.000000000000000000e+00,5.000000000000000000e+00,5.000000000000000000e+00,5.000000000000000000e+00,5.000000000000000000e+00,5.000000000000000000e+00,5.000000000000000000e+00,5.000000000000000000e+00,5.000000000000000000e+00,5.000000000000000000e+00,5.000000000000000000e+00,5.000000000000000000e+00,5.000000000000000000e+00,5.000000000000000000e+00,5.000000000000000000e+00,5.000000000000000000e+00,5.000000000000000000e+00,5.000000000000000000e+00,5.000000000000000000e+00,5.000000000000000000e+00,5.000000000000000000e+00,5.000000000000000000e+00,5.000000000000000000e+00,5.000000000000000000e+00,5.000000000000000000e+00,5.000000000000000000e+00,5.000000000000000000e+00,5.000000000000000000e+00,5.000000000000000000e+00,5.000000000000000000e+00,5.000000000000000000e+00,5.000000000000000000e+00,5.000000000000000000e+00,5.000000000000000000e+00,5.000000000000000000e+00,5.000000000000000000e+00,4.851936340332031250e+00,4.661842346191406250e+00,4.486080169677734375e+00,4.323089599609375000e+00,4.171527862548828125e+00,4.030232906341552734e+00,3.898195981979370117e+00,3.774536371231079102e+00,3.658481121063232422e+00,1.409885525703430176e+00,1.385567903518676758e+00,1.364882826805114746e+00,1.354031801223754883e+00,1.386541366577148438e+00,1.550640463829040527e+00,3.010529279708862305e+00,2.936238527297973633e+00,2.865525960922241211e+00,2.798139333724975586e+00,2.733849048614501953e+00,2.672446727752685547e+00,2.613742113113403320e+00,2.557560920715332031e+00,2.503744363784790039e+00,2.452145814895629883e+00,2.402631044387817383e+00,2.355076551437377930e+00,2.309367656707763672e+00,2.265399694442749023e+00,2.223074197769165039e+00,2.182301521301269531e+00,2.142997503280639648e+00,2.105084180831909180e+00,2.068488836288452148e+00,2.033144474029541016e+00,1.998987436294555664e+00,1.965959429740905762e+00,1.934004664421081543e+00,1.903072237968444824e+00,1.873113751411437988e+00,1.844083786010742188e+00
5.000000000000000000e+00,5.000000000000000000e+00,5.000000000000000000e+00,5.000000000000000000e+00,5.000000000000000000e+00,5.000000000000000000e+00,5.000000000000000000e+00,5.000000000000000000e+00,5.000000000000000000e+00,5.000000000000000000e+00,5.000000000000000000e+00,5.000000000000000000e+00,5.000000000000000000e+00,5.000000000000000000e+00,5.000000000000000000e+00,5.000000000000000000e+00,5.000000000000000000e+00,5.000000000000000000e+00,5.000000000000000000e+00,5.000000000000000000e+00,5.000000000000000000e+00,5.000000000000000000e+00,5.000000000000000000e+00,5.000000000000000000e+00,5.000000000000000000e+00,5.000000000000000000e+00,5.000000000000000000e+00,5.000000000000000000e+00,5.000000000000000000e+00,5.000000000000000000e+00,5.000000000000000000e+00,5.000000000000000000e+00,5.000000000000000000e+00,5.000000000000000000e+00,5.000000000000000000e+00,5.000000000000000000e+00,5.000000000000000000e+00,5.000000000000000000e+00,5.000000000000000000e+00,4.852074146270751953e+00,4.661968708038330078e+00,4.486199378967285156e+00,4.323200225830078125e+00,4.171630382537841797e+00,4.030328750610351562e+00,3.898286104202270508e+00,3.774620771408081055e+00,3.658560037612915039e+00,1.419872522354125977e+00,1.394925355911254883e+00,1.375005960464477539e+00,1.369055271148681641e+00,1.546813249588012695e+00,3.088733434677124023e+00,3.010583162307739258e+00,2.936289548873901367e+00,2.865574359893798828e+00,2.798185348510742188e+00,2.733893156051635742e+00,2.672488927841186523e+00,2.613782405853271484e+00,2.557599782943725586e+00,2.503781557083129883e+00,2.452181339263916016e+00,2.402665138244628906e+00,2.355109214782714844e+00,2.309399127960205078e+00,2.265429973602294922e+00,2.223103523254394531e+00,2.182329654693603516e+00,2.143024682998657227e+00,2.105110406875610352e+00,2.068514108657836914e+00,2.033168792724609375e+00,1.999011039733886719e+00,1.965982198715209961e+00,1.934026718139648438e+00,1.903093814849853516e+00,1.873134493827819824e+00,1.844103813171386719e+00
5.000000000000000000e+00,5.000000000000000000e+00,5.000000000000000000e+00,5.000000000000000000e+00,5.000000000000000000e+00,5.000000000000000000e+00,5.000000000000000000e+00,5.000000000000000000e+00,5.000000000000000000e+00,5.000000000000000000e+00,5.000000000000000000e+00,5.000000000000000000e+00,5.000000000000000000e+00,5.000000000000000000e+00,5.000000000000000000e+00,5.000000000000000000e+00,5.000000000000000000e+00,5.000000000000000000e+00,5.000000000000000000e+00,5.000000000000000000e+00,5.000000000000000000e+00,5.000000000000000000e+00,5.000000000000000000e+00,5.000000000000000000e+00,5.000000000000000000e+00,5.000000000000000000e+00,5.000000000000000000e+00,5.000000000000000000e+00,5.000000000000000000e+00,5.000000000000000000e+00,5.000000000000000000e+00,5.000000000000000000e+00,5.000000000000000000e+00,5.000000000000000000e+00,5.000000000000000000e+00,5.000000000000000000e+00,5.000000000000000000e+00,5.000000000000000000e+00,5.000000000000000000e+00,4.852212429046630859e+00,4.662096023559570312e+00,4.486316204071044922e+00,4.323310375213623047e+00,4.171733379364013672e+00,4.030424594879150391e+00,3.898375988006591797e+00,3.774704933166503906e+00,3.658639430999755859e+00,1.430574774742126465e+00,1.405275464057922363e+00,1.389798998832702637e+00,1.392289161682128906e+00,1.553856134414672852e+00,3.088789701461791992e+00,3.010636568069458008e+00,2.936340570449829102e+00,2.865622997283935547e+00,2.798231601715087891e+00,2.733937263488769531e+00,2.672531127929687500e+00,2.613822698593139648e+00,2.557638406753540039e+00,2.503818511962890625e+00,2.452216863632202148e+00,2.402699470520019531e+00,2.355141878128051758e+00,2.309430599212646484e+00,2.265460252761840820e+00,2.223132610321044922e+00,2.182357788085937500e+00,2.143051862716674805e+00,2.105136632919311523e+00,2.068539619445800781e+00,2.033193349838256836e+00,1.999034643173217773e+00,1.966004967689514160e+00,1.934048891067504883e+00,1.903115153312683105e+00,1.873155117034912109e+00,1.844124078750610352e+00
5.000000000000000000e+00,5.000000000000000000e+00,5.000000000000000000e+00,5.000000000000000000e+00,5.000000000000000000e+00,5.000000000000000000e+00,5.000000000000000000e+00,5.000000000000000000e+00,5.000000000000000000e+00,5.000000000000000000e+00,5.000000000000000000e+00,5.000000000000000000e+00,5.000000000000000000e+00,5.000000000000000000e+00,5.000000000000000000e+00,5.000000000000000000e+00,5.000000000000000000e+00,5.000000000000000000e+00,5.000000000000000000e+00,5.000000000000000000e+00,5.000000000000000000e+00,5.000000000000000000e+00,5.000000000000000000e+00,5.000000000000000000e+00,5.000000000000000000e+00,5.000000000000000000e+00,5.000000000000000000e+00,5.000000000000000000e+00,5.000000000000000000e+00,5.000000000000000000e+00,5.000000000000000000e+00,5.000000000000000000e+00,5.000000000000000000e+00,5.000000000000000000e+00,5.000000000000000000e+00,5.000000000000000000e+00,5.000000000000000000e+00,5.000000000000000000e+00,5.000000000000000000e+00,4.852350234985351562e+00,4.662223339080810547e+00,4.486434459686279297e+00,4.323419094085693359e+00,4.171836376190185547e+00,4.030520439147949219e+00,3.898465633392333984e+00,3.774789094924926758e+00,3.658718347549438477e+00,1.441439747810363770e+00,1.416117429733276367e+00,1.405235528945922852e+00,1.416860938072204590e+00,1.560925006866455078e+00,3.088846206665039062e+00,3.010689973831176758e+00,2.936391353607177734e+00,2.865671634674072266e+00,2.798278093338012695e+00,2.733981609344482422e+00,2.672573566436767578e+00,2.613863229751586914e+00,2.557677030563354492e+00,2.503855466842651367e+00,2.452252388000488281e+00,2.402733325958251953e+00,2.355174779891967773e+00,2.309462308883666992e+00,2.265490531921386719e+00,2.223161697387695312e+00,2.182385921478271484e+00,2.143078804016113281e+00,2.105162620544433594e+00,2.068564653396606445e+00,2.033217668533325195e+00,1.999058365821838379e+00,1.966027855873107910e+00,1.934070944786071777e+00,1.903136491775512695e+00,1.873175859451293945e+00,1.844144105911254883e+00
5.000000000000000000e+00,5.000000000000000000e+00,5.000000000000000000e+00,5.000000000000000000e+00,5.000000000000000000e+00,5.000000000000000000e+00,5.000000000000000000e+00,5.000000000000000000e+00,5.000000000000000000e+00,5.000000000000000000e+00,5.000000000000000000e+00,5.000000000000000000e+00,5.000000000000000000e+00,5.000000000000000000e+00,5.000000000000000000e+00,5.000000000000000000e+00,5.000000000000000000e+00,5.000000000000000000e+00,5.000000000000000000e+00,5.000000000000000000e+00,5.000000000000000000e+00,5.000000000000000000e+00,5.000000000000000000e+00,5.000000000000000000e+00,5.000000000000000000e+00,5.000000000000000000e+00,5.000000000000000000e+00,5.000000000000000000e+00,5.000000000000000000e+00,5.000000000000000000e+00,5.000000000000000000e+00,5.000000000000000000e+00,5.000000000000000000e+00,5.000000000000000000e+00,5.000000000000000000e+00,5.000000000000000000e+00,5.000000000000000000e+00,5.000000000000000000e+00,5.000000000000000000e+00,4.852488517761230469e+00,4.662351131439208984e+00,4.486552238464355469e+00,4.323529243469238281e+00,4.171938896179199219e+00,4.030616760253906250e+00,3.898555755615234375e+00,3.774873018264770508e+00,1.502933382987976074e+00,1.452650070190429688e+00,1.427127957344055176e+00,1.421018719673156738e+00,1.568634748458862305e+00,3.171227931976318359e+00,3.088902711868286133e+00,3.010743618011474609e+00,2.936442375183105469e+00,2.865720033645629883e+00,2.798324346542358398e+00,2.734025716781616211e+00,2.672615528106689453e+00,2.613903760910034180e+00,2.557715654373168945e+00,2.503892421722412109e+00,2.452287912368774414e+00,2.402767419815063477e+00,2.355207681655883789e+00,2.309493780136108398e+00,2.265520811080932617e+00,2.223191022872924805e+00,2.182414293289184570e+00,2.143105983734130859e+00,2.105188846588134766e+00,2.068589925765991211e+00,2.033242225646972656e+00,1.999081969261169434e+00,1.966050624847412109e+00,1.934093236923217773e+00,1.903157949447631836e+00,1.873196601867675781e+00,1.844164252281188965e+00
4.875036716461181641e+00,4.873826503753662109e+00,4.872616291046142578e+00,4.871407032012939453e+00,4.870198249816894531e+00,4.868990421295166016e+00,4.867782592773437500e+00,4.866575717926025391e+00,4.865369319915771484e+00,4.864163875579833984e+00,4.862958908081054688e+00,4.861753940582275391e+00,4.860550403594970703e+00,4.859346866607666016e+00,4.858144283294677734e+00,4.856942176818847656e+00,4.855740547180175781e+00,4.854539871215820312e+00,4.853339672088623047e+00,4.852139949798583984e+00,4.850940704345703125e+00,4.849742412567138672e+00,4.848544120788574219e+00,4.847346782684326172e+00,4.846149921417236328e+00,4.844954013824462891e+00,4.843758106231689453e+00,4.842563152313232422e+00,4.841368675231933594e+00,4.840175151824951172e+00,4.838981628417968750e+00,4.837789058685302734e+00,4.836596965789794922e+00,4.835405349731445312e+00,4.834214210510253906e+00,4.833024024963378906e+00,4.831834316253662109e+00,4.830645084381103516e+00,4.829456806182861328e+00,4.828269004821777344e+00,4.662478446960449219e+00,4.486670494079589844e+00,4.323638916015625000e+00,4.172039985656738281e+00,4.030713081359863281e+00,3.898645401000976562e+00,3.774957656860351562e+00,3.658876895904541016e+00,1.464238286018371582e+00,1.438311100006103516e+00,1.437160611152648926e+00,1.576388359069824219e+00,3.171287059783935547e+00,3.088958978652954102e+00,3.010797262191772461e+00,2.936493396759033203e+00,2.865768671035766602e+00,2.798370599746704102e+00,2.734069824218750000e+00,2.672657728195190430e+00,2.613944053649902344e+00,2.557754278182983398e+00,2.503929615020751953e+00,2.452323675155639648e+00,2.402801752090454102e+00,2.355240345001220703e+00,2.309525251388549805e+00,2.265551090240478516e+00,2.223220348358154297e+00,2.182442426681518555e+00,2.143133163452148438e+00,2.105215072631835938e+00,2.068615436553955078e+00,2.033266544342041016e+00,1.999105572700500488e+00,1.966073393821716309e+00,1.934115290641784668e+00,1.903179287910461426e+00,1.873217463493347168e+00,1.844184279441833496e+00
3.777846813201904297e+00,3.777119636535644531e+00,3.776393175125122070e+00,3.775666475296020508e+00,3.774940490722656250e+00,3.774214506149291992e+00,3.773489236831665039e+00,3.772763967514038086e+00,3.772038698196411133e+00,3.771314144134521484e+00,3.770589590072631836e+00,3.769865512847900391e+00,3.769141435623168945e+00,3.768418073654174805e+00,3.767694473266601562e+00,3.766971588134765625e+00,3.766248703002929688e+00,3.765526294708251953e+00,3.764803886413574219e+00,3.764081954956054688e+00,3.763360261917114258e+00,3.762639045715332031e+00,3.761917591094970703e+00,3.761196851730346680e+00,3.760476112365722656e+00,3.759756088256835938e+00,3.759035825729370117e+00,3.758316278457641602e+00,3.757596969604492188e+00,3.756877660751342773e+00,3.756158828735351562e+00,3.755439996719360352e+00,3.754721879959106445e+00,3.754003524780273438e+00,3.753285884857177734e+00,3.752568006515502930e+00,3.751851081848144531e+00,3.751133680343627930e+00,3.750417232513427734e+00,3.749700546264648438e+00,3.748984575271606445e+00,3.748268365859985352e+00,3.747552871704101562e+00,3.746837377548217773e+00,3.746122598648071289e+00,3.745407581329345703e+00,3.744693040847778320e+00,3.658955812454223633e+00,1.484707355499267578e+00,1.468082308769226074e+00,1.584460854530334473e+00,3.258186817169189453e+00,3.171346426010131836e+00,3.089015245437622070e+00,3.010850667953491211e+00,2.936544418334960938e+00,2.865817308425903320e+00,2.798416852951049805e+00,2.734114170074462891e+00,2.672699928283691406e+00,2.613984346389770508e+00,2.557792901992797852e+00,2.503966569900512695e+00,2.452358961105346680e+00,2.402835845947265625e+00,2.355273246765136719e+00,2.309556961059570312e+00,2.265581369400024414e+00,2.223249435424804688e+00,2.182470321655273438e+00,2.143160343170166016e+00,2.105241298675537109e+00,2.068640708923339844e+00,2.033291101455688477e+00,1.999129176139831543e+00,1.966096282005310059e+00,1.934137344360351562e+00,1.903200626373291016e+00,1.873238205909729004e+00,1.844204306602478027e+00
3.083798170089721680e+00,3.083313941955566406e+00,3.082829475402832031e+00,3.082345485687255859e+00,3.081861495971679688e+00,3.081377744674682617e+00,3.080893993377685547e+00,3.080410718917846680e+00,3.079927206039428711e+00,3.079444169998168945e+00,3.078960895538330078e+00,3.078478097915649414e+00,3.077995300292968750e+00,3.077512741088867188e+00,3.077030181884765625e+00,3.076548099517822266e+00,3.076065778732299805e+00,3.075583934783935547e+00,3.075102090835571289e+00,3.074620246887207031e+00,3.074138879776000977e+00,3.073657274246215820e+00,3.073176383972167969e+00,3.072695016860961914e+00,3.072214126586914062e+00,3.071733236312866211e+00,3.071252822875976562e+00,3.070772171020507812e+00,3.070291996002197266e+00,3.069811582565307617e+00,3.069331645965576172e+00,3.068851709365844727e+00,3.068372011184692383e+00,3.067892313003540039e+00,3.067413091659545898e+00,3.066933631896972656e+00,3.066454648971557617e+00,3.065975666046142578e+00,3.065496921539306641e+00,3.065018415451049805e+00,3.064539670944213867e+00,3.064061403274536133e+00,3.063583135604858398e+00,3.063105106353759766e+00,3.062627077102661133e+00,3.062149286270141602e+00,3.061671495437622070e+00,1.553694605827331543e+00,1.486273407936096191e+00,1.469122052192687988e+00,1.592372298240661621e+00,3.059285640716552734e+00,3.058808803558349609e+00,3.058332443237304688e+00,3.010904312133789062e+00,2.936595201492309570e+00,2.865865707397460938e+00,2.798463106155395508e+00,2.734158277511596680e+00,2.672742366790771484e+00,2.614024877548217773e+00,2.557831525802612305e+00,2.504003524780273438e+00,2.452394485473632812e+00,2.402869939804077148e+00,2.355305910110473633e+00,2.309588432312011719e+00,2.265611886978149414e+00,2.223278760910034180e+00,2.182498455047607422e+00,2.143187522888183594e+00,2.105267524719238281e+00,2.068665981292724609e+00,2.033315420150756836e+00,1.999152779579162598e+00,1.966119289398193359e+00,1.934159398078918457e+00,1.903221964836120605e+00,1.873258948326110840e+00,1.844224452972412109e+00
2.605185508728027344e+00,2.604839801788330078e+00,2.604494094848632812e+00,2.604148626327514648e+00,2.603803157806396484e+00,2.603457927703857422e+00,2.603112697601318359e+00,2.602767467498779297e+00,2.602422475814819336e+00,2.602077245712280273e+00,2.601732492446899414e+00,2.601387500762939453e+00,2.601042985916137695e+00,2.600698232650756836e+00,2.600353717803955078e+00,2.600009202957153320e+00,2.599664926528930664e+00,2.599320650100708008e+00,2.598976373672485352e+00,2.598632335662841797e+00,2.598288297653198242e+00,2.597944498062133789e+00,2.597600698471069336e+00,2.597256898880004883e+00,2.596913337707519531e+00,2.596569776535034180e+00,2.596226453781127930e+00,2.595882892608642578e+00,2.595539808273315430e+00,2.595196723937988281e+00,2.594853401184082031e+00,2.594510555267333984e+00,2.594167470932006836e+00,2.593824863433837891e+00,2.593482017517089844e+00,2.593139410018920898e+00,2.592796802520751953e+00,2.592454433441162109e+00,2.592112064361572266e+00,2.591769933700561523e+00,2.591427564620971680e+00,2.591085672378540039e+00,2.590743541717529297e+00,2.590401649475097656e+00,2.590059757232666016e+00,2.589718103408813477e+00,2.589376449584960938e+00,1.534088850021362305e+00,1.474206566810607910e+00,1.454878687858581543e+00,1.453931212425231934e+00,2.587669610977172852e+00,2.587328672409057617e+00,2.586987495422363281e+00,2.586646795272827148e+00,2.586305856704711914e+00,2.585965156555175781e+00,2.585624456405639648e+00,2.585283994674682617e+00,2.584943532943725586e+00,2.584603071212768555e+00,2.557870388031005859e+00,2.504040718078613281e+00,2.452430248260498047e+00,2.402904033660888672e+00,2.355338811874389648e+00,2.309619903564453125e+00,2.265642166137695312e+00,2.223307847976684570e+00,2.182526826858520508e+00,2.143214702606201172e+00,2.105293750762939453e+00,2.068691015243530273e+00,2.033339977264404297e+00,1.999176383018493652e+00,1.966142058372497559e+00,1.934181451797485352e+00,1.903243660926818848e+00,1.873279571533203125e+00,1.844244718551635742e+00
2.255208969116210938e+00,2.254948616027832031e+00,2.254688024520874023e+00,2.254427909851074219e+00,2.254167556762695312e+00,2.253907442092895508e+00,2.253647327423095703e+00,2.253387212753295898e+00,2.253127098083496094e+00,2.252867221832275391e+00,2.252607345581054688e+00,2.252347469329833984e+00,2.252087593078613281e+00,2.251827955245971680e+00,2.251568317413330078e+00,2.251308679580688477e+00,2.251049041748046875e+00,2.250789642333984375e+00,2.250530242919921875e+00,2.250270843505859375e+00,2.250011444091796875e+00,2.249752283096313477e+00,2.249493122100830078e+00,2.249233961105346680e+00,2.248975515365600586e+00,2.248717784881591797e+00,2.248460292816162109e+00,2.248202800750732422e+00,2.247945308685302734e+00,2.247687816619873047e+00,2.247430324554443359e+00,2.247173309326171875e+00,2.246915817260742188e+00,2.246658802032470703e+00,2.246401548385620117e+00,2.246144533157348633e+00,2.245887517929077148e+00,2.245630741119384766e+00,2.245373725891113281e+00,2.245116949081420898e+00,2.244860172271728516e+00,2.244603395462036133e+00,2.244346857070922852e+00,2.244090080261230469e+00,2.243833780288696289e+00,2.243577241897583008e+00,2.243320703506469727e+00,1.673249125480651855e+00,1.456810712814331055e+00,1.442661166191101074e+00,1.436914324760437012e+00,2.242039442062377930e+00,2.241783618927001953e+00,2.241527318954467773e+00,2.241271495819091797e+00,2.241015672683715820e+00,2.240759849548339844e+00,2.240504026412963867e+00,2.240248203277587891e+00,2.239992618560791016e+00,2.239737033843994141e+00,2.239481687545776367e+00,2.239226102828979492e+00,2.238970756530761719e+00,2.238715171813964844e+00,2.238460063934326172e+00,2.238204717636108398e+00,2.237949609756469727e+00,2.223337173461914062e+00,2.182554960250854492e+00,2.143241882324218750e+00,2.105319976806640625e+00,2.068716526031494141e+00,2.033364295959472656e+00,1.999199867248535156e+00,1.966164946556091309e+00,1.934203624725341797e+00,1.903264999389648438e+00,1.873300313949584961e+00,1.844264745712280273e+00
1.988186240196228027e+00,1.987983822822570801e+00,1.987781286239624023e+00,1.987578988075256348e+00,1.987376689910888672e+00,1.987174510955810547e+00,1.986972332000732422e+00,1.986770033836364746e+00,1.986567974090576172e+00,1.986365914344787598e+00,1.986163973808288574e+00,1.985961675643920898e+00,1.985759854316711426e+00,1.985557913780212402e+00,1.985356092453002930e+00,1.985154271125793457e+00,1.984952330589294434e+00,1.984750628471374512e+00,1.984548926353454590e+00,1.984347343444824219e+00,1.984145522117614746e+00,1.983943939208984375e+00,1.983742475509643555e+00,1.983541011810302734e+00,1.983339309692382812e+00,1.983137965202331543e+00,1.982936620712280273e+00,1.982735276222229004e+00,1.982534050941467285e+00,1.982332587242126465e+00,1.982131481170654297e+00,1.981930255889892578e+00,1.981729149818420410e+00,1.981527924537658691e+00,1.981326937675476074e+00,1.981125950813293457e+00,1.980924963951110840e+00,1.980724096298217773e+00,1.980522990226745605e+00,1.980322241783142090e+00,1.980121374130249023e+00,1.979920625686645508e+00,1.979719758033752441e+00,1.979519128799438477e+00,1.979318499565124512e+00,1.979117870330810547e+00,1.978917360305786133e+00,1.663131594657897949e+00,1.432654142379760742e+00,1.424775958061218262e+00,1.420523643493652344e+00,1.422807097434997559e+00,1.977714657783508301e+00,1.977514386177062988e+00,1.977314114570617676e+00,1.977113962173461914e+00,1.976913690567016602e+00,1.976713538169860840e+00,1.976513504981994629e+00,1.976313471794128418e+00,1.976113319396972656e+00,1.975913405418395996e+00,1.975713491439819336e+00,1.975513696670532227e+00,1.975313901901245117e+00,1.975113868713378906e+00,1.974914193153381348e+00,1.974714517593383789e+00,1.974514842033386230e+00,1.974315047264099121e+00,1.974115490913391113e+00,1.973915934562683105e+00,1.973716497421264648e+00,1.973517060279846191e+00,1.973317384719848633e+00,1.966187715530395508e+00,1.934225916862487793e+00,1.903286337852478027e+00,1.873321056365966797e+00,1.844284892082214355e+00
1.777701497077941895e+00,1.777539730072021484e+00,1.777377963066101074e+00,1.777216196060180664e+00,1.777054309844970703e+00,1.776892662048339844e+00,1.776731014251708984e+00,1.776569366455078125e+00,1.776407837867736816e+00,1.776246070861816406e+00,1.776084542274475098e+00,1.775923013687133789e+00,1.775761604309082031e+00,1.775599956512451172e+00,1.775438547134399414e+00,1.775277137756347656e+00,1.775115847587585449e+00,1.774954319000244141e+00,1.774793028831481934e+00,1.774631738662719727e+00,1.774470567703247070e+00,1.774309396743774414e+00,1.774147987365722656e+00,1.773986816406250000e+00,1.773825764656066895e+00,1.773664593696594238e+00,1.773503422737121582e+00,1.773342370986938477e+00,1.773181319236755371e+00,1.773020386695861816e+00,1.772859454154968262e+00,1.772698402404785156e+00,1.772537469863891602e+00,1.772376656532287598e+00,1.772215843200683594e+00,1.772054791450500488e+00,1.771894097328186035e+00,1.771733283996582031e+00,1.771572589874267578e+00,1.771411895751953125e+00,1.771251082420349121e+00,1.771090507507324219e+00,1.770929932594299316e+00,1.770769357681274414e+00,1.770608544349670410e+00,1.770448088645935059e+00,1.770287632942199707e+00,1.770127177238464355e+00,1.769966721534729004e+00,1.408049941062927246e+00,1.391931891441345215e+00,1.391583085060119629e+00,1.396442770957946777e+00,1.769164681434631348e+00,1.769004464149475098e+00,1.768844246864318848e+00,1.768684148788452148e+00,1.768523931503295898e+00,1.768363595008850098e+00,1.768203496932983398e+00,1.768043518066406250e+00,1.767883419990539551e+00,1.767723202705383301e+00,1.767563223838806152e+00,1.767403364181518555e+00,1.767243385314941406e+00,1.767083525657653809e+00,1.766923427581787109e+00,1.766763567924499512e+00,1.766603827476501465e+00,1.766444087028503418e+00,1.766284108161926270e+00,1.766124367713928223e+00,1.765964746475219727e+00,1.765805006027221680e+00,1.765645384788513184e+00,1.765485644340515137e+00,1.765326142311096191e+00,1.765166521072387695e+00,1.765007019042968750e+00
1.607517480850219727e+00,1.607385158538818359e+00,1.607252717018127441e+00,1.607120513916015625e+00,1.606988310813903809e+00,1.606856107711791992e+00,1.606723666191101074e+00,1.606591582298278809e+00,1.606459379196166992e+00,1.606327295303344727e+00,1.606195092201232910e+00,1.606063008308410645e+00,1.605930924415588379e+00,1.605798840522766113e+00,1.605666875839233398e+00,1.605534672737121582e+00,1.605402708053588867e+00,1.605270743370056152e+00,1.605138897895812988e+00,1.605006814002990723e+00,1.604874968528747559e+00,1.604743003845214844e+00,1.604611158370971680e+00,1.604479432106018066e+00,1.604347467422485352e+00,1.604215621948242188e+00,1.604083895683288574e+00,1.603952169418334961e+00,1.603820323944091797e+00,1.603688597679138184e+00,1.603556990623474121e+00,1.603425264358520508e+00,1.603293657302856445e+00,1.603161931037902832e+00,1.603030323982238770e+00,1.602898836135864258e+00,1.602767229080200195e+00,1.602635622024536133e+00,1.602504134178161621e+00,1.602372646331787109e+00,1.602241158485412598e+00,1.602109789848327637e+00,1.601978182792663574e+00,1.601846814155578613e+00,1.601715445518493652e+00,1.601584076881408691e+00,1.601452589035034180e+00,1.601321339607238770e+00,1.601190090179443359e+00,1.601058840751647949e+00,1.492667317390441895e+00,1.373733401298522949e+00,1.371650695800781250e+00,1.600533843040466309e+00,1.600402712821960449e+00,1.600271344184875488e+00,1.600140333175659180e+00,1.600009202957153320e+00,1.599878072738647461e+00,1.599747061729431152e+00,1.599615931510925293e+00,1.599484920501708984e+00,1.599353909492492676e+00,1.599222898483276367e+00,1.599091887474060059e+00,1.598960995674133301e+00,1.598830103874206543e+00,1.598699212074279785e+00,1.598568320274353027e+00,1.598437428474426270e+00,1.598306536674499512e+00,1.598175764083862305e+00,1.598044991493225098e+00,1.597914099693298340e+00,1.597783446311950684e+00,1.597652673721313477e+00,1.597522020339965820e+00,1.597391366958618164e+00,1.597260594367980957e+00,1.597129940986633301e+00
1.467070817947387695e+00,1.466960668563842773e+00,1.466850399971008301e+00,1.466740250587463379e+00,1.466629981994628906e+00,1.466519832611083984e+00,1.466409802436828613e+00,1.466299653053283691e+00,1.466189503669738770e+00,1.466079473495483398e+00,1.465969324111938477e+00,1.465859293937683105e+00,1.465749263763427734e+00,1.465639233589172363e+00,1.465529203414916992e+00,1.465419292449951172e+00,1.465309381484985352e+00,1.465199232101440430e+00,1.465089321136474609e+00,1.464979529380798340e+00,1.464869618415832520e+00,1.464759588241577148e+00,1.464649796485900879e+00,1.464539885520935059e+00,1.464430093765258789e+00,1.464320302009582520e+00,1.464210391044616699e+00,1.464100718498229980e+00,1.463990926742553711e+00,1.463881254196166992e+00,1.463771343231201172e+00,1.463661670684814453e+00,1.463551998138427734e+00,1.463442325592041016e+00,1.463332653045654297e+00,1.463222861289978027e+00,1.463113307952880859e+00,1.463003754615783691e+00,1.462894082069396973e+00,1.462784409523010254e+00,1.462674856185913086e+00,1.462565302848815918e+00,1.462455868721008301e+00,1.462346315383911133e+00,1.462236762046813965e+00,1.462127327919006348e+00,1.462017893791198730e+00,1.461908459663391113e+00,1.461798906326293945e+00,1.461689472198486328e+00,1.461580038070678711e+00,1.461470723152160645e+00,1.461361408233642578e+00,1.461251854896545410e+00,1.461142539978027344e+00,1.461033344268798828e+00,1.460924029350280762e+00,1.460814595222473145e+00,1.460705399513244629e+00,1.460596084594726562e+00,1.460486888885498047e+00,1.460377693176269531e+00,1.460268378257751465e+00,1.460159182548522949e+00,1.460050106048583984e+00,1.459940910339355469e+00,1.459831714630126953e+00,1.459722518920898438e+00,1.459613442420959473e+00,1.459504365921020508e+00,1.459395408630371094e+00,1.459286212921142578e+00,1.459177136421203613e+00,1.459068179130554199e+00,1.458959221839904785e+00,1.458850026130676270e+00,1.458741068840026855e+00,1.458632111549377441e+00,1.458523273468017578e+00,1.458414196968078613e+00
1.349193572998046875e+00,1.349100351333618164e+00,1.349007129669189453e+00,1.348913908004760742e+00,1.348820805549621582e+00,1.348727583885192871e+00,1.348634481430053711e+00,1.348541259765625000e+00,1.348448157310485840e+00,1.348355054855346680e+00,1.348261952400207520e+00,1.348168849945068359e+00,1.348075747489929199e+00,1.347982764244079590e+00,1.347889661788940430e+00,1.347796559333801270e+00,1.347703576087951660e+00,1.347610592842102051e+00,1.347517609596252441e+00,1.347424626350402832e+00,1.347331643104553223e+00,1.347238779067993164e+00,1.347145795822143555e+00,1.347052812576293945e+00,1.346959948539733887e+00,1.346866965293884277e+00,1.346774101257324219e+00,1.346681237220764160e+00,1.346588373184204102e+00,1.346495509147644043e+00,1.346402645111083984e+00,1.346309900283813477e+00,1.346216917037963867e+00,1.346124172210693359e+00,1.346031427383422852e+00,1.345938682556152344e+00,1.345845937728881836e+00,1.345753073692321777e+00,1.345660328865051270e+00,1.345567584037780762e+00,1.345474958419799805e+00,1.345382094383239746e+00,1.345289468765258789e+00,1.345196843147277832e+00,1.345104217529296875e+00,1.345011472702026367e+00,1.344918847084045410e+00,1.344826221466064453e+00,1.344733595848083496e+00,1.344640970230102539e+00,1.344548344612121582e+00,1.344455838203430176e+00,1.344363212585449219e+00,1.344270706176757812e+00,1.344178199768066406e+00,1.344085574150085449e+00,1.343993067741394043e+00,1.343900561332702637e+00,1.343808174133300781e+00,1.343715548515319824e+00,1.343623161315917969e+00,1.343530774116516113e+00,1.343438267707824707e+00,1.343345880508422852e+00,1.343253374099731445e+00,1.343160986900329590e+00,1.343068718910217285e+00,1.342976331710815430e+00,1.342883825302124023e+00,1.342791557312011719e+00,1.342699170112609863e+00,1.342606902122497559e+00,1.342514514923095703e+00,1.342422246932983398e+00,1.342329978942871094e+00,1.342237710952758789e+00,1.342145562171936035e+00,1.342053174972534180e+00,1.341960906982421875e+00,1.341868758201599121e+00
1.248850107192993164e+00,1.248770236968994141e+00,1.248690485954284668e+00,1.248610496520996094e+00,1.248530745506286621e+00,1.248450875282287598e+00,1.248371124267578125e+00,1.248291254043579102e+00,1.248211383819580078e+00,1.248131632804870605e+00,1.248051881790161133e+00,1.247972130775451660e+00,1.247892379760742188e+00,1.247812628746032715e+00,1.247732877731323242e+00,1.247653126716613770e+00,1.247573375701904297e+00,1.247493743896484375e+00,1.247413992881774902e+00,1.247334361076354980e+00,1.247254729270935059e+00,1.247174978256225586e+00,1.247095346450805664e+00,1.247015714645385742e+00,1.246936082839965820e+00,1.246856451034545898e+00,1.246776819229125977e+00,1.246697187423706055e+00,1.246617674827575684e+00,1.246538043022155762e+00,1.246458411216735840e+00,1.246378898620605469e+00,1.246299386024475098e+00,1.246219873428344727e+00,1.246140241622924805e+00,1.246060729026794434e+00,1.245981216430664062e+00,1.245901703834533691e+00,1.245822310447692871e+00,1.245742678642272949e+00,1.245663285255432129e+00,1.245583891868591309e+00,1.245504379272460938e+00,1.245424866676330566e+00,1.245345473289489746e+00,1.245266079902648926e+00,1.245186686515808105e+00,1.245107293128967285e+00,1.245027899742126465e+00,1.244948506355285645e+00,1.244869112968444824e+00,1.244789838790893555e+00,1.244710326194763184e+00,1.244631052017211914e+00,1.244551777839660645e+00,1.244472503662109375e+00,1.244393110275268555e+00,1.244313836097717285e+00,1.244234561920166016e+00,1.244155287742614746e+00,1.244076013565063477e+00,1.243996739387512207e+00,1.243917465209960938e+00,1.243838191032409668e+00,1.243759036064147949e+00,1.243679881095886230e+00,1.243600606918334961e+00,1.243521332740783691e+00,1.243442177772521973e+00,1.243363022804260254e+00,1.243283748626708984e+00,1.243204712867736816e+00,1.243125557899475098e+00,1.243046402931213379e+00,1.242967247962951660e+00,1.242888092994689941e+00,1.242809057235717773e+00,1.242730021476745605e+00,1.242650866508483887e+00,1.242571711540222168e+00
1.162399053573608398e+00,1.162329912185668945e+00,1.162260770797729492e+00,1.162191629409790039e+00,1.162122488021850586e+00,1.162053227424621582e+00,1.161984086036682129e+00,1.161914944648742676e+00,1.161845803260803223e+00,1.161776661872863770e+00,1.161707520484924316e+00,1.161638379096984863e+00,1.161569356918334961e+00,1.161500215530395508e+00,1.161431074142456055e+00,1.161362051963806152e+00,1.161293029785156250e+00,1.161224007606506348e+00,1.161154866218566895e+00,1.161085844039916992e+00,1.161016821861267090e+00,1.160947799682617188e+00,1.160878777503967285e+00,1.160809755325317383e+00,1.160740733146667480e+00,1.160671710968017578e+00,1.160602807998657227e+00,1.160533666610717773e+00,1.160464763641357422e+00,1.160395860671997070e+00,1.160326838493347168e+00,1.160257935523986816e+00,1.160188913345336914e+00,1.160120010375976562e+00,1.160051107406616211e+00,1.159982204437255859e+00,1.159913301467895508e+00,1.159844398498535156e+00,1.159775495529174805e+00,1.159706592559814453e+00,1.159637808799743652e+00,1.159568786621093750e+00,1.159500002861022949e+00,1.159431219100952148e+00,1.159362316131591797e+00,1.159293413162231445e+00,1.159224629402160645e+00,1.159155845642089844e+00,1.159087061882019043e+00,1.159018278121948242e+00,1.158949375152587891e+00,1.158880591392517090e+00,1.158811926841735840e+00,1.158743143081665039e+00,1.158674240112304688e+00,1.158605575561523438e+00,1.158536791801452637e+00,1.158468127250671387e+00,1.158399343490600586e+00,1.158330678939819336e+00,1.158262014389038086e+00,1.158193230628967285e+00,1.158124566078186035e+00,1.158055901527404785e+00,1.157987236976623535e+00,1.157918572425842285e+00,1.157849907875061035e+00,1.157781124114990234e+00,1.157712578773498535e+00,1.157643914222717285e+00,1.157575368881225586e+00,1.157506704330444336e+00,1.157438039779663086e+00,1.157369494438171387e+00,1.157300829887390137e+00,1.157232284545898438e+00,1.157163619995117188e+00,1.157095074653625488e+00,1.157026529312133789e+00,1.156957983970642090e+00
1.087142229080200195e+00,1.087081670761108398e+00,1.087021112442016602e+00,1.086960673332214355e+00,1.086900115013122559e+00,1.086839675903320312e+00,1.086779236793518066e+00,1.086718678474426270e+00,1.086658239364624023e+00,1.086597800254821777e+00,1.086537361145019531e+00,1.086476802825927734e+00,1.086416363716125488e+00,1.086355924606323242e+00,1.086295485496520996e+00,1.086235046386718750e+00,1.086174607276916504e+00,1.086114168167114258e+00,1.086053848266601562e+00,1.085993409156799316e+00,1.085932970046997070e+00,1.085872650146484375e+00,1.085812211036682129e+00,1.085751891136169434e+00,1.085691571235656738e+00,1.085631132125854492e+00,1.085570812225341797e+00,1.085510492324829102e+00,1.085450172424316406e+00,1.085389733314514160e+00,1.085329413414001465e+00,1.085269093513488770e+00,1.085208773612976074e+00,1.085148572921752930e+00,1.085088133811950684e+00,1.085027933120727539e+00,1.084967613220214844e+00,1.084907293319702148e+00,1.084846973419189453e+00,1.084786772727966309e+00,1.084726452827453613e+00,1.084666252136230469e+00,1.084606051445007324e+00,1.084545731544494629e+00,1.084485530853271484e+00,1.084425330162048340e+00,1.084365129470825195e+00,1.084304809570312500e+00,1.084244608879089355e+00,1.084184408187866211e+00,1.084124207496643066e+00,1.084064126014709473e+00,1.084003806114196777e+00,1.083943724632263184e+00,1.083883523941040039e+00,1.083823442459106445e+00,1.083763122558593750e+00,1.083703041076660156e+00,1.083642959594726562e+00,1.083582758903503418e+00,1.083522558212280273e+00,1.083462476730346680e+00,1.083402395248413086e+00,1.083342313766479492e+00,1.083282232284545898e+00,1.083222031593322754e+00,1.083161950111389160e+00,1.083101987838745117e+00,1.083041906356811523e+00,1.082981705665588379e+00,1.082921743392944336e+00,1.082861661911010742e+00,1.082801580429077148e+00,1.082741618156433105e+00,1.082681536674499512e+00,1.082621455192565918e+00,1.082561492919921875e+00,1.082501530647277832e+00,1.082441449165344238e+00,1.082381486892700195e+00
1.021037459373474121e+00,1.020984053611755371e+00,1.020930767059326172e+00,1.020877361297607422e+00,1.020823955535888672e+00,1.020770549774169922e+00,1.020717263221740723e+00,1.020663857460021973e+00,1.020610570907592773e+00,1.020557165145874023e+00,1.020503878593444824e+00,1.020450592041015625e+00,1.020397186279296875e+00,1.020343899726867676e+00,1.020290493965148926e+00,1.020237207412719727e+00,1.020183920860290527e+00,1.020130634307861328e+00,1.020077347755432129e+00,1.020024061203002930e+00,1.019970774650573730e+00,1.019917488098144531e+00,1.019864201545715332e+00,1.019810914993286133e+00,1.019757747650146484e+00,1.019704461097717285e+00,1.019651293754577637e+00,1.019598007202148438e+00,1.019544720649719238e+00,1.019491553306579590e+00,1.019438266754150391e+00,1.019384980201721191e+00,1.019331812858581543e+00,1.019278645515441895e+00,1.019225478172302246e+00,1.019172310829162598e+00,1.019119024276733398e+00,1.019065856933593750e+00,1.019012689590454102e+00,1.018959522247314453e+00,1.018906235694885254e+00,1.018853187561035156e+00,1.018800020217895508e+00,1.018746852874755859e+00,1.018693685531616211e+00,1.018640518188476562e+00,1.018587350845336914e+00,1.018534302711486816e+00,1.018481135368347168e+00,1.018427968025207520e+00,1.018374919891357422e+00,1.018321752548217773e+00,1.018268704414367676e+00,1.018215656280517578e+00,1.018162488937377930e+00,1.018109440803527832e+00,1.018056392669677734e+00,1.018003225326538086e+00,1.017950177192687988e+00,1.017897129058837891e+00,1.017844080924987793e+00,1.017791032791137695e+00,1.017737984657287598e+00,1.017684936523437500e+00,1.017631888389587402e+00,1.017578840255737305e+00,1.017525792121887207e+00,1.017472743988037109e+00,1.017419815063476562e+00,1.017366766929626465e+00,1.017313838005065918e+00,1.017260789871215820e+00,1.017207741737365723e+00,1.017154812812805176e+00,1.017101764678955078e+00,1.017048835754394531e+00,1.016995787620544434e+00,1.016942858695983887e+00,1.016889929771423340e+00,1.016837000846862793e+00
9.625111818313598633e-01,9.624636769294738770e-01,9.624161720275878906e-01,9.623687863349914551e-01,9.623213410377502441e-01,9.622739553451538086e-01,9.622265100479125977e-01,9.621790647506713867e-01,9.621317386627197266e-01,9.620842933654785156e-01,9.620369076728820801e-01,9.619895219802856445e-01,9.619420766830444336e-01,9.618947505950927734e-01,9.618473052978515625e-01,9.617999196052551270e-01,9.617525935173034668e-01,9.617052078247070312e-01,9.616578817367553711e-01,9.616104960441589355e-01,9.615631103515625000e-01,9.615157842636108398e-01,9.614683985710144043e-01,9.614211320877075195e-01,9.613737463951110840e-01,9.613264203071594238e-01,9.612791538238525391e-01,9.612317681312561035e-01,9.611845016479492188e-01,9.611371755599975586e-01,9.610898494720458984e-01,9.610425829887390137e-01,9.609952569007873535e-01,9.609479308128356934e-01,9.609006643295288086e-01,9.608533382415771484e-01,9.608061313629150391e-01,9.607588052749633789e-01,9.607115387916564941e-01,9.606643319129943848e-01,9.606170058250427246e-01,9.605697989463806152e-01,9.605225324630737305e-01,9.604752063751220703e-01,9.604280591011047363e-01,9.603807926177978516e-01,9.603335261344909668e-01,9.602863192558288574e-01,9.602390527725219727e-01,9.601919054985046387e-01,9.601446390151977539e-01,9.600974321365356445e-01,9.600502848625183105e-01,9.600030183792114258e-01,9.599558711051940918e-01,9.599086642265319824e-01,9.598614573478698730e-01,9.598143100738525391e-01,9.597671031951904297e-01,9.597199559211730957e-01,9.596727490425109863e-01,9.596255421638488770e-01,9.595784544944763184e-01,9.595313072204589844e-01,9.594841003417968750e-01,9.594370126724243164e-01,9.593898057937622070e-01,9.593427777290344238e-01,9.592955708503723145e-01,9.592484235763549805e-01,9.592013359069824219e-01,9.591541886329650879e-01,9.591071605682373047e-01,9.590600132942199707e-01,9.590128660202026367e-01,9.589658379554748535e-01,9.589186906814575195e-01,9.588716626167297363e-01,9.588245153427124023e-01,9.587774276733398438e-01
9.103304743766784668e-01,9.102880358695983887e-01,9.102456569671630859e-01,9.102031588554382324e-01,9.101607203483581543e-01,9.101183414459228516e-01,9.100759029388427734e-01,9.100335240364074707e-01,9.099910855293273926e-01,9.099486470222473145e-01,9.099062681198120117e-01,9.098638296127319336e-01,9.098215103149414062e-01,9.097790718078613281e-01,9.097366333007812500e-01,9.096943140029907227e-01,9.096519351005554199e-01,9.096094965934753418e-01,9.095671772956848145e-01,9.095247983932495117e-01,9.094824790954589844e-01,9.094401001930236816e-01,9.093976616859436035e-01,9.093554019927978516e-01,9.093130230903625488e-01,9.092707037925720215e-01,9.092283248901367188e-01,9.091859459877014160e-01,9.091436862945556641e-01,9.091013073921203613e-01,9.090590476989746094e-01,9.090167284011840820e-01,9.089743494987487793e-01,9.089320898056030273e-01,9.088897705078125000e-01,9.088473916053771973e-01,9.088051915168762207e-01,9.087628126144409180e-01,9.087206125259399414e-01,9.086782932281494141e-01,9.086359739303588867e-01,9.085937142372131348e-01,9.085513949394226074e-01,9.085091948509216309e-01,9.084668755531311035e-01,9.084246158599853516e-01,9.083824157714843750e-01,9.083400964736938477e-01,9.082978367805480957e-01,9.082556366920471191e-01,9.082133173942565918e-01,9.081711769104003906e-01,9.081288576126098633e-01,9.080865979194641113e-01,9.080444574356079102e-01,9.080021977424621582e-01,9.079599976539611816e-01,9.079177379608154297e-01,9.078755378723144531e-01,9.078333377838134766e-01,9.077911376953125000e-01,9.077489376068115234e-01,9.077067375183105469e-01,9.076644778251647949e-01,9.076223969459533691e-01,9.075801372528076172e-01,9.075379371643066406e-01,9.074957966804504395e-01,9.074535965919494629e-01,9.074114561080932617e-01,9.073692560195922852e-01,9.073270559310913086e-01,9.072849750518798828e-01,9.072427749633789062e-01,9.072006940841674805e-01,9.071584939956665039e-01,9.071163535118103027e-01,9.070742726325988770e-01,9.070320725440979004e-01,9.069899916648864746e-01
8.635166287422180176e-01,8.634784221649169922e-01,8.634402751922607422e-01,8.634020686149597168e-01,8.633639216423034668e-01,8.633257150650024414e-01,8.632875084877014160e-01,8.632494211196899414e-01,8.632112145423889160e-01,8.631731271743774414e-01,8.631349205970764160e-01,8.630967140197753906e-01,8.630586266517639160e-01,8.630204796791076660e-01,8.629823923110961914e-01,8.629441857337951660e-01,8.629060387611389160e-01,8.628679513931274414e-01,8.628298044204711914e-01,8.627915978431701660e-01,8.627535700798034668e-01,8.627154231071472168e-01,8.626773357391357422e-01,8.626391887664794922e-01,8.626010417938232422e-01,8.625630140304565430e-01,8.625248670578002930e-01,8.624868392944335938e-01,8.624486923217773438e-01,8.624105453491210938e-01,8.623725175857543945e-01,8.623343706130981445e-01,8.622964024543762207e-01,8.622582554817199707e-01,8.622201681137084961e-01,8.621821403503417969e-01,8.621440529823303223e-01,8.621059060096740723e-01,8.620679378509521484e-01,8.620298504829406738e-01,8.619918227195739746e-01,8.619537353515625000e-01,8.619156479835510254e-01,8.618776798248291016e-01,8.618395924568176270e-01,8.618016242980957031e-01,8.617635369300842285e-01,8.617254495620727539e-01,8.616874814033508301e-01,8.616494536399841309e-01,8.616113662719726562e-01,8.615733981132507324e-01,8.615353703498840332e-01,8.614974021911621094e-01,8.614593744277954102e-01,8.614213466644287109e-01,8.613833785057067871e-01,8.613453507423400879e-01,8.613073825836181641e-01,8.612694144248962402e-01,8.612313866615295410e-01,8.611934185028076172e-01,8.611553907394409180e-01,8.611174821853637695e-01,8.610795140266418457e-01,8.610414862632751465e-01,8.610035777091979980e-01,8.609655499458312988e-01,8.609275817871093750e-01,8.608896732330322266e-01,8.608517050743103027e-01,8.608137965202331543e-01,8.607758283615112305e-01,8.607378005981445312e-01,8.606999516487121582e-01,8.606619834899902344e-01,8.606240749359130859e-01,8.605861067771911621e-01,8.605481386184692383e-01,8.605102896690368652e-01
8.212820887565612793e-01,8.212475776672363281e-01,8.212130069732666016e-01,8.211784362792968750e-01,8.211439847946166992e-01,8.211094141006469727e-01,8.210749030113220215e-01,8.210403323173522949e-01,8.210058212280273438e-01,8.209713697433471680e-01,8.209367990493774414e-01,8.209023475646972656e-01,8.208677768707275391e-01,8.208332657814025879e-01,8.207988142967224121e-01,8.207642436027526855e-01,8.207297921180725098e-01,8.206952810287475586e-01,8.206607699394226074e-01,8.206263184547424316e-01,8.205918073654174805e-01,8.205572962760925293e-01,8.205228447914123535e-01,8.204883337020874023e-01,8.204539418220520020e-01,8.204194307327270508e-01,8.203849196434020996e-01,8.203505277633666992e-01,8.203160166740417480e-01,8.202816247940063477e-01,8.202471137046813965e-01,8.202126026153564453e-01,8.201782107353210449e-01,8.201437592506408691e-01,8.201092481613159180e-01,8.200748562812805176e-01,8.200404047966003418e-01,8.200060129165649414e-01,8.199715614318847656e-01,8.199370503425598145e-01,8.199027180671691895e-01,8.198682665824890137e-01,8.198338747024536133e-01,8.197994232177734375e-01,8.197649717330932617e-01,8.197305798530578613e-01,8.196961283683776855e-01,8.196617960929870605e-01,8.196273446083068848e-01,8.195929527282714844e-01,8.195585608482360840e-01,8.195241689682006836e-01,8.194897174835205078e-01,8.194553852081298828e-01,8.194209337234497070e-01,8.193866014480590820e-01,8.193522095680236816e-01,8.193178176879882812e-01,8.192834854125976562e-01,8.192490339279174805e-01,8.192147612571716309e-01,8.191803097724914551e-01,8.191459178924560547e-01,8.191116452217102051e-01,8.190772533416748047e-01,8.190429210662841797e-01,8.190085291862487793e-01,8.189741373062133789e-01,8.189398646354675293e-01,8.189054727554321289e-01,8.188710808753967285e-01,8.188368082046508789e-01,8.188024163246154785e-01,8.187681436538696289e-01,8.187338113784790039e-01,8.186994194984436035e-01,8.186651468276977539e-01,8.186308145523071289e-01,8.185965418815612793e-01,8.185622096061706543e-01
7.829863429069519043e-01,7.829549312591552734e-01,7.829235196113586426e-01,7.828921675682067871e-01,7.828607559204101562e-01,7.828293442726135254e-01,7.827979922294616699e-01,7.827665805816650391e-01,7.827352285385131836e-01,7.827038764953613281e-01,7.826724648475646973e-01,7.826411128044128418e-01,7.826097011566162109e-01,7.825784087181091309e-01,7.825469970703125000e-01,7.825156450271606445e-01,7.824842929840087891e-01,7.824529409408569336e-01,7.824215888977050781e-01,7.823902368545532227e-01,7.823588252067565918e-01,7.823275327682495117e-01,7.822961807250976562e-01,7.822648286819458008e-01,7.822335362434387207e-01,7.822021245956420898e-01,7.821708321571350098e-01,7.821394801139831543e-01,7.821081280708312988e-01,7.820768356323242188e-01,7.820454835891723633e-01,7.820142507553100586e-01,7.819828987121582031e-01,7.819515466690063477e-01,7.819202542304992676e-01,7.818889617919921875e-01,7.818576097488403320e-01,7.818263173103332520e-01,7.817950248718261719e-01,7.817637324333190918e-01,7.817324399948120117e-01,7.817010879516601562e-01,7.816698551177978516e-01,7.816385030746459961e-01,7.816072702407836914e-01,7.815759778022766113e-01,7.815446257591247559e-01,7.815133929252624512e-01,7.814821004867553711e-01,7.814508676528930664e-01,7.814195752143859863e-01,7.813882827758789062e-01,7.813570499420166016e-01,7.813257575035095215e-01,7.812944650650024414e-01,7.812632322311401367e-01,7.812319397926330566e-01,7.812007665634155273e-01,7.811694741249084473e-01,7.811381816864013672e-01,7.811070084571838379e-01,7.810757160186767578e-01,7.810445427894592285e-01,7.810132503509521484e-01,7.809819579124450684e-01,7.809507846832275391e-01,7.809195518493652344e-01,7.808883190155029297e-01,7.808570861816406250e-01,7.808258533477783203e-01,7.807946801185607910e-01,7.807633876800537109e-01,7.807321548461914062e-01,7.807009816169738770e-01,7.806697487831115723e-01,7.806385755538940430e-01,7.806073427200317383e-01,7.805761098861694336e-01,7.805449366569519043e-01,7.805137038230895996e-01
