5.000000000000000000e+00,5.000000000000000000e+00,5.000000000000000000e+00,5.000000000000000000e+00,5.000000000000000000e+00,5.000000000000000000e+00,5.000000000000000000e+00,5.000000000000000000e+00,5.000000000000000000e+00,5.000000000000000000e+00,5.000000000000000000e+00,5.000000000000000000e+00,5.000000000000000000e+00,5.000000000000000000e+00,5.000000000000000000e+00,5.000000000000000000e+00,5.000000000000000000e+00,5.000000000000000000e+00,5.000000000000000000e+00,5.000000000000000000e+00,5.000000000000000000e+00,5.000000000000000000e+00,5.000000000000000000e+00,5.000000000000000000e+00,5.000000000000000000e+00,5.000000000000000000e+00,5.000000000000000000e+00,5.000000000000000000e+00,5.000000000000000000e+00,5.000000000000000000e+00,5.000000000000000000e+00,5.000000000000000000e+00,5.000000000000000000e+00,5.000000000000000000e+00,5.000000000000000000e+00,5.000000000000000000e+00,5.000000000000000000e+00,5.000000000000000000e+00,5.000000000000000000e+00,5.000000000000000000e+00,1.517136693000793457e+00,1.514578938484191895e+00,1.522987484931945801e+00,1.492229223251342773e+00,1.477820158004760742e+00,1.478278160095214844e+00,1.476585388183593750e+00,1.509682655334472656e+00,1.516366124153137207e+00,1.522949814796447754e+00,1.538261413574218750e+00,1.548123598098754883e+00,1.690462589263916016e+00,1.677393436431884766e+00,1.676929950714111328e+00,3.009975433349609375e+00,2.935122728347778320e+00,2.863902568817138672e+00,2.796056747436523438e+00,2.731351137161254883e+00,2.669572591781616211e+00,2.610527038574218750e+00,2.554036617279052734e+00,2.499939441680908203e+00,2.448086261749267578e+00,2.398340463638305664e+00,2.350576400756835938e+00,2.304677248001098633e+00,2.260536670684814453e+00,2.218054771423339844e+00,2.177140235900878906e+00,2.137707948684692383e+00,2.099678516387939453e+00,2.062978506088256836e+00,2.027539253234863281e+00,1.993297457695007324e+00,1.960192680358886719e+00,1.928169488906860352e+00,1.897176027297973633e+00,1.867163062095642090e+00
5.000000000000000000e+00,5.000000000000000000e+00,5.000000000000000000e+00,5.000000000000000000e+00,5.000000000000000000e+00,5.000000000000000000e+00,5.000000000000000000e+00,5.000000000000000000e+00,5.000000000000000000e+00,5.000000000000000000e+00,5.000000000000000000e+00,5.000000000000000000e+00,5.000000000000000000e+00,5.000000000000000000e+00,5.000000000000000000e+00,5.000000000000000000e+00,5.000000000000000000e+00,5.000000000000000000e+00,5.000000000000000000e+00,5.000000000000000000e+00,5.000000000000000000e+00,5.000000000000000000e+00,5.000000000000000000e+00,5.000000000000000000e+00,5.000000000000000000e+00,5.000000000000000000e+00,5.000000000000000000e+00,5.000000000000000000e+00,5.000000000000000000e+00,5.000000000000000000e+00,5.000000000000000000e+00,5.000000000000000000e+00,5.000000000000000000e+00,5.000000000000000000e+00,5.000000000000000000e+00,5.000000000000000000e+00,5.000000000000000000e+00,5.000000000000000000e+00,5.000000000000000000e+00,5.000000000000000000e+00,1.512421488761901855e+00,1.505379557609558105e+00,1.518723964691162109e+00,1.487410783767700195e+00,1.467647433280944824e+00,1.467893719673156738e+00,1.468267560005187988e+00,1.503424525260925293e+00,1.527546048164367676e+00,1.538476467132568359e+00,1.537029743194580078e+00,1.535796165466308594e+00,1.565291881561279297e+00,1.674785375595092773e+00,1.663733124732971191e+00,3.010030031204223633e+00,2.935174703598022461e+00,2.863951921463012695e+00,2.796103715896606445e+00,2.731396198272705078e+00,2.669615507125854492e+00,2.610568046569824219e+00,2.554075956344604492e+00,2.499977111816406250e+00,2.448122501373291016e+00,2.398375034332275391e+00,2.350609540939331055e+00,2.304709196090698242e+00,2.260567426681518555e+00,2.218084335327148438e+00,2.177168846130371094e+00,2.137735605239868164e+00,2.099704980850219727e+00,2.063004255294799805e+00,2.027564048767089844e+00,1.993321418762207031e+00,1.960215806961059570e+00,1.928191900253295898e+00,1.897197723388671875e+00,1.867184162139892578e+00
5.000000000000000000e+00,5.000000000000000000e+00,5.000000000000000000e+00,5.000000000000000000e+00,5.000000000000000000e+00,5.000000000000000000e+00,5.000000000000000000e+00,5.000000000000000000e+00,5.000000000000000000e+00,5.000000000000000000e+00,5.000000000000000000e+00,5.000000000000000000e+00,5.000000000000000000e+00,5.000000000000000000e+00,5.000000000000000000e+00,5.000000000000000000e+00,5.000000000000000000e+00,5.000000000000000000e+00,5.000000000000000000e+00,5.000000000000000000e+00,5.000000000000000000e+00,5.000000000000000000e+00,5.000000000000000000e+00,5.000000000000000000e+00,5.000000000000000000e+00,5.000000000000000000e+00,5.000000000000000000e+00,5.000000000000000000e+00,5.000000000000000000e+00,5.000000000000000000e+00,5.000000000000000000e+00,5.000000000000000000e+00,5.000000000000000000e+00,5.000000000000000000e+00,5.000000000000000000e+00,5.000000000000000000e+00,5.000000000000000000e+00,5.000000000000000000e+00,5.000000000000000000e+00,5.000000000000000000e+00,1.501971721649169922e+00,1.491575479507446289e+00,1.514267802238464355e+00,1.482722401618957520e+00,1.461369395256042480e+00,1.460046052932739258e+00,1.458843588829040527e+00,1.467895507812500000e+00,1.554872632026672363e+00,1.526399850845336914e+00,1.518593430519104004e+00,1.512187600135803223e+00,1.505835652351379395e+00,1.555819272994995117e+00,1.655275702476501465e+00,1.656999111175537109e+00,2.935226440429687500e+00,2.864001274108886719e+00,2.796150922775268555e+00,2.731441020965576172e+00,2.669658422470092773e+00,2.610609054565429688e+00,2.554115056991577148e+00,2.500014543533325195e+00,2.448158740997314453e+00,2.398409843444824219e+00,2.350642919540405273e+00,2.304741144180297852e+00,2.260598182678222656e+00,2.218114137649536133e+00,2.177197456359863281e+00,2.137763023376464844e+00,2.099731445312500000e+00,2.063029766082763672e+00,2.027588844299316406e+00,1.993345260620117188e+00,1.960238933563232422e+00,1.928214311599731445e+00,1.897219300270080566e+00,1.867205142974853516e+00
5.000000000000000000e+00,5.000000000000000000e+00,5.000000000000000000e+00,5.000000000000000000e+00,5.000000000000000000e+00,5.000000000000000000e+00,5.000000000000000000e+00,5.000000000000000000e+00,5.000000000000000000e+00,5.000000000000000000e+00,5.000000000000000000e+00,5.000000000000000000e+00,5.000000000000000000e+00,5.000000000000000000e+00,5.000000000000000000e+00,5.000000000000000000e+00,5.000000000000000000e+00,5.000000000000000000e+00,5.000000000000000000e+00,5.000000000000000000e+00,5.000000000000000000e+00,5.000000000000000000e+00,5.000000000000000000e+00,5.000000000000000000e+00,5.000000000000000000e+00,5.000000000000000000e+00,5.000000000000000000e+00,5.000000000000000000e+00,5.000000000000000000e+00,5.000000000000000000e+00,5.000000000000000000e+00,5.000000000000000000e+00,5.000000000000000000e+00,5.000000000000000000e+00,5.000000000000000000e+00,5.000000000000000000e+00,5.000000000000000000e+00,5.000000000000000000e+00,5.000000000000000000e+00,5.000000000000000000e+00,1.494758844375610352e+00,1.480613112449645996e+00,1.512116551399230957e+00,1.483145117759704590e+00,1.459856390953063965e+00,1.458378553390502930e+00,1.456943869590759277e+00,1.455746769905090332e+00,1.502686142921447754e+00,1.523643374443054199e+00,1.498815894126892090e+00,1.496986150741577148e+00,1.495160818099975586e+00,1.509801864624023438e+00,1.654316663742065430e+00,1.638882756233215332e+00,2.935278415679931641e+00,2.864050626754760742e+00,2.796197891235351562e+00,2.731486082077026367e+00,2.669701337814331055e+00,2.610650062561035156e+00,2.554154396057128906e+00,2.500052213668823242e+00,2.448194742202758789e+00,2.398444414138793945e+00,2.350676059722900391e+00,2.304773092269897461e+00,2.260628938674926758e+00,2.218143701553344727e+00,2.177225828170776367e+00,2.137790441513061523e+00,2.099758148193359375e+00,2.063055276870727539e+00,2.027613639831542969e+00,1.993369221687316895e+00,1.960262060165405273e+00,1.928236603736877441e+00,1.897240996360778809e+00,1.867226123809814453e+00
5.000000000000000000e+00,5.000000000000000000e+00,5.000000000000000000e+00,5.000000000000000000e+00,5.000000000000000000e+00,5.000000000000000000e+00,5.000000000000000000e+00,5.000000000000000000e+00,5.000000000000000000e+00,5.000000000000000000e+00,5.000000000000000000e+00,5.000000000000000000e+00,5.000000000000000000e+00,5.000000000000000000e+00,5.000000000000000000e+00,5.000000000000000000e+00,5.000000000000000000e+00,5.000000000000000000e+00,5.000000000000000000e+00,5.000000000000000000e+00,5.000000000000000000e+00,5.000000000000000000e+00,5.000000000000000000e+00,5.000000000000000000e+00,5.000000000000000000e+00,5.000000000000000000e+00,5.000000000000000000e+00,5.000000000000000000e+00,5.000000000000000000e+00,5.000000000000000000e+00,5.000000000000000000e+00,5.000000000000000000e+00,5.000000000000000000e+00,5.000000000000000000e+00,5.000000000000000000e+00,5.000000000000000000e+00,5.000000000000000000e+00,5.000000000000000000e+00,5.000000000000000000e+00,5.000000000000000000e+00,1.497479438781738281e+00,1.491098165512084961e+00,1.517918944358825684e+00,1.476997971534729004e+00,1.458823800086975098e+00,1.457234621047973633e+00,1.455648779869079590e+00,1.454066276550292969e+00,1.491105198860168457e+00,1.521156907081604004e+00,1.497920274734497070e+00,1.489852905273437500e+00,1.487944841384887695e+00,1.486608743667602539e+00,1.561256289482116699e+00,1.648420095443725586e+00,2.935330390930175781e+00,2.864099979400634766e+00,2.796245098114013672e+00,2.731530904769897461e+00,2.669744253158569336e+00,2.610691070556640625e+00,2.554193735122680664e+00,2.500089883804321289e+00,2.448230743408203125e+00,2.398478984832763672e+00,2.350709438323974609e+00,2.304805040359497070e+00,2.260659694671630859e+00,2.218173265457153320e+00,2.177254438400268555e+00,2.137818098068237305e+00,2.099784612655639648e+00,2.063081026077270508e+00,2.027638435363769531e+00,1.993393063545227051e+00,1.960285186767578125e+00,1.928259015083312988e+00,1.897262692451477051e+00,1.867247104644775391e+00
5.000000000000000000e+00,5.000000000000000000e+00,5.000000000000000000e+00,5.000000000000000000e+00,5.000000000000000000e+00,5.000000000000000000e+00,5.000000000000000000e+00,5.000000000000000000e+00,5.000000000000000000e+00,5.000000000000000000e+00,5.000000000000000000e+00,5.000000000000000000e+00,5.000000000000000000e+00,5.000000000000000000e+00,5.000000000000000000e+00,5.000000000000000000e+00,5.000000000000000000e+00,5.000000000000000000e+00,5.000000000000000000e+00,5.000000000000000000e+00,5.000000000000000000e+00,5.000000000000000000e+00,5.000000000000000000e+00,5.000000000000000000e+00,5.000000000000000000e+00,5.000000000000000000e+00,5.000000000000000000e+00,5.000000000000000000e+00,5.000000000000000000e+00,5.000000000000000000e+00,5.000000000000000000e+00,5.000000000000000000e+00,5.000000000000000000e+00,5.000000000000000000e+00,5.000000000000000000e+00,5.000000000000000000e+00,5.000000000000000000e+00,5.000000000000000000e+00,5.000000000000000000e+00,5.000000000000000000e+00,1.487846136093139648e+00,1.473621964454650879e+00,1.477783441543579102e+00,1.484147191047668457e+00,1.459711790084838867e+00,1.457561969757080078e+00,1.455975532531738281e+00,1.454392433166503906e+00,1.487023830413818359e+00,1.522532343864440918e+00,1.498727917671203613e+00,1.484604239463806152e+00,1.483274102210998535e+00,1.481946468353271484e+00,1.534581422805786133e+00,1.615684509277343750e+00,2.935382127761840820e+00,2.864149570465087891e+00,2.796292066574096680e+00,2.731575727462768555e+00,2.669787168502807617e+00,2.610732078552246094e+00,2.554233074188232422e+00,2.500127553939819336e+00,2.448266983032226562e+00,2.398513555526733398e+00,2.350742578506469727e+00,2.304837226867675781e+00,2.260690450668334961e+00,2.218203067779541016e+00,2.177283048629760742e+00,2.137845516204833984e+00,2.099811077117919922e+00,2.063106536865234375e+00,2.027663230895996094e+00,1.993417024612426758e+00,1.960308313369750977e+00,1.928281426429748535e+00,1.897284388542175293e+00,1.867268085479736328e+00
5.000000000000000000e+00,5.000000000000000000e+00,5.000000000000000000e+00,5.000000000000000000e+00,5.000000000000000000e+00,5.000000000000000000e+00,5.000000000000000000e+00,5.000000000000000000e+00,5.000000000000000000e+00,5.000000000000000000e+00,5.000000000000000000e+00,5.000000000000000000e+00,5.000000000000000000e+00,5.000000000000000000e+00,5.000000000000000000e+00,5.000000000000000000e+00,5.000000000000000000e+00,5.000000000000000000e+00,5.000000000000000000e+00,5.000000000000000000e+00,5.000000000000000000e+00,5.000000000000000000e+00,5.000000000000000000e+00,5.000000000000000000e+00,5.000000000000000000e+00,5.000000000000000000e+00,5.000000000000000000e+00,5.000000000000000000e+00,5.000000000000000000e+00,5.000000000000000000e+00,5.000000000000000000e+00,5.000000000000000000e+00,5.000000000000000000e+00,5.000000000000000000e+00,5.000000000000000000e+00,5.000000000000000000e+00,5.000000000000000000e+00,5.000000000000000000e+00,5.000000000000000000e+00,5.000000000000000000e+00,1.476710081100463867e+00,1.454403281211853027e+00,1.461372137069702148e+00,1.492392301559448242e+00,1.460984230041503906e+00,1.458160281181335449e+00,1.456302404403686523e+00,1.454718589782714844e+00,1.485803008079528809e+00,1.523206472396850586e+00,1.498851299285888672e+00,1.477657079696655273e+00,1.478488922119140625e+00,1.477313399314880371e+00,1.509893059730529785e+00,1.596555590629577637e+00,1.611466288566589355e+00,2.864198923110961914e+00,2.796339273452758789e+00,2.731620788574218750e+00,2.669830083847045898e+00,2.610773086547851562e+00,2.554272413253784180e+00,2.500165224075317383e+00,2.448302984237670898e+00,2.398548364639282227e+00,2.350775957107543945e+00,2.304869174957275391e+00,2.260721206665039062e+00,2.218232631683349609e+00,2.177311420440673828e+00,2.137873172760009766e+00,2.099837779998779297e+00,2.063132286071777344e+00,2.027688026428222656e+00,1.993440985679626465e+00,1.960331559181213379e+00,1.928303837776184082e+00,1.897305965423583984e+00,1.867289066314697266e+00
5.000000000000000000e+00,5.000000000000000000e+00,5.000000000000000000e+00,5.000000000000000000e+00,5.000000000000000000e+00,5.000000000000000000e+00,5.000000000000000000e+00,5.000000000000000000e+00,5.000000000000000000e+00,5.000000000000000000e+00,5.000000000000000000e+00,5.000000000000000000e+00,5.000000000000000000e+00,5.000000000000000000e+00,5.000000000000000000e+00,5.000000000000000000e+00,5.000000000000000000e+00,5.000000000000000000e+00,5.000000000000000000e+00,5.000000000000000000e+00,5.000000000000000000e+00,5.000000000000000000e+00,5.000000000000000000e+00,5.000000000000000000e+00,5.000000000000000000e+00,5.000000000000000000e+00,5.000000000000000000e+00,5.000000000000000000e+00,5.000000000000000000e+00,5.000000000000000000e+00,5.000000000000000000e+00,5.000000000000000000e+00,5.000000000000000000e+00,5.000000000000000000e+00,5.000000000000000000e+00,5.000000000000000000e+00,5.000000000000000000e+00,5.000000000000000000e+00,5.000000000000000000e+00,5.000000000000000000e+00,1.463746547698974609e+00,1.444336891174316406e+00,1.552498698234558105e+00,1.453704357147216797e+00,1.467665433883666992e+00,1.459429979324340820e+00,1.456629514694213867e+00,1.455044865608215332e+00,1.484096050262451172e+00,1.523334026336669922e+00,1.498963713645935059e+00,1.475037336349487305e+00,1.471559524536132812e+00,1.472384452819824219e+00,1.485986471176147461e+00,1.589555978775024414e+00,1.611659765243530273e+00,2.864248275756835938e+00,2.796386241912841797e+00,2.731665611267089844e+00,2.669872999191284180e+00,2.610814332962036133e+00,2.554311752319335938e+00,2.500202894210815430e+00,2.448338985443115234e+00,2.398582935333251953e+00,2.350809097290039062e+00,2.304901361465454102e+00,2.260751962661743164e+00,2.218262195587158203e+00,2.177340030670166016e+00,2.137900590896606445e+00,2.099864482879638672e+00,2.063157796859741211e+00,2.027712821960449219e+00,1.993464946746826172e+00,1.960354685783386230e+00,1.928326129913330078e+00,1.897327661514282227e+00,1.867310047149658203e+00
5.000000000000000000e+00,5.000000000000000000e+00,5.000000000000000000e+00,5.000000000000000000e+00,5.000000000000000000e+00,5.000000000000000000e+00,5.000000000000000000e+00,5.000000000000000000e+00,5.000000000000000000e+00,5.000000000000000000e+00,5.000000000000000000e+00,5.000000000000000000e+00,5.000000000000000000e+00,5.000000000000000000e+00,5.000000000000000000e+00,5.000000000000000000e+00,5.000000000000000000e+00,5.000000000000000000e+00,5.000000000000000000e+00,5.000000000000000000e+00,5.000000000000000000e+00,5.000000000000000000e+00,5.000000000000000000e+00,5.000000000000000000e+00,5.000000000000000000e+00,5.000000000000000000e+00,5.000000000000000000e+00,5.000000000000000000e+00,5.000000000000000000e+00,5.000000000000000000e+00,5.000000000000000000e+00,5.000000000000000000e+00,5.000000000000000000e+00,5.000000000000000000e+00,5.000000000000000000e+00,5.000000000000000000e+00,5.000000000000000000e+00,5.000000000000000000e+00,5.000000000000000000e+00,5.000000000000000000e+00,1.458397269248962402e+00,1.434570908546447754e+00,1.565992355346679688e+00,1.446459174156188965e+00,1.475634217262268066e+00,1.460701942443847656e+00,1.457879185676574707e+00,1.455371499061584473e+00,1.480810642242431641e+00,1.525084733963012695e+00,1.499017238616943359e+00,1.475089311599731445e+00,1.464694738388061523e+00,1.465512037277221680e+00,1.466753721237182617e+00,3.010411739349365234e+00,1.656661629676818848e+00,1.581362962722778320e+00,2.796433210372924805e+00,2.731710672378540039e+00,2.669915914535522461e+00,2.610855340957641602e+00,2.554351091384887695e+00,2.500240325927734375e+00,2.448375225067138672e+00,2.398617506027221680e+00,2.350842475891113281e+00,2.304933309555053711e+00,2.260782718658447266e+00,2.218291759490966797e+00,2.177368640899658203e+00,2.137928009033203125e+00,2.099890947341918945e+00,2.063183546066284180e+00,2.027737379074096680e+00,1.993488788604736328e+00,1.960377812385559082e+00,1.928348779678344727e+00,1.897349357604980469e+00,1.867331027984619141e+00
5.000000000000000000e+00,5.000000000000000000e+00,5.000000000000000000e+00,5.000000000000000000e+00,5.000000000000000000e+00,5.000000000000000000e+00,5.000000000000000000e+00,5.000000000000000000e+00,5.000000000000000000e+00,5.000000000000000000e+00,5.000000000000000000e+00,5.000000000000000000e+00,5.000000000000000000e+00,5.000000000000000000e+00,5.000000000000000000e+00,5.000000000000000000e+00,5.000000000000000000e+00,5.000000000000000000e+00,5.000000000000000000e+00,5.000000000000000000e+00,5.000000000000000000e+00,5.000000000000000000e+00,5.000000000000000000e+00,5.000000000000000000e+00,5.000000000000000000e+00,5.000000000000000000e+00,5.000000000000000000e+00,5.000000000000000000e+00,5.000000000000000000e+00,5.000000000000000000e+00,5.000000000000000000e+00,5.000000000000000000e+00,5.000000000000000000e+00,5.000000000000000000e+00,5.000000000000000000e+00,5.000000000000000000e+00,5.000000000000000000e+00,5.000000000000000000e+00,5.000000000000000000e+00,5.000000000000000000e+00,1.472374796867370605e+00,4.682578086853027344e+00,4.503891944885253906e+00,1.522589564323425293e+00,1.483690142631530762e+00,1.461374402046203613e+00,1.458552956581115723e+00,1.455742359161376953e+00,1.477539777755737305e+00,1.530118823051452637e+00,1.499070882797241211e+00,1.474498510360717773e+00,1.458883404731750488e+00,1.460584878921508789e+00,1.461854219436645508e+00,3.010466575622558594e+00,1.673915624618530273e+00,1.581163763999938965e+00,2.796480417251586914e+00,2.731755495071411133e+00,2.669958829879760742e+00,2.610896348953247070e+00,2.554390192031860352e+00,2.500277996063232422e+00,2.448411226272583008e+00,2.398652315139770508e+00,2.350875616073608398e+00,2.304965257644653320e+00,2.260813474655151367e+00,2.218321561813354492e+00,2.177397012710571289e+00,2.137955665588378906e+00,2.099917411804199219e+00,2.063209056854248047e+00,2.027762174606323242e+00,1.993512749671936035e+00,1.960400938987731934e+00,1.928371191024780273e+00,1.897371053695678711e+00,1.867352008819580078e+00
5.000000000000000000e+00,5.000000000000000000e+00,5.000000000000000000e+00,5.000000000000000000e+00,5.000000000000000000e+00,5.000000000000000000e+00,5.000000000000000000e+00,5.000000000000000000e+00,5.000000000000000000e+00,5.000000000000000000e+00,5.000000000000000000e+00,5.000000000000000000e+00,5.000000000000000000e+00,5.000000000000000000e+00,5.000000000000000000e+00,5.000000000000000000e+00,5.000000000000000000e+00,5.000000000000000000e+00,5.000000000000000000e+00,5.000000000000000000e+00,5.000000000000000000e+00,5.000000000000000000e+00,5.000000000000000000e+00,5.000000000000000000e+00,5.000000000000000000e+00,5.000000000000000000e+00,5.000000000000000000e+00,5.000000000000000000e+00,5.000000000000000000e+00,5.000000000000000000e+00,5.000000000000000000e+00,5.000000000000000000e+00,5.000000000000000000e+00,5.000000000000000000e+00,5.000000000000000000e+00,5.000000000000000000e+00,5.000000000000000000e+00,5.000000000000000000e+00,5.000000000000000000e+00,5.000000000000000000e+00,1.464598655700683594e+00,4.682710170745849609e+00,4.504014015197753906e+00,1.535986900329589844e+00,1.492724537849426270e+00,1.461866736412048340e+00,1.457027196884155273e+00,1.454222440719604492e+00,1.474608421325683594e+00,1.539450764656066895e+00,1.497579574584960938e+00,1.472414851188659668e+00,1.453276515007019043e+00,1.455726623535156250e+00,1.456987619400024414e+00,1.496364116668701172e+00,2.935641527175903320e+00,1.635126352310180664e+00,2.796527385711669922e+00,2.731800556182861328e+00,2.670001983642578125e+00,2.610937356948852539e+00,2.554429531097412109e+00,2.500315666198730469e+00,2.448447227478027344e+00,2.398687124252319336e+00,2.350908994674682617e+00,2.304997205734252930e+00,2.260844230651855469e+00,2.218351125717163086e+00,2.177425622940063477e+00,2.137983083724975586e+00,2.099944114685058594e+00,2.063234806060791016e+00,2.027786970138549805e+00,1.993536710739135742e+00,1.960424065589904785e+00,1.928393602371215820e+00,1.897392749786376953e+00,1.867372989654541016e+00
5.000000000000000000e+00,5.000000000000000000e+00,5.000000000000000000e+00,5.000000000000000000e+00,5.000000000000000000e+00,5.000000000000000000e+00,5.000000000000000000e+00,5.000000000000000000e+00,5.000000000000000000e+00,5.000000000000000000e+00,5.000000000000000000e+00,5.000000000000000000e+00,5.000000000000000000e+00,5.000000000000000000e+00,5.000000000000000000e+00,5.000000000000000000e+00,5.000000000000000000e+00,5.000000000000000000e+00,5.000000000000000000e+00,5.000000000000000000e+00,5.000000000000000000e+00,5.000000000000000000e+00,5.000000000000000000e+00,5.000000000000000000e+00,5.000000000000000000e+00,5.000000000000000000e+00,5.000000000000000000e+00,5.000000000000000000e+00,5.000000000000000000e+00,5.000000000000000000e+00,5.000000000000000000e+00,5.000000000000000000e+00,5.000000000000000000e+00,5.000000000000000000e+00,5.000000000000000000e+00,5.000000000000000000e+00,5.000000000000000000e+00,5.000000000000000000e+00,5.000000000000000000e+00,5.000000000000000000e+00,4.876314640045166016e+00,4.682842254638671875e+00,4.504136085510253906e+00,1.551326036453247070e+00,1.501955866813659668e+00,1.466629862785339355e+00,1.455504775047302246e+00,1.452705740928649902e+00,1.471715092658996582e+00,1.548896551132202148e+00,1.495430231094360352e+00,1.470337152481079102e+00,1.452368736267089844e+00,1.447650790214538574e+00,1.452153205871582031e+00,1.462959527969360352e+00,2.935693502426147461e+00,2.864445924758911133e+00,2.796574592590332031e+00,2.731845378875732422e+00,2.670044898986816406e+00,2.610978364944458008e+00,2.554468870162963867e+00,2.500353336334228516e+00,2.448483467102050781e+00,2.398721694946289062e+00,2.350942134857177734e+00,2.305029153823852539e+00,2.260874986648559570e+00,2.218380689620971680e+00,2.177454233169555664e+00,2.138010740280151367e+00,2.099970579147338867e+00,2.063260316848754883e+00,2.027811765670776367e+00,1.993560552597045898e+00,1.960447192192077637e+00,1.928415894508361816e+00,1.897414326667785645e+00,1.867393970489501953e+00
5.000000000000000000e+00,5.000000000000000000e+00,5.000000000000000000e+00,5.000000000000000000e+00,5.000000000000000000e+00,5.000000000000000000e+00,5.000000000000000000e+00,5.000000000000000000e+00,5.000000000000000000e+00,5.000000000000000000e+00,5.000000000000000000e+00,5.000000000000000000e+00,5.000000000000000000e+00,5.000000000000000000e+00,5.000000000000000000e+00,5.000000000000000000e+00,5.000000000000000000e+00,5.000000000000000000e+00,5.000000000000000000e+00,5.000000000000000000e+00,5.000000000000000000e+00,5.000000000000000000e+00,5.000000000000000000e+00,5.000000000000000000e+00,5.000000000000000000e+00,5.000000000000000000e+00,5.000000000000000000e+00,5.000000000000000000e+00,5.000000000000000000e+00,5.000000000000000000e+00,5.000000000000000000e+00,5.000000000000000000e+00,5.000000000000000000e+00,5.000000000000000000e+00,5.000000000000000000e+00,5.000000000000000000e+00,5.000000000000000000e+00,5.000000000000000000e+00,5.000000000000000000e+00,5.000000000000000000e+00,4.876458168029785156e+00,4.682974338531494141e+00,4.504258155822753906e+00,4.338681697845458984e+00,1.512949824333190918e+00,1.475809335708618164e+00,1.457402229309082031e+00,1.451192378997802734e+00,1.468832850456237793e+00,3.554663658142089844e+00,1.501778125762939453e+00,1.468265175819396973e+00,1.451462268829345703e+00,1.439408302307128906e+00,1.444800138473510742e+00,1.448597311973571777e+00,2.935745239257812500e+00,2.864495277404785156e+00,2.796621561050415039e+00,2.731890201568603516e+00,2.670087814331054688e+00,2.611019372940063477e+00,2.554508209228515625e+00,2.500391006469726562e+00,2.448519468307495117e+00,2.398756265640258789e+00,2.350975513458251953e+00,2.305061101913452148e+00,2.260905742645263672e+00,2.218410253524780273e+00,2.177482843399047852e+00,2.138038158416748047e+00,2.099997043609619141e+00,2.063286066055297852e+00,2.027836561203002930e+00,1.993584513664245605e+00,1.960470318794250488e+00,1.928438305854797363e+00,1.897436022758483887e+00,1.867415070533752441e+00
5.000000000000000000e+00,5.000000000000000000e+00,5.000000000000000000e+00,5.000000000000000000e+00,5.000000000000000000e+00,5.000000000000000000e+00,5.000000000000000000e+00,5.000000000000000000e+00,5.000000000000000000e+00,5.000000000000000000e+00,5.000000000000000000e+00,5.000000000000000000e+00,5.000000000000000000e+00,5.000000000000000000e+00,5.000000000000000000e+00,5.000000000000000000e+00,5.000000000000000000e+00,5.000000000000000000e+00,5.000000000000000000e+00,5.000000000000000000e+00,5.000000000000000000e+00,5.000000000000000000e+00,5.000000000000000000e+00,5.000000000000000000e+00,5.000000000000000000e+00,5.000000000000000000e+00,5.000000000000000000e+00,5.000000000000000000e+00,5.000000000000000000e+00,5.000000000000000000e+00,5.000000000000000000e+00,5.000000000000000000e+00,5.000000000000000000e+00,5.000000000000000000e+00,5.000000000000000000e+00,5.000000000000000000e+00,5.000000000000000000e+00,5.000000000000000000e+00,5.000000000000000000e+00,5.000000000000000000e+00,4.876601219177246094e+00,4.683105945587158203e+00,4.504380226135253906e+00,4.338794708251953125e+00,1.527191519737243652e+00,1.485104322433471680e+00,1.459993720054626465e+00,1.450398087501525879e+00,1.463631510734558105e+00,3.554739713668823242e+00,1.521817445755004883e+00,1.466993331909179688e+00,1.450556993484497070e+00,1.434484958648681641e+00,1.436589837074279785e+00,1.441960573196411133e+00,2.935797214508056641e+00,2.864544868469238281e+00,2.796668767929077148e+00,2.731935262680053711e+00,2.670130729675292969e+00,2.611060380935668945e+00,2.554547309875488281e+00,2.500428676605224609e+00,2.448555469512939453e+00,2.398790836334228516e+00,2.351008892059326172e+00,2.305093050003051758e+00,2.260936498641967773e+00,2.218440055847167969e+00,2.177511453628540039e+00,2.138065576553344727e+00,2.100023746490478516e+00,2.063311576843261719e+00,2.027861356735229492e+00,1.993608474731445312e+00,1.960493445396423340e+00,1.928460717201232910e+00,1.897457718849182129e+00,1.867436051368713379e+00
5.000000000000000000e+00,5.000000000000000000e+00,5.000000000000000000e+00,5.000000000000000000e+00,5.000000000000000000e+00,5.000000000000000000e+00,5.000000000000000000e+00,5.000000000000000000e+00,5.000000000000000000e+00,5.000000000000000000e+00,5.000000000000000000e+00,5.000000000000000000e+00,5.000000000000000000e+00,5.000000000000000000e+00,5.000000000000000000e+00,5.000000000000000000e+00,5.000000000000000000e+00,5.000000000000000000e+00,5.000000000000000000e+00,5.000000000000000000e+00,5.000000000000000000e+00,5.000000000000000000e+00,5.000000000000000000e+00,5.000000000000000000e+00,5.000000000000000000e+00,5.000000000000000000e+00,5.000000000000000000e+00,5.000000000000000000e+00,5.000000000000000000e+00,5.000000000000000000e+00,5.000000000000000000e+00,5.000000000000000000e+00,5.000000000000000000e+00,5.000000000000000000e+00,5.000000000000000000e+00,5.000000000000000000e+00,5.000000000000000000e+00,5.000000000000000000e+00,5.000000000000000000e+00,5.000000000000000000e+00,4.876744270324707031e+00,4.683238029479980469e+00,4.504502773284912109e+00,4.338908195495605469e+00,1.536676049232482910e+00,1.494517207145690918e+00,1.462343931198120117e+00,1.452541112899780273e+00,1.460072278976440430e+00,1.486466407775878906e+00,3.450880050659179688e+00,1.466136932373046875e+00,1.449962973594665527e+00,1.435837626457214355e+00,1.437006592750549316e+00,1.443180680274963379e+00,2.935849189758300781e+00,2.864594221115112305e+00,2.796715974807739258e+00,2.731980085372924805e+00,2.670173645019531250e+00,2.611101388931274414e+00,2.554586648941040039e+00,2.500466346740722656e+00,2.448591709136962891e+00,2.398825645446777344e+00,2.351042032241821289e+00,2.305125236511230469e+00,2.260967254638671875e+00,2.218469619750976562e+00,2.177540063858032227e+00,2.138093233108520508e+00,2.100050210952758789e+00,2.063337326049804688e+00,2.027885913848876953e+00,1.993632316589355469e+00,1.960516571998596191e+00,1.928483128547668457e+00,1.897479414939880371e+00,1.867457032203674316e+00
5.000000000000000000e+00,5.000000000000000000e+00,5.000000000000000000e+00,5.000000000000000000e+00,5.000000000000000000e+00,5.000000000000000000e+00,5.000000000000000000e+00,5.000000000000000000e+00,5.000000000000000000e+00,5.000000000000000000e+00,5.000000000000000000e+00,5.000000000000000000e+00,5.000000000000000000e+00,5.000000000000000000e+00,5.000000000000000000e+00,5.000000000000000000e+00,5.000000000000000000e+00,5.000000000000000000e+00,5.000000000000000000e+00,5.000000000000000000e+00,5.000000000000000000e+00,5.000000000000000000e+00,5.000000000000000000e+00,5.000000000000000000e+00,5.000000000000000000e+00,5.000000000000000000e+00,5.000000000000000000e+00,5.000000000000000000e+00,5.000000000000000000e+00,5.000000000000000000e+00,5.000000000000000000e+00,5.000000000000000000e+00,5.000000000000000000e+00,5.000000000000000000e+00,5.000000000000000000e+00,5.000000000000000000e+00,5.000000000000000000e+00,5.000000000000000000e+00,5.000000000000000000e+00,5.000000000000000000e+00,4.876887321472167969e+00,4.683370113372802734e+00,4.504624843597412109e+00,4.339021682739257812e+00,1.547179818153381348e+00,1.504640579223632812e+00,1.468558669090270996e+00,1.454940915107727051e+00,1.460329174995422363e+00,1.484548568725585938e+00,3.450951814651489258e+00,1.470893025398254395e+00,1.454671740531921387e+00,1.438804388046264648e+00,1.437613487243652344e+00,1.444539308547973633e+00,2.935900926589965820e+00,2.864643573760986328e+00,2.796763181686401367e+00,2.732025146484375000e+00,2.670216560363769531e+00,2.611142635345458984e+00,2.554625988006591797e+00,2.500504016876220703e+00,2.448627710342407227e+00,2.398860216140747070e+00,2.351075410842895508e+00,2.305157184600830078e+00,2.260998249053955078e+00,2.218499183654785156e+00,2.177568435668945312e+00,2.138120651245117188e+00,2.100076675415039062e+00,2.063362836837768555e+00,2.027910709381103516e+00,1.993656277656555176e+00,1.960539698600769043e+00,1.928505539894104004e+00,1.897501111030578613e+00,1.867478013038635254e+00
5.000000000000000000e+00,5.000000000000000000e+00,5.000000000000000000e+00,5.000000000000000000e+00,5.000000000000000000e+00,5.000000000000000000e+00,5.000000000000000000e+00,5.000000000000000000e+00,5.000000000000000000e+00,5.000000000000000000e+00,5.000000000000000000e+00,5.000000000000000000e+00,5.000000000000000000e+00,5.000000000000000000e+00,5.000000000000000000e+00,5.000000000000000000e+00,5.000000000000000000e+00,5.000000000000000000e+00,5.000000000000000000e+00,5.000000000000000000e+00,5.000000000000000000e+00,5.000000000000000000e+00,5.000000000000000000e+00,5.000000000000000000e+00,5.000000000000000000e+00,5.000000000000000000e+00,5.000000000000000000e+00,5.000000000000000000e+00,5.000000000000000000e+00,5.000000000000000000e+00,5.000000000000000000e+00,5.000000000000000000e+00,5.000000000000000000e+00,5.000000000000000000e+00,5.000000000000000000e+00,5.000000000000000000e+00,5.000000000000000000e+00,5.000000000000000000e+00,5.000000000000000000e+00,5.000000000000000000e+00,4.877030849456787109e+00,4.683502674102783203e+00,4.504746913909912109e+00,4.339135169982910156e+00,1.553990244865417480e+00,1.508254170417785645e+00,1.477472543716430664e+00,1.461987972259521484e+00,1.474023103713989258e+00,3.554967880249023438e+00,1.536469221115112305e+00,1.485672593116760254e+00,1.462501883506774902e+00,1.445719957351684570e+00,1.450694441795349121e+00,1.456971406936645508e+00,2.935952901840209961e+00,2.864692926406860352e+00,2.796810150146484375e+00,2.732069969177246094e+00,2.670259475708007812e+00,2.611183643341064453e+00,2.554665327072143555e+00,2.500541687011718750e+00,2.448663949966430664e+00,2.398894786834716797e+00,2.351108551025390625e+00,2.305189132690429688e+00,2.261029005050659180e+00,2.218528985977172852e+00,2.177597045898437500e+00,2.138148307800292969e+00,2.100103378295898438e+00,2.063388586044311523e+00,2.027935504913330078e+00,1.993680238723754883e+00,1.960562944412231445e+00,1.928527832031250000e+00,1.897522687911987305e+00,1.867498993873596191e+00
5.000000000000000000e+00,5.000000000000000000e+00,5.000000000000000000e+00,5.000000000000000000e+00,5.000000000000000000e+00,5.000000000000000000e+00,5.000000000000000000e+00,5.000000000000000000e+00,5.000000000000000000e+00,5.000000000000000000e+00,5.000000000000000000e+00,5.000000000000000000e+00,5.000000000000000000e+00,5.000000000000000000e+00,5.000000000000000000e+00,5.000000000000000000e+00,5.000000000000000000e+00,5.000000000000000000e+00,5.000000000000000000e+00,5.000000000000000000e+00,5.000000000000000000e+00,5.000000000000000000e+00,5.000000000000000000e+00,5.000000000000000000e+00,5.000000000000000000e+00,5.000000000000000000e+00,5.000000000000000000e+00,5.000000000000000000e+00,5.000000000000000000e+00,5.000000000000000000e+00,5.000000000000000000e+00,5.000000000000000000e+00,5.000000000000000000e+00,5.000000000000000000e+00,5.000000000000000000e+00,5.000000000000000000e+00,5.000000000000000000e+00,5.000000000000000000e+00,5.000000000000000000e+00,5.000000000000000000e+00,4.877173900604248047e+00,4.683634757995605469e+00,4.504868984222412109e+00,4.339248180389404297e+00,1.551339387893676758e+00,1.509557604789733887e+00,1.490062355995178223e+00,1.474622845649719238e+00,1.493361353874206543e+00,1.585991382598876953e+00,1.531359791755676270e+00,1.506753921508789062e+00,1.479709386825561523e+00,1.469793319702148438e+00,1.472776532173156738e+00,3.010903120040893555e+00,2.936004638671875000e+00,2.864742279052734375e+00,2.796857357025146484e+00,2.732115030288696289e+00,2.670302391052246094e+00,2.611224651336669922e+00,2.554704666137695312e+00,2.500579357147216797e+00,2.448699951171875000e+00,2.398929595947265625e+00,2.351141929626464844e+00,2.305221080780029297e+00,2.261059761047363281e+00,2.218558549880981445e+00,2.177625656127929688e+00,2.138175725936889648e+00,2.100129842758178711e+00,2.063414335250854492e+00,2.027960300445556641e+00,1.993704199790954590e+00,1.960586071014404297e+00,1.928550243377685547e+00,1.897544622421264648e+00,1.867519974708557129e+00
5.000000000000000000e+00,5.000000000000000000e+00,5.000000000000000000e+00,5.000000000000000000e+00,5.000000000000000000e+00,5.000000000000000000e+00,5.000000000000000000e+00,5.000000000000000000e+00,5.000000000000000000e+00,5.000000000000000000e+00,5.000000000000000000e+00,5.000000000000000000e+00,5.000000000000000000e+00,5.000000000000000000e+00,5.000000000000000000e+00,5.000000000000000000e+00,5.000000000000000000e+00,5.000000000000000000e+00,5.000000000000000000e+00,5.000000000000000000e+00,5.000000000000000000e+00,5.000000000000000000e+00,5.000000000000000000e+00,5.000000000000000000e+00,5.000000000000000000e+00,5.000000000000000000e+00,5.000000000000000000e+00,5.000000000000000000e+00,5.000000000000000000e+00,5.000000000000000000e+00,5.000000000000000000e+00,5.000000000000000000e+00,5.000000000000000000e+00,5.000000000000000000e+00,5.000000000000000000e+00,5.000000000000000000e+00,5.000000000000000000e+00,5.000000000000000000e+00,5.000000000000000000e+00,5.000000000000000000e+00,4.877317428588867188e+00,4.683766841888427734e+00,4.504991531372070312e+00,4.339361667633056641e+00,1.547159314155578613e+00,1.513831377029418945e+00,1.501426458358764648e+00,1.488545656204223633e+00,1.519468665122985840e+00,1.576242804527282715e+00,1.546623945236206055e+00,1.517868041992187500e+00,1.506774663925170898e+00,1.502455711364746094e+00,3.089780092239379883e+00,3.010957717895507812e+00,2.936056852340698242e+00,2.864791870117187500e+00,2.796904325485229492e+00,2.732159852981567383e+00,2.670345306396484375e+00,2.611265659332275391e+00,2.554743766784667969e+00,2.500617027282714844e+00,2.448735952377319336e+00,2.398964166641235352e+00,2.351175069808959961e+00,2.305253028869628906e+00,2.261090517044067383e+00,2.218588113784790039e+00,2.177654266357421875e+00,2.138203382492065430e+00,2.100156307220458984e+00,2.063439846038818359e+00,2.027985095977783203e+00,1.993728041648864746e+00,1.960609197616577148e+00,1.928572654724121094e+00,1.897566318511962891e+00,1.867540955543518066e+00
5.000000000000000000e+00,5.000000000000000000e+00,5.000000000000000000e+00,5.000000000000000000e+00,5.000000000000000000e+00,5.000000000000000000e+00,5.000000000000000000e+00,5.000000000000000000e+00,5.000000000000000000e+00,5.000000000000000000e+00,5.000000000000000000e+00,5.000000000000000000e+00,5.000000000000000000e+00,5.000000000000000000e+00,5.000000000000000000e+00,5.000000000000000000e+00,5.000000000000000000e+00,5.000000000000000000e+00,5.000000000000000000e+00,5.000000000000000000e+00,5.000000000000000000e+00,5.000000000000000000e+00,5.000000000000000000e+00,5.000000000000000000e+00,5.000000000000000000e+00,5.000000000000000000e+00,5.000000000000000000e+00,5.000000000000000000e+00,5.000000000000000000e+00,5.000000000000000000e+00,5.000000000000000000e+00,5.000000000000000000e+00,5.000000000000000000e+00,5.000000000000000000e+00,5.000000000000000000e+00,5.000000000000000000e+00,5.000000000000000000e+00,5.000000000000000000e+00,5.000000000000000000e+00,5.000000000000000000e+00,4.877460479736328125e+00,4.683898925781250000e+00,4.505113601684570312e+00,4.339475154876708984e+00,1.545112848281860352e+00,1.522169709205627441e+00,1.512965202331542969e+00,1.506196379661560059e+00,1.643375635147094727e+00,1.584349274635314941e+00,1.556403398513793945e+00,1.549383163452148438e+00,1.537825942039489746e+00,3.172901391983032227e+00,3.089837551116943359e+00,3.011012315750122070e+00,2.936108827590942383e+00,2.864841222763061523e+00,2.796951532363891602e+00,2.732204914093017578e+00,2.670388221740722656e+00,2.611306905746459961e+00,2.554783105850219727e+00,2.500654697418212891e+00,2.448772192001342773e+00,2.398998737335205078e+00,2.351208686828613281e+00,2.305285215377807617e+00,2.261121273040771484e+00,2.218617677688598633e+00,2.177682638168334961e+00,2.138230800628662109e+00,2.100183010101318359e+00,2.063465595245361328e+00,2.028009891510009766e+00,1.993752002716064453e+00,1.960632324218750000e+00,1.928595066070556641e+00,1.897588014602661133e+00,1.867561936378479004e+00
5.000000000000000000e+00,5.000000000000000000e+00,5.000000000000000000e+00,5.000000000000000000e+00,5.000000000000000000e+00,5.000000000000000000e+00,5.000000000000000000e+00,5.000000000000000000e+00,5.000000000000000000e+00,5.000000000000000000e+00,5.000000000000000000e+00,5.000000000000000000e+00,5.000000000000000000e+00,5.000000000000000000e+00,5.000000000000000000e+00,5.000000000000000000e+00,5.000000000000000000e+00,5.000000000000000000e+00,5.000000000000000000e+00,5.000000000000000000e+00,5.000000000000000000e+00,5.000000000000000000e+00,5.000000000000000000e+00,5.000000000000000000e+00,5.000000000000000000e+00,5.000000000000000000e+00,5.000000000000000000e+00,5.000000000000000000e+00,5.000000000000000000e+00,5.000000000000000000e+00,5.000000000000000000e+00,5.000000000000000000e+00,5.000000000000000000e+00,5.000000000000000000e+00,5.000000000000000000e+00,5.000000000000000000e+00,5.000000000000000000e+00,5.000000000000000000e+00,5.000000000000000000e+00,5.000000000000000000e+00,4.877604007720947266e+00,4.684031009674072266e+00,4.505235671997070312e+00,4.339588165283203125e+00,1.552080512046813965e+00,1.530600428581237793e+00,1.524682641029357910e+00,1.533306717872619629e+00,1.626539349555969238e+00,1.592636227607727051e+00,1.574311852455139160e+00,1.569232821464538574e+00,1.566038966178894043e+00,3.172961950302124023e+00,3.089895009994506836e+00,3.011066913604736328e+00,2.936160802841186523e+00,2.864890575408935547e+00,2.796998500823974609e+00,2.732249736785888672e+00,2.670431137084960938e+00,2.611347913742065430e+00,2.554822444915771484e+00,2.500692367553710938e+00,2.448808193206787109e+00,2.399033546447753906e+00,2.351241827011108398e+00,2.305317163467407227e+00,2.261152267456054688e+00,2.218647480010986328e+00,2.177711248397827148e+00,2.138258457183837891e+00,2.100209474563598633e+00,2.063491106033325195e+00,2.028034687042236328e+00,1.993775963783264160e+00,1.960655450820922852e+00,1.928617477416992188e+00,1.897609710693359375e+00,1.867582917213439941e+00
5.000000000000000000e+00,5.000000000000000000e+00,5.000000000000000000e+00,5.000000000000000000e+00,5.000000000000000000e+00,5.000000000000000000e+00,5.000000000000000000e+00,5.000000000000000000e+00,5.000000000000000000e+00,5.000000000000000000e+00,5.000000000000000000e+00,5.000000000000000000e+00,5.000000000000000000e+00,5.000000000000000000e+00,5.000000000000000000e+00,5.000000000000000000e+00,5.000000000000000000e+00,5.000000000000000000e+00,5.000000000000000000e+00,5.000000000000000000e+00,5.000000000000000000e+00,5.000000000000000000e+00,5.000000000000000000e+00,5.000000000000000000e+00,5.000000000000000000e+00,5.000000000000000000e+00,5.000000000000000000e+00,5.000000000000000000e+00,5.000000000000000000e+00,5.000000000000000000e+00,5.000000000000000000e+00,5.000000000000000000e+00,5.000000000000000000e+00,5.000000000000000000e+00,5.000000000000000000e+00,5.000000000000000000e+00,5.000000000000000000e+00,5.000000000000000000e+00,5.000000000000000000e+00,5.000000000000000000e+00,4.877744674682617188e+00,4.684163093566894531e+00,4.505357742309570312e+00,4.339701652526855469e+00,1.560060381889343262e+00,1.538472652435302734e+00,1.530439972877502441e+00,1.540360808372497559e+00,1.630596518516540527e+00,1.602491855621337891e+00,1.593986272811889648e+00,1.588908791542053223e+00,3.260682344436645508e+00,3.173022747039794922e+00,3.089952707290649414e+00,3.011121511459350586e+00,2.936212539672851562e+00,2.864939928054809570e+00,2.797045707702636719e+00,2.732294797897338867e+00,2.670474052429199219e+00,2.611388921737670898e+00,2.554861783981323242e+00,2.500730037689208984e+00,2.448844432830810547e+00,2.399068117141723633e+00,2.351275205612182617e+00,2.305349111557006836e+00,2.261183023452758789e+00,2.218677043914794922e+00,2.177739858627319336e+00,2.138286113739013672e+00,2.100236177444458008e+00,2.063516855239868164e+00,2.028059244155883789e+00,1.993799924850463867e+00,1.960678577423095703e+00,1.928639888763427734e+00,1.897631287574768066e+00,1.867604017257690430e+00
5.000000000000000000e+00,5.000000000000000000e+00,5.000000000000000000e+00,5.000000000000000000e+00,5.000000000000000000e+00,5.000000000000000000e+00,5.000000000000000000e+00,5.000000000000000000e+00,5.000000000000000000e+00,5.000000000000000000e+00,5.000000000000000000e+00,5.000000000000000000e+00,5.000000000000000000e+00,5.000000000000000000e+00,5.000000000000000000e+00,5.000000000000000000e+00,5.000000000000000000e+00,5.000000000000000000e+00,5.000000000000000000e+00,5.000000000000000000e+00,5.000000000000000000e+00,5.000000000000000000e+00,5.000000000000000000e+00,5.000000000000000000e+00,5.000000000000000000e+00,5.000000000000000000e+00,5.000000000000000000e+00,5.000000000000000000e+00,5.000000000000000000e+00,5.000000000000000000e+00,5.000000000000000000e+00,5.000000000000000000e+00,5.000000000000000000e+00,5.000000000000000000e+00,5.000000000000000000e+00,5.000000000000000000e+00,5.000000000000000000e+00,5.000000000000000000e+00,5.000000000000000000e+00,5.000000000000000000e+00,4.877884864807128906e+00,4.684293746948242188e+00,4.505480289459228516e+00,4.339815139770507812e+00,1.568031668663024902e+00,1.546413779258728027e+00,1.535648107528686523e+00,1.547479867935180664e+00,1.641166567802429199e+00,1.617894530296325684e+00,1.614158749580383301e+00,1.609084486961364746e+00,3.260746240615844727e+00,3.173083305358886719e+00,3.090010404586791992e+00,3.011176109313964844e+00,2.936264514923095703e+00,2.864989519119262695e+00,2.797092676162719727e+00,2.732339620590209961e+00,2.670516967773437500e+00,2.611430168151855469e+00,2.554901123046875000e+00,2.500767469406127930e+00,2.448880434036254883e+00,2.399102687835693359e+00,2.351308584213256836e+00,2.305381059646606445e+00,2.261213779449462891e+00,2.218706607818603516e+00,2.177768468856811523e+00,2.138313531875610352e+00,2.100262641906738281e+00,2.063542366027832031e+00,2.028084039688110352e+00,1.993823766708374023e+00,1.960701704025268555e+00,1.928662180900573730e+00,1.897652983665466309e+00,1.867624998092651367e+00
5.000000000000000000e+00,5.000000000000000000e+00,5.000000000000000000e+00,5.000000000000000000e+00,5.000000000000000000e+00,5.000000000000000000e+00,5.000000000000000000e+00,5.000000000000000000e+00,5.000000000000000000e+00,5.000000000000000000e+00,5.000000000000000000e+00,5.000000000000000000e+00,5.000000000000000000e+00,5.000000000000000000e+00,5.000000000000000000e+00,5.000000000000000000e+00,5.000000000000000000e+00,5.000000000000000000e+00,5.000000000000000000e+00,5.000000000000000000e+00,5.000000000000000000e+00,5.000000000000000000e+00,5.000000000000000000e+00,5.000000000000000000e+00,5.000000000000000000e+00,5.000000000000000000e+00,5.000000000000000000e+00,5.000000000000000000e+00,5.000000000000000000e+00,5.000000000000000000e+00,5.000000000000000000e+00,5.000000000000000000e+00,5.000000000000000000e+00,5.000000000000000000e+00,5.000000000000000000e+00,5.000000000000000000e+00,5.000000000000000000e+00,5.000000000000000000e+00,5.000000000000000000e+00,5.000000000000000000e+00,4.878025531768798828e+00,4.684422969818115234e+00,4.505602359771728516e+00,4.339928627014160156e+00,1.576084613800048828e+00,1.554437160491943359e+00,1.540892004966735840e+00,1.554665088653564453e+00,1.654248952865600586e+00,1.639100313186645508e+00,1.634848475456237793e+00,3.353458642959594727e+00,3.260810375213623047e+00,3.173143863677978516e+00,3.090067863464355469e+00,3.011230707168579102e+00,2.936316490173339844e+00,2.865038871765136719e+00,2.797139883041381836e+00,2.732384920120239258e+00,2.670559883117675781e+00,2.611471176147460938e+00,2.554940223693847656e+00,2.500805139541625977e+00,2.448916673660278320e+00,2.399137496948242188e+00,2.351341724395751953e+00,2.305413007736206055e+00,2.261244535446166992e+00,2.218736410140991211e+00,2.177796840667724609e+00,2.138340950012207031e+00,2.100289106369018555e+00,2.063568115234375000e+00,2.028108835220336914e+00,1.993847727775573730e+00,1.960724830627441406e+00,1.928684592247009277e+00,1.897674679756164551e+00,1.867645978927612305e+00
5.000000000000000000e+00,5.000000000000000000e+00,5.000000000000000000e+00,5.000000000000000000e+00,5.000000000000000000e+00,5.000000000000000000e+00,5.000000000000000000e+00,5.000000000000000000e+00,5.000000000000000000e+00,5.000000000000000000e+00,5.000000000000000000e+00,5.000000000000000000e+00,5.000000000000000000e+00,5.000000000000000000e+00,5.000000000000000000e+00,5.000000000000000000e+00,5.000000000000000000e+00,5.000000000000000000e+00,5.000000000000000000e+00,5.000000000000000000e+00,5.000000000000000000e+00,5.000000000000000000e+00,5.000000000000000000e+00,5.000000000000000000e+00,5.000000000000000000e+00,5.000000000000000000e+00,5.000000000000000000e+00,5.000000000000000000e+00,5.000000000000000000e+00,5.000000000000000000e+00,5.000000000000000000e+00,5.000000000000000000e+00,5.000000000000000000e+00,5.000000000000000000e+00,5.000000000000000000e+00,5.000000000000000000e+00,5.000000000000000000e+00,5.000000000000000000e+00,5.000000000000000000e+00,5.000000000000000000e+00,4.878166198730468750e+00,4.684552669525146484e+00,4.505721569061279297e+00,4.340042114257812500e+00,1.584220886230468750e+00,1.562544465065002441e+00,1.547706604003906250e+00,1.560654401779174805e+00,1.668097257614135742e+00,1.661638021469116211e+00,3.451597213745117188e+00,3.353526353836059570e+00,3.260874271392822266e+00,3.173204421997070312e+00,3.090125322341918945e+00,3.011285305023193359e+00,2.936368227005004883e+00,2.865088224411010742e+00,2.797187089920043945e+00,2.732429742813110352e+00,2.670602798461914062e+00,2.611512184143066406e+00,2.554979562759399414e+00,2.500842809677124023e+00,2.448952913284301758e+00,2.399172067642211914e+00,2.351375102996826172e+00,2.305444955825805664e+00,2.261275291442871094e+00,2.218765974044799805e+00,2.177825450897216797e+00,2.138368606567382812e+00,2.100315809249877930e+00,2.063593626022338867e+00,2.028133630752563477e+00,1.993871688842773438e+00,1.960747957229614258e+00,1.928707003593444824e+00,1.897696375846862793e+00,1.867666959762573242e+00
5.000000000000000000e+00,5.000000000000000000e+00,5.000000000000000000e+00,5.000000000000000000e+00,5.000000000000000000e+00,5.000000000000000000e+00,5.000000000000000000e+00,5.000000000000000000e+00,5.000000000000000000e+00,5.000000000000000000e+00,5.000000000000000000e+00,5.000000000000000000e+00,5.000000000000000000e+00,5.000000000000000000e+00,5.000000000000000000e+00,5.000000000000000000e+00,5.000000000000000000e+00,5.000000000000000000e+00,5.000000000000000000e+00,5.000000000000000000e+00,5.000000000000000000e+00,5.000000000000000000e+00,5.000000000000000000e+00,5.000000000000000000e+00,5.000000000000000000e+00,5.000000000000000000e+00,5.000000000000000000e+00,5.000000000000000000e+00,5.000000000000000000e+00,5.000000000000000000e+00,5.000000000000000000e+00,5.000000000000000000e+00,5.000000000000000000e+00,5.000000000000000000e+00,5.000000000000000000e+00,5.000000000000000000e+00,5.000000000000000000e+00,5.000000000000000000e+00,5.000000000000000000e+00,5.000000000000000000e+00,4.878306388854980469e+00,4.684682369232177734e+00,4.505841732025146484e+00,4.340153217315673828e+00,1.592607736587524414e+00,1.570803523063659668e+00,1.554987907409667969e+00,1.567217469215393066e+00,1.690013527870178223e+00,1.684804081916809082e+00,3.451668739318847656e+00,3.353594064712524414e+00,3.260938167572021484e+00,3.173265218734741211e+00,3.090182781219482422e+00,3.011339902877807617e+00,2.936420202255249023e+00,2.865137577056884766e+00,2.797234058380126953e+00,2.732474803924560547e+00,2.670645952224731445e+00,2.611553192138671875e+00,2.555018901824951172e+00,2.500880479812622070e+00,2.448988914489746094e+00,2.399206638336181641e+00,2.351408243179321289e+00,2.305477142333984375e+00,2.261306047439575195e+00,2.218795776367187500e+00,2.177854061126708984e+00,2.138396024703979492e+00,2.100342273712158203e+00,2.063619375228881836e+00,2.028158426284790039e+00,1.993895649909973145e+00,1.960771203041076660e+00,1.928729414939880371e+00,1.897718071937561035e+00,1.867687940597534180e+00
5.000000000000000000e+00,5.000000000000000000e+00,5.000000000000000000e+00,5.000000000000000000e+00,5.000000000000000000e+00,5.000000000000000000e+00,5.000000000000000000e+00,5.000000000000000000e+00,5.000000000000000000e+00,5.000000000000000000e+00,5.000000000000000000e+00,5.000000000000000000e+00,5.000000000000000000e+00,5.000000000000000000e+00,5.000000000000000000e+00,5.000000000000000000e+00,5.000000000000000000e+00,5.000000000000000000e+00,5.000000000000000000e+00,5.000000000000000000e+00,5.000000000000000000e+00,5.000000000000000000e+00,5.000000000000000000e+00,5.000000000000000000e+00,5.000000000000000000e+00,5.000000000000000000e+00,5.000000000000000000e+00,5.000000000000000000e+00,5.000000000000000000e+00,5.000000000000000000e+00,5.000000000000000000e+00,5.000000000000000000e+00,5.000000000000000000e+00,5.000000000000000000e+00,5.000000000000000000e+00,5.000000000000000000e+00,5.000000000000000000e+00,5.000000000000000000e+00,5.000000000000000000e+00,5.000000000000000000e+00,4.878447055816650391e+00,4.684812068939208984e+00,4.505961418151855469e+00,4.340264797210693359e+00,1.602226495742797852e+00,1.580182194709777832e+00,1.566775441169738770e+00,1.575307726860046387e+00,1.713371396064758301e+00,3.555729150772094727e+00,3.451740503311157227e+00,3.353661775588989258e+00,3.261002540588378906e+00,3.173325777053833008e+00,3.090240240097045898e+00,3.011394500732421875e+00,2.936472177505493164e+00,2.865187168121337891e+00,2.797281265258789062e+00,2.732519626617431641e+00,2.670688867568969727e+00,2.611594200134277344e+00,2.555058240890502930e+00,2.500918149948120117e+00,2.449025154113769531e+00,2.399241447448730469e+00,2.351441621780395508e+00,2.305509090423583984e+00,2.261336803436279297e+00,2.218825340270996094e+00,2.177882671356201172e+00,2.138423681259155273e+00,2.100368738174438477e+00,2.063644886016845703e+00,2.028183221817016602e+00,1.993919491767883301e+00,1.960794329643249512e+00,1.928751826286315918e+00,1.897739768028259277e+00,1.867709159851074219e+00
4.872179985046386719e+00,4.870960712432861328e+00,4.869741916656494141e+00,4.868523597717285156e+00,4.867306232452392578e+00,4.866089344024658203e+00,4.864872932434082031e+00,4.863657474517822266e+00,4.862442493438720703e+00,4.861227989196777344e+00,4.860013961791992188e+00,4.858800888061523438e+00,4.857588291168212891e+00,4.856376171112060547e+00,4.855165004730224609e+00,4.853953838348388672e+00,4.852743625640869141e+00,4.851534366607666016e+00,4.850325584411621094e+00,4.849117279052734375e+00,4.847909450531005859e+00,4.846702098846435547e+00,4.845495223999023438e+00,4.844289302825927734e+00,4.843083858489990234e+00,4.841879367828369141e+00,4.840674877166748047e+00,4.839471817016601562e+00,4.838268756866455078e+00,4.837066173553466797e+00,4.835864067077636719e+00,4.834662914276123047e+00,4.833462238311767578e+00,4.832262516021728516e+00,4.831062793731689453e+00,4.829864025115966797e+00,4.828665733337402344e+00,4.827468395233154297e+00,4.826271533966064453e+00,4.825075149536132812e+00,4.823879241943359375e+00,4.684941768646240234e+00,4.506081581115722656e+00,4.340375900268554688e+00,1.611985325813293457e+00,1.589748501777648926e+00,1.576383233070373535e+00,1.583481907844543457e+00,3.666258573532104492e+00,3.555805444717407227e+00,3.451812267303466797e+00,3.353729486465454102e+00,3.261066675186157227e+00,3.173386335372924805e+00,3.090297698974609375e+00,3.011449098587036133e+00,2.936524152755737305e+00,2.865236759185791016e+00,2.797328233718872070e+00,2.732564687728881836e+00,2.670731782913208008e+00,2.611635446548461914e+00,2.555097579956054688e+00,2.500955820083618164e+00,2.449061155319213867e+00,2.399276018142700195e+00,2.351475000381469727e+00,2.305541038513183594e+00,2.261367559432983398e+00,2.218854904174804688e+00,2.177911043167114258e+00,2.138451099395751953e+00,2.100395441055297852e+00,2.063670635223388672e+00,2.028208017349243164e+00,1.993943452835083008e+00,1.960817456245422363e+00,1.928774237632751465e+00,1.897761464118957520e+00,1.867730140686035156e+00
3.776653289794921875e+00,3.775920629501342773e+00,3.775188207626342773e+00,3.774456024169921875e+00,3.773724317550659180e+00,3.772992610931396484e+00,3.772261381149291992e+00,3.771530389785766602e+00,3.770799636840820312e+00,3.770069360733032227e+00,3.769339323043823242e+00,3.768609285354614258e+00,3.767879724502563477e+00,3.767150640487670898e+00,3.766421556472778320e+00,3.765692949295043945e+00,3.764964342117309570e+00,3.764236211776733398e+00,3.763508319854736328e+00,3.762781143188476562e+00,3.762053728103637695e+00,3.761326789855957031e+00,3.760600090026855469e+00,3.759873628616333008e+00,3.759147405624389648e+00,3.758421421051025391e+00,3.757695913314819336e+00,3.756970643997192383e+00,3.756245374679565430e+00,3.755520582199096680e+00,3.754796266555786133e+00,3.754071950912475586e+00,3.753347873687744141e+00,3.752624273300170898e+00,3.751900911331176758e+00,3.751177787780761719e+00,3.750454902648925781e+00,3.749732494354248047e+00,3.749010086059570312e+00,3.748288154602050781e+00,3.747566699981689453e+00,3.746845245361328125e+00,3.746124267578125000e+00,3.745403289794921875e+00,1.625681638717651367e+00,1.599572181701660156e+00,1.583794355392456055e+00,1.591741442680358887e+00,1.768243670463562012e+00,3.555881500244140625e+00,3.451884031295776367e+00,3.353797197341918945e+00,3.261130571365356445e+00,3.173446893692016602e+00,3.090355157852172852e+00,3.011503696441650391e+00,2.936575889587402344e+00,2.865286111831665039e+00,2.797375440597534180e+00,2.732609510421752930e+00,2.670774698257446289e+00,2.611676454544067383e+00,2.555136919021606445e+00,2.500993490219116211e+00,2.449097156524658203e+00,2.399310588836669922e+00,2.351508140563964844e+00,2.305573225021362305e+00,2.261398315429687500e+00,2.218884706497192383e+00,2.177939653396606445e+00,2.138478755950927734e+00,2.100421905517578125e+00,2.063696384429931641e+00,2.028232812881469727e+00,1.993967413902282715e+00,1.960840582847595215e+00,1.928796648979187012e+00,1.897783160209655762e+00,1.867751121520996094e+00
3.083350896835327148e+00,3.082862377166748047e+00,3.082374572753906250e+00,3.081886291503906250e+00,3.081398487091064453e+00,3.080910682678222656e+00,3.080423116683959961e+00,3.079935550689697266e+00,3.079448223114013672e+00,3.078961133956909180e+00,3.078474283218383789e+00,3.077987432479858398e+00,3.077500581741333008e+00,3.077013969421386719e+00,3.076527595520019531e+00,3.076041460037231445e+00,3.075555324554443359e+00,3.075069427490234375e+00,3.074583768844604492e+00,3.074098110198974609e+00,3.073612689971923828e+00,3.073127269744873047e+00,3.072642326354980469e+00,3.072157382965087891e+00,3.071672439575195312e+00,3.071187973022460938e+00,3.070703268051147461e+00,3.070218801498413086e+00,3.069734573364257812e+00,3.069250583648681641e+00,3.068766593933105469e+00,3.068282842636108398e+00,3.067799329757690430e+00,3.067315816879272461e+00,3.066832542419433594e+00,3.066349267959594727e+00,3.065866470336914062e+00,3.065383434295654297e+00,3.064900875091552734e+00,3.064418315887451172e+00,3.063935756683349609e+00,3.063453674316406250e+00,3.062971591949462891e+00,3.062489748001098633e+00,1.642242908477783203e+00,1.609517812728881836e+00,1.591275572776794434e+00,1.600087642669677734e+00,1.744086027145385742e+00,3.059601306915283203e+00,3.059120416641235352e+00,3.058639526367187500e+00,3.058159112930297852e+00,3.057678461074829102e+00,3.057198286056518555e+00,3.011558294296264648e+00,2.936627864837646484e+00,2.865335702896118164e+00,2.797422409057617188e+00,2.732654571533203125e+00,2.670817613601684570e+00,2.611717462539672852e+00,2.555176258087158203e+00,2.501031160354614258e+00,2.449133396148681641e+00,2.399345397949218750e+00,2.351541519165039062e+00,2.305605173110961914e+00,2.261429309844970703e+00,2.218914270401000977e+00,2.177968263626098633e+00,2.138506174087524414e+00,2.100448608398437500e+00,2.063721895217895508e+00,2.028257608413696289e+00,1.993991374969482422e+00,1.960863709449768066e+00,1.928818941116333008e+00,1.897804737091064453e+00,1.867772221565246582e+00
2.605114698410034180e+00,2.604766130447387695e+00,2.604417562484741211e+00,2.604068994522094727e+00,2.603720903396606445e+00,2.603372573852539062e+00,2.603024482727050781e+00,2.602676391601562500e+00,2.602328300476074219e+00,2.601980447769165039e+00,2.601632595062255859e+00,2.601284980773925781e+00,2.600937366485595703e+00,2.600589752197265625e+00,2.600242376327514648e+00,2.599895000457763672e+00,2.599547863006591797e+00,2.599200487136840820e+00,2.598853588104248047e+00,2.598506450653076172e+00,2.598159551620483398e+00,2.597812891006469727e+00,2.597466230392456055e+00,2.597119569778442383e+00,2.596773147583007812e+00,2.596426963806152344e+00,2.596080541610717773e+00,2.595734357833862305e+00,2.595388174057006836e+00,2.595042228698730469e+00,2.594696044921875000e+00,2.594350337982177734e+00,2.594004631042480469e+00,2.593658924102783203e+00,2.593313217163085938e+00,2.592967748641967773e+00,2.592622280120849609e+00,2.592277050018310547e+00,2.591931819915771484e+00,2.591586589813232422e+00,2.591241598129272461e+00,2.590896844863891602e+00,2.590551853179931641e+00,2.590207099914550781e+00,2.589862346649169922e+00,1.627356767654418945e+00,1.614386200904846191e+00,1.717361211776733398e+00,1.728795886039733887e+00,2.588140726089477539e+00,2.587796688079833984e+00,2.587452650070190430e+00,2.587108612060546875e+00,2.586764812469482422e+00,2.586421012878417969e+00,2.586077451705932617e+00,2.585733890533447266e+00,2.585390329360961914e+00,2.585047006607055664e+00,2.584703683853149414e+00,2.584360599517822266e+00,2.584017515182495117e+00,2.555215597152709961e+00,2.501068830490112305e+00,2.449169397354125977e+00,2.399379968643188477e+00,2.351574659347534180e+00,2.305637121200561523e+00,2.261460065841674805e+00,2.218943834304809570e+00,2.177996873855590820e+00,2.138533830642700195e+00,2.100475311279296875e+00,2.063747644424438477e+00,2.028282403945922852e+00,1.994015336036682129e+00,1.960886955261230469e+00,1.928841352462768555e+00,1.897826433181762695e+00,1.867793202400207520e+00
2.255301713943481445e+00,2.255041122436523438e+00,2.254781007766723633e+00,2.254520893096923828e+00,2.254260778427124023e+00,2.254000663757324219e+00,2.253740549087524414e+00,2.253480672836303711e+00,2.253220796585083008e+00,2.252960681915283203e+00,2.252699851989746094e+00,2.252439022064208984e+00,2.252178430557250977e+00,2.251917839050292969e+00,2.251657485961914062e+00,2.251396894454956055e+00,2.251136541366577148e+00,2.250876188278198242e+00,2.250615835189819336e+00,2.250355720520019531e+00,2.250095605850219727e+00,2.249835491180419922e+00,2.249575376510620117e+00,2.249315500259399414e+00,2.249055624008178711e+00,2.248795747756958008e+00,2.248535871505737305e+00,2.248276233673095703e+00,2.248016595840454102e+00,2.247756958007812500e+00,2.247497320175170898e+00,2.247237920761108398e+00,2.246978521347045898e+00,2.246719121932983398e+00,2.246459722518920898e+00,2.246200561523437500e+00,2.245941400527954102e+00,2.245682239532470703e+00,2.245423078536987305e+00,2.245164155960083008e+00,2.244904994964599609e+00,2.244646310806274414e+00,2.244387388229370117e+00,2.244128465652465820e+00,2.243869781494140625e+00,1.632890939712524414e+00,1.612771630287170410e+00,1.606867313385009766e+00,1.710758924484252930e+00,1.727655768394470215e+00,2.242318868637084961e+00,2.242060661315917969e+00,2.241802453994750977e+00,2.241544246673583984e+00,2.241286039352416992e+00,2.241028070449829102e+00,2.240770101547241211e+00,2.240512132644653320e+00,2.240254163742065430e+00,2.239996433258056641e+00,2.239738464355468750e+00,2.239480733871459961e+00,2.239223241806030273e+00,2.238965511322021484e+00,2.238708019256591797e+00,2.238450527191162109e+00,2.238193273544311523e+00,2.237935781478881836e+00,2.237678527832031250e+00,2.218973636627197266e+00,2.178025245666503906e+00,2.138561248779296875e+00,2.100501775741577148e+00,2.063773155212402344e+00,2.028307199478149414e+00,1.994039177894592285e+00,1.960910081863403320e+00,1.928863763809204102e+00,1.897848129272460938e+00,1.867814183235168457e+00
1.988261103630065918e+00,1.988058686256408691e+00,1.987856388092041016e+00,1.987654328346252441e+00,1.987452030181884766e+00,1.987249851226806641e+00,1.987047672271728516e+00,1.986845731735229492e+00,1.986643671989440918e+00,1.986441612243652344e+00,1.986239910125732422e+00,1.986037850379943848e+00,1.985835909843444824e+00,1.985634088516235352e+00,1.985432505607604980e+00,1.985230684280395508e+00,1.985028862953186035e+00,1.984827160835266113e+00,1.984625697135925293e+00,1.984424114227294922e+00,1.984222412109375000e+00,1.984021186828613281e+00,1.983819603919982910e+00,1.983618140220642090e+00,1.983416676521301270e+00,1.983215570449829102e+00,1.983014225959777832e+00,1.982812881469726562e+00,1.982611656188964844e+00,1.982410550117492676e+00,1.982209444046020508e+00,1.982008218765258789e+00,1.981807112693786621e+00,1.981606364250183105e+00,1.981405258178710938e+00,1.981204271316528320e+00,1.981003522872924805e+00,1.980802655220031738e+00,1.980601787567138672e+00,1.980400919914245605e+00,1.980200409889221191e+00,1.979999661445617676e+00,1.979798913002014160e+00,1.979598283767700195e+00,1.979397892951965332e+00,1.630345463752746582e+00,1.596547007560729980e+00,1.582041144371032715e+00,1.582407355308532715e+00,1.978395581245422363e+00,1.978195190429687500e+00,1.977995157241821289e+00,1.977794766426086426e+00,1.977594494819641113e+00,1.977394342422485352e+00,1.977194428443908691e+00,1.976994276046752930e+00,1.976794123649597168e+00,1.976594090461730957e+00,1.976394295692443848e+00,1.976194262504577637e+00,1.975994348526000977e+00,1.975794672966003418e+00,1.975594878196716309e+00,1.975395083427429199e+00,1.975195288658142090e+00,1.974995732307434082e+00,1.974796056747436523e+00,1.974596381187438965e+00,1.974396824836730957e+00,1.974197506904602051e+00,1.973997950553894043e+00,1.973798394203186035e+00,1.973599195480346680e+00,1.973399758338928223e+00,1.973200440406799316e+00,1.960933208465576172e+00,1.928886175155639648e+00,1.897869825363159180e+00,1.867835164070129395e+00
1.777763605117797852e+00,1.777602076530456543e+00,1.777440309524536133e+00,1.777278542518615723e+00,1.777117013931274414e+00,1.776955366134643555e+00,1.776793718338012695e+00,1.776632070541381836e+00,1.776470661163330078e+00,1.776309132575988770e+00,1.776147484779357910e+00,1.775986075401306152e+00,1.775824785232543945e+00,1.775663256645202637e+00,1.775501847267150879e+00,1.775340676307678223e+00,1.775179266929626465e+00,1.775017976760864258e+00,1.774856686592102051e+00,1.774695634841918945e+00,1.774534344673156738e+00,1.774373173713684082e+00,1.774212002754211426e+00,1.774050951004028320e+00,1.773889899253845215e+00,1.773728728294372559e+00,1.773567676544189453e+00,1.773406863212585449e+00,1.773245811462402344e+00,1.773084878921508789e+00,1.772924065589904785e+00,1.772763133049011230e+00,1.772602319717407227e+00,1.772441387176513672e+00,1.772280812263488770e+00,1.772119998931884766e+00,1.771959185600280762e+00,1.771798372268676758e+00,1.771637916564941406e+00,1.771477222442626953e+00,1.771316528320312500e+00,1.771156072616577148e+00,1.770995497703552246e+00,1.770834922790527344e+00,1.770674347877502441e+00,1.770514011383056641e+00,1.576297283172607422e+00,1.560632944107055664e+00,1.552572727203369141e+00,1.549582600593566895e+00,1.769712090492248535e+00,1.769551753997802734e+00,1.769391417503356934e+00,1.769231319427490234e+00,1.769071102142333984e+00,1.768910884857177734e+00,1.768750905990600586e+00,1.768590688705444336e+00,1.768430590629577637e+00,1.768270492553710938e+00,1.768110513687133789e+00,1.767950534820556641e+00,1.767790436744689941e+00,1.767630457878112793e+00,1.767470717430114746e+00,1.767310738563537598e+00,1.767150878906250000e+00,1.766991138458251953e+00,1.766831398010253906e+00,1.766671538352966309e+00,1.766511678695678711e+00,1.766352176666259766e+00,1.766192436218261719e+00,1.766032695770263672e+00,1.765873074531555176e+00,1.765713572502136230e+00,1.765553951263427734e+00,1.765394449234008789e+00,1.765235066413879395e+00,1.765075564384460449e+00
1.607570171356201172e+00,1.607437849044799805e+00,1.607305765151977539e+00,1.607173442840576172e+00,1.607041239738464355e+00,1.606909036636352539e+00,1.606776952743530273e+00,1.606644749641418457e+00,1.606512665748596191e+00,1.606380701065063477e+00,1.606248497962951660e+00,1.606116414070129395e+00,1.605984330177307129e+00,1.605852484703063965e+00,1.605720520019531250e+00,1.605588436126708984e+00,1.605456471443176270e+00,1.605324745178222656e+00,1.605192780494689941e+00,1.605060815811157227e+00,1.604928970336914062e+00,1.604797244071960449e+00,1.604665398597717285e+00,1.604533553123474121e+00,1.604401946067810059e+00,1.604270100593566895e+00,1.604138374328613281e+00,1.604006648063659668e+00,1.603875041007995605e+00,1.603743314743041992e+00,1.603611707687377930e+00,1.603479981422424316e+00,1.603348493576049805e+00,1.603216886520385742e+00,1.603085279464721680e+00,1.602953910827636719e+00,1.602822422981262207e+00,1.602690815925598145e+00,1.602559328079223633e+00,1.602428078651428223e+00,1.602296590805053711e+00,1.602165102958679199e+00,1.602033734321594238e+00,1.601902484893798828e+00,1.601771116256713867e+00,1.601639747619628906e+00,1.560955524444580078e+00,1.527351737022399902e+00,1.519484043121337891e+00,1.516688585281372070e+00,1.512040257453918457e+00,1.600852370262145996e+00,1.600721240043640137e+00,1.600589990615844727e+00,1.600458979606628418e+00,1.600327849388122559e+00,1.600196719169616699e+00,1.600065708160400391e+00,1.599934697151184082e+00,1.599803686141967773e+00,1.599672675132751465e+00,1.599541783332824707e+00,1.599410772323608398e+00,1.599279761314392090e+00,1.599148869514465332e+00,1.599018096923828125e+00,1.598887205123901367e+00,1.598756313323974609e+00,1.598625421524047852e+00,1.598494768142700195e+00,1.598363995552062988e+00,1.598233222961425781e+00,1.598102569580078125e+00,1.597971796989440918e+00,1.597841024398803711e+00,1.597710371017456055e+00,1.597579836845397949e+00,1.597449183464050293e+00,1.597318530082702637e+00,1.597187876701354980e+00
1.467116355895996094e+00,1.467006206512451172e+00,1.466895937919616699e+00,1.466785907745361328e+00,1.466675758361816406e+00,1.466565608978271484e+00,1.466455578804016113e+00,1.466345548629760742e+00,1.466235518455505371e+00,1.466125369071960449e+00,1.466015338897705078e+00,1.465905427932739258e+00,1.465795397758483887e+00,1.465685486793518066e+00,1.465575456619262695e+00,1.465465664863586426e+00,1.465355634689331055e+00,1.465245723724365234e+00,1.465135931968688965e+00,1.465026021003723145e+00,1.464916110038757324e+00,1.464806318283081055e+00,1.464696526527404785e+00,1.464586734771728516e+00,1.464476943016052246e+00,1.464367151260375977e+00,1.464257478713989258e+00,1.464147686958312988e+00,1.464037895202636719e+00,1.463928341865539551e+00,1.463818550109863281e+00,1.463708877563476562e+00,1.463599205017089844e+00,1.463489651679992676e+00,1.463379979133605957e+00,1.463270425796508789e+00,1.463160753250122070e+00,1.463051319122314453e+00,1.462941646575927734e+00,1.462832093238830566e+00,1.462722659111022949e+00,1.462613224983215332e+00,1.462503671646118164e+00,1.462394118309020996e+00,1.462284803390502930e+00,1.462175369262695312e+00,1.462065815925598145e+00,1.461956381797790527e+00,1.461847186088562012e+00,1.461737751960754395e+00,1.461628317832946777e+00,1.461519002914428711e+00,1.461409687995910645e+00,1.461300373077392578e+00,1.461191058158874512e+00,1.461081862449645996e+00,1.460972547531127930e+00,1.460863351821899414e+00,1.460754036903381348e+00,1.460644960403442383e+00,1.460535764694213867e+00,1.460426568984985352e+00,1.460317373275756836e+00,1.460208296775817871e+00,1.460099101066589355e+00,1.459989905357360840e+00,1.459880948066711426e+00,1.459771871566772461e+00,1.459662795066833496e+00,1.459553718566894531e+00,1.459444761276245117e+00,1.459335684776306152e+00,1.459226608276367188e+00,1.459117650985717773e+00,1.459008812904357910e+00,1.458899736404418945e+00,1.458790779113769531e+00,1.458682060241699219e+00,1.458573102951049805e+00,1.458464145660400391e+00
1.349233269691467285e+00,1.349140286445617676e+00,1.349047064781188965e+00,1.348953843116760254e+00,1.348860740661621094e+00,1.348767638206481934e+00,1.348674535751342773e+00,1.348581433296203613e+00,1.348488330841064453e+00,1.348395347595214844e+00,1.348302245140075684e+00,1.348209142684936523e+00,1.348116159439086914e+00,1.348023176193237305e+00,1.347930073738098145e+00,1.347837090492248535e+00,1.347744226455688477e+00,1.347651243209838867e+00,1.347558259963989258e+00,1.347465276718139648e+00,1.347372412681579590e+00,1.347279548645019531e+00,1.347186565399169922e+00,1.347093820571899414e+00,1.347000837326049805e+00,1.346907973289489746e+00,1.346815109252929688e+00,1.346722364425659180e+00,1.346629500389099121e+00,1.346536636352539062e+00,1.346443772315979004e+00,1.346351146697998047e+00,1.346258282661437988e+00,1.346165537834167480e+00,1.346072912216186523e+00,1.345980048179626465e+00,1.345887303352355957e+00,1.345794558525085449e+00,1.345701932907104492e+00,1.345609307289123535e+00,1.345516562461853027e+00,1.345423936843872070e+00,1.345331311225891113e+00,1.345238685607910156e+00,1.345146059989929199e+00,1.345053315162658691e+00,1.344960808753967285e+00,1.344868183135986328e+00,1.344775676727294922e+00,1.344683170318603516e+00,1.344590544700622559e+00,1.344498038291931152e+00,1.344405531883239746e+00,1.344313025474548340e+00,1.344220519065856934e+00,1.344128012657165527e+00,1.344035506248474121e+00,1.343943119049072266e+00,1.343850612640380859e+00,1.343758225440979004e+00,1.343665838241577148e+00,1.343573451042175293e+00,1.343481063842773438e+00,1.343388557434082031e+00,1.343296289443969727e+00,1.343203902244567871e+00,1.343111515045166016e+00,1.343019247055053711e+00,1.342926979064941406e+00,1.342834591865539551e+00,1.342742323875427246e+00,1.342650175094604492e+00,1.342557787895202637e+00,1.342465519905090332e+00,1.342373251914978027e+00,1.342281103134155273e+00,1.342188835144042969e+00,1.342096686363220215e+00,1.342004418373107910e+00,1.341912388801574707e+00
1.248885273933410645e+00,1.248805522918701172e+00,1.248725652694702148e+00,1.248645901679992676e+00,1.248566150665283203e+00,1.248486280441284180e+00,1.248406529426574707e+00,1.248326778411865234e+00,1.248247027397155762e+00,1.248167276382446289e+00,1.248087525367736816e+00,1.248007774353027344e+00,1.247928023338317871e+00,1.247848391532897949e+00,1.247768759727478027e+00,1.247689008712768555e+00,1.247609257698059082e+00,1.247529745101928711e+00,1.247449994087219238e+00,1.247370362281799316e+00,1.247290730476379395e+00,1.247211098670959473e+00,1.247131466865539551e+00,1.247051835060119629e+00,1.246972203254699707e+00,1.246892690658569336e+00,1.246813178062438965e+00,1.246733546257019043e+00,1.246654033660888672e+00,1.246574521064758301e+00,1.246494889259338379e+00,1.246415376663208008e+00,1.246335983276367188e+00,1.246256470680236816e+00,1.246176838874816895e+00,1.246097445487976074e+00,1.246017932891845703e+00,1.245938539505004883e+00,1.245859026908874512e+00,1.245779514312744141e+00,1.245700240135192871e+00,1.245620727539062500e+00,1.245541334152221680e+00,1.245461940765380859e+00,1.245382547378540039e+00,1.245303153991699219e+00,1.245223760604858398e+00,1.245144486427307129e+00,1.245065093040466309e+00,1.244985699653625488e+00,1.244906306266784668e+00,1.244827151298522949e+00,1.244747757911682129e+00,1.244668483734130859e+00,1.244589209556579590e+00,1.244509935379028320e+00,1.244430661201477051e+00,1.244351387023925781e+00,1.244272112846374512e+00,1.244192957878112793e+00,1.244113683700561523e+00,1.244034409523010254e+00,1.243955254554748535e+00,1.243876099586486816e+00,1.243796825408935547e+00,1.243717670440673828e+00,1.243638515472412109e+00,1.243559360504150391e+00,1.243480205535888672e+00,1.243401050567626953e+00,1.243321895599365234e+00,1.243242859840393066e+00,1.243163704872131348e+00,1.243084669113159180e+00,1.243005514144897461e+00,1.242926478385925293e+00,1.242847323417663574e+00,1.242768406867980957e+00,1.242689251899719238e+00,1.242610216140747070e+00
1.162430644035339355e+00,1.162361502647399902e+00,1.162292361259460449e+00,1.162223100662231445e+00,1.162154078483581543e+00,1.162084937095642090e+00,1.162015795707702637e+00,1.161946654319763184e+00,1.161877632141113281e+00,1.161808490753173828e+00,1.161739349365234375e+00,1.161670327186584473e+00,1.161601305007934570e+00,1.161532163619995117e+00,1.161463141441345215e+00,1.161394119262695312e+00,1.161325097084045410e+00,1.161256074905395508e+00,1.161186933517456055e+00,1.161118030548095703e+00,1.161049008369445801e+00,1.160979986190795898e+00,1.160911083221435547e+00,1.160842061042785645e+00,1.160773038864135742e+00,1.160704135894775391e+00,1.160635232925415039e+00,1.160566210746765137e+00,1.160497307777404785e+00,1.160428285598754883e+00,1.160359501838684082e+00,1.160290479660034180e+00,1.160221576690673828e+00,1.160152673721313477e+00,1.160083889961242676e+00,1.160014986991882324e+00,1.159946084022521973e+00,1.159877300262451172e+00,1.159808397293090820e+00,1.159739494323730469e+00,1.159670591354370117e+00,1.159601807594299316e+00,1.159533023834228516e+00,1.159464120864868164e+00,1.159395337104797363e+00,1.159326553344726562e+00,1.159257769584655762e+00,1.159188985824584961e+00,1.159120321273803711e+00,1.159051537513732910e+00,1.158982753753662109e+00,1.158913969993591309e+00,1.158845305442810059e+00,1.158776521682739258e+00,1.158707737922668457e+00,1.158638954162597656e+00,1.158570408821105957e+00,1.158501625061035156e+00,1.158432960510253906e+00,1.158364295959472656e+00,1.158295631408691406e+00,1.158226966857910156e+00,1.158158302307128906e+00,1.158089637756347656e+00,1.158020973205566406e+00,1.157952308654785156e+00,1.157883644104003906e+00,1.157815098762512207e+00,1.157746553421020508e+00,1.157677888870239258e+00,1.157609224319458008e+00,1.157540798187255859e+00,1.157472133636474609e+00,1.157403588294982910e+00,1.157335042953491211e+00,1.157266497611999512e+00,1.157197952270507812e+00,1.157129406929016113e+00,1.157060861587524414e+00,1.156992316246032715e+00
1.087170600891113281e+00,1.087110161781311035e+00,1.087049722671508789e+00,1.086989164352416992e+00,1.086928725242614746e+00,1.086868286132812500e+00,1.086807847023010254e+00,1.086747288703918457e+00,1.086686849594116211e+00,1.086626529693603516e+00,1.086565971374511719e+00,1.086505532264709473e+00,1.086445093154907227e+00,1.086384773254394531e+00,1.086324334144592285e+00,1.086263895034790039e+00,1.086203575134277344e+00,1.086143136024475098e+00,1.086082816123962402e+00,1.086022377014160156e+00,1.085962057113647461e+00,1.085901737213134766e+00,1.085841298103332520e+00,1.085780978202819824e+00,1.085720658302307129e+00,1.085660338401794434e+00,1.085600018501281738e+00,1.085539698600769043e+00,1.085479378700256348e+00,1.085419058799743652e+00,1.085358738899230957e+00,1.085298538208007812e+00,1.085238218307495117e+00,1.085177898406982422e+00,1.085117578506469727e+00,1.085057377815246582e+00,1.084997177124023438e+00,1.084936857223510742e+00,1.084876656532287598e+00,1.084816455841064453e+00,1.084756135940551758e+00,1.084695935249328613e+00,1.084635734558105469e+00,1.084575533866882324e+00,1.084515333175659180e+00,1.084455132484436035e+00,1.084394931793212891e+00,1.084334731101989746e+00,1.084274530410766602e+00,1.084214329719543457e+00,1.084154248237609863e+00,1.084094047546386719e+00,1.084033846855163574e+00,1.083973765373229980e+00,1.083913683891296387e+00,1.083853483200073242e+00,1.083793401718139648e+00,1.083733320236206055e+00,1.083673119544982910e+00,1.083613038063049316e+00,1.083552956581115723e+00,1.083492875099182129e+00,1.083432793617248535e+00,1.083372712135314941e+00,1.083312630653381348e+00,1.083252549171447754e+00,1.083192467689514160e+00,1.083132386207580566e+00,1.083072423934936523e+00,1.083012342453002930e+00,1.082952260971069336e+00,1.082892298698425293e+00,1.082832336425781250e+00,1.082772254943847656e+00,1.082712292671203613e+00,1.082652211189270020e+00,1.082592248916625977e+00,1.082532286643981934e+00,1.082472324371337891e+00,1.082412362098693848e+00
1.021063327789306641e+00,1.021009922027587891e+00,1.020956516265869141e+00,1.020903229713439941e+00,1.020849943161010742e+00,1.020796537399291992e+00,1.020743250846862793e+00,1.020689964294433594e+00,1.020636558532714844e+00,1.020583271980285645e+00,1.020529985427856445e+00,1.020476698875427246e+00,1.020423293113708496e+00,1.020370006561279297e+00,1.020316839218139648e+00,1.020263552665710449e+00,1.020210146903991699e+00,1.020156860351562500e+00,1.020103693008422852e+00,1.020050406455993652e+00,1.019997119903564453e+00,1.019943952560424805e+00,1.019890666007995605e+00,1.019837379455566406e+00,1.019784212112426758e+00,1.019731044769287109e+00,1.019677758216857910e+00,1.019624590873718262e+00,1.019571304321289062e+00,1.019518136978149414e+00,1.019464969635009766e+00,1.019411683082580566e+00,1.019358515739440918e+00,1.019305348396301270e+00,1.019252181053161621e+00,1.019199013710021973e+00,1.019145846366882324e+00,1.019092679023742676e+00,1.019039511680603027e+00,1.018986344337463379e+00,1.018933296203613281e+00,1.018880128860473633e+00,1.018826961517333984e+00,1.018773794174194336e+00,1.018720746040344238e+00,1.018667578697204590e+00,1.018614530563354492e+00,1.018561482429504395e+00,1.018508315086364746e+00,1.018455147743225098e+00,1.018402099609375000e+00,1.018349051475524902e+00,1.018296003341674805e+00,1.018242835998535156e+00,1.018189787864685059e+00,1.018136739730834961e+00,1.018083691596984863e+00,1.018030643463134766e+00,1.017977595329284668e+00,1.017924547195434570e+00,1.017871499061584473e+00,1.017818450927734375e+00,1.017765522003173828e+00,1.017712473869323730e+00,1.017659425735473633e+00,1.017606496810913086e+00,1.017553448677062988e+00,1.017500519752502441e+00,1.017447471618652344e+00,1.017394423484802246e+00,1.017341494560241699e+00,1.017288565635681152e+00,1.017235517501831055e+00,1.017182707786560059e+00,1.017129659652709961e+00,1.017076730728149414e+00,1.017023801803588867e+00,1.016970872879028320e+00,1.016917943954467773e+00,1.016865015029907227e+00
9.625346660614013672e-01,9.624873399734497070e-01,9.624399542808532715e-01,9.623924493789672852e-01,9.623450636863708496e-01,9.622977375984191895e-01,9.622502326965332031e-01,9.622029066085815430e-01,9.621555805206298828e-01,9.621080756187438965e-01,9.620607495307922363e-01,9.620133042335510254e-01,9.619659781455993652e-01,9.619186520576477051e-01,9.618712663650512695e-01,9.618239402770996094e-01,9.617766141891479492e-01,9.617292284965515137e-01,9.616819024085998535e-01,9.616346359252929688e-01,9.615872502326965332e-01,9.615399241447448730e-01,9.614925384521484375e-01,9.614452719688415527e-01,9.613980054855346680e-01,9.613506197929382324e-01,9.613033533096313477e-01,9.612561464309692383e-01,9.612087607383728027e-01,9.611614942550659180e-01,9.611142873764038086e-01,9.610669016838073730e-01,9.610196948051452637e-01,9.609723687171936035e-01,9.609251022338867188e-01,9.608778953552246094e-01,9.608305692672729492e-01,9.607833623886108398e-01,9.607361555099487305e-01,9.606888294219970703e-01,9.606416225433349609e-01,9.605944752693176270e-01,9.605471491813659668e-01,9.605000019073486328e-01,9.604526758193969727e-01,9.604055285453796387e-01,9.603583216667175293e-01,9.603110551834106445e-01,9.602639079093933105e-01,9.602167606353759766e-01,9.601694941520690918e-01,9.601223468780517578e-01,9.600750803947448730e-01,9.600279927253723145e-01,9.599808454513549805e-01,9.599335789680480957e-01,9.598864912986755371e-01,9.598393440246582031e-01,9.597921371459960938e-01,9.597450494766235352e-01,9.596979022026062012e-01,9.596506953239440918e-01,9.596036076545715332e-01,9.595564007759094238e-01,9.595093131065368652e-01,9.594622254371643066e-01,9.594150781631469727e-01,9.593679904937744141e-01,9.593209028244018555e-01,9.592737555503845215e-01,9.592266678810119629e-01,9.591796398162841797e-01,9.591324925422668457e-01,9.590854048728942871e-01,9.590382575988769531e-01,9.589912295341491699e-01,9.589442014694213867e-01,9.588970541954040527e-01,9.588500857353210449e-01,9.588030576705932617e-01
9.103522300720214844e-01,9.103097319602966309e-01,9.102673530578613281e-01,9.102249741554260254e-01,9.101825356483459473e-01,9.101401567459106445e-01,9.100977778434753418e-01,9.100553393363952637e-01,9.100129604339599609e-01,9.099706411361694336e-01,9.099282026290893555e-01,9.098858237266540527e-01,9.098433852195739746e-01,9.098010659217834473e-01,9.097587466239929199e-01,9.097163081169128418e-01,9.096739888191223145e-01,9.096316695213317871e-01,9.095892906188964844e-01,9.095469713211059570e-01,9.095045924186706543e-01,9.094622731208801270e-01,9.094199538230895996e-01,9.093775749206542969e-01,9.093352556228637695e-01,9.092929959297180176e-01,9.092506170272827148e-01,9.092083573341369629e-01,9.091660380363464355e-01,9.091237187385559082e-01,9.090814590454101562e-01,9.090390801429748535e-01,9.089968204498291016e-01,9.089545607566833496e-01,9.089121818542480469e-01,9.088699817657470703e-01,9.088277220726013184e-01,9.087854027748107910e-01,9.087431430816650391e-01,9.087009429931640625e-01,9.086585640907287598e-01,9.086163640022277832e-01,9.085740447044372559e-01,9.085318446159362793e-01,9.084896445274353027e-01,9.084473252296447754e-01,9.084051251411437988e-01,9.083629250526428223e-01,9.083206057548522949e-01,9.082784652709960938e-01,9.082362651824951172e-01,9.081939458847045898e-01,9.081518054008483887e-01,9.081095457077026367e-01,9.080673456192016602e-01,9.080252051353454590e-01,9.079829454421997070e-01,9.079407453536987305e-01,9.078986048698425293e-01,9.078563451766967773e-01,9.078142046928405762e-01,9.077720642089843750e-01,9.077298045158386230e-01,9.076876640319824219e-01,9.076454639434814453e-01,9.076033234596252441e-01,9.075611829757690430e-01,9.075189828872680664e-01,9.074768424034118652e-01,9.074347615242004395e-01,9.073925614356994629e-01,9.073504209518432617e-01,9.073083400726318359e-01,9.072661399841308594e-01,9.072240591049194336e-01,9.071818590164184570e-01,9.071397781372070312e-01,9.070976972579956055e-01,9.070554971694946289e-01,9.070134162902832031e-01
8.635367155075073242e-01,8.634985685348510742e-01,8.634603619575500488e-01,8.634222149848937988e-01,8.633841276168823242e-01,8.633459210395812988e-01,8.633077740669250488e-01,8.632696866989135742e-01,8.632314801216125488e-01,8.631933331489562988e-01,8.631551861763000488e-01,8.631170392036437988e-01,8.630789518356323242e-01,8.630408048629760742e-01,8.630027174949645996e-01,8.629646301269531250e-01,8.629264235496520996e-01,8.628883361816406250e-01,8.628503084182739258e-01,8.628121018409729004e-01,8.627740740776062012e-01,8.627358675003051758e-01,8.626978397369384766e-01,8.626597523689270020e-01,8.626216053962707520e-01,8.625835776329040527e-01,8.625455498695373535e-01,8.625074028968811035e-01,8.624693155288696289e-01,8.624312877655029297e-01,8.623932003974914551e-01,8.623551726341247559e-01,8.623170256614685059e-01,8.622789978981018066e-01,8.622409701347351074e-01,8.622028827667236328e-01,8.621648550033569336e-01,8.621268272399902344e-01,8.620887398719787598e-01,8.620507121086120605e-01,8.620127439498901367e-01,8.619746565818786621e-01,8.619366288185119629e-01,8.618985414505004883e-01,8.618605732917785645e-01,8.618226051330566406e-01,8.617845177650451660e-01,8.617465496063232422e-01,8.617085814476013184e-01,8.616704940795898438e-01,8.616325259208679199e-01,8.615944981575012207e-01,8.615565299987792969e-01,8.615185618400573730e-01,8.614805340766906738e-01,8.614425659179687500e-01,8.614045977592468262e-01,8.613665699958801270e-01,8.613286614418029785e-01,8.612906932830810547e-01,8.612526655197143555e-01,8.612147569656372070e-01,8.611767292022705078e-01,8.611388206481933594e-01,8.611008524894714355e-01,8.610628843307495117e-01,8.610249757766723633e-01,8.609870672225952148e-01,8.609490394592285156e-01,8.609111309051513672e-01,8.608732223510742188e-01,8.608352541923522949e-01,8.607973456382751465e-01,8.607593774795532227e-01,8.607214689254760742e-01,8.606836199760437012e-01,8.606456518173217773e-01,8.606077432632446289e-01,8.605698943138122559e-01,8.605319261550903320e-01
8.213007450103759766e-01,8.212662339210510254e-01,8.212317228317260742e-01,8.211971521377563477e-01,8.211627006530761719e-01,8.211281895637512207e-01,8.210936188697814941e-01,8.210591673851013184e-01,8.210245966911315918e-01,8.209901452064514160e-01,8.209556937217712402e-01,8.209211230278015137e-01,8.208866715431213379e-01,8.208522200584411621e-01,8.208176493644714355e-01,8.207831978797912598e-01,8.207487463951110840e-01,8.207142353057861328e-01,8.206797838211059570e-01,8.206452727317810059e-01,8.206108212471008301e-01,8.205763697624206543e-01,8.205418586730957031e-01,8.205074667930603027e-01,8.204730153083801270e-01,8.204385042190551758e-01,8.204041123390197754e-01,8.203696608543395996e-01,8.203352093696594238e-01,8.203007578849792480e-01,8.202663064002990723e-01,8.202318549156188965e-01,8.201974630355834961e-01,8.201630115509033203e-01,8.201285600662231445e-01,8.200941681861877441e-01,8.200597167015075684e-01,8.200253248214721680e-01,8.199909329414367676e-01,8.199564814567565918e-01,8.199220895767211914e-01,8.198876380920410156e-01,8.198532462120056152e-01,8.198188543319702148e-01,8.197844028472900391e-01,8.197500705718994141e-01,8.197156786918640137e-01,8.196812868118286133e-01,8.196468949317932129e-01,8.196125626564025879e-01,8.195781111717224121e-01,8.195437788963317871e-01,8.195093274116516113e-01,8.194749951362609863e-01,8.194406628608703613e-01,8.194062113761901855e-01,8.193718791007995605e-01,8.193375468254089355e-01,8.193031549453735352e-01,8.192688226699829102e-01,8.192344903945922852e-01,8.192000985145568848e-01,8.191657662391662598e-01,8.191313743591308594e-01,8.190970420837402344e-01,8.190627694129943848e-01,8.190283775329589844e-01,8.189940452575683594e-01,8.189597725868225098e-01,8.189253807067871094e-01,8.188911080360412598e-01,8.188567757606506348e-01,8.188224434852600098e-01,8.187881112098693848e-01,8.187537789344787598e-01,8.187195062637329102e-01,8.186852335929870605e-01,8.186508417129516602e-01,8.186165690422058105e-01,8.185822963714599609e-01
7.830037474632263184e-01,7.829723358154296875e-01,7.829409837722778320e-01,7.829096317291259766e-01,7.828782200813293457e-01,7.828468680381774902e-01,7.828155159950256348e-01,7.827841043472290039e-01,7.827527523040771484e-01,7.827214002609252930e-01,7.826900482177734375e-01,7.826586961746215820e-01,7.826273441314697266e-01,7.825959920883178711e-01,7.825646996498107910e-01,7.825332880020141602e-01,7.825019359588623047e-01,7.824706435203552246e-01,7.824392914772033691e-01,7.824079394340515137e-01,7.823765873908996582e-01,7.823452949523925781e-01,7.823140025138854980e-01,7.822825908660888672e-01,7.822512984275817871e-01,7.822200059890747070e-01,7.821886539459228516e-01,7.821573615074157715e-01,7.821260690689086914e-01,7.820947170257568359e-01,7.820634245872497559e-01,7.820320725440979004e-01,7.820008397102355957e-01,7.819695472717285156e-01,7.819381952285766602e-01,7.819069027900695801e-01,7.818756699562072754e-01,7.818443179130554199e-01,7.818130850791931152e-01,7.817817330360412598e-01,7.817505002021789551e-01,7.817192077636718750e-01,7.816879153251647949e-01,7.816566824913024902e-01,7.816253900527954102e-01,7.815940976142883301e-01,7.815628647804260254e-01,7.815316319465637207e-01,7.815003395080566406e-01,7.814691066741943359e-01,7.814377546310424805e-01,7.814065217971801758e-01,7.813753485679626465e-01,7.813439965248107910e-01,7.813128232955932617e-01,7.812815904617309570e-01,7.812502980232238770e-01,7.812190651893615723e-01,7.811878919601440430e-01,7.811565995216369629e-01,7.811253666877746582e-01,7.810941338539123535e-01,7.810629010200500488e-01,7.810317277908325195e-01,7.810004353523254395e-01,7.809692621231079102e-01,7.809380888938903809e-01,7.809067964553833008e-01,7.808756232261657715e-01,7.808444499969482422e-01,7.808131575584411621e-01,7.807819843292236328e-01,7.807507514953613281e-01,7.807195782661437988e-01,7.806884050369262695e-01,7.806571722030639648e-01,7.806259989738464355e-01,7.805948257446289062e-01,7.805635929107666016e-01,7.805324792861938477e-01
7.481191158294677734e-01,7.480905055999755859e-01,7.480618357658386230e-01,7.480332255363464355e-01,7.480045557022094727e-01,7.479758858680725098e-01,7.479472756385803223e-01,7.479186058044433594e-01,7.478899955749511719e-01,7.478613853454589844e-01,7.478327155113220215e-01,7.478041648864746094e-01,7.477755546569824219e-01,7.477468848228454590e-01,7.477182745933532715e-01,7.476897239685058594e-01,7.476610541343688965e-01,7.476324439048767090e-01,7.476038336753845215e-01,7.475752234458923340e-01,7.475466728210449219e-01,7.475180029869079590e-01,7.474894523620605469e-01,7.474608421325683594e-01,7.474322319030761719e-01,7.474036216735839844e-01,7.473750710487365723e-01,7.473464608192443848e-01,7.473179101943969727e-01,7.472892403602600098e-01,7.472606897354125977e-01,7.472321391105651855e-01,7.472035288810729980e-01,7.471749782562255859e-01,7.471464276313781738e-01,7.471178174018859863e-01,7.470892667770385742e-01,7.470607161521911621e-01,7.470321059226989746e-01,7.470035552978515625e-01,7.469749450683593750e-01,7.469464540481567383e-01,7.469179034233093262e-01,7.468892931938171387e-01,7.468608021736145020e-01,7.468322515487670898e-01,7.468036413192749023e-01,7.467751502990722656e-01,7.467465996742248535e-01,7.467180490493774414e-01,7.466894984245300293e-01,7.466609477996826172e-01,7.466324567794799805e-01,7.466039061546325684e-01,7.465753555297851562e-01,7.465468645095825195e-01,7.465183734893798828e-01,7.464897632598876953e-01,7.464612722396850586e-01,7.464327812194824219e-01,7.464042305946350098e-01,7.463757395744323730e-01,7.463471889495849609e-01,7.463186979293823242e-01,7.462902069091796875e-01,7.462616562843322754e-01,7.462331652641296387e-01,7.462047338485717773e-01,7.461761832237243652e-01,7.461476922035217285e-01,7.461191415786743164e-01,7.460907101631164551e-01,7.460622191429138184e-01,7.460336685180664062e-01,7.460052371025085449e-01,7.459767460823059082e-01,7.459482550621032715e-01,7.459197640419006348e-01,7.458913326263427734e-01,7.458628416061401367e-01
