5.000000000000000000e+00,5.000000000000000000e+00,5.000000000000000000e+00,5.000000000000000000e+00,5.000000000000000000e+00,5.000000000000000000e+00,5.000000000000000000e+00,5.000000000000000000e+00,5.000000000000000000e+00,5.000000000000000000e+00,5.000000000000000000e+00,5.000000000000000000e+00,5.000000000000000000e+00,5.000000000000000000e+00,5.000000000000000000e+00,5.000000000000000000e+00,5.000000000000000000e+00,5.000000000000000000e+00,5.000000000000000000e+00,5.000000000000000000e+00,5.000000000000000000e+00,5.000000000000000000e+00,5.000000000000000000e+00,5.000000000000000000e+00,5.000000000000000000e+00,5.000000000000000000e+00,5.000000000000000000e+00,5.000000000000000000e+00,5.000000000000000000e+00,5.000000000000000000e+00,5.000000000000000000e+00,5.000000000000000000e+00,5.000000000000000000e+00,5.000000000000000000e+00,5.000000000000000000e+00,5.000000000000000000e+00,5.000000000000000000e+00,5.000000000000000000e+00,5.000000000000000000e+00,5.000000000000000000e+00,4.664552688598632812e+00,4.488545894622802734e+00,4.325338840484619141e+00,4.173583507537841797e+00,4.032116413116455078e+00,3.899925470352172852e+00,3.776126623153686523e+00,3.659945487976074219e+00,3.550700426101684570e+00,3.447788000106811523e+00,3.350673198699951172e+00,3.258879184722900391e+00,3.171980619430541992e+00,3.089596033096313477e+00,3.011382818222045898e+00,2.937031507492065430e+00,2.866263151168823242e+00,2.798825263977050781e+00,2.734487533569335938e+00,2.673041343688964844e+00,2.614295959472656250e+00,2.558077096939086914e+00,2.504225254058837891e+00,2.452593803405761719e+00,2.403048753738403320e+00,2.355465650558471680e+00,2.309730291366577148e+00,2.265737056732177734e+00,2.223388671875000000e+00,2.182594299316406250e+00,2.143269777297973633e+00,2.105337142944335938e+00,1.131258845329284668e+00,1.095319032669067383e+00,1.080907464027404785e+00,1.074622988700866699e+00,1.073297619819641113e+00,1.092637896537780762e+00,1.075350880622863770e+00,1.058814883232116699e+00
5.000000000000000000e+00,5.000000000000000000e+00,5.000000000000000000e+00,5.000000000000000000e+00,5.000000000000000000e+00,5.000000000000000000e+00,5.000000000000000000e+00,5.000000000000000000e+00,5.000000000000000000e+00,5.000000000000000000e+00,5.000000000000000000e+00,5.000000000000000000e+00,5.000000000000000000e+00,5.000000000000000000e+00,5.000000000000000000e+00,5.000000000000000000e+00,5.000000000000000000e+00,5.000000000000000000e+00,5.000000000000000000e+00,5.000000000000000000e+00,5.000000000000000000e+00,5.000000000000000000e+00,5.000000000000000000e+00,5.000000000000000000e+00,5.000000000000000000e+00,5.000000000000000000e+00,5.000000000000000000e+00,5.000000000000000000e+00,5.000000000000000000e+00,5.000000000000000000e+00,5.000000000000000000e+00,5.000000000000000000e+00,5.000000000000000000e+00,5.000000000000000000e+00,5.000000000000000000e+00,5.000000000000000000e+00,5.000000000000000000e+00,5.000000000000000000e+00,5.000000000000000000e+00,4.855066299438476562e+00,4.664681911468505859e+00,4.488665580749511719e+00,4.325449943542480469e+00,4.173687458038330078e+00,4.032213211059570312e+00,3.900015592575073242e+00,3.776211261749267578e+00,3.660025358200073242e+00,3.550775766372680664e+00,3.447858572006225586e+00,3.350739717483520508e+00,3.258942365646362305e+00,3.172040462493896484e+00,3.089652776718139648e+00,3.011436462402343750e+00,2.937082767486572266e+00,2.866312265396118164e+00,2.798871755599975586e+00,2.734531879425048828e+00,2.673083782196044922e+00,2.614336729049682617e+00,2.558115959167480469e+00,2.504262447357177734e+00,2.452629804611206055e+00,2.403083086013793945e+00,2.355498552322387695e+00,2.309762001037597656e+00,2.265767812728881836e+00,2.223418235778808594e+00,2.182622432708740234e+00,2.143296957015991211e+00,2.105363607406616211e+00,2.068749189376831055e+00,1.099605083465576172e+00,1.081343293190002441e+00,1.071377635002136230e+00,1.064992308616638184e+00,1.094340920448303223e+00,1.077220439910888672e+00,1.060802578926086426e+00
5.000000000000000000e+00,5.000000000000000000e+00,5.000000000000000000e+00,5.000000000000000000e+00,5.000000000000000000e+00,5.000000000000000000e+00,5.000000000000000000e+00,5.000000000000000000e+00,5.000000000000000000e+00,5.000000000000000000e+00,5.000000000000000000e+00,5.000000000000000000e+00,5.000000000000000000e+00,5.000000000000000000e+00,5.000000000000000000e+00,5.000000000000000000e+00,5.000000000000000000e+00,5.000000000000000000e+00,5.000000000000000000e+00,5.000000000000000000e+00,5.000000000000000000e+00,5.000000000000000000e+00,5.000000000000000000e+00,5.000000000000000000e+00,5.000000000000000000e+00,5.000000000000000000e+00,5.000000000000000000e+00,5.000000000000000000e+00,5.000000000000000000e+00,5.000000000000000000e+00,5.000000000000000000e+00,5.000000000000000000e+00,5.000000000000000000e+00,5.000000000000000000e+00,5.000000000000000000e+00,5.000000000000000000e+00,5.000000000000000000e+00,5.000000000000000000e+00,5.000000000000000000e+00,4.855206012725830078e+00,4.664811134338378906e+00,4.488785743713378906e+00,4.325561046600341797e+00,4.173790931701660156e+00,4.032309532165527344e+00,3.900106430053710938e+00,3.776295900344848633e+00,3.660104751586914062e+00,3.550850391387939453e+00,3.447929382324218750e+00,3.350806236267089844e+00,3.259005308151245117e+00,3.172100305557250977e+00,3.089709520339965820e+00,3.011490345001220703e+00,2.937134027481079102e+00,2.866360902786254883e+00,2.798918247222900391e+00,2.734576225280761719e+00,2.673126220703125000e+00,2.614377260208129883e+00,2.558154821395874023e+00,2.504299640655517578e+00,2.452665328979492188e+00,2.403117418289184570e+00,2.355531692504882812e+00,2.309793710708618164e+00,2.265798091888427734e+00,2.223447561264038086e+00,2.182650804519653320e+00,2.143324136734008789e+00,2.105389833450317383e+00,2.068774700164794922e+00,1.132538437843322754e+00,1.079748511314392090e+00,1.067086815834045410e+00,1.057869195938110352e+00,1.050657987594604492e+00,1.055306315422058105e+00,1.064431667327880859e+00
5.000000000000000000e+00,5.000000000000000000e+00,5.000000000000000000e+00,5.000000000000000000e+00,5.000000000000000000e+00,5.000000000000000000e+00,5.000000000000000000e+00,5.000000000000000000e+00,5.000000000000000000e+00,5.000000000000000000e+00,5.000000000000000000e+00,5.000000000000000000e+00,5.000000000000000000e+00,5.000000000000000000e+00,5.000000000000000000e+00,5.000000000000000000e+00,5.000000000000000000e+00,5.000000000000000000e+00,5.000000000000000000e+00,5.000000000000000000e+00,5.000000000000000000e+00,5.000000000000000000e+00,5.000000000000000000e+00,5.000000000000000000e+00,5.000000000000000000e+00,5.000000000000000000e+00,5.000000000000000000e+00,5.000000000000000000e+00,5.000000000000000000e+00,5.000000000000000000e+00,5.000000000000000000e+00,5.000000000000000000e+00,5.000000000000000000e+00,5.000000000000000000e+00,5.000000000000000000e+00,5.000000000000000000e+00,5.000000000000000000e+00,5.000000000000000000e+00,5.000000000000000000e+00,4.855346202850341797e+00,4.664940357208251953e+00,4.488905429840087891e+00,4.325672149658203125e+00,4.173894405364990234e+00,4.032406330108642578e+00,3.900196552276611328e+00,3.776380777359008789e+00,3.660184621810913086e+00,3.550925254821777344e+00,3.447999954223632812e+00,3.350873231887817383e+00,3.259068727493286133e+00,3.172159910202026367e+00,3.089766263961791992e+00,3.011544466018676758e+00,2.937185525894165039e+00,2.866409540176391602e+00,2.798964738845825195e+00,2.734620809555053711e+00,2.673168897628784180e+00,2.614417791366577148e+00,2.558193683624267578e+00,2.504337072372436523e+00,2.452701330184936523e+00,2.403151512145996094e+00,2.355564594268798828e+00,2.309825420379638672e+00,2.265828847885131836e+00,2.223476886749267578e+00,2.182679176330566406e+00,2.143351554870605469e+00,2.105416297912597656e+00,2.068799972534179688e+00,1.107817769050598145e+00,1.078089237213134766e+00,1.064383745193481445e+00,1.053756594657897949e+00,1.043658852577209473e+00,1.038964867591857910e+00,1.051550626754760742e+00
5.000000000000000000e+00,5.000000000000000000e+00,5.000000000000000000e+00,5.000000000000000000e+00,5.000000000000000000e+00,5.000000000000000000e+00,5.000000000000000000e+00,5.000000000000000000e+00,5.000000000000000000e+00,5.000000000000000000e+00,5.000000000000000000e+00,5.000000000000000000e+00,5.000000000000000000e+00,5.000000000000000000e+00,5.000000000000000000e+00,5.000000000000000000e+00,5.000000000000000000e+00,5.000000000000000000e+00,5.000000000000000000e+00,5.000000000000000000e+00,5.000000000000000000e+00,5.000000000000000000e+00,5.000000000000000000e+00,5.000000000000000000e+00,5.000000000000000000e+00,5.000000000000000000e+00,5.000000000000000000e+00,5.000000000000000000e+00,5.000000000000000000e+00,5.000000000000000000e+00,5.000000000000000000e+00,5.000000000000000000e+00,5.000000000000000000e+00,5.000000000000000000e+00,5.000000000000000000e+00,5.000000000000000000e+00,5.000000000000000000e+00,5.000000000000000000e+00,5.000000000000000000e+00,4.855486392974853516e+00,4.665070056915283203e+00,4.489024639129638672e+00,4.325783252716064453e+00,4.173997879028320312e+00,4.032503128051757812e+00,3.900286674499511719e+00,3.776465415954589844e+00,3.660264253616333008e+00,3.551000356674194336e+00,3.448070526123046875e+00,3.350939750671386719e+00,3.259131669998168945e+00,3.172219991683959961e+00,3.089822769165039062e+00,3.011598110198974609e+00,2.937236547470092773e+00,2.866458654403686523e+00,2.799011230468750000e+00,2.734665155410766602e+00,2.673211097717285156e+00,2.614458322525024414e+00,2.558232545852661133e+00,2.504374265670776367e+00,2.452736854553222656e+00,2.403186082839965820e+00,2.355597496032714844e+00,2.309857130050659180e+00,2.265859127044677734e+00,2.223506212234497070e+00,2.182707309722900391e+00,2.143378734588623047e+00,2.105442523956298828e+00,2.068825483322143555e+00,1.100152254104614258e+00,1.076854705810546875e+00,1.061668872833251953e+00,1.048817634582519531e+00,1.042030453681945801e+00,1.033362388610839844e+00,1.052720308303833008e+00
5.000000000000000000e+00,5.000000000000000000e+00,5.000000000000000000e+00,5.000000000000000000e+00,5.000000000000000000e+00,5.000000000000000000e+00,5.000000000000000000e+00,5.000000000000000000e+00,5.000000000000000000e+00,5.000000000000000000e+00,5.000000000000000000e+00,5.000000000000000000e+00,5.000000000000000000e+00,5.000000000000000000e+00,5.000000000000000000e+00,5.000000000000000000e+00,5.000000000000000000e+00,5.000000000000000000e+00,5.000000000000000000e+00,5.000000000000000000e+00,5.000000000000000000e+00,5.000000000000000000e+00,5.000000000000000000e+00,5.000000000000000000e+00,5.000000000000000000e+00,5.000000000000000000e+00,5.000000000000000000e+00,5.000000000000000000e+00,5.000000000000000000e+00,5.000000000000000000e+00,5.000000000000000000e+00,5.000000000000000000e+00,5.000000000000000000e+00,5.000000000000000000e+00,5.000000000000000000e+00,5.000000000000000000e+00,5.000000000000000000e+00,5.000000000000000000e+00,5.000000000000000000e+00,4.855626583099365234e+00,4.665199279785156250e+00,4.489144802093505859e+00,4.325894832611083984e+00,4.174101352691650391e+00,4.032599449157714844e+00,3.900377511978149414e+00,3.776550531387329102e+00,3.660343647003173828e+00,3.551075220108032227e+00,3.448141336441040039e+00,3.351006746292114258e+00,3.259194612503051758e+00,3.172279596328735352e+00,3.089879751205444336e+00,3.011652231216430664e+00,2.937287807464599609e+00,2.866507291793823242e+00,2.799057960510253906e+00,2.734709739685058594e+00,2.673253536224365234e+00,2.614498853683471680e+00,2.558271408081054688e+00,2.504411697387695312e+00,2.452772617340087891e+00,2.403220176696777344e+00,2.355630636215209961e+00,2.309888839721679688e+00,2.265889644622802734e+00,2.223535537719726562e+00,2.182735681533813477e+00,2.143406152725219727e+00,2.105468750000000000e+00,2.068850994110107422e+00,1.095683336257934570e+00,1.075959682464599609e+00,1.060321331024169922e+00,1.048607945442199707e+00,1.042176604270935059e+00,1.033033251762390137e+00,1.024772644042968750e+00
5.000000000000000000e+00,5.000000000000000000e+00,5.000000000000000000e+00,5.000000000000000000e+00,5.000000000000000000e+00,5.000000000000000000e+00,5.000000000000000000e+00,5.000000000000000000e+00,5.000000000000000000e+00,5.000000000000000000e+00,5.000000000000000000e+00,5.000000000000000000e+00,5.000000000000000000e+00,5.000000000000000000e+00,5.000000000000000000e+00,5.000000000000000000e+00,5.000000000000000000e+00,5.000000000000000000e+00,5.000000000000000000e+00,5.000000000000000000e+00,5.000000000000000000e+00,5.000000000000000000e+00,5.000000000000000000e+00,5.000000000000000000e+00,5.000000000000000000e+00,5.000000000000000000e+00,5.000000000000000000e+00,5.000000000000000000e+00,5.000000000000000000e+00,5.000000000000000000e+00,5.000000000000000000e+00,5.000000000000000000e+00,5.000000000000000000e+00,5.000000000000000000e+00,5.000000000000000000e+00,5.000000000000000000e+00,5.000000000000000000e+00,5.000000000000000000e+00,5.000000000000000000e+00,4.855766773223876953e+00,4.665328502655029297e+00,4.489264488220214844e+00,4.326005935668945312e+00,4.174204826354980469e+00,4.032696247100830078e+00,3.900467634201049805e+00,3.776634931564331055e+00,3.660423517227172852e+00,3.551149845123291016e+00,3.448211908340454102e+00,3.351073265075683594e+00,3.259258031845092773e+00,3.172339200973510742e+00,3.089936256408691406e+00,3.011706113815307617e+00,2.937339305877685547e+00,2.866556167602539062e+00,2.799104452133178711e+00,2.734754085540771484e+00,2.673296213150024414e+00,2.614539623260498047e+00,2.558310270309448242e+00,2.504448890686035156e+00,2.452808380126953125e+00,2.403254508972167969e+00,2.355663537979125977e+00,2.309920549392700195e+00,2.265920162200927734e+00,2.223564863204956055e+00,2.182764053344726562e+00,2.143433570861816406e+00,2.105495214462280273e+00,2.068876266479492188e+00,1.098047018051147461e+00,1.078949689865112305e+00,1.059614181518554688e+00,1.934310793876647949e+00,1.035753965377807617e+00,1.217953205108642578e+00,1.020052790641784668e+00
5.000000000000000000e+00,5.000000000000000000e+00,5.000000000000000000e+00,5.000000000000000000e+00,5.000000000000000000e+00,5.000000000000000000e+00,5.000000000000000000e+00,5.000000000000000000e+00,5.000000000000000000e+00,5.000000000000000000e+00,5.000000000000000000e+00,5.000000000000000000e+00,5.000000000000000000e+00,5.000000000000000000e+00,5.000000000000000000e+00,5.000000000000000000e+00,5.000000000000000000e+00,5.000000000000000000e+00,5.000000000000000000e+00,5.000000000000000000e+00,5.000000000000000000e+00,5.000000000000000000e+00,5.000000000000000000e+00,5.000000000000000000e+00,5.000000000000000000e+00,5.000000000000000000e+00,5.000000000000000000e+00,5.000000000000000000e+00,5.000000000000000000e+00,5.000000000000000000e+00,5.000000000000000000e+00,5.000000000000000000e+00,5.000000000000000000e+00,5.000000000000000000e+00,5.000000000000000000e+00,5.000000000000000000e+00,5.000000000000000000e+00,5.000000000000000000e+00,5.000000000000000000e+00,4.855906963348388672e+00,4.665457725524902344e+00,4.489384174346923828e+00,4.326117038726806641e+00,4.174308300018310547e+00,4.032792568206787109e+00,3.900558233261108398e+00,3.776719570159912109e+00,3.660502910614013672e+00,3.551225185394287109e+00,3.448282718658447266e+00,3.351140022277832031e+00,3.259320974349975586e+00,3.172399282455444336e+00,3.089993238449096680e+00,3.011759757995605469e+00,2.937390327453613281e+00,2.866605043411254883e+00,2.799151182174682617e+00,2.734798431396484375e+00,2.673338413238525391e+00,2.614580154418945312e+00,2.558349370956420898e+00,2.504486083984375000e+00,2.452844142913818359e+00,2.403288841247558594e+00,2.355696439743041992e+00,2.309952259063720703e+00,2.265950679779052734e+00,2.223594427108764648e+00,2.182792425155639648e+00,2.143460750579833984e+00,2.105521440505981445e+00,2.068901777267456055e+00,2.033534526824951172e+00,1.081287384033203125e+00,1.058344721794128418e+00,1.934333205223083496e+00,1.033814430236816406e+00,1.217946648597717285e+00,1.021461129188537598e+00
5.000000000000000000e+00,5.000000000000000000e+00,5.000000000000000000e+00,5.000000000000000000e+00,5.000000000000000000e+00,5.000000000000000000e+00,5.000000000000000000e+00,5.000000000000000000e+00,5.000000000000000000e+00,5.000000000000000000e+00,5.000000000000000000e+00,5.000000000000000000e+00,5.000000000000000000e+00,5.000000000000000000e+00,5.000000000000000000e+00,5.000000000000000000e+00,5.000000000000000000e+00,5.000000000000000000e+00,5.000000000000000000e+00,5.000000000000000000e+00,5.000000000000000000e+00,5.000000000000000000e+00,5.000000000000000000e+00,5.000000000000000000e+00,5.000000000000000000e+00,5.000000000000000000e+00,5.000000000000000000e+00,5.000000000000000000e+00,5.000000000000000000e+00,5.000000000000000000e+00,5.000000000000000000e+00,5.000000000000000000e+00,5.000000000000000000e+00,5.000000000000000000e+00,5.000000000000000000e+00,5.000000000000000000e+00,5.000000000000000000e+00,5.000000000000000000e+00,5.000000000000000000e+00,4.856046676635742188e+00,4.665587425231933594e+00,4.489503860473632812e+00,4.326228141784667969e+00,4.174411773681640625e+00,4.032889366149902344e+00,3.900648593902587891e+00,3.776804685592651367e+00,3.660582304000854492e+00,3.551299810409545898e+00,3.448353290557861328e+00,3.351206779479980469e+00,3.259383916854858398e+00,3.172458887100219727e+00,3.090049982070922852e+00,3.011813879013061523e+00,2.937441587448120117e+00,2.866653680801391602e+00,2.799197673797607422e+00,2.734843015670776367e+00,2.673380851745605469e+00,2.614620685577392578e+00,2.558388233184814453e+00,2.504523277282714844e+00,2.452879905700683594e+00,2.403323173522949219e+00,2.355729341506958008e+00,2.309983968734741211e+00,2.265981197357177734e+00,2.223623752593994141e+00,2.182820796966552734e+00,2.143488168716430664e+00,2.105547904968261719e+00,2.068927288055419922e+00,2.033559083938598633e+00,1.078313112258911133e+00,1.059961199760437012e+00,1.047520041465759277e+00,1.034237861633300781e+00,1.023879289627075195e+00,1.200619459152221680e+00
5.000000000000000000e+00,5.000000000000000000e+00,5.000000000000000000e+00,5.000000000000000000e+00,5.000000000000000000e+00,5.000000000000000000e+00,5.000000000000000000e+00,5.000000000000000000e+00,5.000000000000000000e+00,5.000000000000000000e+00,5.000000000000000000e+00,5.000000000000000000e+00,5.000000000000000000e+00,5.000000000000000000e+00,5.000000000000000000e+00,5.000000000000000000e+00,5.000000000000000000e+00,5.000000000000000000e+00,5.000000000000000000e+00,5.000000000000000000e+00,5.000000000000000000e+00,5.000000000000000000e+00,5.000000000000000000e+00,5.000000000000000000e+00,5.000000000000000000e+00,5.000000000000000000e+00,5.000000000000000000e+00,5.000000000000000000e+00,5.000000000000000000e+00,5.000000000000000000e+00,5.000000000000000000e+00,5.000000000000000000e+00,5.000000000000000000e+00,5.000000000000000000e+00,5.000000000000000000e+00,5.000000000000000000e+00,5.000000000000000000e+00,5.000000000000000000e+00,5.000000000000000000e+00,4.856186866760253906e+00,4.665716648101806641e+00,4.489623546600341797e+00,4.326339721679687500e+00,4.174515724182128906e+00,4.032986164093017578e+00,3.900738716125488281e+00,3.776889324188232422e+00,3.660662174224853516e+00,3.551375150680541992e+00,3.448423624038696289e+00,3.351273536682128906e+00,3.259447336196899414e+00,3.172518968582153320e+00,3.090106487274169922e+00,3.011867761611938477e+00,2.937492847442626953e+00,2.866702795028686523e+00,2.799244165420532227e+00,2.734887361526489258e+00,2.673423528671264648e+00,2.614661455154418945e+00,2.558426856994628906e+00,2.504560470581054688e+00,2.452915668487548828e+00,2.403357505798339844e+00,2.355762481689453125e+00,2.310015678405761719e+00,2.266011714935302734e+00,2.223653078079223633e+00,2.182848930358886719e+00,2.143515348434448242e+00,2.105574131011962891e+00,2.068952798843383789e+00,2.033583402633666992e+00,1.078024625778198242e+00,1.966352939605712891e+00,1.044107794761657715e+00,1.298264980316162109e+00,1.020712256431579590e+00,1.201239705085754395e+00
5.000000000000000000e+00,5.000000000000000000e+00,5.000000000000000000e+00,5.000000000000000000e+00,5.000000000000000000e+00,5.000000000000000000e+00,5.000000000000000000e+00,5.000000000000000000e+00,5.000000000000000000e+00,5.000000000000000000e+00,5.000000000000000000e+00,5.000000000000000000e+00,5.000000000000000000e+00,5.000000000000000000e+00,5.000000000000000000e+00,5.000000000000000000e+00,5.000000000000000000e+00,5.000000000000000000e+00,5.000000000000000000e+00,5.000000000000000000e+00,5.000000000000000000e+00,5.000000000000000000e+00,5.000000000000000000e+00,5.000000000000000000e+00,5.000000000000000000e+00,5.000000000000000000e+00,5.000000000000000000e+00,5.000000000000000000e+00,5.000000000000000000e+00,5.000000000000000000e+00,5.000000000000000000e+00,5.000000000000000000e+00,5.000000000000000000e+00,5.000000000000000000e+00,5.000000000000000000e+00,5.000000000000000000e+00,5.000000000000000000e+00,5.000000000000000000e+00,5.000000000000000000e+00,4.856327056884765625e+00,4.665845870971679688e+00,4.489743709564208984e+00,4.326450347900390625e+00,4.174619197845458984e+00,4.033082485198974609e+00,3.900829553604125977e+00,3.776973962783813477e+00,3.660741806030273438e+00,3.551449775695800781e+00,3.448494672775268555e+00,3.351340055465698242e+00,3.259510278701782227e+00,3.172578573226928711e+00,3.090163469314575195e+00,3.011921405792236328e+00,2.937544107437133789e+00,2.866751432418823242e+00,2.799290895462036133e+00,2.734931707382202148e+00,2.673465967178344727e+00,2.614701986312866211e+00,2.558465957641601562e+00,2.504597902297973633e+00,2.452951431274414062e+00,2.403391838073730469e+00,2.355795383453369141e+00,2.310047149658203125e+00,2.266042232513427734e+00,2.223682403564453125e+00,2.182877302169799805e+00,2.143542528152465820e+00,2.105600595474243164e+00,2.068978071212768555e+00,2.033608198165893555e+00,1.999426960945129395e+00,1.966376066207885742e+00,1.934399843215942383e+00,1.295705437660217285e+00,1.219863295555114746e+00,1.201837897300720215e+00
5.000000000000000000e+00,5.000000000000000000e+00,5.000000000000000000e+00,5.000000000000000000e+00,5.000000000000000000e+00,5.000000000000000000e+00,5.000000000000000000e+00,5.000000000000000000e+00,5.000000000000000000e+00,5.000000000000000000e+00,5.000000000000000000e+00,5.000000000000000000e+00,5.000000000000000000e+00,5.000000000000000000e+00,5.000000000000000000e+00,5.000000000000000000e+00,5.000000000000000000e+00,5.000000000000000000e+00,5.000000000000000000e+00,5.000000000000000000e+00,5.000000000000000000e+00,5.000000000000000000e+00,5.000000000000000000e+00,5.000000000000000000e+00,5.000000000000000000e+00,5.000000000000000000e+00,5.000000000000000000e+00,5.000000000000000000e+00,5.000000000000000000e+00,5.000000000000000000e+00,5.000000000000000000e+00,5.000000000000000000e+00,5.000000000000000000e+00,5.000000000000000000e+00,5.000000000000000000e+00,5.000000000000000000e+00,5.000000000000000000e+00,5.000000000000000000e+00,5.000000000000000000e+00,4.856467247009277344e+00,4.665975093841552734e+00,4.489863395690917969e+00,4.326561927795410156e+00,4.174722671508789062e+00,4.033179283142089844e+00,3.900919675827026367e+00,3.777058839797973633e+00,3.660821676254272461e+00,3.551524639129638672e+00,3.448565244674682617e+00,3.351407051086425781e+00,3.259573698043823242e+00,3.172638416290283203e+00,3.090219974517822266e+00,3.011975526809692383e+00,2.937595605850219727e+00,2.866800308227539062e+00,2.799337148666381836e+00,2.734976291656494141e+00,2.673508405685424805e+00,2.614742755889892578e+00,2.558504819869995117e+00,2.504635095596313477e+00,2.452987194061279297e+00,2.403426170349121094e+00,2.355828285217285156e+00,2.310079097747802734e+00,2.266072750091552734e+00,2.223711729049682617e+00,2.182905673980712891e+00,2.143569946289062500e+00,2.105627059936523438e+00,2.069003582000732422e+00,2.033632755279541016e+00,1.999450802803039551e+00,1.966399073600769043e+00,1.934421896934509277e+00,1.293155908584594727e+00,1.219976305961608887e+00,1.201702952384948730e+00
5.000000000000000000e+00,5.000000000000000000e+00,5.000000000000000000e+00,5.000000000000000000e+00,5.000000000000000000e+00,5.000000000000000000e+00,5.000000000000000000e+00,5.000000000000000000e+00,5.000000000000000000e+00,5.000000000000000000e+00,5.000000000000000000e+00,5.000000000000000000e+00,5.000000000000000000e+00,5.000000000000000000e+00,5.000000000000000000e+00,5.000000000000000000e+00,5.000000000000000000e+00,5.000000000000000000e+00,5.000000000000000000e+00,5.000000000000000000e+00,5.000000000000000000e+00,5.000000000000000000e+00,5.000000000000000000e+00,5.000000000000000000e+00,5.000000000000000000e+00,5.000000000000000000e+00,5.000000000000000000e+00,5.000000000000000000e+00,5.000000000000000000e+00,5.000000000000000000e+00,5.000000000000000000e+00,5.000000000000000000e+00,5.000000000000000000e+00,5.000000000000000000e+00,5.000000000000000000e+00,5.000000000000000000e+00,5.000000000000000000e+00,5.000000000000000000e+00,5.000000000000000000e+00,4.856606960296630859e+00,4.666104793548583984e+00,4.489983081817626953e+00,4.326673030853271484e+00,4.174826145172119141e+00,4.033276081085205078e+00,3.901010036468505859e+00,3.777143478393554688e+00,3.660901069641113281e+00,3.551599979400634766e+00,3.448635578155517578e+00,3.351473569869995117e+00,3.259636640548706055e+00,3.172698259353637695e+00,3.090276718139648438e+00,3.012029409408569336e+00,2.937646865844726562e+00,2.866849184036254883e+00,2.799383640289306641e+00,2.735020637512207031e+00,2.673550844192504883e+00,2.614783287048339844e+00,2.558543682098388672e+00,2.504672288894653320e+00,2.453022956848144531e+00,2.403460502624511719e+00,2.355861186981201172e+00,2.310110807418823242e+00,2.266103267669677734e+00,2.223741292953491211e+00,2.182933807373046875e+00,2.143597126007080078e+00,2.105653285980224609e+00,2.069029092788696289e+00,2.033657312393188477e+00,1.999474406242370605e+00,1.966421842575073242e+00,1.934444189071655273e+00,1.903489947319030762e+00,1.221540689468383789e+00,1.201568126678466797e+00
5.000000000000000000e+00,5.000000000000000000e+00,5.000000000000000000e+00,5.000000000000000000e+00,5.000000000000000000e+00,5.000000000000000000e+00,5.000000000000000000e+00,5.000000000000000000e+00,5.000000000000000000e+00,5.000000000000000000e+00,5.000000000000000000e+00,5.000000000000000000e+00,5.000000000000000000e+00,5.000000000000000000e+00,5.000000000000000000e+00,5.000000000000000000e+00,5.000000000000000000e+00,5.000000000000000000e+00,5.000000000000000000e+00,5.000000000000000000e+00,5.000000000000000000e+00,5.000000000000000000e+00,5.000000000000000000e+00,5.000000000000000000e+00,5.000000000000000000e+00,5.000000000000000000e+00,5.000000000000000000e+00,5.000000000000000000e+00,5.000000000000000000e+00,5.000000000000000000e+00,5.000000000000000000e+00,5.000000000000000000e+00,5.000000000000000000e+00,5.000000000000000000e+00,5.000000000000000000e+00,5.000000000000000000e+00,5.000000000000000000e+00,5.000000000000000000e+00,5.000000000000000000e+00,4.856747150421142578e+00,4.666234016418457031e+00,4.490102767944335938e+00,4.326784610748291016e+00,4.174929618835449219e+00,4.033372879028320312e+00,3.901100635528564453e+00,3.777228593826293945e+00,3.660980463027954102e+00,3.551674604415893555e+00,3.448706626892089844e+00,3.351540565490722656e+00,3.259699583053588867e+00,3.172758102416992188e+00,3.090333700180053711e+00,3.012083530426025391e+00,2.937697887420654297e+00,2.866898059844970703e+00,2.799430370330810547e+00,2.735065221786499023e+00,2.673593282699584961e+00,2.614824056625366211e+00,2.558582544326782227e+00,2.504709720611572266e+00,2.453058719635009766e+00,2.403494834899902344e+00,2.355894327163696289e+00,2.310142517089843750e+00,2.266133785247802734e+00,2.223770618438720703e+00,2.182962179183959961e+00,2.143624544143676758e+00,2.105679512023925781e+00,2.069054365158081055e+00,2.033681869506835938e+00,1.999498248100280762e+00,1.966444969177246094e+00,1.934466481208801270e+00,1.903511643409729004e+00,1.224005699157714844e+00,1.202356457710266113e+00
5.000000000000000000e+00,5.000000000000000000e+00,5.000000000000000000e+00,5.000000000000000000e+00,5.000000000000000000e+00,5.000000000000000000e+00,5.000000000000000000e+00,5.000000000000000000e+00,5.000000000000000000e+00,5.000000000000000000e+00,5.000000000000000000e+00,5.000000000000000000e+00,5.000000000000000000e+00,5.000000000000000000e+00,5.000000000000000000e+00,5.000000000000000000e+00,5.000000000000000000e+00,5.000000000000000000e+00,5.000000000000000000e+00,5.000000000000000000e+00,5.000000000000000000e+00,5.000000000000000000e+00,5.000000000000000000e+00,5.000000000000000000e+00,5.000000000000000000e+00,5.000000000000000000e+00,5.000000000000000000e+00,5.000000000000000000e+00,5.000000000000000000e+00,5.000000000000000000e+00,5.000000000000000000e+00,5.000000000000000000e+00,5.000000000000000000e+00,5.000000000000000000e+00,5.000000000000000000e+00,5.000000000000000000e+00,5.000000000000000000e+00,5.000000000000000000e+00,5.000000000000000000e+00,4.856887817382812500e+00,4.666363239288330078e+00,4.490222454071044922e+00,4.326895713806152344e+00,4.175033569335937500e+00,4.033469200134277344e+00,3.901190996170043945e+00,3.777313232421875000e+00,3.661060571670532227e+00,3.551749467849731445e+00,3.448777198791503906e+00,3.351607322692871094e+00,3.259763002395629883e+00,3.172817707061767578e+00,3.090390205383300781e+00,3.012137174606323242e+00,2.937749385833740234e+00,2.866946697235107422e+00,2.799476861953735352e+00,2.735109567642211914e+00,2.673635959625244141e+00,2.614864587783813477e+00,2.558621406555175781e+00,2.504746913909912109e+00,2.453094482421875000e+00,2.403529167175292969e+00,2.355927228927612305e+00,2.310174226760864258e+00,2.266164302825927734e+00,2.223799943923950195e+00,2.182990550994873047e+00,2.143651962280273438e+00,2.105705976486206055e+00,2.069079875946044922e+00,2.033706426620483398e+00,1.999522089958190918e+00,1.966467976570129395e+00,1.934488654136657715e+00,1.903532981872558594e+00,1.226480722427368164e+00,1.204744577407836914e+00
5.000000000000000000e+00,5.000000000000000000e+00,5.000000000000000000e+00,5.000000000000000000e+00,5.000000000000000000e+00,5.000000000000000000e+00,5.000000000000000000e+00,5.000000000000000000e+00,5.000000000000000000e+00,5.000000000000000000e+00,5.000000000000000000e+00,5.000000000000000000e+00,5.000000000000000000e+00,5.000000000000000000e+00,5.000000000000000000e+00,5.000000000000000000e+00,5.000000000000000000e+00,5.000000000000000000e+00,5.000000000000000000e+00,5.000000000000000000e+00,5.000000000000000000e+00,5.000000000000000000e+00,5.000000000000000000e+00,5.000000000000000000e+00,5.000000000000000000e+00,5.000000000000000000e+00,5.000000000000000000e+00,5.000000000000000000e+00,5.000000000000000000e+00,5.000000000000000000e+00,5.000000000000000000e+00,5.000000000000000000e+00,5.000000000000000000e+00,5.000000000000000000e+00,5.000000000000000000e+00,5.000000000000000000e+00,5.000000000000000000e+00,5.000000000000000000e+00,5.000000000000000000e+00,4.857028007507324219e+00,4.666492462158203125e+00,4.490342617034912109e+00,4.327006816864013672e+00,4.175137042999267578e+00,4.033565998077392578e+00,3.901281595230102539e+00,3.777397871017456055e+00,3.661139965057373047e+00,3.551824808120727539e+00,3.448848009109497070e+00,3.351673841476440430e+00,3.259825944900512695e+00,3.172877788543701172e+00,3.090447187423706055e+00,3.012191057205200195e+00,2.937800645828247070e+00,2.866995811462402344e+00,2.799523591995239258e+00,2.735153913497924805e+00,2.673678398132324219e+00,2.614905357360839844e+00,2.558660507202148438e+00,2.504784107208251953e+00,2.453130245208740234e+00,2.403563499450683594e+00,2.355960369110107422e+00,2.310205936431884766e+00,2.266194820404052734e+00,2.223829507827758789e+00,2.183018922805786133e+00,2.143679141998291016e+00,2.105732202529907227e+00,2.069105386734008789e+00,2.033730983734130859e+00,1.999545574188232422e+00,1.966490745544433594e+00,1.934510946273803711e+00,1.903554558753967285e+00,1.228965759277343750e+00,1.207142233848571777e+00
5.000000000000000000e+00,5.000000000000000000e+00,5.000000000000000000e+00,5.000000000000000000e+00,5.000000000000000000e+00,5.000000000000000000e+00,5.000000000000000000e+00,5.000000000000000000e+00,5.000000000000000000e+00,5.000000000000000000e+00,5.000000000000000000e+00,5.000000000000000000e+00,5.000000000000000000e+00,5.000000000000000000e+00,5.000000000000000000e+00,5.000000000000000000e+00,5.000000000000000000e+00,5.000000000000000000e+00,5.000000000000000000e+00,5.000000000000000000e+00,5.000000000000000000e+00,5.000000000000000000e+00,5.000000000000000000e+00,5.000000000000000000e+00,5.000000000000000000e+00,5.000000000000000000e+00,5.000000000000000000e+00,5.000000000000000000e+00,5.000000000000000000e+00,5.000000000000000000e+00,5.000000000000000000e+00,5.000000000000000000e+00,5.000000000000000000e+00,5.000000000000000000e+00,5.000000000000000000e+00,5.000000000000000000e+00,5.000000000000000000e+00,5.000000000000000000e+00,5.000000000000000000e+00,4.857167720794677734e+00,4.666622161865234375e+00,4.490462303161621094e+00,4.327117919921875000e+00,4.175240516662597656e+00,4.033662796020507812e+00,3.901371955871582031e+00,3.777482748031616211e+00,3.661219358444213867e+00,3.551899433135986328e+00,3.448918581008911133e+00,3.351740837097167969e+00,3.259889125823974609e+00,3.172937393188476562e+00,3.090503931045532227e+00,3.012245178222656250e+00,2.937851667404174805e+00,2.867044448852539062e+00,2.799570083618164062e+00,2.735198497772216797e+00,2.673720598220825195e+00,2.614945888519287109e+00,2.558699369430541992e+00,2.504821538925170898e+00,2.453165769577026367e+00,2.403597831726074219e+00,2.355993270874023438e+00,2.310237646102905273e+00,2.266225337982177734e+00,2.223858833312988281e+00,2.183047294616699219e+00,2.143706560134887695e+00,2.105758666992187500e+00,2.069130659103393555e+00,2.033755540847778320e+00,1.999569416046142578e+00,1.966513872146606445e+00,1.934533238410949707e+00,1.903576135635375977e+00,1.231043338775634766e+00,1.208391070365905762e+00
5.000000000000000000e+00,5.000000000000000000e+00,5.000000000000000000e+00,5.000000000000000000e+00,5.000000000000000000e+00,5.000000000000000000e+00,5.000000000000000000e+00,5.000000000000000000e+00,5.000000000000000000e+00,5.000000000000000000e+00,5.000000000000000000e+00,5.000000000000000000e+00,5.000000000000000000e+00,5.000000000000000000e+00,5.000000000000000000e+00,5.000000000000000000e+00,5.000000000000000000e+00,5.000000000000000000e+00,5.000000000000000000e+00,5.000000000000000000e+00,5.000000000000000000e+00,5.000000000000000000e+00,5.000000000000000000e+00,5.000000000000000000e+00,5.000000000000000000e+00,5.000000000000000000e+00,5.000000000000000000e+00,5.000000000000000000e+00,5.000000000000000000e+00,5.000000000000000000e+00,5.000000000000000000e+00,5.000000000000000000e+00,5.000000000000000000e+00,5.000000000000000000e+00,5.000000000000000000e+00,5.000000000000000000e+00,5.000000000000000000e+00,5.000000000000000000e+00,5.000000000000000000e+00,4.857307910919189453e+00,4.666751861572265625e+00,4.490581989288330078e+00,4.327229499816894531e+00,4.175343990325927734e+00,4.033759593963623047e+00,3.901462316513061523e+00,3.777567386627197266e+00,3.661299467086791992e+00,3.551974773406982422e+00,3.448989152908325195e+00,3.351807355880737305e+00,3.259952306747436523e+00,3.172997474670410156e+00,3.090560436248779297e+00,3.012299060821533203e+00,2.937903165817260742e+00,2.867093563079833984e+00,2.799616575241088867e+00,2.735242843627929688e+00,2.673763275146484375e+00,2.614986658096313477e+00,2.558738231658935547e+00,2.504858732223510742e+00,2.453201770782470703e+00,2.403632164001464844e+00,2.356026172637939453e+00,2.310269355773925781e+00,2.266255855560302734e+00,2.223888158798217773e+00,2.183075428009033203e+00,2.143733739852905273e+00,2.105784893035888672e+00,2.069156169891357422e+00,2.033780097961425781e+00,1.999593257904052734e+00,1.966536879539489746e+00,1.934555530548095703e+00,1.903597593307495117e+00,1.228554368019104004e+00,1.205489873886108398e+00
5.000000000000000000e+00,5.000000000000000000e+00,5.000000000000000000e+00,5.000000000000000000e+00,5.000000000000000000e+00,5.000000000000000000e+00,5.000000000000000000e+00,5.000000000000000000e+00,5.000000000000000000e+00,5.000000000000000000e+00,5.000000000000000000e+00,5.000000000000000000e+00,5.000000000000000000e+00,5.000000000000000000e+00,5.000000000000000000e+00,5.000000000000000000e+00,5.000000000000000000e+00,5.000000000000000000e+00,5.000000000000000000e+00,5.000000000000000000e+00,5.000000000000000000e+00,5.000000000000000000e+00,5.000000000000000000e+00,5.000000000000000000e+00,5.000000000000000000e+00,5.000000000000000000e+00,5.000000000000000000e+00,5.000000000000000000e+00,5.000000000000000000e+00,5.000000000000000000e+00,5.000000000000000000e+00,5.000000000000000000e+00,5.000000000000000000e+00,5.000000000000000000e+00,5.000000000000000000e+00,5.000000000000000000e+00,5.000000000000000000e+00,5.000000000000000000e+00,5.000000000000000000e+00,4.857448101043701172e+00,4.666880607604980469e+00,4.490701675415039062e+00,4.327340602874755859e+00,4.175447463989257812e+00,4.033855915069580078e+00,3.901552915573120117e+00,3.777652025222778320e+00,3.661378860473632812e+00,3.552049636840820312e+00,3.449059963226318359e+00,3.351874113082885742e+00,3.260015487670898438e+00,3.173057079315185547e+00,3.090617418289184570e+00,3.012352705001831055e+00,2.937954425811767578e+00,2.867142200469970703e+00,2.799663305282592773e+00,2.735287427902221680e+00,2.673805713653564453e+00,2.615027189254760742e+00,2.558777093887329102e+00,2.504895925521850586e+00,2.453237533569335938e+00,2.403666496276855469e+00,2.356059312820434570e+00,2.310300827026367188e+00,2.266286373138427734e+00,2.223917484283447266e+00,2.183103799819946289e+00,2.143760919570922852e+00,2.105811357498168945e+00,2.069181680679321289e+00,2.033804655075073242e+00,1.999616861343383789e+00,1.966559648513793945e+00,1.934577584266662598e+00,1.245181918144226074e+00,1.221553087234497070e+00,1.198804259300231934e+00
5.000000000000000000e+00,5.000000000000000000e+00,5.000000000000000000e+00,5.000000000000000000e+00,5.000000000000000000e+00,5.000000000000000000e+00,5.000000000000000000e+00,5.000000000000000000e+00,5.000000000000000000e+00,5.000000000000000000e+00,5.000000000000000000e+00,5.000000000000000000e+00,5.000000000000000000e+00,5.000000000000000000e+00,5.000000000000000000e+00,5.000000000000000000e+00,5.000000000000000000e+00,5.000000000000000000e+00,5.000000000000000000e+00,5.000000000000000000e+00,5.000000000000000000e+00,5.000000000000000000e+00,5.000000000000000000e+00,5.000000000000000000e+00,5.000000000000000000e+00,5.000000000000000000e+00,5.000000000000000000e+00,5.000000000000000000e+00,5.000000000000000000e+00,5.000000000000000000e+00,5.000000000000000000e+00,5.000000000000000000e+00,5.000000000000000000e+00,5.000000000000000000e+00,5.000000000000000000e+00,5.000000000000000000e+00,5.000000000000000000e+00,5.000000000000000000e+00,5.000000000000000000e+00,4.857588768005371094e+00,4.667010307312011719e+00,4.490821838378906250e+00,4.327451705932617188e+00,4.175551414489746094e+00,4.033952713012695312e+00,3.901643276214599609e+00,3.777737140655517578e+00,3.661458730697631836e+00,3.552124261856079102e+00,3.449130535125732422e+00,3.351941108703613281e+00,3.260078668594360352e+00,3.173116922378540039e+00,3.090674161911010742e+00,3.012406826019287109e+00,2.938005924224853516e+00,2.867191076278686523e+00,2.799709796905517578e+00,2.735332012176513672e+00,2.673848390579223633e+00,2.615067720413208008e+00,2.558815956115722656e+00,2.504933357238769531e+00,2.453273296356201172e+00,2.403700828552246094e+00,2.356092214584350586e+00,2.310332775115966797e+00,2.266316890716552734e+00,2.223946809768676758e+00,2.183132171630859375e+00,2.143788337707519531e+00,2.105837821960449219e+00,2.069206953048706055e+00,2.033829212188720703e+00,1.999640703201293945e+00,1.966582775115966797e+00,1.260429859161376953e+00,1.237129569053649902e+00,1.213802576065063477e+00,1.200433850288391113e+00
5.000000000000000000e+00,5.000000000000000000e+00,5.000000000000000000e+00,5.000000000000000000e+00,5.000000000000000000e+00,5.000000000000000000e+00,5.000000000000000000e+00,5.000000000000000000e+00,5.000000000000000000e+00,5.000000000000000000e+00,5.000000000000000000e+00,5.000000000000000000e+00,5.000000000000000000e+00,5.000000000000000000e+00,5.000000000000000000e+00,5.000000000000000000e+00,5.000000000000000000e+00,5.000000000000000000e+00,5.000000000000000000e+00,5.000000000000000000e+00,5.000000000000000000e+00,5.000000000000000000e+00,5.000000000000000000e+00,5.000000000000000000e+00,5.000000000000000000e+00,5.000000000000000000e+00,5.000000000000000000e+00,5.000000000000000000e+00,5.000000000000000000e+00,5.000000000000000000e+00,5.000000000000000000e+00,5.000000000000000000e+00,5.000000000000000000e+00,5.000000000000000000e+00,5.000000000000000000e+00,5.000000000000000000e+00,5.000000000000000000e+00,5.000000000000000000e+00,5.000000000000000000e+00,4.857728481292724609e+00,4.667140007019042969e+00,4.490941524505615234e+00,4.327563285827636719e+00,4.175654888153076172e+00,4.034049510955810547e+00,3.901733636856079102e+00,3.777821779251098633e+00,3.661538362503051758e+00,3.552199602127075195e+00,3.449201107025146484e+00,3.352007627487182617e+00,3.260141849517822266e+00,3.173176765441894531e+00,3.090730667114257812e+00,3.012460708618164062e+00,2.938056945800781250e+00,2.867239952087402344e+00,2.799756288528442383e+00,2.735376358032226562e+00,2.673890829086303711e+00,2.615108489990234375e+00,2.558854818344116211e+00,2.504970550537109375e+00,2.453309059143066406e+00,2.403735160827636719e+00,2.356125116348266602e+00,2.310364484786987305e+00,2.266347408294677734e+00,2.223976373672485352e+00,2.183160305023193359e+00,2.143815755844116211e+00,2.105864048004150391e+00,2.069232463836669922e+00,2.033853769302368164e+00,1.999664545059204102e+00,1.275570392608642578e+00,1.252794742584228516e+00,1.229180812835693359e+00,1.215775251388549805e+00,1.206385850906372070e+00
5.000000000000000000e+00,5.000000000000000000e+00,5.000000000000000000e+00,5.000000000000000000e+00,5.000000000000000000e+00,5.000000000000000000e+00,5.000000000000000000e+00,5.000000000000000000e+00,5.000000000000000000e+00,5.000000000000000000e+00,5.000000000000000000e+00,5.000000000000000000e+00,5.000000000000000000e+00,5.000000000000000000e+00,5.000000000000000000e+00,5.000000000000000000e+00,5.000000000000000000e+00,5.000000000000000000e+00,5.000000000000000000e+00,5.000000000000000000e+00,5.000000000000000000e+00,5.000000000000000000e+00,5.000000000000000000e+00,5.000000000000000000e+00,5.000000000000000000e+00,5.000000000000000000e+00,5.000000000000000000e+00,5.000000000000000000e+00,5.000000000000000000e+00,5.000000000000000000e+00,5.000000000000000000e+00,5.000000000000000000e+00,5.000000000000000000e+00,5.000000000000000000e+00,5.000000000000000000e+00,5.000000000000000000e+00,5.000000000000000000e+00,5.000000000000000000e+00,5.000000000000000000e+00,4.857868671417236328e+00,4.667269229888916016e+00,4.491061210632324219e+00,4.327674388885498047e+00,4.175758361816406250e+00,4.034146308898925781e+00,3.901824235916137695e+00,3.777906894683837891e+00,3.661617755889892578e+00,3.552274465560913086e+00,3.449271917343139648e+00,3.352074623107910156e+00,3.260204792022705078e+00,3.173236608505249023e+00,3.090787649154663086e+00,3.012514829635620117e+00,2.938108205795288086e+00,2.867288827896118164e+00,2.799803018569946289e+00,2.735420942306518555e+00,2.673933029174804688e+00,2.615149021148681641e+00,2.558893918991088867e+00,2.505007982254028320e+00,2.453344583511352539e+00,2.403769493103027344e+00,2.356158256530761719e+00,2.310396194458007812e+00,2.266377925872802734e+00,2.224005699157714844e+00,2.183188915252685547e+00,2.143843173980712891e+00,2.105890274047851562e+00,2.069257974624633789e+00,2.033878564834594727e+00,1.291078925132751465e+00,1.267751216888427734e+00,1.244953632354736328e+00,1.231513977050781250e+00,1.220505118370056152e+00,1.209608674049377441e+00
5.000000000000000000e+00,5.000000000000000000e+00,5.000000000000000000e+00,5.000000000000000000e+00,5.000000000000000000e+00,5.000000000000000000e+00,5.000000000000000000e+00,5.000000000000000000e+00,5.000000000000000000e+00,5.000000000000000000e+00,5.000000000000000000e+00,5.000000000000000000e+00,5.000000000000000000e+00,5.000000000000000000e+00,5.000000000000000000e+00,5.000000000000000000e+00,5.000000000000000000e+00,5.000000000000000000e+00,5.000000000000000000e+00,5.000000000000000000e+00,5.000000000000000000e+00,5.000000000000000000e+00,5.000000000000000000e+00,5.000000000000000000e+00,5.000000000000000000e+00,5.000000000000000000e+00,5.000000000000000000e+00,5.000000000000000000e+00,5.000000000000000000e+00,5.000000000000000000e+00,5.000000000000000000e+00,5.000000000000000000e+00,5.000000000000000000e+00,5.000000000000000000e+00,5.000000000000000000e+00,5.000000000000000000e+00,5.000000000000000000e+00,5.000000000000000000e+00,5.000000000000000000e+00,4.858009338378906250e+00,4.667398452758789062e+00,4.491181373596191406e+00,4.327785491943359375e+00,4.175862312316894531e+00,4.034242630004882812e+00,3.901914596557617188e+00,3.777991533279418945e+00,3.661697626113891602e+00,3.552349328994750977e+00,3.449342489242553711e+00,3.352141380310058594e+00,3.260268211364746094e+00,3.173296213150024414e+00,3.090844392776489258e+00,3.012568712234497070e+00,2.938159704208374023e+00,2.867337465286254883e+00,2.799849510192871094e+00,2.735465288162231445e+00,2.673975706100463867e+00,2.615189552307128906e+00,2.558932781219482422e+00,2.505045175552368164e+00,2.453380584716796875e+00,2.403803825378417969e+00,2.356191158294677734e+00,2.310427904129028320e+00,2.266408443450927734e+00,2.224035024642944336e+00,2.183217048645019531e+00,2.143870353698730469e+00,2.105916738510131836e+00,2.069283246994018555e+00,2.033903121948242188e+00,1.286824464797973633e+00,1.262492418289184570e+00,1.244746685028076172e+00,1.233798742294311523e+00,1.223041534423828125e+00,1.216291666030883789e+00
5.000000000000000000e+00,5.000000000000000000e+00,5.000000000000000000e+00,5.000000000000000000e+00,5.000000000000000000e+00,5.000000000000000000e+00,5.000000000000000000e+00,5.000000000000000000e+00,5.000000000000000000e+00,5.000000000000000000e+00,5.000000000000000000e+00,5.000000000000000000e+00,5.000000000000000000e+00,5.000000000000000000e+00,5.000000000000000000e+00,5.000000000000000000e+00,5.000000000000000000e+00,5.000000000000000000e+00,5.000000000000000000e+00,5.000000000000000000e+00,5.000000000000000000e+00,5.000000000000000000e+00,5.000000000000000000e+00,5.000000000000000000e+00,5.000000000000000000e+00,5.000000000000000000e+00,5.000000000000000000e+00,5.000000000000000000e+00,5.000000000000000000e+00,5.000000000000000000e+00,5.000000000000000000e+00,5.000000000000000000e+00,5.000000000000000000e+00,5.000000000000000000e+00,5.000000000000000000e+00,5.000000000000000000e+00,5.000000000000000000e+00,5.000000000000000000e+00,5.000000000000000000e+00,4.858149528503417969e+00,4.667528152465820312e+00,4.491301059722900391e+00,4.327897071838378906e+00,4.175965785980224609e+00,4.034339427947998047e+00,3.902005195617675781e+00,3.778076171875000000e+00,3.661777257919311523e+00,3.552424430847167969e+00,3.449413537979125977e+00,3.352207899093627930e+00,3.260331153869628906e+00,3.173356294631958008e+00,3.090901374816894531e+00,3.012622356414794922e+00,2.938210964202880859e+00,2.867386579513549805e+00,2.799896240234375000e+00,2.735509634017944336e+00,2.674018144607543945e+00,2.615230321884155273e+00,2.558971643447875977e+00,2.505082368850708008e+00,2.453416347503662109e+00,2.403838157653808594e+00,2.356224298477172852e+00,2.310459613800048828e+00,2.266438961029052734e+00,2.224064588546752930e+00,2.183245420455932617e+00,2.143897533416748047e+00,2.105942964553833008e+00,2.069308757781982422e+00,2.033927679061889648e+00,1.282914161682128906e+00,1.258728384971618652e+00,1.245188355445861816e+00,1.234232544898986816e+00,1.223779439926147461e+00,1.225361108779907227e+00
5.000000000000000000e+00,5.000000000000000000e+00,5.000000000000000000e+00,5.000000000000000000e+00,5.000000000000000000e+00,5.000000000000000000e+00,5.000000000000000000e+00,5.000000000000000000e+00,5.000000000000000000e+00,5.000000000000000000e+00,5.000000000000000000e+00,5.000000000000000000e+00,5.000000000000000000e+00,5.000000000000000000e+00,5.000000000000000000e+00,5.000000000000000000e+00,5.000000000000000000e+00,5.000000000000000000e+00,5.000000000000000000e+00,5.000000000000000000e+00,5.000000000000000000e+00,5.000000000000000000e+00,5.000000000000000000e+00,5.000000000000000000e+00,5.000000000000000000e+00,5.000000000000000000e+00,5.000000000000000000e+00,5.000000000000000000e+00,5.000000000000000000e+00,5.000000000000000000e+00,5.000000000000000000e+00,5.000000000000000000e+00,5.000000000000000000e+00,5.000000000000000000e+00,5.000000000000000000e+00,5.000000000000000000e+00,5.000000000000000000e+00,5.000000000000000000e+00,5.000000000000000000e+00,4.858287811279296875e+00,4.667657375335693359e+00,4.491420745849609375e+00,4.328008174896240234e+00,4.176069259643554688e+00,4.034436225891113281e+00,3.902095556259155273e+00,3.778161287307739258e+00,3.661856651306152344e+00,3.552499294281005859e+00,3.449484109878540039e+00,3.352274894714355469e+00,3.260394334793090820e+00,3.173416137695312500e+00,3.090957880020141602e+00,3.012676477432250977e+00,2.938261985778808594e+00,2.867435216903686523e+00,2.799942731857299805e+00,2.735554218292236328e+00,2.674060583114624023e+00,2.615270853042602539e+00,2.559010505676269531e+00,2.505119800567626953e+00,2.453451871871948242e+00,2.403872489929199219e+00,2.356257200241088867e+00,2.310491323471069336e+00,2.266469478607177734e+00,2.224093914031982422e+00,2.183273792266845703e+00,2.143924951553344727e+00,2.105969429016113281e+00,2.069334268569946289e+00,1.304109930992126465e+00,1.279027342796325684e+00,1.256790161132812500e+00,1.245630145072937012e+00,1.234930157661437988e+00,1.229940176010131836e+00,1.231990575790405273e+00
5.000000000000000000e+00,5.000000000000000000e+00,5.000000000000000000e+00,5.000000000000000000e+00,5.000000000000000000e+00,5.000000000000000000e+00,5.000000000000000000e+00,5.000000000000000000e+00,5.000000000000000000e+00,5.000000000000000000e+00,5.000000000000000000e+00,5.000000000000000000e+00,5.000000000000000000e+00,5.000000000000000000e+00,5.000000000000000000e+00,5.000000000000000000e+00,5.000000000000000000e+00,5.000000000000000000e+00,5.000000000000000000e+00,5.000000000000000000e+00,5.000000000000000000e+00,5.000000000000000000e+00,5.000000000000000000e+00,5.000000000000000000e+00,5.000000000000000000e+00,5.000000000000000000e+00,5.000000000000000000e+00,5.000000000000000000e+00,5.000000000000000000e+00,5.000000000000000000e+00,5.000000000000000000e+00,5.000000000000000000e+00,5.000000000000000000e+00,5.000000000000000000e+00,5.000000000000000000e+00,5.000000000000000000e+00,5.000000000000000000e+00,5.000000000000000000e+00,5.000000000000000000e+00,4.858426094055175781e+00,4.667787075042724609e+00,4.491540908813476562e+00,4.328119754791259766e+00,4.176172733306884766e+00,4.034533023834228516e+00,3.902185916900634766e+00,3.778245925903320312e+00,3.661936759948730469e+00,3.552574634552001953e+00,3.449554681777954102e+00,3.352341651916503906e+00,3.260457515716552734e+00,3.173475980758666992e+00,3.091014623641967773e+00,3.012730360031127930e+00,2.938313484191894531e+00,2.867484331130981445e+00,2.799989223480224609e+00,2.735598564147949219e+00,2.674103260040283203e+00,2.615311622619628906e+00,2.559049367904663086e+00,2.505156993865966797e+00,2.453487873077392578e+00,2.403906822204589844e+00,2.356290102005004883e+00,2.310523033142089844e+00,2.266499996185302734e+00,2.224123239517211914e+00,2.183301925659179688e+00,2.143952131271362305e+00,2.105995893478393555e+00,2.069359779357910156e+00,1.300092577934265137e+00,1.275164127349853516e+00,1.257240295410156250e+00,1.246285796165466309e+00,1.236043334007263184e+00,1.236717820167541504e+00,1.238692164421081543e+00
5.000000000000000000e+00,5.000000000000000000e+00,5.000000000000000000e+00,5.000000000000000000e+00,5.000000000000000000e+00,5.000000000000000000e+00,5.000000000000000000e+00,5.000000000000000000e+00,5.000000000000000000e+00,5.000000000000000000e+00,5.000000000000000000e+00,5.000000000000000000e+00,5.000000000000000000e+00,5.000000000000000000e+00,5.000000000000000000e+00,5.000000000000000000e+00,5.000000000000000000e+00,5.000000000000000000e+00,5.000000000000000000e+00,5.000000000000000000e+00,5.000000000000000000e+00,5.000000000000000000e+00,5.000000000000000000e+00,5.000000000000000000e+00,5.000000000000000000e+00,5.000000000000000000e+00,5.000000000000000000e+00,5.000000000000000000e+00,5.000000000000000000e+00,5.000000000000000000e+00,5.000000000000000000e+00,5.000000000000000000e+00,5.000000000000000000e+00,5.000000000000000000e+00,5.000000000000000000e+00,5.000000000000000000e+00,5.000000000000000000e+00,5.000000000000000000e+00,5.000000000000000000e+00,4.858564853668212891e+00,4.667913913726806641e+00,4.491660594940185547e+00,4.328230857849121094e+00,4.176276683807373047e+00,4.034629821777343750e+00,3.902276754379272461e+00,3.778330564498901367e+00,3.662016153335571289e+00,3.552649259567260742e+00,3.449625492095947266e+00,3.352408170700073242e+00,3.260520696640014648e+00,3.173535823822021484e+00,3.091071605682373047e+00,3.012784242630004883e+00,2.938364744186401367e+00,2.867532968521118164e+00,2.800035953521728516e+00,2.735642910003662109e+00,2.674145698547363281e+00,2.615352153778076172e+00,2.559088468551635742e+00,2.505194425582885742e+00,2.453523635864257812e+00,2.403941154479980469e+00,2.356323242187500000e+00,2.310554742813110352e+00,2.266530513763427734e+00,2.224152565002441406e+00,2.183330535888671875e+00,2.143979549407958984e+00,2.106022119522094727e+00,1.339390754699707031e+00,1.296100020408630371e+00,1.271324276924133301e+00,1.257852196693420410e+00,1.247419476509094238e+00,1.240317821502685547e+00,1.243570566177368164e+00,1.245467066764831543e+00
5.000000000000000000e+00,5.000000000000000000e+00,5.000000000000000000e+00,5.000000000000000000e+00,5.000000000000000000e+00,5.000000000000000000e+00,5.000000000000000000e+00,5.000000000000000000e+00,5.000000000000000000e+00,5.000000000000000000e+00,5.000000000000000000e+00,5.000000000000000000e+00,5.000000000000000000e+00,5.000000000000000000e+00,5.000000000000000000e+00,5.000000000000000000e+00,5.000000000000000000e+00,5.000000000000000000e+00,5.000000000000000000e+00,5.000000000000000000e+00,5.000000000000000000e+00,5.000000000000000000e+00,5.000000000000000000e+00,5.000000000000000000e+00,5.000000000000000000e+00,5.000000000000000000e+00,5.000000000000000000e+00,5.000000000000000000e+00,5.000000000000000000e+00,5.000000000000000000e+00,5.000000000000000000e+00,5.000000000000000000e+00,5.000000000000000000e+00,5.000000000000000000e+00,5.000000000000000000e+00,5.000000000000000000e+00,5.000000000000000000e+00,5.000000000000000000e+00,5.000000000000000000e+00,4.858703613281250000e+00,4.668041706085205078e+00,4.491778850555419922e+00,4.328342437744140625e+00,4.176380157470703125e+00,4.034726619720458984e+00,3.902366876602172852e+00,3.778415679931640625e+00,3.662096023559570312e+00,3.552724123001098633e+00,3.449696063995361328e+00,3.352475166320800781e+00,3.260584115982055664e+00,3.173595666885375977e+00,3.091128110885620117e+00,3.012838363647460938e+00,2.938416242599487305e+00,2.867581844329833984e+00,2.800082445144653320e+00,2.735687732696533203e+00,2.674188137054443359e+00,2.615392684936523438e+00,2.559127330780029297e+00,2.505231618881225586e+00,2.453559398651123047e+00,2.403975486755371094e+00,2.356356143951416016e+00,2.310586452484130859e+00,2.266561031341552734e+00,2.224181890487670898e+00,2.183358669281005859e+00,2.144006967544555664e+00,2.106048583984375000e+00,1.317844629287719727e+00,1.292164564132690430e+00,1.269635438919067383e+00,1.259007096290588379e+00,1.248555421829223633e+00,1.247210621833801270e+00,1.250499725341796875e+00,1.844764471054077148e+00
5.000000000000000000e+00,5.000000000000000000e+00,5.000000000000000000e+00,5.000000000000000000e+00,5.000000000000000000e+00,5.000000000000000000e+00,5.000000000000000000e+00,5.000000000000000000e+00,5.000000000000000000e+00,5.000000000000000000e+00,5.000000000000000000e+00,5.000000000000000000e+00,5.000000000000000000e+00,5.000000000000000000e+00,5.000000000000000000e+00,5.000000000000000000e+00,5.000000000000000000e+00,5.000000000000000000e+00,5.000000000000000000e+00,5.000000000000000000e+00,5.000000000000000000e+00,5.000000000000000000e+00,5.000000000000000000e+00,5.000000000000000000e+00,5.000000000000000000e+00,5.000000000000000000e+00,5.000000000000000000e+00,5.000000000000000000e+00,5.000000000000000000e+00,5.000000000000000000e+00,5.000000000000000000e+00,5.000000000000000000e+00,5.000000000000000000e+00,5.000000000000000000e+00,5.000000000000000000e+00,5.000000000000000000e+00,5.000000000000000000e+00,5.000000000000000000e+00,5.000000000000000000e+00,4.858841896057128906e+00,4.668169498443603516e+00,4.491897106170654297e+00,4.328452110290527344e+00,4.176483631134033203e+00,4.034823417663574219e+00,3.902457237243652344e+00,3.778500318527221680e+00,3.662175655364990234e+00,3.552799463272094727e+00,3.449766635894775391e+00,3.352541923522949219e+00,3.260647058486938477e+00,3.173655509948730469e+00,3.091184854507446289e+00,3.012892007827758789e+00,2.938467502593994141e+00,2.867630720138549805e+00,2.800128936767578125e+00,2.735732078552246094e+00,2.674230575561523438e+00,2.615433454513549805e+00,2.559166193008422852e+00,2.505269050598144531e+00,2.453595161437988281e+00,2.404009819030761719e+00,2.356389045715332031e+00,2.310618162155151367e+00,2.266591548919677734e+00,2.224211454391479492e+00,2.183387041091918945e+00,2.144034147262573242e+00,1.364849209785461426e+00,1.314130067825317383e+00,1.288593173027038574e+00,1.271885395050048828e+00,1.260760307312011719e+00,1.250947833061218262e+00,1.254180431365966797e+00,1.257506370544433594e+00,1.844784736633300781e+00
5.000000000000000000e+00,5.000000000000000000e+00,5.000000000000000000e+00,5.000000000000000000e+00,5.000000000000000000e+00,5.000000000000000000e+00,5.000000000000000000e+00,5.000000000000000000e+00,5.000000000000000000e+00,5.000000000000000000e+00,5.000000000000000000e+00,5.000000000000000000e+00,5.000000000000000000e+00,5.000000000000000000e+00,5.000000000000000000e+00,5.000000000000000000e+00,5.000000000000000000e+00,5.000000000000000000e+00,5.000000000000000000e+00,5.000000000000000000e+00,5.000000000000000000e+00,5.000000000000000000e+00,5.000000000000000000e+00,5.000000000000000000e+00,5.000000000000000000e+00,5.000000000000000000e+00,5.000000000000000000e+00,5.000000000000000000e+00,5.000000000000000000e+00,5.000000000000000000e+00,5.000000000000000000e+00,5.000000000000000000e+00,5.000000000000000000e+00,5.000000000000000000e+00,5.000000000000000000e+00,5.000000000000000000e+00,5.000000000000000000e+00,5.000000000000000000e+00,5.000000000000000000e+00,4.858980655670166016e+00,4.668297767639160156e+00,4.492015361785888672e+00,4.328562259674072266e+00,4.176587581634521484e+00,4.034920215606689453e+00,3.902548074722290039e+00,3.778585433959960938e+00,3.662255287170410156e+00,3.552874326705932617e+00,3.449837684631347656e+00,3.352608919143676758e+00,3.260710239410400391e+00,3.173715353012084961e+00,3.091241836547851562e+00,3.012946128845214844e+00,2.938518524169921875e+00,2.867679595947265625e+00,2.800175666809082031e+00,2.735776662826538086e+00,2.674273014068603516e+00,2.615474224090576172e+00,2.559205055236816406e+00,2.505306243896484375e+00,2.453630924224853516e+00,2.404044151306152344e+00,2.356422185897827148e+00,2.310650110244750977e+00,2.266622066497802734e+00,2.224240779876708984e+00,2.183415412902832031e+00,2.144061565399169922e+00,1.338837504386901855e+00,1.310436487197875977e+00,1.285632014274597168e+00,1.274266242980957031e+00,1.263085365295410156e+00,1.258635044097900391e+00,1.261655926704406738e+00,1.873865485191345215e+00,1.844804763793945312e+00
4.871277332305908203e+00,4.870056152343750000e+00,4.868834972381591797e+00,4.867615222930908203e+00,4.866395473480224609e+00,4.865176677703857422e+00,4.863958835601806641e+00,4.862740993499755859e+00,4.861523628234863281e+00,4.860307216644287109e+00,4.859091281890869141e+00,4.857876300811767578e+00,4.856661796569824219e+00,4.855447769165039062e+00,4.854234218597412109e+00,4.853021621704101562e+00,4.851809501647949219e+00,4.850597858428955078e+00,4.849386692047119141e+00,4.848176479339599609e+00,4.846966743469238281e+00,4.845757484436035156e+00,4.844548702239990234e+00,4.843340873718261719e+00,4.842133522033691406e+00,4.840927124023437500e+00,4.839720726013183594e+00,4.838515281677246094e+00,4.837310314178466797e+00,4.836105823516845703e+00,4.834901809692382812e+00,4.833698749542236328e+00,4.832496166229248047e+00,4.831294059753417969e+00,4.830092906951904297e+00,4.828892230987548828e+00,4.827692031860351562e+00,4.826492309570312500e+00,4.825293540954589844e+00,4.824095249176025391e+00,4.668425559997558594e+00,4.492134094238281250e+00,4.328672409057617188e+00,4.176689147949218750e+00,4.035016536712646484e+00,3.902638435363769531e+00,3.778670072555541992e+00,3.662335157394409180e+00,3.552949190139770508e+00,3.449908256530761719e+00,3.352675437927246094e+00,3.260773420333862305e+00,3.173774957656860352e+00,3.091298580169677734e+00,3.013000011444091797e+00,2.938570022583007812e+00,2.867728471755981445e+00,2.800222158432006836e+00,2.735821008682250977e+00,2.674315690994262695e+00,2.615514755249023438e+00,2.559243917465209961e+00,2.505343675613403320e+00,2.453666687011718750e+00,2.404078483581542969e+00,2.356455087661743164e+00,2.310681581497192383e+00,2.266652584075927734e+00,2.224270105361938477e+00,2.183443546295166016e+00,2.144088745117187500e+00,1.334603309631347656e+00,1.306763648986816406e+00,1.288064599037170410e+00,1.276655912399291992e+00,1.265224456787109375e+00,1.266417145729064941e+00,1.269475579261779785e+00,1.873886108398437500e+00,1.844825148582458496e+00
3.776098251342773438e+00,3.775364160537719727e+00,3.774630546569824219e+00,3.773896932601928711e+00,3.773164033889770508e+00,3.772431135177612305e+00,3.771698713302612305e+00,3.770966768264770508e+00,3.770234584808349609e+00,3.769503116607666016e+00,3.768771409988403320e+00,3.768040657043457031e+00,3.767309665679931641e+00,3.766579151153564453e+00,3.765848875045776367e+00,3.765119075775146484e+00,3.764389514923095703e+00,3.763659954071044922e+00,3.762930870056152344e+00,3.762201786041259766e+00,3.761473655700683594e+00,3.760745048522949219e+00,3.760017395019531250e+00,3.759289264678955078e+00,3.758562088012695312e+00,3.757835149765014648e+00,3.757108211517333984e+00,3.756381750106811523e+00,3.755655288696289062e+00,3.754929304122924805e+00,3.754203319549560547e+00,3.753478050231933594e+00,3.752752780914306641e+00,3.752027988433837891e+00,3.751303195953369141e+00,3.750579118728637695e+00,3.749855279922485352e+00,3.749131202697753906e+00,3.748407840728759766e+00,3.747684478759765625e+00,3.746961593627929688e+00,3.746238708496093750e+00,3.745516538619995117e+00,3.744794368743896484e+00,3.744072675704956055e+00,3.743351221084594727e+00,3.742629766464233398e+00,3.662414789199829102e+00,3.553024530410766602e+00,3.449978828430175781e+00,3.352742195129394531e+00,3.260836601257324219e+00,3.173835039138793945e+00,3.091355085372924805e+00,3.013053894042968750e+00,2.938621282577514648e+00,2.867777347564697266e+00,2.800268650054931641e+00,2.735865354537963867e+00,2.674358129501342773e+00,2.615555524826049805e+00,2.559282779693603516e+00,2.505380868911743164e+00,2.453702449798583984e+00,2.404112815856933594e+00,2.356487989425659180e+00,2.310713291168212891e+00,2.266683101654052734e+00,2.224299669265747070e+00,2.183471918106079102e+00,1.361187577247619629e+00,1.330395579338073730e+00,1.303111195564270020e+00,1.290506601333618164e+00,1.278846979141235352e+00,1.271685838699340820e+00,1.274296164512634277e+00,1.903899073600769043e+00,1.873907089233398438e+00,1.844845414161682129e+00
3.082972526550292969e+00,3.082483291625976562e+00,3.081994295120239258e+00,3.081505060195922852e+00,3.081016540527343750e+00,3.080527782440185547e+00,3.080039262771606445e+00,3.079551219940185547e+00,3.079062938690185547e+00,3.078574895858764648e+00,3.078087091445922852e+00,3.077599525451660156e+00,3.077111721038818359e+00,3.076624393463134766e+00,3.076137065887451172e+00,3.075650215148925781e+00,3.075163364410400391e+00,3.074676275253295898e+00,3.074189901351928711e+00,3.073703289031982422e+00,3.073217153549194336e+00,3.072730779647827148e+00,3.072244882583618164e+00,3.071758985519409180e+00,3.071273326873779297e+00,3.070787906646728516e+00,3.070302248001098633e+00,3.069817304611206055e+00,3.069332122802734375e+00,3.068847179412841797e+00,3.068362236022949219e+00,3.067877769470214844e+00,3.067393064498901367e+00,3.066909074783325195e+00,3.066424608230590820e+00,3.065940856933593750e+00,3.065457105636596680e+00,3.064973354339599609e+00,3.064489841461181641e+00,3.064006328582763672e+00,3.063523292541503906e+00,3.063040018081665039e+00,3.062557220458984375e+00,3.062074184417724609e+00,3.061591625213623047e+00,3.061109304428100586e+00,3.060626983642578125e+00,3.060144901275634766e+00,3.059662580490112305e+00,3.059180974960327148e+00,3.058698892593383789e+00,3.058217525482177734e+00,3.057735919952392578e+00,3.057254791259765625e+00,3.013108015060424805e+00,2.938672542572021484e+00,2.867826223373413086e+00,2.800315380096435547e+00,2.735909938812255859e+00,2.674400568008422852e+00,2.615596055984497070e+00,2.559321880340576172e+00,2.505418300628662109e+00,2.453738212585449219e+00,2.404147148132324219e+00,2.356521129608154297e+00,2.310745239257812500e+00,2.266713619232177734e+00,2.224328994750976562e+00,2.183500289916992188e+00,1.356811046600341797e+00,1.326214551925659180e+00,1.304660797119140625e+00,1.292765974998474121e+00,1.281039714813232422e+00,1.279153585433959961e+00,1.934889078140258789e+00,1.903920769691467285e+00,1.873928070068359375e+00,1.844865441322326660e+00
2.604838609695434570e+00,2.604489326477050781e+00,2.604140281677246094e+00,2.603790998458862305e+00,2.603442192077636719e+00,2.603093147277832031e+00,2.602744340896606445e+00,2.602395772933959961e+00,2.602046966552734375e+00,2.601698637008666992e+00,2.601350069046020508e+00,2.601001739501953125e+00,2.600653409957885742e+00,2.600305318832397461e+00,2.599957227706909180e+00,2.599609375000000000e+00,2.599261522293090820e+00,2.598913669586181641e+00,2.598566055297851562e+00,2.598218441009521484e+00,2.597871065139770508e+00,2.597523450851440430e+00,2.597176313400268555e+00,2.596828937530517578e+00,2.596481800079345703e+00,2.596134901046752930e+00,2.595788002014160156e+00,2.595441102981567383e+00,2.595094203948974609e+00,2.594747781753540039e+00,2.594401121139526367e+00,2.594054698944091797e+00,2.593708276748657227e+00,2.593361854553222656e+00,2.593015670776367188e+00,2.592669725418090820e+00,2.592323780059814453e+00,2.591977596282958984e+00,2.591631889343261719e+00,2.591286182403564453e+00,2.590940475463867188e+00,2.590594768524169922e+00,2.590249538421630859e+00,2.589904069900512695e+00,2.589558839797973633e+00,2.589213848114013672e+00,2.588868618011474609e+00,2.588523626327514648e+00,2.588178634643554688e+00,2.587833881378173828e+00,2.587489128112792969e+00,2.587144613265991211e+00,2.586799860000610352e+00,2.586455583572387695e+00,2.586111307144165039e+00,2.585767030715942383e+00,2.585422754287719727e+00,2.585078716278076172e+00,2.584734678268432617e+00,2.584390878677368164e+00,2.584047079086303711e+00,2.559360742568969727e+00,2.505455493927001953e+00,2.453773975372314453e+00,2.404181480407714844e+00,2.356554031372070312e+00,2.310776710510253906e+00,2.266744136810302734e+00,2.224358320236206055e+00,2.183528661727905273e+00,1.364744544029235840e+00,1.322059631347656250e+00,1.306991457939147949e+00,1.295006752014160156e+00,1.286763668060302734e+00,1.287192463874816895e+00,1.934911131858825684e+00,1.903942108154296875e+00,1.873948693275451660e+00,1.844885706901550293e+00
2.255077600479125977e+00,2.254816770553588867e+00,2.254555940628051758e+00,2.254295349121093750e+00,2.254034519195556641e+00,2.253773927688598633e+00,2.253513574600219727e+00,2.253252983093261719e+00,2.252992391586303711e+00,2.252732038497924805e+00,2.252471685409545898e+00,2.252211570739746094e+00,2.251951217651367188e+00,2.251691341400146484e+00,2.251430988311767578e+00,2.251171112060546875e+00,2.250911235809326172e+00,2.250651359558105469e+00,2.250391483306884766e+00,2.250131607055664062e+00,2.249871969223022461e+00,2.249612331390380859e+00,2.249352693557739258e+00,2.249092817306518555e+00,2.248832702636718750e+00,2.248572349548339844e+00,2.248311996459960938e+00,2.248051881790161133e+00,2.247791528701782227e+00,2.247531652450561523e+00,2.247271537780761719e+00,2.247011661529541016e+00,2.246751546859741211e+00,2.246491909027099609e+00,2.246232032775878906e+00,2.245972394943237305e+00,2.245712757110595703e+00,2.245452880859375000e+00,2.245193481445312500e+00,2.244933843612670898e+00,2.244674682617187500e+00,2.244415044784545898e+00,2.244155883789062500e+00,2.243896484375000000e+00,2.243637561798095703e+00,2.243378400802612305e+00,2.243119239807128906e+00,2.242860317230224609e+00,2.242601156234741211e+00,2.242342472076416016e+00,2.242083549499511719e+00,2.241824865341186523e+00,2.241565942764282227e+00,2.241307497024536133e+00,2.241049051284790039e+00,2.240790367126464844e+00,2.240531921386718750e+00,2.240273475646972656e+00,2.240015268325805664e+00,2.239756822586059570e+00,2.239498615264892578e+00,2.239240407943725586e+00,2.238982439041137695e+00,2.238724231719970703e+00,2.238466262817382812e+00,2.238208293914794922e+00,2.237950563430786133e+00,2.237692594528198242e+00,2.224387884140014648e+00,1.390274405479431152e+00,1.348978638648986816e+00,1.327597379684448242e+00,1.315943956375122070e+00,1.310720086097717285e+00,1.293467402458190918e+00,1.966927409172058105e+00,1.934933423995971680e+00,1.903963685035705566e+00,1.873969674110412598e+00,1.844905972480773926e+00
1.988084673881530762e+00,1.987882018089294434e+00,1.987679243087768555e+00,1.987476587295532227e+00,1.987273812294006348e+00,1.987071394920349121e+00,1.986868858337402344e+00,1.986666202545166016e+00,1.986464023590087891e+00,1.986261487007141113e+00,1.986059069633483887e+00,1.985856890678405762e+00,1.985654473304748535e+00,1.985452175140380859e+00,1.985249876976013184e+00,1.985047936439514160e+00,1.984845757484436035e+00,1.984643578529357910e+00,1.984441637992858887e+00,1.984239578247070312e+00,1.984037518501281738e+00,1.983835816383361816e+00,1.983633875846862793e+00,1.983431935310363770e+00,1.983230113983154297e+00,1.983028531074523926e+00,1.982826709747314453e+00,1.982625007629394531e+00,1.982423543930053711e+00,1.982221841812133789e+00,1.982020258903503418e+00,1.981818795204162598e+00,1.981617331504821777e+00,1.981415748596191406e+00,1.981214404106140137e+00,1.981013178825378418e+00,1.980811834335327148e+00,1.980610489845275879e+00,1.980409383773803711e+00,1.980208158493041992e+00,1.980006933212280273e+00,1.979805946350097656e+00,1.979604840278625488e+00,1.979403734207153320e+00,1.979202628135681152e+00,1.979001879692077637e+00,1.978800892829895020e+00,1.978600025177001953e+00,1.978399276733398438e+00,1.978198528289794922e+00,1.977997660636901855e+00,1.977797150611877441e+00,1.977596402168273926e+00,1.977395772933959961e+00,1.977195262908935547e+00,1.976994752883911133e+00,1.976794123649597168e+00,1.976593613624572754e+00,1.976393342018127441e+00,1.976192951202392578e+00,1.975992560386657715e+00,1.975792407989501953e+00,1.975592017173767090e+00,1.975391745567321777e+00,1.975191831588745117e+00,1.974991559982299805e+00,1.974791407585144043e+00,1.974591255187988281e+00,1.974391460418701172e+00,1.373609185218811035e+00,1.346964001655578613e+00,1.323205709457397461e+00,1.314130306243896484e+00,1.308717846870422363e+00,1.973192334175109863e+00,1.966950535774230957e+00,1.934955835342407227e+00,1.903985381126403809e+00,1.873990654945373535e+00,1.844926118850708008e+00
1.777620911598205566e+00,1.777458906173706055e+00,1.777296781539916992e+00,1.777134656906127930e+00,1.776972651481628418e+00,1.776810765266418457e+00,1.776648759841918945e+00,1.776486873626708984e+00,1.776325106620788574e+00,1.776163101196289062e+00,1.776001214981079102e+00,1.775839567184448242e+00,1.775677800178527832e+00,1.775515913963317871e+00,1.775354266166687012e+00,1.775192618370056152e+00,1.775030970573425293e+00,1.774869322776794434e+00,1.774707794189453125e+00,1.774546146392822266e+00,1.774384617805480957e+00,1.774223208427429199e+00,1.774061679840087891e+00,1.773900151252746582e+00,1.773738741874694824e+00,1.773577451705932617e+00,1.773416042327880859e+00,1.773254632949829102e+00,1.773093461990356445e+00,1.772932171821594238e+00,1.772770881652832031e+00,1.772609710693359375e+00,1.772448539733886719e+00,1.772287368774414062e+00,1.772126078605651855e+00,1.771965146064758301e+00,1.771804094314575195e+00,1.771642923355102539e+00,1.771482110023498535e+00,1.771321058273315430e+00,1.771160006523132324e+00,1.770999193191528320e+00,1.770838260650634766e+00,1.770677328109741211e+00,1.770516514778137207e+00,1.770355820655822754e+00,1.770195007324218750e+00,1.770034193992614746e+00,1.769873619079589844e+00,1.769712805747985840e+00,1.769552111625671387e+00,1.769391655921936035e+00,1.769230961799621582e+00,1.769070386886596680e+00,1.768909931182861328e+00,1.768749356269836426e+00,1.768588781356811523e+00,1.768428325653076172e+00,1.768267989158630371e+00,1.768107533454895020e+00,1.767947196960449219e+00,1.767786979675292969e+00,1.767626523971557617e+00,1.767466187477111816e+00,1.767306089401245117e+00,1.767145872116088867e+00,1.766985654830932617e+00,1.766825437545776367e+00,1.394410848617553711e+00,1.365168333053588867e+00,1.342405438423156738e+00,1.320274114608764648e+00,1.303973078727722168e+00,1.290296316146850586e+00,1.287030696868896484e+00,1.765545248985290527e+00,1.765385389328002930e+00,1.765225410461425781e+00,1.765065670013427734e+00,1.764905810356140137e+00
1.607451915740966797e+00,1.607319474220275879e+00,1.607186913490295410e+00,1.607054352760314941e+00,1.606921792030334473e+00,1.606789469718933105e+00,1.606656908988952637e+00,1.606524467468261719e+00,1.606392145156860352e+00,1.606259822845458984e+00,1.606127381324768066e+00,1.605995178222656250e+00,1.605862855911254883e+00,1.605730414390563965e+00,1.605598211288452148e+00,1.605466008186340332e+00,1.605333805084228516e+00,1.605201482772827148e+00,1.605069398880004883e+00,1.604937195777893066e+00,1.604805111885070801e+00,1.604673027992248535e+00,1.604540944099426270e+00,1.604408860206604004e+00,1.604276657104492188e+00,1.604144811630249023e+00,1.604012727737426758e+00,1.603880763053894043e+00,1.603748917579650879e+00,1.603616833686828613e+00,1.603484869003295898e+00,1.603353142738342285e+00,1.603221178054809570e+00,1.603089332580566406e+00,1.602957487106323242e+00,1.602825760841369629e+00,1.602693915367126465e+00,1.602562069892883301e+00,1.602430462837219238e+00,1.602298736572265625e+00,1.602167010307312012e+00,1.602035403251647949e+00,1.601903676986694336e+00,1.601772069931030273e+00,1.601640343666076660e+00,1.601508855819702148e+00,1.601377248764038086e+00,1.601245641708374023e+00,1.601114273071289062e+00,1.600982666015625000e+00,1.600851178169250488e+00,1.600719809532165527e+00,1.600588321685791016e+00,1.600456833839416504e+00,1.600325584411621094e+00,1.600194215774536133e+00,1.600062727928161621e+00,1.599931359291076660e+00,1.599800109863281250e+00,1.599668860435485840e+00,1.599537491798400879e+00,1.599406361579895020e+00,1.599275112152099609e+00,1.599143862724304199e+00,1.599012732505798340e+00,1.598881602287292480e+00,1.598750352859497070e+00,1.598619222640991211e+00,1.598488211631774902e+00,1.361789584159851074e+00,1.341826438903808594e+00,1.322962999343872070e+00,1.301841497421264648e+00,1.280136585235595703e+00,1.265916109085083008e+00,1.262142062187194824e+00,1.597440242767333984e+00,1.597309231758117676e+00,1.597178459167480469e+00,1.597047567367553711e+00
1.467016577720642090e+00,1.466906189918518066e+00,1.466795802116394043e+00,1.466685414314270020e+00,1.466575026512145996e+00,1.466464757919311523e+00,1.466354370117187500e+00,1.466244101524353027e+00,1.466133832931518555e+00,1.466023564338684082e+00,1.465913295745849609e+00,1.465803146362304688e+00,1.465692877769470215e+00,1.465582609176635742e+00,1.465472459793090820e+00,1.465362310409545898e+00,1.465252161026000977e+00,1.465142011642456055e+00,1.465031981468200684e+00,1.464921832084655762e+00,1.464811682701110840e+00,1.464701652526855469e+00,1.464591622352600098e+00,1.464481472969055176e+00,1.464371442794799805e+00,1.464261531829833984e+00,1.464151501655578613e+00,1.464041471481323242e+00,1.463931679725646973e+00,1.463821649551391602e+00,1.463711738586425781e+00,1.463601946830749512e+00,1.463491916656494141e+00,1.463382005691528320e+00,1.463272213935852051e+00,1.463162422180175781e+00,1.463052511215209961e+00,1.462942719459533691e+00,1.462833046913146973e+00,1.462723255157470703e+00,1.462613463401794434e+00,1.462503790855407715e+00,1.462393999099731445e+00,1.462284326553344727e+00,1.462174534797668457e+00,1.462064981460571289e+00,1.461955308914184570e+00,1.461845636367797852e+00,1.461736083030700684e+00,1.461626410484313965e+00,1.461516857147216797e+00,1.461407303810119629e+00,1.461297750473022461e+00,1.461188197135925293e+00,1.461078763008117676e+00,1.460969209671020508e+00,1.460859656333923340e+00,1.460750102996826172e+00,1.460640788078308105e+00,1.460531234741210938e+00,1.460421800613403320e+00,1.460312485694885254e+00,1.460203051567077637e+00,1.460093617439270020e+00,1.459984421730041504e+00,1.459874987602233887e+00,1.459765672683715820e+00,1.459656238555908203e+00,1.459547042846679688e+00,1.459437727928161621e+00,1.459328413009643555e+00,1.459219336509704590e+00,1.326712250709533691e+00,1.284064531326293945e+00,1.253490447998046875e+00,1.239514708518981934e+00,1.230314254760742188e+00,1.458564043045043945e+00,1.458454966545104980e+00,1.458345890045166016e+00
1.349147915840148926e+00,1.349054694175720215e+00,1.348961234092712402e+00,1.348867893218994141e+00,1.348774552345275879e+00,1.348681211471557617e+00,1.348587870597839355e+00,1.348494529724121094e+00,1.348401427268981934e+00,1.348308086395263672e+00,1.348214745521545410e+00,1.348121643066406250e+00,1.348028421401977539e+00,1.347935080528259277e+00,1.347841858863830566e+00,1.347748756408691406e+00,1.347655534744262695e+00,1.347562313079833984e+00,1.347469329833984375e+00,1.347376108169555664e+00,1.347283005714416504e+00,1.347189903259277344e+00,1.347096800804138184e+00,1.347003698348999023e+00,1.346910595893859863e+00,1.346817612648010254e+00,1.346724510192871094e+00,1.346631407737731934e+00,1.346538543701171875e+00,1.346445441246032715e+00,1.346352458000183105e+00,1.346259474754333496e+00,1.346166491508483887e+00,1.346073508262634277e+00,1.345980525016784668e+00,1.345887660980224609e+00,1.345794677734375000e+00,1.345701813697814941e+00,1.345608949661254883e+00,1.345516085624694824e+00,1.345423102378845215e+00,1.345330357551574707e+00,1.345237493515014648e+00,1.345144629478454590e+00,1.345051765441894531e+00,1.344959020614624023e+00,1.344866156578063965e+00,1.344773411750793457e+00,1.344680666923522949e+00,1.344587922096252441e+00,1.344495058059692383e+00,1.344402432441711426e+00,1.344309687614440918e+00,1.344216942787170410e+00,1.344124317169189453e+00,1.344031691551208496e+00,1.343938946723937988e+00,1.343846201896667480e+00,1.343753695487976074e+00,1.343661069869995117e+00,1.343568325042724609e+00,1.343475818634033203e+00,1.343383193016052246e+00,1.343290567398071289e+00,1.343198180198669434e+00,1.343105554580688477e+00,1.343012928962707520e+00,1.342920422554016113e+00,1.342828035354614258e+00,1.342735409736633301e+00,1.342642903327941895e+00,1.342550516128540039e+00,1.342458009719848633e+00,1.342365503311157227e+00,1.259898662567138672e+00,1.233051538467407227e+00,1.218069434165954590e+00,1.204118609428405762e+00,1.215763330459594727e+00,1.341811180114746094e+00
1.248811244964599609e+00,1.248731374740600586e+00,1.248651266098022461e+00,1.248571276664733887e+00,1.248491287231445312e+00,1.248411417007446289e+00,1.248331427574157715e+00,1.248251438140869141e+00,1.248171567916870117e+00,1.248091697692871094e+00,1.248011708259582520e+00,1.247931838035583496e+00,1.247851967811584473e+00,1.247772097587585449e+00,1.247692108154296875e+00,1.247612357139587402e+00,1.247532486915588379e+00,1.247452616691589355e+00,1.247372865676879883e+00,1.247292995452880859e+00,1.247213125228881836e+00,1.247133493423461914e+00,1.247053623199462891e+00,1.246973872184753418e+00,1.246894001960754395e+00,1.246814370155334473e+00,1.246734619140625000e+00,1.246654748916625977e+00,1.246575117111206055e+00,1.246495366096496582e+00,1.246415615081787109e+00,1.246335983276367188e+00,1.246256351470947266e+00,1.246176600456237793e+00,1.246096968650817871e+00,1.246017336845397949e+00,1.245937705039978027e+00,1.245857954025268555e+00,1.245778441429138184e+00,1.245698809623718262e+00,1.245619177818298340e+00,1.245539665222167969e+00,1.245460033416748047e+00,1.245380401611328125e+00,1.245300889015197754e+00,1.245221376419067383e+00,1.245141744613647461e+00,1.245062232017517090e+00,1.244982719421386719e+00,1.244903206825256348e+00,1.244823694229125977e+00,1.244744300842285156e+00,1.244664788246154785e+00,1.244585275650024414e+00,1.244505882263183594e+00,1.244426369667053223e+00,1.244346976280212402e+00,1.244267463684082031e+00,1.244188070297241211e+00,1.244108676910400391e+00,1.244029283523559570e+00,1.243949890136718750e+00,1.243870496749877930e+00,1.243791103363037109e+00,1.243711829185485840e+00,1.243632435798645020e+00,1.243553042411804199e+00,1.243473768234252930e+00,1.243394494056701660e+00,1.243315100669860840e+00,1.243235826492309570e+00,1.243156552314758301e+00,1.243077278137207031e+00,1.242998003959655762e+00,1.242918848991394043e+00,1.242839574813842773e+00,1.242760300636291504e+00,1.202327847480773926e+00,1.186586856842041016e+00,1.187048435211181641e+00
1.162365674972534180e+00,1.162296414375305176e+00,1.162227034568786621e+00,1.162157773971557617e+00,1.162088513374328613e+00,1.162019252777099609e+00,1.161949992179870605e+00,1.161880612373352051e+00,1.161811470985412598e+00,1.161742210388183594e+00,1.161672949790954590e+00,1.161603808403015137e+00,1.161534547805786133e+00,1.161465287208557129e+00,1.161396026611328125e+00,1.161326885223388672e+00,1.161257743835449219e+00,1.161188483238220215e+00,1.161119461059570312e+00,1.161050200462341309e+00,1.160981059074401855e+00,1.160911917686462402e+00,1.160842776298522949e+00,1.160773634910583496e+00,1.160704493522644043e+00,1.160635471343994141e+00,1.160566329956054688e+00,1.160497188568115234e+00,1.160428166389465332e+00,1.160359025001525879e+00,1.160290002822875977e+00,1.160220980644226074e+00,1.160151839256286621e+00,1.160082817077636719e+00,1.160013794898986816e+00,1.159944772720336914e+00,1.159875750541687012e+00,1.159806728363037109e+00,1.159737706184387207e+00,1.159668684005737305e+00,1.159599661827087402e+00,1.159530758857727051e+00,1.159461736679077148e+00,1.159392833709716797e+00,1.159323811531066895e+00,1.159254908561706543e+00,1.159186005592346191e+00,1.159116983413696289e+00,1.159048080444335938e+00,1.158979177474975586e+00,1.158910274505615234e+00,1.158841371536254883e+00,1.158772468566894531e+00,1.158703565597534180e+00,1.158634781837463379e+00,1.158565878868103027e+00,1.158496975898742676e+00,1.158428072929382324e+00,1.158359408378601074e+00,1.158290505409240723e+00,1.158221602439880371e+00,1.158152937889099121e+00,1.158084034919738770e+00,1.158015251159667969e+00,1.157946467399597168e+00,1.157877683639526367e+00,1.157808899879455566e+00,1.157740116119384766e+00,1.157671451568603516e+00,1.157602667808532715e+00,1.157533884048461914e+00,1.157465219497680664e+00,1.157396435737609863e+00,1.157327651977539062e+00,1.157259106636047363e+00,1.157190322875976562e+00,1.157121658325195312e+00,1.157052874565124512e+00,1.156984329223632812e+00,1.156915545463562012e+00
1.087113142013549805e+00,1.087052583694458008e+00,1.086991906166076660e+00,1.086931347846984863e+00,1.086870670318603516e+00,1.086810111999511719e+00,1.086749553680419922e+00,1.086688876152038574e+00,1.086628317832946777e+00,1.086567759513854980e+00,1.086507201194763184e+00,1.086446642875671387e+00,1.086386084556579590e+00,1.086325526237487793e+00,1.086264967918395996e+00,1.086204528808593750e+00,1.086143970489501953e+00,1.086083412170410156e+00,1.086022973060607910e+00,1.085962414741516113e+00,1.085901975631713867e+00,1.085841536521911621e+00,1.085780978202819824e+00,1.085720419883728027e+00,1.085659980773925781e+00,1.085599541664123535e+00,1.085539102554321289e+00,1.085478663444519043e+00,1.085418224334716797e+00,1.085357785224914551e+00,1.085297346115112305e+00,1.085236907005310059e+00,1.085176467895507812e+00,1.085116147994995117e+00,1.085055708885192871e+00,1.084995269775390625e+00,1.084934949874877930e+00,1.084874510765075684e+00,1.084814190864562988e+00,1.084753751754760742e+00,1.084693431854248047e+00,1.084633111953735352e+00,1.084572672843933105e+00,1.084512352943420410e+00,1.084452033042907715e+00,1.084391713142395020e+00,1.084331393241882324e+00,1.084271073341369629e+00,1.084210753440856934e+00,1.084150433540344238e+00,1.084090113639831543e+00,1.084029912948608398e+00,1.083969593048095703e+00,1.083909273147583008e+00,1.083849072456359863e+00,1.083788752555847168e+00,1.083728551864624023e+00,1.083668231964111328e+00,1.083608031272888184e+00,1.083547830581665039e+00,1.083487510681152344e+00,1.083427429199218750e+00,1.083367109298706055e+00,1.083306908607482910e+00,1.083246707916259766e+00,1.083186507225036621e+00,1.083126306533813477e+00,1.083066105842590332e+00,1.083006024360656738e+00,1.082945823669433594e+00,1.082885622978210449e+00,1.082825541496276855e+00,1.082765340805053711e+00,1.082705140113830566e+00,1.082645058631896973e+00,1.082584977149963379e+00,1.082524776458740234e+00,1.082464694976806641e+00,1.082404613494873047e+00,1.082344532012939453e+00
1.021011948585510254e+00,1.020958542823791504e+00,1.020905017852783203e+00,1.020851612091064453e+00,1.020798087120056152e+00,1.020744681358337402e+00,1.020691275596618652e+00,1.020637750625610352e+00,1.020584344863891602e+00,1.020530939102172852e+00,1.020477414131164551e+00,1.020424127578735352e+00,1.020370602607727051e+00,1.020317196846008301e+00,1.020263791084289551e+00,1.020210504531860352e+00,1.020157098770141602e+00,1.020103693008422852e+00,1.020050287246704102e+00,1.019996881484985352e+00,1.019943475723266602e+00,1.019890189170837402e+00,1.019836783409118652e+00,1.019783496856689453e+00,1.019730091094970703e+00,1.019676804542541504e+00,1.019623398780822754e+00,1.019570112228393555e+00,1.019516825675964355e+00,1.019463419914245605e+00,1.019410133361816406e+00,1.019356846809387207e+00,1.019303560256958008e+00,1.019250154495239258e+00,1.019196867942810059e+00,1.019143700599670410e+00,1.019090414047241211e+00,1.019037008285522461e+00,1.018983840942382812e+00,1.018930554389953613e+00,1.018877267837524414e+00,1.018824100494384766e+00,1.018770813941955566e+00,1.018717527389526367e+00,1.018664240837097168e+00,1.018611073493957520e+00,1.018557786941528320e+00,1.018504619598388672e+00,1.018451452255249023e+00,1.018398165702819824e+00,1.018344998359680176e+00,1.018291831016540527e+00,1.018238663673400879e+00,1.018185377120971680e+00,1.018132328987121582e+00,1.018079042434692383e+00,1.018025875091552734e+00,1.017972707748413086e+00,1.017919540405273438e+00,1.017866373062133789e+00,1.017813205718994141e+00,1.017760157585144043e+00,1.017706990242004395e+00,1.017653822898864746e+00,1.017600774765014648e+00,1.017547607421875000e+00,1.017494440078735352e+00,1.017441391944885254e+00,1.017388343811035156e+00,1.017335176467895508e+00,1.017282128334045410e+00,1.017229080200195312e+00,1.017175912857055664e+00,1.017122864723205566e+00,1.017069816589355469e+00,1.017016768455505371e+00,1.016963601112365723e+00,1.016910552978515625e+00,1.016857624053955078e+00,1.016804456710815430e+00
9.624886512756347656e-01,9.624411463737487793e-01,9.623935222625732422e-01,9.623460769653320312e-01,9.622984528541564941e-01,9.622510075569152832e-01,9.622035622596740723e-01,9.621559977531433105e-01,9.621085524559020996e-01,9.620611071586608887e-01,9.620135426521301270e-01,9.619660973548889160e-01,9.619186520576477051e-01,9.618711471557617188e-01,9.618237018585205078e-01,9.617763161659240723e-01,9.617287516593933105e-01,9.616813659667968750e-01,9.616339802742004395e-01,9.615864753723144531e-01,9.615390896797180176e-01,9.614917039871215820e-01,9.614441990852355957e-01,9.613968133926391602e-01,9.613493084907531738e-01,9.613019227981567383e-01,9.612545967102050781e-01,9.612070918083190918e-01,9.611597657203674316e-01,9.611123800277709961e-01,9.610649347305297852e-01,9.610176086425781250e-01,9.609702229499816895e-01,9.609228372573852539e-01,9.608754515647888184e-01,9.608281254768371582e-01,9.607807397842407227e-01,9.607334136962890625e-01,9.606860876083374023e-01,9.606387019157409668e-01,9.605913758277893066e-01,9.605441093444824219e-01,9.604966640472412109e-01,9.604493975639343262e-01,9.604020118713378906e-01,9.603547453880310059e-01,9.603074193000793457e-01,9.602600932121276855e-01,9.602128267288208008e-01,9.601655602455139160e-01,9.601181745529174805e-01,9.600709080696105957e-01,9.600237011909484863e-01,9.599763154983520508e-01,9.599291086196899414e-01,9.598818421363830566e-01,9.598345160484313965e-01,9.597873091697692871e-01,9.597401022911071777e-01,9.596927762031555176e-01,9.596455693244934082e-01,9.595983624458312988e-01,9.595510363578796387e-01,9.595038294792175293e-01,9.594566226005554199e-01,9.594093561172485352e-01,9.593621492385864258e-01,9.593148827552795410e-01,9.592677354812622070e-01,9.592205286026000977e-01,9.591732621192932129e-01,9.591261148452758789e-01,9.590789675712585449e-01,9.590317010879516602e-01,9.589845538139343262e-01,9.589374065399169922e-01,9.588901996612548828e-01,9.588430523872375488e-01,9.587959051132202148e-01,9.587486982345581055e-01
9.103104472160339355e-01,9.102679491043090820e-01,9.102254509925842285e-01,9.101828932762145996e-01,9.101404547691345215e-01,9.100980162620544434e-01,9.100554585456848145e-01,9.100129604339599609e-01,9.099705219268798828e-01,9.099280238151550293e-01,9.098855853080749512e-01,9.098431468009948730e-01,9.098005890846252441e-01,9.097581505775451660e-01,9.097156524658203125e-01,9.096732139587402344e-01,9.096307754516601562e-01,9.095882773399353027e-01,9.095458984375000000e-01,9.095034599304199219e-01,9.094609618186950684e-01,9.094185829162597656e-01,9.093762040138244629e-01,9.093337059020996094e-01,9.092913269996643066e-01,9.092489480972290039e-01,9.092064499855041504e-01,9.091640710830688477e-01,9.091217517852783203e-01,9.090792536735534668e-01,9.090368747711181641e-01,9.089945554733276367e-01,9.089521169662475586e-01,9.089097380638122559e-01,9.088672995567321777e-01,9.088249802589416504e-01,9.087826013565063477e-01,9.087402224540710449e-01,9.086978435516357422e-01,9.086555242538452148e-01,9.086131453514099121e-01,9.085708260536193848e-01,9.085285067558288574e-01,9.084860682487487793e-01,9.084438085556030273e-01,9.084014892578125000e-01,9.083591103553771973e-01,9.083167910575866699e-01,9.082745313644409180e-01,9.082320928573608398e-01,9.081898331642150879e-01,9.081475734710693359e-01,9.081051945686340332e-01,9.080629348754882812e-01,9.080206751823425293e-01,9.079782962799072266e-01,9.079360365867614746e-01,9.078937172889709473e-01,9.078514575958251953e-01,9.078091979026794434e-01,9.077668190002441406e-01,9.077246189117431641e-01,9.076823592185974121e-01,9.076400399208068848e-01,9.075978398323059082e-01,9.075555801391601562e-01,9.075132608413696289e-01,9.074710607528686523e-01,9.074288606643676758e-01,9.073865413665771484e-01,9.073443412780761719e-01,9.073021411895751953e-01,9.072598814964294434e-01,9.072176814079284668e-01,9.071754813194274902e-01,9.071332216262817383e-01,9.070910215377807617e-01,9.070487618446350098e-01,9.070065617561340332e-01,9.069644212722778320e-01
8.634987473487854004e-01,8.634605407714843750e-01,8.634222149848937988e-01,8.633840084075927734e-01,8.633457422256469727e-01,8.633075356483459473e-01,8.632693290710449219e-01,8.632310032844543457e-01,8.631927967071533203e-01,8.631546497344970703e-01,8.631163835525512695e-01,8.630781769752502441e-01,8.630399703979492188e-01,8.630017042160034180e-01,8.629635572433471680e-01,8.629253506660461426e-01,8.628870844841003418e-01,8.628489375114440918e-01,8.628107905387878418e-01,8.627725243568420410e-01,8.627343773841857910e-01,8.626962304115295410e-01,8.626580238342285156e-01,8.626198768615722656e-01,8.625816106796264648e-01,8.625434637069702148e-01,8.625053167343139648e-01,8.624671101570129395e-01,8.624290227890014648e-01,8.623908758163452148e-01,8.623526692390441895e-01,8.623145222663879395e-01,8.622764348983764648e-01,8.622382283210754395e-01,8.622001409530639648e-01,8.621619939804077148e-01,8.621238470077514648e-01,8.620857596397399902e-01,8.620476126670837402e-01,8.620094656944274902e-01,8.619713783264160156e-01,8.619332909584045410e-01,8.618951439857482910e-01,8.618570566177368164e-01,8.618188500404357910e-01,8.617808222770690918e-01,8.617427349090576172e-01,8.617045879364013672e-01,8.616665005683898926e-01,8.616284728050231934e-01,8.615903258323669434e-01,8.615522980690002441e-01,8.615142107009887695e-01,8.614760637283325195e-01,8.614380359649658203e-01,8.614000082015991211e-01,8.613619208335876465e-01,8.613238334655761719e-01,8.612858057022094727e-01,8.612477183341979980e-01,8.612096905708312988e-01,8.611716628074645996e-01,8.611335754394531250e-01,8.610955476760864258e-01,8.610575795173645020e-01,8.610194921493530273e-01,8.609814643859863281e-01,8.609433770179748535e-01,8.609054088592529297e-01,8.608673810958862305e-01,8.608293533325195312e-01,8.607913255691528320e-01,8.607533574104309082e-01,8.607153296470642090e-01,8.606773018836975098e-01,8.606393337249755859e-01,8.606013059616088867e-01,8.605633378028869629e-01,8.605253696441650391e-01,8.604873418807983398e-01
