5.000000000000000000e+00,5.000000000000000000e+00,5.000000000000000000e+00,5.000000000000000000e+00,5.000000000000000000e+00,5.000000000000000000e+00,5.000000000000000000e+00,5.000000000000000000e+00,5.000000000000000000e+00,5.000000000000000000e+00,5.000000000000000000e+00,5.000000000000000000e+00,5.000000000000000000e+00,5.000000000000000000e+00,5.000000000000000000e+00,5.000000000000000000e+00,5.000000000000000000e+00,5.000000000000000000e+00,5.000000000000000000e+00,5.000000000000000000e+00,5.000000000000000000e+00,5.000000000000000000e+00,5.000000000000000000e+00,5.000000000000000000e+00,5.000000000000000000e+00,5.000000000000000000e+00,5.000000000000000000e+00,5.000000000000000000e+00,5.000000000000000000e+00,5.000000000000000000e+00,5.000000000000000000e+00,5.000000000000000000e+00,5.000000000000000000e+00,5.000000000000000000e+00,5.000000000000000000e+00,5.000000000000000000e+00,5.000000000000000000e+00,5.000000000000000000e+00,5.000000000000000000e+00,5.000000000000000000e+00,4.875452518463134766e+00,4.682047367095947266e+00,4.503400802612304688e+00,4.337886333465576172e+00,4.184106826782226562e+00,4.040856838226318359e+00,1.144906878471374512e+00,1.104041218757629395e+00,1.319852828979492188e+00,1.317098140716552734e+00,1.314915657043457031e+00,1.312740206718444824e+00,1.323827505111694336e+00,1.361648440361022949e+00,1.353555560111999512e+00,1.308740973472595215e+00,1.279099583625793457e+00,1.254845142364501953e+00,1.231394410133361816e+00,1.218042135238647461e+00,1.214077949523925781e+00,1.210139393806457520e+00,1.206226468086242676e+00,2.500128984451293945e+00,2.448268413543701172e+00,2.398514986038208008e+00,2.350743770599365234e+00,2.304838418960571289e+00,2.260691642761230469e+00,2.218204259872436523e+00,2.177284240722656250e+00,2.137846946716308594e+00,2.099812507629394531e+00,2.063107967376708984e+00,2.027664661407470703e+00,1.993418574333190918e+00,1.960309982299804688e+00,1.928283214569091797e+00,1.897286057472229004e+00,1.867269754409790039e+00
5.000000000000000000e+00,5.000000000000000000e+00,5.000000000000000000e+00,5.000000000000000000e+00,5.000000000000000000e+00,5.000000000000000000e+00,5.000000000000000000e+00,5.000000000000000000e+00,5.000000000000000000e+00,5.000000000000000000e+00,5.000000000000000000e+00,5.000000000000000000e+00,5.000000000000000000e+00,5.000000000000000000e+00,5.000000000000000000e+00,5.000000000000000000e+00,5.000000000000000000e+00,5.000000000000000000e+00,5.000000000000000000e+00,5.000000000000000000e+00,5.000000000000000000e+00,5.000000000000000000e+00,5.000000000000000000e+00,5.000000000000000000e+00,5.000000000000000000e+00,5.000000000000000000e+00,5.000000000000000000e+00,5.000000000000000000e+00,5.000000000000000000e+00,5.000000000000000000e+00,5.000000000000000000e+00,5.000000000000000000e+00,5.000000000000000000e+00,5.000000000000000000e+00,5.000000000000000000e+00,5.000000000000000000e+00,5.000000000000000000e+00,5.000000000000000000e+00,5.000000000000000000e+00,5.000000000000000000e+00,4.875595569610595703e+00,4.682178974151611328e+00,4.503522872924804688e+00,4.337999820709228516e+00,4.184212207794189453e+00,4.040955066680908203e+00,1.392636537551879883e+00,1.353153586387634277e+00,1.326603412628173828e+00,1.323219418525695801e+00,1.321008324623107910e+00,1.318812727928161621e+00,1.335304617881774902e+00,3.172114133834838867e+00,1.361060380935668945e+00,1.315789818763732910e+00,1.278886318206787109e+00,1.254620313644409180e+00,1.230371236801147461e+00,1.209309458732604980e+00,1.205236792564392090e+00,1.201625108718872070e+00,1.197766780853271484e+00,1.229241490364074707e+00,2.448304176330566406e+00,2.398549556732177734e+00,2.350777149200439453e+00,2.304870367050170898e+00,2.260722398757934570e+00,2.218233823776245117e+00,2.177312850952148438e+00,2.137874364852905273e+00,2.099839210510253906e+00,2.063133716583251953e+00,2.027689456939697266e+00,1.993442535400390625e+00,1.960333108901977539e+00,1.928305625915527344e+00,1.897307753562927246e+00,1.867290735244750977e+00
5.000000000000000000e+00,5.000000000000000000e+00,5.000000000000000000e+00,5.000000000000000000e+00,5.000000000000000000e+00,5.000000000000000000e+00,5.000000000000000000e+00,5.000000000000000000e+00,5.000000000000000000e+00,5.000000000000000000e+00,5.000000000000000000e+00,5.000000000000000000e+00,5.000000000000000000e+00,5.000000000000000000e+00,5.000000000000000000e+00,5.000000000000000000e+00,5.000000000000000000e+00,5.000000000000000000e+00,5.000000000000000000e+00,5.000000000000000000e+00,5.000000000000000000e+00,5.000000000000000000e+00,5.000000000000000000e+00,5.000000000000000000e+00,5.000000000000000000e+00,5.000000000000000000e+00,5.000000000000000000e+00,5.000000000000000000e+00,5.000000000000000000e+00,5.000000000000000000e+00,5.000000000000000000e+00,5.000000000000000000e+00,5.000000000000000000e+00,5.000000000000000000e+00,5.000000000000000000e+00,5.000000000000000000e+00,5.000000000000000000e+00,5.000000000000000000e+00,5.000000000000000000e+00,5.000000000000000000e+00,4.875739097595214844e+00,4.682311058044433594e+00,4.503645420074462891e+00,4.338112831115722656e+00,4.184317588806152344e+00,4.041053771972656250e+00,1.404637455940246582e+00,1.362454175949096680e+00,1.333423376083374023e+00,1.330004572868347168e+00,1.327157735824584961e+00,1.324941635131835938e+00,1.346982598304748535e+00,3.172174692153930664e+00,3.089148998260498047e+00,1.324831604957580566e+00,1.280106425285339355e+00,1.253520250320434570e+00,1.228606224060058594e+00,1.207772731781005859e+00,1.192644834518432617e+00,1.191414356231689453e+00,1.189424991607666016e+00,1.185644626617431641e+00,2.448340177536010742e+00,2.398584127426147461e+00,2.350810289382934570e+00,2.304902315139770508e+00,2.260753154754638672e+00,2.218263387680053711e+00,2.177341461181640625e+00,2.137902021408081055e+00,2.099865674972534180e+00,2.063159227371215820e+00,2.027714014053344727e+00,1.993466377258300781e+00,1.960356235504150391e+00,1.928327918052673340e+00,1.897329449653625488e+00,1.867311716079711914e+00
5.000000000000000000e+00,5.000000000000000000e+00,5.000000000000000000e+00,5.000000000000000000e+00,5.000000000000000000e+00,5.000000000000000000e+00,5.000000000000000000e+00,5.000000000000000000e+00,5.000000000000000000e+00,5.000000000000000000e+00,5.000000000000000000e+00,5.000000000000000000e+00,5.000000000000000000e+00,5.000000000000000000e+00,5.000000000000000000e+00,5.000000000000000000e+00,5.000000000000000000e+00,5.000000000000000000e+00,5.000000000000000000e+00,5.000000000000000000e+00,5.000000000000000000e+00,5.000000000000000000e+00,5.000000000000000000e+00,5.000000000000000000e+00,5.000000000000000000e+00,5.000000000000000000e+00,5.000000000000000000e+00,5.000000000000000000e+00,5.000000000000000000e+00,5.000000000000000000e+00,5.000000000000000000e+00,5.000000000000000000e+00,5.000000000000000000e+00,5.000000000000000000e+00,5.000000000000000000e+00,5.000000000000000000e+00,5.000000000000000000e+00,5.000000000000000000e+00,5.000000000000000000e+00,5.000000000000000000e+00,4.875882148742675781e+00,4.682443141937255859e+00,4.503767490386962891e+00,4.338226318359375000e+00,4.184422969818115234e+00,4.041152000427246094e+00,1.415896654129028320e+00,1.371344327926635742e+00,1.340313792228698730e+00,1.336859703063964844e+00,1.333423256874084473e+00,1.331127762794494629e+00,1.357445955276489258e+00,3.172235250473022461e+00,3.089206457138061523e+00,1.337178230285644531e+00,1.290856003761291504e+00,1.251688122749328613e+00,1.226846218109130859e+00,1.206239938735961914e+00,1.188470244407653809e+00,1.179108142852783203e+00,1.177905440330505371e+00,1.176705121994018555e+00,2.448376417160034180e+00,2.398618936538696289e+00,2.350843667984008789e+00,2.304934501647949219e+00,2.260783910751342773e+00,2.218293190002441406e+00,2.177370071411132812e+00,2.137929439544677734e+00,2.099892377853393555e+00,2.063184976577758789e+00,2.027738809585571289e+00,1.993490338325500488e+00,1.960379362106323242e+00,1.928350329399108887e+00,1.897351026535034180e+00,1.867332696914672852e+00
5.000000000000000000e+00,5.000000000000000000e+00,5.000000000000000000e+00,5.000000000000000000e+00,5.000000000000000000e+00,5.000000000000000000e+00,5.000000000000000000e+00,5.000000000000000000e+00,5.000000000000000000e+00,5.000000000000000000e+00,5.000000000000000000e+00,5.000000000000000000e+00,5.000000000000000000e+00,5.000000000000000000e+00,5.000000000000000000e+00,5.000000000000000000e+00,5.000000000000000000e+00,5.000000000000000000e+00,5.000000000000000000e+00,5.000000000000000000e+00,5.000000000000000000e+00,5.000000000000000000e+00,5.000000000000000000e+00,5.000000000000000000e+00,5.000000000000000000e+00,5.000000000000000000e+00,5.000000000000000000e+00,5.000000000000000000e+00,5.000000000000000000e+00,5.000000000000000000e+00,5.000000000000000000e+00,5.000000000000000000e+00,5.000000000000000000e+00,5.000000000000000000e+00,5.000000000000000000e+00,5.000000000000000000e+00,5.000000000000000000e+00,5.000000000000000000e+00,5.000000000000000000e+00,5.000000000000000000e+00,4.876025199890136719e+00,4.682575702667236328e+00,4.503889560699462891e+00,4.338339805603027344e+00,4.184528350830078125e+00,4.041250228881835938e+00,1.426785111427307129e+00,1.380309104919433594e+00,1.347275853157043457e+00,1.343785881996154785e+00,1.340313792228698730e+00,1.337371945381164551e+00,1.366545438766479492e+00,3.172296047210693359e+00,3.089263916015625000e+00,3.010467529296875000e+00,1.301705241203308105e+00,1.254843831062316895e+00,1.225091218948364258e+00,1.204711079597473145e+00,1.186986088752746582e+00,1.169775128364562988e+00,1.165901780128479004e+00,1.165716648101806641e+00,1.165531635284423828e+00,2.398653507232666016e+00,2.350877046585083008e+00,2.304966449737548828e+00,2.260814666748046875e+00,2.218322753906250000e+00,2.177398681640625000e+00,2.137957096099853516e+00,2.099918842315673828e+00,2.063210487365722656e+00,2.027763605117797852e+00,1.993514299392700195e+00,1.960402488708496094e+00,1.928372740745544434e+00,1.897372722625732422e+00,1.867353677749633789e+00
5.000000000000000000e+00,5.000000000000000000e+00,5.000000000000000000e+00,5.000000000000000000e+00,5.000000000000000000e+00,5.000000000000000000e+00,5.000000000000000000e+00,5.000000000000000000e+00,5.000000000000000000e+00,5.000000000000000000e+00,5.000000000000000000e+00,5.000000000000000000e+00,5.000000000000000000e+00,5.000000000000000000e+00,5.000000000000000000e+00,5.000000000000000000e+00,5.000000000000000000e+00,5.000000000000000000e+00,5.000000000000000000e+00,5.000000000000000000e+00,5.000000000000000000e+00,5.000000000000000000e+00,5.000000000000000000e+00,5.000000000000000000e+00,5.000000000000000000e+00,5.000000000000000000e+00,5.000000000000000000e+00,5.000000000000000000e+00,5.000000000000000000e+00,5.000000000000000000e+00,5.000000000000000000e+00,5.000000000000000000e+00,5.000000000000000000e+00,5.000000000000000000e+00,5.000000000000000000e+00,5.000000000000000000e+00,5.000000000000000000e+00,5.000000000000000000e+00,5.000000000000000000e+00,5.000000000000000000e+00,4.876168251037597656e+00,4.682707309722900391e+00,4.504011631011962891e+00,4.338452816009521484e+00,4.184633731842041016e+00,4.041348934173583984e+00,1.439323067665100098e+00,1.390098571777343750e+00,1.355622887611389160e+00,1.349602460861206055e+00,1.346466898918151855e+00,1.344513058662414551e+00,1.375768065452575684e+00,3.172356605529785156e+00,3.089321374893188477e+00,3.010521888732910156e+00,2.935642480850219727e+00,1.265104770660400391e+00,1.223341226577758789e+00,1.203186035156250000e+00,1.185318946838378906e+00,1.168385863304138184e+00,1.157579421997070312e+00,1.157954096794128418e+00,1.158328890800476074e+00,2.398688077926635742e+00,2.350910186767578125e+00,2.304998397827148438e+00,2.260845661163330078e+00,2.218352556228637695e+00,2.177427053451538086e+00,2.137984514236450195e+00,2.099945306777954102e+00,2.063236236572265625e+00,2.027788400650024414e+00,1.993538260459899902e+00,1.960425615310668945e+00,1.928395152091979980e+00,1.897394418716430664e+00,1.867374658584594727e+00
5.000000000000000000e+00,5.000000000000000000e+00,5.000000000000000000e+00,5.000000000000000000e+00,5.000000000000000000e+00,5.000000000000000000e+00,5.000000000000000000e+00,5.000000000000000000e+00,5.000000000000000000e+00,5.000000000000000000e+00,5.000000000000000000e+00,5.000000000000000000e+00,5.000000000000000000e+00,5.000000000000000000e+00,5.000000000000000000e+00,5.000000000000000000e+00,5.000000000000000000e+00,5.000000000000000000e+00,5.000000000000000000e+00,5.000000000000000000e+00,5.000000000000000000e+00,5.000000000000000000e+00,5.000000000000000000e+00,5.000000000000000000e+00,5.000000000000000000e+00,5.000000000000000000e+00,5.000000000000000000e+00,5.000000000000000000e+00,5.000000000000000000e+00,5.000000000000000000e+00,5.000000000000000000e+00,5.000000000000000000e+00,5.000000000000000000e+00,5.000000000000000000e+00,5.000000000000000000e+00,5.000000000000000000e+00,5.000000000000000000e+00,5.000000000000000000e+00,5.000000000000000000e+00,5.000000000000000000e+00,4.876311779022216797e+00,4.682839393615722656e+00,4.504133701324462891e+00,4.338566303253173828e+00,4.184739589691162109e+00,4.041447162628173828e+00,1.451043367385864258e+00,1.400391340255737305e+00,1.364950299263000488e+00,1.354306817054748535e+00,1.351149320602416992e+00,1.353961706161499023e+00,1.385659098625183105e+00,3.172417163848876953e+00,3.089378833770751953e+00,3.010576486587524414e+00,2.935694456100463867e+00,1.288437008857727051e+00,1.235648512840270996e+00,1.200941920280456543e+00,1.183493614196777344e+00,1.167746543884277344e+00,1.153616547584533691e+00,1.154506087303161621e+00,1.156131625175476074e+00,2.398722887039184570e+00,2.350943565368652344e+00,2.305030345916748047e+00,2.260876417160034180e+00,2.218382120132446289e+00,2.177455663681030273e+00,2.138011932373046875e+00,2.099972009658813477e+00,2.063261747360229492e+00,2.027813196182250977e+00,1.993562102317810059e+00,1.960448741912841797e+00,1.928417444229125977e+00,1.897416114807128906e+00,1.867395639419555664e+00
5.000000000000000000e+00,5.000000000000000000e+00,5.000000000000000000e+00,5.000000000000000000e+00,5.000000000000000000e+00,5.000000000000000000e+00,5.000000000000000000e+00,5.000000000000000000e+00,5.000000000000000000e+00,5.000000000000000000e+00,5.000000000000000000e+00,5.000000000000000000e+00,5.000000000000000000e+00,5.000000000000000000e+00,5.000000000000000000e+00,5.000000000000000000e+00,5.000000000000000000e+00,5.000000000000000000e+00,5.000000000000000000e+00,5.000000000000000000e+00,5.000000000000000000e+00,5.000000000000000000e+00,5.000000000000000000e+00,5.000000000000000000e+00,5.000000000000000000e+00,5.000000000000000000e+00,5.000000000000000000e+00,5.000000000000000000e+00,5.000000000000000000e+00,5.000000000000000000e+00,5.000000000000000000e+00,5.000000000000000000e+00,5.000000000000000000e+00,5.000000000000000000e+00,5.000000000000000000e+00,5.000000000000000000e+00,5.000000000000000000e+00,5.000000000000000000e+00,5.000000000000000000e+00,5.000000000000000000e+00,4.876454830169677734e+00,4.682971477508544922e+00,4.504256248474121094e+00,4.338679790496826172e+00,4.184844970703125000e+00,4.041545391082763672e+00,1.460811734199523926e+00,1.410837411880493164e+00,1.374407291412353516e+00,1.359364151954650879e+00,1.355864405632019043e+00,1.363544106483459473e+00,1.392324447631835938e+00,3.172477722167968750e+00,3.089436292648315430e+00,3.010631084442138672e+00,2.935746431350708008e+00,2.864496231079101562e+00,1.257897257804870605e+00,1.200613498687744141e+00,1.185511708259582520e+00,1.169822931289672852e+00,1.155401110649108887e+00,1.156456112861633301e+00,1.157520890235900879e+00,2.398757457733154297e+00,2.350976705551147461e+00,2.305062294006347656e+00,2.260907173156738281e+00,2.218411684036254883e+00,2.177484273910522461e+00,2.138039588928222656e+00,2.099998474121093750e+00,2.063287496566772461e+00,2.027837753295898438e+00,1.993586063385009766e+00,1.960471987724304199e+00,1.928439855575561523e+00,1.897437810897827148e+00,1.867416620254516602e+00
5.000000000000000000e+00,5.000000000000000000e+00,5.000000000000000000e+00,5.000000000000000000e+00,5.000000000000000000e+00,5.000000000000000000e+00,5.000000000000000000e+00,5.000000000000000000e+00,5.000000000000000000e+00,5.000000000000000000e+00,5.000000000000000000e+00,5.000000000000000000e+00,5.000000000000000000e+00,5.000000000000000000e+00,5.000000000000000000e+00,5.000000000000000000e+00,5.000000000000000000e+00,5.000000000000000000e+00,5.000000000000000000e+00,5.000000000000000000e+00,5.000000000000000000e+00,5.000000000000000000e+00,5.000000000000000000e+00,5.000000000000000000e+00,5.000000000000000000e+00,5.000000000000000000e+00,5.000000000000000000e+00,5.000000000000000000e+00,5.000000000000000000e+00,5.000000000000000000e+00,5.000000000000000000e+00,5.000000000000000000e+00,5.000000000000000000e+00,5.000000000000000000e+00,5.000000000000000000e+00,5.000000000000000000e+00,5.000000000000000000e+00,5.000000000000000000e+00,5.000000000000000000e+00,5.000000000000000000e+00,4.876597881317138672e+00,4.683103561401367188e+00,4.504378318786621094e+00,4.338793277740478516e+00,4.184950351715087891e+00,4.041643619537353516e+00,3.907827138900756836e+00,1.423426270484924316e+00,1.383995890617370605e+00,1.366878151893615723e+00,1.360612630844116211e+00,1.373263120651245117e+00,1.398692131042480469e+00,3.172538518905639648e+00,3.089493751525878906e+00,3.010685682296752930e+00,2.935798168182373047e+00,2.864545822143554688e+00,2.796669721603393555e+00,1.203836560249328613e+00,1.188729047775268555e+00,1.173995852470397949e+00,1.161222457885742188e+00,1.160711765289306641e+00,1.161784410476684570e+00,2.398792028427124023e+00,2.351010084152221680e+00,2.305094480514526367e+00,2.260937929153442383e+00,2.218441247940063477e+00,2.177512645721435547e+00,2.138067007064819336e+00,2.100024938583374023e+00,2.063313007354736328e+00,2.027862548828125000e+00,1.993610024452209473e+00,1.960495114326477051e+00,1.928462266921997070e+00,1.897459387779235840e+00,1.867437720298767090e+00
5.000000000000000000e+00,5.000000000000000000e+00,5.000000000000000000e+00,5.000000000000000000e+00,5.000000000000000000e+00,5.000000000000000000e+00,5.000000000000000000e+00,5.000000000000000000e+00,5.000000000000000000e+00,5.000000000000000000e+00,5.000000000000000000e+00,5.000000000000000000e+00,5.000000000000000000e+00,5.000000000000000000e+00,5.000000000000000000e+00,5.000000000000000000e+00,5.000000000000000000e+00,5.000000000000000000e+00,5.000000000000000000e+00,5.000000000000000000e+00,5.000000000000000000e+00,5.000000000000000000e+00,5.000000000000000000e+00,5.000000000000000000e+00,5.000000000000000000e+00,5.000000000000000000e+00,5.000000000000000000e+00,5.000000000000000000e+00,5.000000000000000000e+00,5.000000000000000000e+00,5.000000000000000000e+00,5.000000000000000000e+00,5.000000000000000000e+00,5.000000000000000000e+00,5.000000000000000000e+00,5.000000000000000000e+00,5.000000000000000000e+00,5.000000000000000000e+00,5.000000000000000000e+00,5.000000000000000000e+00,4.876740932464599609e+00,4.683235645294189453e+00,4.504500389099121094e+00,4.338906288146972656e+00,4.185055732727050781e+00,4.041742324829101562e+00,3.907918930053710938e+00,1.436027169227600098e+00,1.393719196319580078e+00,1.374475836753845215e+00,1.365394115447998047e+00,1.380802631378173828e+00,3.260234832763671875e+00,3.172599077224731445e+00,3.089551210403442383e+00,3.010740280151367188e+00,2.935850143432617188e+00,2.864594936370849609e+00,2.796716690063476562e+00,1.209540247917175293e+00,1.194290041923522949e+00,1.179028630256652832e+00,1.167527198791503906e+00,1.164998650550842285e+00,1.166079282760620117e+00,2.398826599121093750e+00,2.351043224334716797e+00,2.305126428604125977e+00,2.260968685150146484e+00,2.218471050262451172e+00,2.177541255950927734e+00,2.138094663619995117e+00,2.100051641464233398e+00,2.063338756561279297e+00,2.027887344360351562e+00,1.993633866310119629e+00,1.960518240928649902e+00,1.928484678268432617e+00,1.897481083869934082e+00,1.867458701133728027e+00
5.000000000000000000e+00,5.000000000000000000e+00,5.000000000000000000e+00,5.000000000000000000e+00,5.000000000000000000e+00,5.000000000000000000e+00,5.000000000000000000e+00,5.000000000000000000e+00,5.000000000000000000e+00,5.000000000000000000e+00,5.000000000000000000e+00,5.000000000000000000e+00,5.000000000000000000e+00,5.000000000000000000e+00,5.000000000000000000e+00,5.000000000000000000e+00,5.000000000000000000e+00,5.000000000000000000e+00,5.000000000000000000e+00,5.000000000000000000e+00,5.000000000000000000e+00,5.000000000000000000e+00,5.000000000000000000e+00,5.000000000000000000e+00,5.000000000000000000e+00,5.000000000000000000e+00,5.000000000000000000e+00,5.000000000000000000e+00,5.000000000000000000e+00,5.000000000000000000e+00,5.000000000000000000e+00,5.000000000000000000e+00,5.000000000000000000e+00,5.000000000000000000e+00,5.000000000000000000e+00,5.000000000000000000e+00,5.000000000000000000e+00,5.000000000000000000e+00,5.000000000000000000e+00,5.000000000000000000e+00,4.876884460449218750e+00,4.683367729187011719e+00,4.504622459411621094e+00,4.339019775390625000e+00,4.185161113739013672e+00,4.041840553283691406e+00,3.908010959625244141e+00,1.445840477943420410e+00,1.403657078742980957e+00,1.382002353668212891e+00,1.371816277503967285e+00,1.387065291404724121e+00,3.260298967361450195e+00,3.172659635543823242e+00,3.089608669281005859e+00,3.010794878005981445e+00,2.935901880264282227e+00,2.864644289016723633e+00,2.796763896942138672e+00,1.215298175811767578e+00,1.199903249740600586e+00,1.182155013084411621e+00,1.173900723457336426e+00,1.169317364692687988e+00,1.170406103134155273e+00,2.398861408233642578e+00,2.351076602935791016e+00,2.305158376693725586e+00,2.260999679565429688e+00,2.218500614166259766e+00,2.177569866180419922e+00,2.138122081756591797e+00,2.100078105926513672e+00,2.063364267349243164e+00,2.027912139892578125e+00,1.993657827377319336e+00,1.960541367530822754e+00,1.928507089614868164e+00,1.897502779960632324e+00,1.867479681968688965e+00
5.000000000000000000e+00,5.000000000000000000e+00,5.000000000000000000e+00,5.000000000000000000e+00,5.000000000000000000e+00,5.000000000000000000e+00,5.000000000000000000e+00,5.000000000000000000e+00,5.000000000000000000e+00,5.000000000000000000e+00,5.000000000000000000e+00,5.000000000000000000e+00,5.000000000000000000e+00,5.000000000000000000e+00,5.000000000000000000e+00,5.000000000000000000e+00,5.000000000000000000e+00,5.000000000000000000e+00,5.000000000000000000e+00,5.000000000000000000e+00,5.000000000000000000e+00,5.000000000000000000e+00,5.000000000000000000e+00,5.000000000000000000e+00,5.000000000000000000e+00,5.000000000000000000e+00,5.000000000000000000e+00,5.000000000000000000e+00,5.000000000000000000e+00,5.000000000000000000e+00,5.000000000000000000e+00,5.000000000000000000e+00,5.000000000000000000e+00,5.000000000000000000e+00,5.000000000000000000e+00,5.000000000000000000e+00,5.000000000000000000e+00,5.000000000000000000e+00,5.000000000000000000e+00,5.000000000000000000e+00,4.877027511596679688e+00,4.683499813079833984e+00,4.504745006561279297e+00,4.339133262634277344e+00,4.185266971588134766e+00,4.041938781738281250e+00,3.908102750778198242e+00,1.455779671669006348e+00,1.415123581886291504e+00,1.390423655509948730e+00,1.377316832542419434e+00,1.397256255149841309e+00,3.260362863540649414e+00,3.172720193862915039e+00,3.089666128158569336e+00,3.010849237442016602e+00,2.935953617095947266e+00,2.864693641662597656e+00,2.796811103820800781e+00,1.221111178398132324e+00,1.205049514770507812e+00,1.185425996780395508e+00,1.180344223976135254e+00,1.175305843353271484e+00,1.174765110015869141e+00,2.398895978927612305e+00,2.351109981536865234e+00,2.305190563201904297e+00,2.261030435562133789e+00,2.218530178070068359e+00,2.177598476409912109e+00,2.138149738311767578e+00,2.100104570388793945e+00,2.063390016555786133e+00,2.027936935424804688e+00,1.993681788444519043e+00,1.960564494132995605e+00,1.928529381752014160e+00,1.897524476051330566e+00,1.867500662803649902e+00
5.000000000000000000e+00,5.000000000000000000e+00,5.000000000000000000e+00,5.000000000000000000e+00,5.000000000000000000e+00,5.000000000000000000e+00,5.000000000000000000e+00,5.000000000000000000e+00,5.000000000000000000e+00,5.000000000000000000e+00,5.000000000000000000e+00,5.000000000000000000e+00,5.000000000000000000e+00,5.000000000000000000e+00,5.000000000000000000e+00,5.000000000000000000e+00,5.000000000000000000e+00,5.000000000000000000e+00,5.000000000000000000e+00,5.000000000000000000e+00,5.000000000000000000e+00,5.000000000000000000e+00,5.000000000000000000e+00,5.000000000000000000e+00,5.000000000000000000e+00,5.000000000000000000e+00,5.000000000000000000e+00,5.000000000000000000e+00,5.000000000000000000e+00,5.000000000000000000e+00,5.000000000000000000e+00,5.000000000000000000e+00,5.000000000000000000e+00,5.000000000000000000e+00,5.000000000000000000e+00,5.000000000000000000e+00,5.000000000000000000e+00,5.000000000000000000e+00,5.000000000000000000e+00,5.000000000000000000e+00,4.877170562744140625e+00,4.683631896972656250e+00,4.504867076873779297e+00,4.339246749877929688e+00,4.185372352600097656e+00,4.042037010192871094e+00,1.498144745826721191e+00,1.452662229537963867e+00,1.422242879867553711e+00,1.402059316635131836e+00,1.394484162330627441e+00,1.421109318733215332e+00,3.260426998138427734e+00,3.172780752182006836e+00,3.089723348617553711e+00,3.010903835296630859e+00,2.936005592346191406e+00,2.864742994308471680e+00,2.796858310699462891e+00,1.226980209350585938e+00,1.208315610885620117e+00,1.191997051239013672e+00,1.186859011650085449e+00,1.181764841079711914e+00,1.191725015640258789e+00,2.398930549621582031e+00,2.351143360137939453e+00,2.305222511291503906e+00,2.261061191558837891e+00,2.218559980392456055e+00,2.177626848220825195e+00,2.138177156448364258e+00,2.100131273269653320e+00,2.063415527343750000e+00,2.027961730957031250e+00,1.993705630302429199e+00,1.960587620735168457e+00,1.928551793098449707e+00,1.897546172142028809e+00,1.867521643638610840e+00
5.000000000000000000e+00,5.000000000000000000e+00,5.000000000000000000e+00,5.000000000000000000e+00,5.000000000000000000e+00,5.000000000000000000e+00,5.000000000000000000e+00,5.000000000000000000e+00,5.000000000000000000e+00,5.000000000000000000e+00,5.000000000000000000e+00,5.000000000000000000e+00,5.000000000000000000e+00,5.000000000000000000e+00,5.000000000000000000e+00,5.000000000000000000e+00,5.000000000000000000e+00,5.000000000000000000e+00,5.000000000000000000e+00,5.000000000000000000e+00,5.000000000000000000e+00,5.000000000000000000e+00,5.000000000000000000e+00,5.000000000000000000e+00,5.000000000000000000e+00,5.000000000000000000e+00,5.000000000000000000e+00,5.000000000000000000e+00,5.000000000000000000e+00,5.000000000000000000e+00,5.000000000000000000e+00,5.000000000000000000e+00,5.000000000000000000e+00,5.000000000000000000e+00,5.000000000000000000e+00,5.000000000000000000e+00,5.000000000000000000e+00,5.000000000000000000e+00,5.000000000000000000e+00,5.000000000000000000e+00,4.877314090728759766e+00,4.683763980865478516e+00,4.504989147186279297e+00,4.339359760284423828e+00,4.185477733612060547e+00,4.042135715484619141e+00,1.494949579238891602e+00,1.456164479255676270e+00,1.433453559875488281e+00,1.418503046035766602e+00,1.423066020011901855e+00,3.353120565414428711e+00,3.260490894317626953e+00,3.172841072082519531e+00,3.089780807495117188e+00,3.010958433151245117e+00,2.936057329177856445e+00,2.864792823791503906e+00,2.796905279159545898e+00,1.232244729995727539e+00,1.210883736610412598e+00,1.194511771202087402e+00,1.189273118972778320e+00,1.184080123901367188e+00,1.189198255538940430e+00,2.398965358734130859e+00,2.351176500320434570e+00,2.305254459381103516e+00,2.261091947555541992e+00,2.218589544296264648e+00,2.177655458450317383e+00,2.138204574584960938e+00,2.100157737731933594e+00,2.063441276550292969e+00,2.027986526489257812e+00,1.993729591369628906e+00,1.960610747337341309e+00,1.928574204444885254e+00,1.897567868232727051e+00,1.867542624473571777e+00
5.000000000000000000e+00,5.000000000000000000e+00,5.000000000000000000e+00,5.000000000000000000e+00,5.000000000000000000e+00,5.000000000000000000e+00,5.000000000000000000e+00,5.000000000000000000e+00,5.000000000000000000e+00,5.000000000000000000e+00,5.000000000000000000e+00,5.000000000000000000e+00,5.000000000000000000e+00,5.000000000000000000e+00,5.000000000000000000e+00,5.000000000000000000e+00,5.000000000000000000e+00,5.000000000000000000e+00,5.000000000000000000e+00,5.000000000000000000e+00,5.000000000000000000e+00,5.000000000000000000e+00,5.000000000000000000e+00,5.000000000000000000e+00,5.000000000000000000e+00,5.000000000000000000e+00,5.000000000000000000e+00,5.000000000000000000e+00,5.000000000000000000e+00,5.000000000000000000e+00,5.000000000000000000e+00,5.000000000000000000e+00,5.000000000000000000e+00,5.000000000000000000e+00,5.000000000000000000e+00,5.000000000000000000e+00,5.000000000000000000e+00,5.000000000000000000e+00,5.000000000000000000e+00,5.000000000000000000e+00,4.877457141876220703e+00,4.683896064758300781e+00,4.505111217498779297e+00,4.339473247528076172e+00,4.185583114624023438e+00,4.042233943939208984e+00,1.491767764091491699e+00,1.464089512825012207e+00,1.449159026145935059e+00,1.436074852943420410e+00,1.453788757324218750e+00,3.353188037872314453e+00,3.260554552078247070e+00,3.172901868820190430e+00,3.089838266372680664e+00,3.011012792587280273e+00,2.936109304428100586e+00,2.864842176437377930e+00,2.796952486038208008e+00,1.233154892921447754e+00,1.211207270622253418e+00,1.192534804344177246e+00,1.187995314598083496e+00,1.182813525199890137e+00,1.177676796913146973e+00,2.399000167846679688e+00,2.351209878921508789e+00,2.305286407470703125e+00,2.261122703552246094e+00,2.218619108200073242e+00,2.177684068679809570e+00,2.138232231140136719e+00,2.100184202194213867e+00,2.063467025756835938e+00,2.028011322021484375e+00,1.993753552436828613e+00,1.960633873939514160e+00,1.928596615791320801e+00,1.897589445114135742e+00,1.867563605308532715e+00
5.000000000000000000e+00,5.000000000000000000e+00,5.000000000000000000e+00,5.000000000000000000e+00,5.000000000000000000e+00,5.000000000000000000e+00,5.000000000000000000e+00,5.000000000000000000e+00,5.000000000000000000e+00,5.000000000000000000e+00,5.000000000000000000e+00,5.000000000000000000e+00,5.000000000000000000e+00,5.000000000000000000e+00,5.000000000000000000e+00,5.000000000000000000e+00,5.000000000000000000e+00,5.000000000000000000e+00,5.000000000000000000e+00,5.000000000000000000e+00,5.000000000000000000e+00,5.000000000000000000e+00,5.000000000000000000e+00,5.000000000000000000e+00,5.000000000000000000e+00,5.000000000000000000e+00,5.000000000000000000e+00,5.000000000000000000e+00,5.000000000000000000e+00,5.000000000000000000e+00,5.000000000000000000e+00,5.000000000000000000e+00,5.000000000000000000e+00,5.000000000000000000e+00,5.000000000000000000e+00,5.000000000000000000e+00,5.000000000000000000e+00,5.000000000000000000e+00,5.000000000000000000e+00,5.000000000000000000e+00,4.877600669860839844e+00,4.684028148651123047e+00,4.505233764648437500e+00,4.339586734771728516e+00,4.185688972473144531e+00,4.042332649230957031e+00,1.498488664627075195e+00,1.475142598152160645e+00,1.465212583541870117e+00,1.455128073692321777e+00,3.451310634613037109e+00,3.353255510330200195e+00,3.260618686676025391e+00,3.172962427139282227e+00,3.089895725250244141e+00,3.011067390441894531e+00,2.936161518096923828e+00,2.864891529083251953e+00,2.796999454498291016e+00,1.236236095428466797e+00,1.211531043052673340e+00,1.191452503204345703e+00,1.186396956443786621e+00,1.181549668312072754e+00,1.176423788070678711e+00,2.399034738540649414e+00,2.351243257522583008e+00,2.305318355560302734e+00,2.261153459548950195e+00,2.218648672103881836e+00,2.177712678909301758e+00,2.138259649276733398e+00,2.100210905075073242e+00,2.063492536544799805e+00,2.028036117553710938e+00,1.993777513504028320e+00,1.960657000541687012e+00,1.928619027137756348e+00,1.897611141204833984e+00,1.867584586143493652e+00
5.000000000000000000e+00,5.000000000000000000e+00,5.000000000000000000e+00,5.000000000000000000e+00,5.000000000000000000e+00,5.000000000000000000e+00,5.000000000000000000e+00,5.000000000000000000e+00,5.000000000000000000e+00,5.000000000000000000e+00,5.000000000000000000e+00,5.000000000000000000e+00,5.000000000000000000e+00,5.000000000000000000e+00,5.000000000000000000e+00,5.000000000000000000e+00,5.000000000000000000e+00,5.000000000000000000e+00,5.000000000000000000e+00,5.000000000000000000e+00,5.000000000000000000e+00,5.000000000000000000e+00,5.000000000000000000e+00,5.000000000000000000e+00,5.000000000000000000e+00,5.000000000000000000e+00,5.000000000000000000e+00,5.000000000000000000e+00,5.000000000000000000e+00,5.000000000000000000e+00,5.000000000000000000e+00,5.000000000000000000e+00,5.000000000000000000e+00,5.000000000000000000e+00,5.000000000000000000e+00,5.000000000000000000e+00,5.000000000000000000e+00,5.000000000000000000e+00,5.000000000000000000e+00,5.000000000000000000e+00,4.877740859985351562e+00,4.684160232543945312e+00,4.505355834960937500e+00,4.339700222015380859e+00,4.185794353485107422e+00,4.042430877685546875e+00,1.509488105773925781e+00,1.486073255538940430e+00,1.479335308074951172e+00,1.487546801567077637e+00,3.451382160186767578e+00,3.353323221206665039e+00,3.260682582855224609e+00,3.173022985458374023e+00,3.089953184127807617e+00,3.011121988296508789e+00,2.936213493347167969e+00,2.864940881729125977e+00,2.797046661376953125e+00,1.247971177101135254e+00,1.211854934692382812e+00,1.191971659660339355e+00,1.184427618980407715e+00,1.180288434028625488e+00,1.175173521041870117e+00,2.399069309234619141e+00,2.351276397705078125e+00,2.305350542068481445e+00,2.261184215545654297e+00,2.218678474426269531e+00,2.177741050720214844e+00,2.138287305831909180e+00,2.100237607955932617e+00,2.063518285751342773e+00,2.028060913085937500e+00,1.993801355361938477e+00,1.960680246353149414e+00,1.928641438484191895e+00,1.897632837295532227e+00,1.867605686187744141e+00
5.000000000000000000e+00,5.000000000000000000e+00,5.000000000000000000e+00,5.000000000000000000e+00,5.000000000000000000e+00,5.000000000000000000e+00,5.000000000000000000e+00,5.000000000000000000e+00,5.000000000000000000e+00,5.000000000000000000e+00,5.000000000000000000e+00,5.000000000000000000e+00,5.000000000000000000e+00,5.000000000000000000e+00,5.000000000000000000e+00,5.000000000000000000e+00,5.000000000000000000e+00,5.000000000000000000e+00,5.000000000000000000e+00,5.000000000000000000e+00,5.000000000000000000e+00,5.000000000000000000e+00,5.000000000000000000e+00,5.000000000000000000e+00,5.000000000000000000e+00,5.000000000000000000e+00,5.000000000000000000e+00,5.000000000000000000e+00,5.000000000000000000e+00,5.000000000000000000e+00,5.000000000000000000e+00,5.000000000000000000e+00,5.000000000000000000e+00,5.000000000000000000e+00,5.000000000000000000e+00,5.000000000000000000e+00,5.000000000000000000e+00,5.000000000000000000e+00,5.000000000000000000e+00,5.000000000000000000e+00,4.877881526947021484e+00,4.684290885925292969e+00,4.505477905273437500e+00,4.339813232421875000e+00,4.185899734497070312e+00,4.042529106140136719e+00,1.520253300666809082e+00,1.496762990951538086e+00,1.488529205322265625e+00,1.504150032997131348e+00,3.451453685760498047e+00,3.353390932083129883e+00,3.260746717453002930e+00,3.173083543777465820e+00,3.090010643005371094e+00,3.011176586151123047e+00,2.936265230178833008e+00,2.864990472793579102e+00,2.797093629837036133e+00,1.260010123252868652e+00,1.212179064750671387e+00,1.192491173744201660e+00,1.182464838027954102e+00,1.178372859954833984e+00,1.173925757408142090e+00,2.399104118347167969e+00,2.351309776306152344e+00,2.305382490158081055e+00,2.261214971542358398e+00,2.218708038330078125e+00,2.177769660949707031e+00,2.138314723968505859e+00,2.100264072418212891e+00,2.063543796539306641e+00,2.028085470199584961e+00,1.993825316429138184e+00,1.960703372955322266e+00,1.928663849830627441e+00,1.897654533386230469e+00,1.867626667022705078e+00
5.000000000000000000e+00,5.000000000000000000e+00,5.000000000000000000e+00,5.000000000000000000e+00,5.000000000000000000e+00,5.000000000000000000e+00,5.000000000000000000e+00,5.000000000000000000e+00,5.000000000000000000e+00,5.000000000000000000e+00,5.000000000000000000e+00,5.000000000000000000e+00,5.000000000000000000e+00,5.000000000000000000e+00,5.000000000000000000e+00,5.000000000000000000e+00,5.000000000000000000e+00,5.000000000000000000e+00,5.000000000000000000e+00,5.000000000000000000e+00,5.000000000000000000e+00,5.000000000000000000e+00,5.000000000000000000e+00,5.000000000000000000e+00,5.000000000000000000e+00,5.000000000000000000e+00,5.000000000000000000e+00,5.000000000000000000e+00,5.000000000000000000e+00,5.000000000000000000e+00,5.000000000000000000e+00,5.000000000000000000e+00,5.000000000000000000e+00,5.000000000000000000e+00,5.000000000000000000e+00,5.000000000000000000e+00,5.000000000000000000e+00,5.000000000000000000e+00,5.000000000000000000e+00,5.000000000000000000e+00,4.878021240234375000e+00,4.684420108795166016e+00,4.505599975585937500e+00,4.339927196502685547e+00,4.186005115509033203e+00,4.042627811431884766e+00,1.531173348426818848e+00,1.507607579231262207e+00,1.497838258743286133e+00,1.520664930343627930e+00,3.451525449752807617e+00,3.353458642959594727e+00,3.260810613632202148e+00,3.173144340515136719e+00,3.090068101882934570e+00,3.011231422424316406e+00,2.936317205429077148e+00,2.865039825439453125e+00,2.797140836715698242e+00,1.272316575050354004e+00,1.212577223777770996e+00,1.193011283874511719e+00,1.180508613586425781e+00,1.176430106163024902e+00,1.172379612922668457e+00,2.399138689041137695e+00,2.351342916488647461e+00,2.305414438247680664e+00,2.261245727539062500e+00,2.218737602233886719e+00,2.177798271179199219e+00,2.138342380523681641e+00,2.100290775299072266e+00,2.063569545745849609e+00,2.028110265731811523e+00,1.993849277496337891e+00,1.960726499557495117e+00,1.928686141967773438e+00,1.897676229476928711e+00,1.867647886276245117e+00
5.000000000000000000e+00,5.000000000000000000e+00,5.000000000000000000e+00,5.000000000000000000e+00,5.000000000000000000e+00,5.000000000000000000e+00,5.000000000000000000e+00,5.000000000000000000e+00,5.000000000000000000e+00,5.000000000000000000e+00,5.000000000000000000e+00,5.000000000000000000e+00,5.000000000000000000e+00,5.000000000000000000e+00,5.000000000000000000e+00,5.000000000000000000e+00,5.000000000000000000e+00,5.000000000000000000e+00,5.000000000000000000e+00,5.000000000000000000e+00,5.000000000000000000e+00,5.000000000000000000e+00,5.000000000000000000e+00,5.000000000000000000e+00,5.000000000000000000e+00,5.000000000000000000e+00,5.000000000000000000e+00,5.000000000000000000e+00,5.000000000000000000e+00,5.000000000000000000e+00,5.000000000000000000e+00,5.000000000000000000e+00,5.000000000000000000e+00,5.000000000000000000e+00,5.000000000000000000e+00,5.000000000000000000e+00,5.000000000000000000e+00,5.000000000000000000e+00,5.000000000000000000e+00,5.000000000000000000e+00,4.878161907196044922e+00,4.684549331665039062e+00,4.505719184875488281e+00,4.340040683746337891e+00,4.186110973358154297e+00,1.605228066444396973e+00,1.542452216148376465e+00,1.518610358238220215e+00,1.507264256477355957e+00,1.535726666450500488e+00,3.451597213745117188e+00,3.353526353836059570e+00,3.260874748229980469e+00,3.173204898834228516e+00,3.090125560760498047e+00,3.011286020278930664e+00,2.936369180679321289e+00,2.865089178085327148e+00,2.797187805175781250e+00,2.732430696487426758e+00,1.213281273841857910e+00,1.193848252296447754e+00,1.178707599639892578e+00,1.174617648124694824e+00,1.170556068420410156e+00,2.399173259735107422e+00,2.351376295089721680e+00,2.305446386337280273e+00,2.261276483535766602e+00,2.218767404556274414e+00,2.177826881408691406e+00,2.138370037078857422e+00,2.100317239761352539e+00,2.063595056533813477e+00,2.028135061264038086e+00,1.993873238563537598e+00,1.960749626159667969e+00,1.928708553314208984e+00,1.897697925567626953e+00,1.867668867111206055e+00
5.000000000000000000e+00,5.000000000000000000e+00,5.000000000000000000e+00,5.000000000000000000e+00,5.000000000000000000e+00,5.000000000000000000e+00,5.000000000000000000e+00,5.000000000000000000e+00,5.000000000000000000e+00,5.000000000000000000e+00,5.000000000000000000e+00,5.000000000000000000e+00,5.000000000000000000e+00,5.000000000000000000e+00,5.000000000000000000e+00,5.000000000000000000e+00,5.000000000000000000e+00,5.000000000000000000e+00,5.000000000000000000e+00,5.000000000000000000e+00,5.000000000000000000e+00,5.000000000000000000e+00,5.000000000000000000e+00,5.000000000000000000e+00,5.000000000000000000e+00,5.000000000000000000e+00,5.000000000000000000e+00,5.000000000000000000e+00,5.000000000000000000e+00,5.000000000000000000e+00,5.000000000000000000e+00,5.000000000000000000e+00,5.000000000000000000e+00,5.000000000000000000e+00,5.000000000000000000e+00,5.000000000000000000e+00,5.000000000000000000e+00,5.000000000000000000e+00,5.000000000000000000e+00,5.000000000000000000e+00,4.878302097320556641e+00,4.684679031372070312e+00,4.505838871002197266e+00,4.340151309967041016e+00,4.186216354370117188e+00,1.617007613182067871e+00,1.553971529006958008e+00,1.529775142669677734e+00,1.517158865928649902e+00,1.551497340202331543e+00,3.451668977737426758e+00,3.353594064712524414e+00,3.260938644409179688e+00,3.173265457153320312e+00,3.090183496475219727e+00,3.011340618133544922e+00,2.936420917510986328e+00,2.865138530731201172e+00,2.797235012054443359e+00,2.732475519180297852e+00,1.217834949493408203e+00,1.195965170860290527e+00,1.177830457687377930e+00,1.173270583152770996e+00,1.169218182563781738e+00,2.399208068847656250e+00,2.351409673690795898e+00,2.305478334426879883e+00,2.261307477951049805e+00,2.218796968460083008e+00,2.177855491638183594e+00,2.138397455215454102e+00,2.100343704223632812e+00,2.063620805740356445e+00,2.028159856796264648e+00,1.993897199630737305e+00,1.960772752761840820e+00,1.928730964660644531e+00,1.897719740867614746e+00,1.867689847946166992e+00
5.000000000000000000e+00,5.000000000000000000e+00,5.000000000000000000e+00,5.000000000000000000e+00,5.000000000000000000e+00,5.000000000000000000e+00,5.000000000000000000e+00,5.000000000000000000e+00,5.000000000000000000e+00,5.000000000000000000e+00,5.000000000000000000e+00,5.000000000000000000e+00,5.000000000000000000e+00,5.000000000000000000e+00,5.000000000000000000e+00,5.000000000000000000e+00,5.000000000000000000e+00,5.000000000000000000e+00,5.000000000000000000e+00,5.000000000000000000e+00,5.000000000000000000e+00,5.000000000000000000e+00,5.000000000000000000e+00,5.000000000000000000e+00,5.000000000000000000e+00,5.000000000000000000e+00,5.000000000000000000e+00,5.000000000000000000e+00,5.000000000000000000e+00,5.000000000000000000e+00,5.000000000000000000e+00,5.000000000000000000e+00,5.000000000000000000e+00,5.000000000000000000e+00,5.000000000000000000e+00,5.000000000000000000e+00,5.000000000000000000e+00,5.000000000000000000e+00,5.000000000000000000e+00,5.000000000000000000e+00,4.878442287445068359e+00,4.684808254241943359e+00,4.505958557128906250e+00,4.340262413024902344e+00,4.186320304870605469e+00,1.628792166709899902e+00,1.566685438156127930e+00,1.542095422744750977e+00,1.530940413475036621e+00,1.571251749992370605e+00,3.451740741729736328e+00,3.353661775588989258e+00,3.261002779006958008e+00,3.173326015472412109e+00,3.090240955352783203e+00,3.011395215988159180e+00,2.936472892761230469e+00,2.865188121795654297e+00,2.797282218933105469e+00,2.732520580291748047e+00,1.230259299278259277e+00,1.198089599609375000e+00,1.178923964500427246e+00,1.171926498413085938e+00,1.167883396148681641e+00,2.399242639541625977e+00,2.351442813873291016e+00,2.305510520935058594e+00,2.261338233947753906e+00,2.218826532363891602e+00,2.177884101867675781e+00,2.138425111770629883e+00,2.100370407104492188e+00,2.063646316528320312e+00,2.028184652328491211e+00,1.993921041488647461e+00,1.960795879364013672e+00,1.928753376007080078e+00,1.897741436958312988e+00,1.867710828781127930e+00
4.872032165527343750e+00,4.870812892913818359e+00,4.869594573974609375e+00,4.868376255035400391e+00,4.867159366607666016e+00,4.865942478179931641e+00,4.864726066589355469e+00,4.863511085510253906e+00,4.862296104431152344e+00,4.861081600189208984e+00,4.859868049621582031e+00,4.858654975891113281e+00,4.857442855834960938e+00,4.856230735778808594e+00,4.855019569396972656e+00,4.853808879852294922e+00,4.852598667144775391e+00,4.851389408111572266e+00,4.850180625915527344e+00,4.848972320556640625e+00,4.847764492034912109e+00,4.846557617187500000e+00,4.845351219177246094e+00,4.844145298004150391e+00,4.842940330505371094e+00,4.841735363006591797e+00,4.840531349182128906e+00,4.839328289031982422e+00,4.838125228881835938e+00,4.836923122406005859e+00,4.835721492767333984e+00,4.834520339965820312e+00,4.833320140838623047e+00,4.832119941711425781e+00,4.830920696258544922e+00,4.829721927642822266e+00,4.828524112701416016e+00,4.827326297760009766e+00,4.826129913330078125e+00,4.824933528900146484e+00,4.823737621307373047e+00,4.684937477111816406e+00,4.506078243255615234e+00,4.340373992919921875e+00,4.186423778533935547e+00,1.640749931335449219e+00,1.579815506935119629e+00,1.555136799812316895e+00,1.547554612159729004e+00,3.555805206298828125e+00,3.451812267303466797e+00,3.353729486465454102e+00,3.261066675186157227e+00,3.173387050628662109e+00,3.090298414230346680e+00,3.011449813842773438e+00,2.936524868011474609e+00,2.865237474441528320e+00,2.797329187393188477e+00,2.732565402984619141e+00,1.242939829826354980e+00,1.200221538543701172e+00,1.180956959724426270e+00,1.170585513114929199e+00,1.166551709175109863e+00,1.184469580650329590e+00,2.351476192474365234e+00,2.305542469024658203e+00,2.261368989944458008e+00,2.218856334686279297e+00,2.177912473678588867e+00,2.138452529907226562e+00,2.100396871566772461e+00,2.063672065734863281e+00,2.028209447860717773e+00,1.993945002555847168e+00,1.960819125175476074e+00,1.928776025772094727e+00,1.897763133049011230e+00,1.867731809616088867e+00
3.776497840881347656e+00,3.775765180587768555e+00,3.775033235549926758e+00,3.774301052093505859e+00,3.773569345474243164e+00,3.772837877273559570e+00,3.772106647491455078e+00,3.771376132965087891e+00,3.770645618438720703e+00,3.769915103912353516e+00,3.769185066223144531e+00,3.768455266952514648e+00,3.767725706100463867e+00,3.766997098922729492e+00,3.766268014907836914e+00,3.765539407730102539e+00,3.764811038970947266e+00,3.764082908630371094e+00,3.763355016708374023e+00,3.762628078460693359e+00,3.761900663375854492e+00,3.761173725128173828e+00,3.760447025299072266e+00,3.759720802307128906e+00,3.758994579315185547e+00,3.758269071578979492e+00,3.757543563842773438e+00,3.756818294525146484e+00,3.756093263626098633e+00,3.755368471145629883e+00,3.754644393920898438e+00,3.753920316696166992e+00,3.753196477890014648e+00,3.752472877502441406e+00,3.751749515533447266e+00,3.751026391983032227e+00,3.750303983688354492e+00,3.749581575393676758e+00,3.748859405517578125e+00,3.748137474060058594e+00,3.747415781021118164e+00,3.746694803237915039e+00,3.745973587036132812e+00,3.745252847671508789e+00,3.744532346725463867e+00,3.743812084197998047e+00,1.593249917030334473e+00,1.568400621414184570e+00,1.564533352851867676e+00,3.555881261825561523e+00,3.451884031295776367e+00,3.353797197341918945e+00,3.261130809783935547e+00,3.173447608947753906e+00,3.090355873107910156e+00,3.011504411697387695e+00,2.936576843261718750e+00,2.865286827087402344e+00,2.797376394271850586e+00,2.732610464096069336e+00,1.266306281089782715e+00,1.202361106872558594e+00,1.182997107505798340e+00,1.169994473457336426e+00,1.165223002433776855e+00,1.181354880332946777e+00,2.351509332656860352e+00,2.305574417114257812e+00,2.261399745941162109e+00,2.218885898590087891e+00,2.177941083908081055e+00,2.138480186462402344e+00,2.100423336029052734e+00,2.063697576522827148e+00,2.028234243392944336e+00,1.993968963623046875e+00,1.960842251777648926e+00,1.928798317909240723e+00,1.897784829139709473e+00,1.867752790451049805e+00
3.083203077316284180e+00,3.082714796066284180e+00,3.082226753234863281e+00,3.081738710403442383e+00,3.081250667572021484e+00,3.080763339996337891e+00,3.080275774002075195e+00,3.079788446426391602e+00,3.079301118850708008e+00,3.078814029693603516e+00,3.078326940536499023e+00,3.077840566635131836e+00,3.077353954315185547e+00,3.076867341995239258e+00,3.076380968093872070e+00,3.075894832611083984e+00,3.075408697128295898e+00,3.074923276901245117e+00,3.074437379837036133e+00,3.073951959609985352e+00,3.073466539382934570e+00,3.072981119155883789e+00,3.072496414184570312e+00,3.072011470794677734e+00,3.071526527404785156e+00,3.071042060852050781e+00,3.070557355880737305e+00,3.070073127746582031e+00,3.069589138031005859e+00,3.069105148315429688e+00,3.068621397018432617e+00,3.068137645721435547e+00,3.067653894424438477e+00,3.067170619964599609e+00,3.066687583923339844e+00,3.066204547882080078e+00,3.065721511840820312e+00,3.065238714218139648e+00,3.064756155014038086e+00,3.064273834228515625e+00,3.063791513442993164e+00,3.063309192657470703e+00,3.062827110290527344e+00,3.062345266342163086e+00,3.061863422393798828e+00,3.061382293701171875e+00,1.607174873352050781e+00,1.581892728805541992e+00,1.581889033317565918e+00,3.059457302093505859e+00,3.058976411819458008e+00,3.058495998382568359e+00,3.058015584945678711e+00,3.057535171508789062e+00,3.057054758071899414e+00,3.011559009552001953e+00,2.936628580093383789e+00,2.865336418151855469e+00,2.797423362731933594e+00,2.732655525207519531e+00,2.670818805694580078e+00,1.204508423805236816e+00,1.185044407844543457e+00,1.169878482818603516e+00,1.163897156715393066e+00,1.178256630897521973e+00,2.351542711257934570e+00,2.305606365203857422e+00,2.261430740356445312e+00,2.218915700912475586e+00,2.177969694137573242e+00,2.138507604598999023e+00,2.100450038909912109e+00,2.063723325729370117e+00,2.028258800506591797e+00,1.993992924690246582e+00,1.960865616798400879e+00,1.928820729255676270e+00,1.897806525230407715e+00,1.867773890495300293e+00
2.604977607727050781e+00,2.604629039764404297e+00,2.604280471801757812e+00,2.603932142257690430e+00,2.603583812713623047e+00,2.603235721588134766e+00,2.602887630462646484e+00,2.602539539337158203e+00,2.602191448211669922e+00,2.601843833923339844e+00,2.601495981216430664e+00,2.601148366928100586e+00,2.600800752639770508e+00,2.600453376770019531e+00,2.600106000900268555e+00,2.599758863449096680e+00,2.599411725997924805e+00,2.599064588546752930e+00,2.598717451095581055e+00,2.598370552062988281e+00,2.598023891448974609e+00,2.597676992416381836e+00,2.597330570220947266e+00,2.596983909606933594e+00,2.596637487411499023e+00,2.596291065216064453e+00,2.595944881439208984e+00,2.595598697662353516e+00,2.595252752304077148e+00,2.594906568527221680e+00,2.594560623168945312e+00,2.594214916229248047e+00,2.593869447708129883e+00,2.593523740768432617e+00,2.593178272247314453e+00,2.592832803726196289e+00,2.592487335205078125e+00,2.592142343521118164e+00,2.591797113418579102e+00,2.591452121734619141e+00,2.591106891632080078e+00,2.590762138366699219e+00,2.590417385101318359e+00,2.590072870254516602e+00,2.589728116989135742e+00,2.589383602142333984e+00,1.632852196693420410e+00,1.612587213516235352e+00,2.588350534439086914e+00,2.588006496429443359e+00,2.587662458419799805e+00,2.587318420410156250e+00,2.586974620819091797e+00,2.586630821228027344e+00,2.586287260055541992e+00,2.585943698883056641e+00,2.585600137710571289e+00,2.585256814956665039e+00,2.584913492202758789e+00,2.584570169448852539e+00,2.584227085113525391e+00,1.206663370132446289e+00,1.187098741531372070e+00,1.169762611389160156e+00,1.162574529647827148e+00,1.175174474716186523e+00,2.351576089859008789e+00,2.305638313293457031e+00,2.261461496353149414e+00,2.218945264816284180e+00,2.177998304367065430e+00,2.138535261154174805e+00,2.100476503372192383e+00,2.063749074935913086e+00,2.028283596038818359e+00,1.994016766548156738e+00,1.960888743400573730e+00,1.928843140602111816e+00,1.897828221321105957e+00,1.867794871330261230e+00
2.255177497863769531e+00,2.254916906356811523e+00,2.254656553268432617e+00,2.254396200180053711e+00,2.254135608673095703e+00,2.253875494003295898e+00,2.253615140914916992e+00,2.253354787826538086e+00,2.253094673156738281e+00,2.252834320068359375e+00,2.252573728561401367e+00,2.252313137054443359e+00,2.252052545547485352e+00,2.251791954040527344e+00,2.251531600952148438e+00,2.251271009445190430e+00,2.251010656356811523e+00,2.250750541687011719e+00,2.250490427017211914e+00,2.250230073928833008e+00,2.249969959259033203e+00,2.249709844589233398e+00,2.249449968338012695e+00,2.249190092086791992e+00,2.248930215835571289e+00,2.248670339584350586e+00,2.248410701751708984e+00,2.248151063919067383e+00,2.247891187667846680e+00,2.247631788253784180e+00,2.247372388839721680e+00,2.247112751007080078e+00,2.246853351593017578e+00,2.246594190597534180e+00,2.246334791183471680e+00,2.246075630187988281e+00,2.245816469192504883e+00,2.245557308197021484e+00,2.245298385620117188e+00,2.245039463043212891e+00,2.244780540466308594e+00,2.244521617889404297e+00,2.244262933731079102e+00,2.244004249572753906e+00,2.243745565414428711e+00,2.243486881256103516e+00,1.637852072715759277e+00,1.610676765441894531e+00,1.602711677551269531e+00,2.242453098297119141e+00,2.242194652557373047e+00,2.241936445236206055e+00,2.241678476333618164e+00,2.241420269012451172e+00,2.241162061691284180e+00,2.240904092788696289e+00,2.240646123886108398e+00,2.240388154983520508e+00,2.240130424499511719e+00,2.239872694015502930e+00,2.239614963531494141e+00,1.221383571624755859e+00,1.200146436691284180e+00,1.185038328170776367e+00,1.166928052902221680e+00,2.238327264785766602e+00,2.238069772720336914e+00,2.237812519073486328e+00,2.237555265426635742e+00,2.218974828720092773e+00,2.178026914596557617e+00,2.138562679290771484e+00,2.100503206253051758e+00,2.063774585723876953e+00,2.028308391571044922e+00,1.994040727615356445e+00,1.960911870002746582e+00,1.928865551948547363e+00,1.897849917411804199e+00,1.867815852165222168e+00
1.988163828849792480e+00,1.987961173057556152e+00,1.987758874893188477e+00,1.987556338310241699e+00,1.987353920936584473e+00,1.987151741981506348e+00,1.986949324607849121e+00,1.986747145652770996e+00,1.986544847488403320e+00,1.986342668533325195e+00,1.986140608787536621e+00,1.985938429832458496e+00,1.985736370086669922e+00,1.985534429550170898e+00,1.985332369804382324e+00,1.985130429267883301e+00,1.984928607940673828e+00,1.984726667404174805e+00,1.984524846076965332e+00,1.984323143959045410e+00,1.984121322631835938e+00,1.983919501304626465e+00,1.983718037605285645e+00,1.983516335487365723e+00,1.983314752578735352e+00,1.983113288879394531e+00,1.982911825180053711e+00,1.982710242271423340e+00,1.982509016990661621e+00,1.982307553291320801e+00,1.982106089591979980e+00,1.981904983520507812e+00,1.981703639030456543e+00,1.981502413749694824e+00,1.981301426887512207e+00,1.981100201606750488e+00,1.980899214744567871e+00,1.980698108673095703e+00,1.980497002601623535e+00,1.980296254158020020e+00,1.980095267295837402e+00,1.979894280433654785e+00,1.979693651199340820e+00,1.979492664337158203e+00,1.979291915893554688e+00,1.979091286659240723e+00,1.630456089973449707e+00,1.594233989715576172e+00,1.579844951629638672e+00,1.583577394485473633e+00,1.978088140487670898e+00,1.977887868881225586e+00,1.977687358856201172e+00,1.977486848831176758e+00,1.977286696434020996e+00,1.977086305618286133e+00,1.976885914802551270e+00,1.976685881614685059e+00,1.976485610008239746e+00,1.976285338401794434e+00,1.976085424423217773e+00,1.975885272026062012e+00,1.196870565414428711e+00,1.180455565452575684e+00,1.169112443923950195e+00,1.975085496902465820e+00,1.974885582923889160e+00,1.974685668945312500e+00,1.974485993385314941e+00,1.974286198616027832e+00,1.974086403846740723e+00,1.973886847496032715e+00,1.973687171936035156e+00,1.973487496376037598e+00,1.973288178443908691e+00,1.973088622093200684e+00,1.960934996604919434e+00,1.928887963294982910e+00,1.897871494293212891e+00,1.867836833000183105e+00
1.777685284614562988e+00,1.777523517608642578e+00,1.777361512184143066e+00,1.777199625968933105e+00,1.777037978172302246e+00,1.776876091957092285e+00,1.776714324951171875e+00,1.776552677154541016e+00,1.776390910148620605e+00,1.776229143142700195e+00,1.776067614555358887e+00,1.775905966758728027e+00,1.775744318962097168e+00,1.775582909584045410e+00,1.775421261787414551e+00,1.775259733200073242e+00,1.775098323822021484e+00,1.774936914443969727e+00,1.774775385856628418e+00,1.774614095687866211e+00,1.774452686309814453e+00,1.774291276931762695e+00,1.774130105972290039e+00,1.773968815803527832e+00,1.773807525634765625e+00,1.773646473884582520e+00,1.773485183715820312e+00,1.773324131965637207e+00,1.773162961006164551e+00,1.773001790046691895e+00,1.772840857505798340e+00,1.772679805755615234e+00,1.772518754005432129e+00,1.772357940673828125e+00,1.772196888923645020e+00,1.772035956382751465e+00,1.771875143051147461e+00,1.771714210510253906e+00,1.771553397178649902e+00,1.771392703056335449e+00,1.771231889724731445e+00,1.771071076393127441e+00,1.770910382270812988e+00,1.770749688148498535e+00,1.770588994026184082e+00,1.770428419113159180e+00,1.770267844200134277e+00,1.571387410163879395e+00,1.557987928390502930e+00,1.553090810775756836e+00,1.555668234825134277e+00,1.769465327262878418e+00,1.769304871559143066e+00,1.769144415855407715e+00,1.768984198570251465e+00,1.768823742866516113e+00,1.768663525581359863e+00,1.768503308296203613e+00,1.768342971801757812e+00,1.768182873725891113e+00,1.768022656440734863e+00,1.767862439155578613e+00,1.193544745445251465e+00,1.173522353172302246e+00,1.155388116836547852e+00,1.144372105598449707e+00,1.767062067985534668e+00,1.766902089118957520e+00,1.766742229461669922e+00,1.766582250595092773e+00,1.766422271728515625e+00,1.766262531280517578e+00,1.766102671623229980e+00,1.765942811965942383e+00,1.765783071517944336e+00,1.765623331069946289e+00,1.765463590621948242e+00,1.765303969383239746e+00,1.765144228935241699e+00,1.764984607696533203e+00
1.607505440711975098e+00,1.607373118400573730e+00,1.607240796089172363e+00,1.607108354568481445e+00,1.606976151466369629e+00,1.606843709945678711e+00,1.606711387634277344e+00,1.606579303741455078e+00,1.606446981430053711e+00,1.606314659118652344e+00,1.606182575225830078e+00,1.606050372123718262e+00,1.605918169021606445e+00,1.605786085128784180e+00,1.605653882026672363e+00,1.605521917343139648e+00,1.605389833450317383e+00,1.605257749557495117e+00,1.605125784873962402e+00,1.604993700981140137e+00,1.604861736297607422e+00,1.604729890823364258e+00,1.604597806930541992e+00,1.604465842247009277e+00,1.604334115982055664e+00,1.604202151298522949e+00,1.604070305824279785e+00,1.603938579559326172e+00,1.603806614875793457e+00,1.603674769401550293e+00,1.603543162345886230e+00,1.603411316871643066e+00,1.603279590606689453e+00,1.603147983551025391e+00,1.603016257286071777e+00,1.602884531021118164e+00,1.602753043174743652e+00,1.602621316909790039e+00,1.602489709854125977e+00,1.602358222007751465e+00,1.602226614952087402e+00,1.602095007896423340e+00,1.601963639259338379e+00,1.601832151412963867e+00,1.601700782775878906e+00,1.601569294929504395e+00,1.601437807083129883e+00,1.552047014236450195e+00,1.534001231193542480e+00,1.515421032905578613e+00,1.522573113441467285e+00,1.503964900970458984e+00,1.600649714469909668e+00,1.600518584251403809e+00,1.600387215614318848e+00,1.600255966186523438e+00,1.600124835968017578e+00,1.599993586540222168e+00,1.599862337112426758e+00,1.599731326103210449e+00,1.599600195884704590e+00,1.234946846961975098e+00,1.196458935737609863e+00,1.166916370391845703e+00,1.148012995719909668e+00,1.125776171684265137e+00,1.108386993408203125e+00,1.097322344779968262e+00,1.598552107810974121e+00,1.598421096801757812e+00,1.598290085792541504e+00,1.598159313201904297e+00,1.598028421401977539e+00,1.597897648811340332e+00,1.597766876220703125e+00,1.597635984420776367e+00,1.597505331039428711e+00,1.597374439239501953e+00,1.597243666648864746e+00,1.597113132476806641e+00
1.467061996459960938e+00,1.466951727867126465e+00,1.466841459274291992e+00,1.466731309890747070e+00,1.466621041297912598e+00,1.466510772705078125e+00,1.466400623321533203e+00,1.466290473937988281e+00,1.466180205345153809e+00,1.466070175170898438e+00,1.465960025787353516e+00,1.465849876403808594e+00,1.465739846229553223e+00,1.465629696846008301e+00,1.465519666671752930e+00,1.465409636497497559e+00,1.465299606323242188e+00,1.465189576148986816e+00,1.465079665184020996e+00,1.464969635009765625e+00,1.464859604835510254e+00,1.464749813079833984e+00,1.464639782905578613e+00,1.464529871940612793e+00,1.464420080184936523e+00,1.464310169219970703e+00,1.464200258255004883e+00,1.464090466499328613e+00,1.463980555534362793e+00,1.463870763778686523e+00,1.463760972023010254e+00,1.463651180267333984e+00,1.463541388511657715e+00,1.463431715965270996e+00,1.463321924209594727e+00,1.463212370872497559e+00,1.463102579116821289e+00,1.462992906570434570e+00,1.462883234024047852e+00,1.462773561477661133e+00,1.462663888931274414e+00,1.462554454803466797e+00,1.462444782257080078e+00,1.462335109710693359e+00,1.462225675582885742e+00,1.462116122245788574e+00,1.462006449699401855e+00,1.461897015571594238e+00,1.461787581443786621e+00,1.461678028106689453e+00,1.461568593978881836e+00,1.461459159851074219e+00,1.461349606513977051e+00,1.461240291595458984e+00,1.461130857467651367e+00,1.461021423339843750e+00,1.460912227630615234e+00,1.460802793502807617e+00,1.460693359375000000e+00,1.460584163665771484e+00,1.460474848747253418e+00,1.229034066200256348e+00,1.198384165763854980e+00,1.174443006515502930e+00,1.150069713592529297e+00,1.121750831604003906e+00,1.092996716499328613e+00,1.075657606124877930e+00,1.057678103446960449e+00,1.036376714706420898e+00,1.020246505737304688e+00,1.018596529960632324e+00,1.459164500236511230e+00,1.459055423736572266e+00,1.458946347236633301e+00,1.458837270736694336e+00,1.458728313446044922e+00,1.458619236946105957e+00,1.458510160446166992e+00,1.458401322364807129e+00
1.349187135696411133e+00,1.349093794822692871e+00,1.349000453948974609e+00,1.348907351493835449e+00,1.348814129829406738e+00,1.348720788955688477e+00,1.348627686500549316e+00,1.348534464836120605e+00,1.348441243171691895e+00,1.348348140716552734e+00,1.348255038261413574e+00,1.348161816596984863e+00,1.348068714141845703e+00,1.347975611686706543e+00,1.347882509231567383e+00,1.347789525985717773e+00,1.347696423530578613e+00,1.347603321075439453e+00,1.347510337829589844e+00,1.347417235374450684e+00,1.347324252128601074e+00,1.347231268882751465e+00,1.347138285636901855e+00,1.347045302391052246e+00,1.346952319145202637e+00,1.346859335899353027e+00,1.346766471862792969e+00,1.346673488616943359e+00,1.346580505371093750e+00,1.346487641334533691e+00,1.346394777297973633e+00,1.346301913261413574e+00,1.346209049224853516e+00,1.346116185188293457e+00,1.346023321151733398e+00,1.345930576324462891e+00,1.345837712287902832e+00,1.345744848251342773e+00,1.345652103424072266e+00,1.345559358596801758e+00,1.345466494560241699e+00,1.345373868942260742e+00,1.345281004905700684e+00,1.345188260078430176e+00,1.345095634460449219e+00,1.345002889633178711e+00,1.344910144805908203e+00,1.344817519187927246e+00,1.344724893569946289e+00,1.344632148742675781e+00,1.344539642333984375e+00,1.344447016716003418e+00,1.344354391098022461e+00,1.344261765480041504e+00,1.344169139862060547e+00,1.344076633453369141e+00,1.343984007835388184e+00,1.343891501426696777e+00,1.343798995018005371e+00,1.343706488609313965e+00,1.343613862991333008e+00,1.343521475791931152e+00,1.200067877769470215e+00,1.180443525314331055e+00,1.166782021522521973e+00,1.154430747032165527e+00,1.091952443122863770e+00,1.070023298263549805e+00,1.053611278533935547e+00,1.033584713935852051e+00,1.022207140922546387e+00,1.066945195198059082e+00,1.342504739761352539e+00,1.342412471771240234e+00,1.342320084571838379e+00,1.342227697372436523e+00,1.342135548591613770e+00,1.342043161392211914e+00,1.341950893402099609e+00,1.341858625411987305e+00
1.248845338821411133e+00,1.248765468597412109e+00,1.248685479164123535e+00,1.248605728149414062e+00,1.248525738716125488e+00,1.248445868492126465e+00,1.248366117477416992e+00,1.248286247253417969e+00,1.248206377029418945e+00,1.248126506805419922e+00,1.248046755790710449e+00,1.247967004776000977e+00,1.247887134552001953e+00,1.247807264328002930e+00,1.247727632522583008e+00,1.247647762298583984e+00,1.247568011283874512e+00,1.247488379478454590e+00,1.247408509254455566e+00,1.247328758239746094e+00,1.247249126434326172e+00,1.247169375419616699e+00,1.247089743614196777e+00,1.247010111808776855e+00,1.246930360794067383e+00,1.246850609779357910e+00,1.246771097183227539e+00,1.246691346168518066e+00,1.246611714363098145e+00,1.246532201766967773e+00,1.246452569961547852e+00,1.246372938156127930e+00,1.246293306350708008e+00,1.246213793754577637e+00,1.246134161949157715e+00,1.246054649353027344e+00,1.245975017547607422e+00,1.245895504951477051e+00,1.245815992355346680e+00,1.245736479759216309e+00,1.245656967163085938e+00,1.245577454566955566e+00,1.245497941970825195e+00,1.245418548583984375e+00,1.245339035987854004e+00,1.245259523391723633e+00,1.245180130004882812e+00,1.245100617408752441e+00,1.245021224021911621e+00,1.244941830635070801e+00,1.244862437248229980e+00,1.244782924652099609e+00,1.244703650474548340e+00,1.244624257087707520e+00,1.244544863700866699e+00,1.244465470314025879e+00,1.244386196136474609e+00,1.244306802749633789e+00,1.244227528572082520e+00,1.244148135185241699e+00,1.244068861007690430e+00,1.243989586830139160e+00,1.243910312652587891e+00,1.243830919265747070e+00,1.243751764297485352e+00,1.243672490119934082e+00,1.243593215942382812e+00,1.243513941764831543e+00,1.243434786796569824e+00,1.243355631828308105e+00,1.243276357650756836e+00,1.243197083473205566e+00,1.243118047714233398e+00,1.243038773536682129e+00,1.242959618568420410e+00,1.242880463600158691e+00,1.242801308631896973e+00,1.242722153663635254e+00,1.242643117904663086e+00,1.242563962936401367e+00
1.162395715713500977e+00,1.162326455116271973e+00,1.162257313728332520e+00,1.162188053131103516e+00,1.162118792533874512e+00,1.162049651145935059e+00,1.161980509757995605e+00,1.161911249160766602e+00,1.161842107772827148e+00,1.161772966384887695e+00,1.161703705787658691e+00,1.161634683609008789e+00,1.161565542221069336e+00,1.161496281623840332e+00,1.161427259445190430e+00,1.161358118057250977e+00,1.161288976669311523e+00,1.161219954490661621e+00,1.161150813102722168e+00,1.161081671714782715e+00,1.161012649536132812e+00,1.160943627357482910e+00,1.160874485969543457e+00,1.160805583000183105e+00,1.160736441612243652e+00,1.160667419433593750e+00,1.160598397254943848e+00,1.160529375076293945e+00,1.160460352897644043e+00,1.160391449928283691e+00,1.160322427749633789e+00,1.160253405570983887e+00,1.160184502601623535e+00,1.160115480422973633e+00,1.160046577453613281e+00,1.159977555274963379e+00,1.159908652305603027e+00,1.159839749336242676e+00,1.159770727157592773e+00,1.159701824188232422e+00,1.159632921218872070e+00,1.159564018249511719e+00,1.159495115280151367e+00,1.159426331520080566e+00,1.159357428550720215e+00,1.159288525581359863e+00,1.159219622611999512e+00,1.159150838851928711e+00,1.159081935882568359e+00,1.159013152122497559e+00,1.158944249153137207e+00,1.158875465393066406e+00,1.158806681632995605e+00,1.158737778663635254e+00,1.158668994903564453e+00,1.158600330352783203e+00,1.158531427383422852e+00,1.158462643623352051e+00,1.158393979072570801e+00,1.158325195312500000e+00,1.158256530761718750e+00,1.158187747001647949e+00,1.158118963241577148e+00,1.158050298690795898e+00,1.157981634140014648e+00,1.157912850379943848e+00,1.157844185829162598e+00,1.157775521278381348e+00,1.157706856727600098e+00,1.157638192176818848e+00,1.157569527626037598e+00,1.157500863075256348e+00,1.157432198524475098e+00,1.157363533973693848e+00,1.157294869422912598e+00,1.157226324081420898e+00,1.157157659530639648e+00,1.157088994979858398e+00,1.157020449638366699e+00,1.156951904296875000e+00
1.087139844894409180e+00,1.087079286575317383e+00,1.087018728256225586e+00,1.086958169937133789e+00,1.086897611618041992e+00,1.086837172508239746e+00,1.086776614189147949e+00,1.086716055870056152e+00,1.086655616760253906e+00,1.086595058441162109e+00,1.086534619331359863e+00,1.086474180221557617e+00,1.086413621902465820e+00,1.086353063583374023e+00,1.086292743682861328e+00,1.086232185363769531e+00,1.086171746253967285e+00,1.086111307144165039e+00,1.086050868034362793e+00,1.085990428924560547e+00,1.085929989814758301e+00,1.085869550704956055e+00,1.085809230804443359e+00,1.085748791694641113e+00,1.085688352584838867e+00,1.085628032684326172e+00,1.085567593574523926e+00,1.085507154464721680e+00,1.085446834564208984e+00,1.085386514663696289e+00,1.085326075553894043e+00,1.085265755653381348e+00,1.085205435752868652e+00,1.085145115852355957e+00,1.085084795951843262e+00,1.085024476051330566e+00,1.084964156150817871e+00,1.084903836250305176e+00,1.084843516349792480e+00,1.084783196449279785e+00,1.084722876548767090e+00,1.084662556648254395e+00,1.084602355957031250e+00,1.084542036056518555e+00,1.084481835365295410e+00,1.084421515464782715e+00,1.084361314773559570e+00,1.084300994873046875e+00,1.084240794181823730e+00,1.084180593490600586e+00,1.084120273590087891e+00,1.084060192108154297e+00,1.083999872207641602e+00,1.083939671516418457e+00,1.083879590034484863e+00,1.083819270133972168e+00,1.083759069442749023e+00,1.083698987960815430e+00,1.083638787269592285e+00,1.083578586578369141e+00,1.083518505096435547e+00,1.083458304405212402e+00,1.083398103713989258e+00,1.083338022232055664e+00,1.083277940750122070e+00,1.083217740058898926e+00,1.083157658576965332e+00,1.083097577095031738e+00,1.083037376403808594e+00,1.082977294921875000e+00,1.082917213439941406e+00,1.082857131958007812e+00,1.082797050476074219e+00,1.082736968994140625e+00,1.082676887512207031e+00,1.082616925239562988e+00,1.082556843757629395e+00,1.082496762275695801e+00,1.082436680793762207e+00,1.082376718521118164e+00
1.021035909652709961e+00,1.020982503890991211e+00,1.020929098129272461e+00,1.020875692367553711e+00,1.020822286605834961e+00,1.020768880844116211e+00,1.020715475082397461e+00,1.020662188529968262e+00,1.020608782768249512e+00,1.020555377006530762e+00,1.020502090454101562e+00,1.020448684692382812e+00,1.020395278930664062e+00,1.020341992378234863e+00,1.020288586616516113e+00,1.020235300064086914e+00,1.020182013511657715e+00,1.020128607749938965e+00,1.020075321197509766e+00,1.020022034645080566e+00,1.019968748092651367e+00,1.019915342330932617e+00,1.019862055778503418e+00,1.019808769226074219e+00,1.019755482673645020e+00,1.019702196121215820e+00,1.019648909568786621e+00,1.019595623016357422e+00,1.019542455673217773e+00,1.019489169120788574e+00,1.019435882568359375e+00,1.019382715225219727e+00,1.019329428672790527e+00,1.019276142120361328e+00,1.019222974777221680e+00,1.019169688224792480e+00,1.019116520881652832e+00,1.019063353538513184e+00,1.019010066986083984e+00,1.018956899642944336e+00,1.018903732299804688e+00,1.018850445747375488e+00,1.018797278404235840e+00,1.018744111061096191e+00,1.018690943717956543e+00,1.018637776374816895e+00,1.018584609031677246e+00,1.018531441688537598e+00,1.018478274345397949e+00,1.018425107002258301e+00,1.018371939659118652e+00,1.018318891525268555e+00,1.018265724182128906e+00,1.018212556838989258e+00,1.018159508705139160e+00,1.018106341361999512e+00,1.018053293228149414e+00,1.018000245094299316e+00,1.017947077751159668e+00,1.017893910408020020e+00,1.017840862274169922e+00,1.017787814140319824e+00,1.017734766006469727e+00,1.017681717872619629e+00,1.017628550529479980e+00,1.017575621604919434e+00,1.017522454261779785e+00,1.017469406127929688e+00,1.017416477203369141e+00,1.017363429069519043e+00,1.017310380935668945e+00,1.017257332801818848e+00,1.017204284667968750e+00,1.017151236534118652e+00,1.017098307609558105e+00,1.017045259475708008e+00,1.016992211341857910e+00,1.016939282417297363e+00,1.016886234283447266e+00,1.016833305358886719e+00
9.625101685523986816e-01,9.624627828598022461e-01,9.624153375625610352e-01,9.623678326606750488e-01,9.623203277587890625e-01,9.622728824615478516e-01,9.622254371643066406e-01,9.621780514717102051e-01,9.621306061744689941e-01,9.620831608772277832e-01,9.620357155799865723e-01,9.619882702827453613e-01,9.619408249855041504e-01,9.618935585021972656e-01,9.618461132049560547e-01,9.617986679077148438e-01,9.617512822151184082e-01,9.617038369178771973e-01,9.616564512252807617e-01,9.616091847419738770e-01,9.615617394447326660e-01,9.615143537521362305e-01,9.614669680595397949e-01,9.614195823669433594e-01,9.613722562789916992e-01,9.613249897956848145e-01,9.612776041030883789e-01,9.612302184104919434e-01,9.611828923225402832e-01,9.611355066299438477e-01,9.610882997512817383e-01,9.610409140586853027e-01,9.609935879707336426e-01,9.609462618827819824e-01,9.608989357948303223e-01,9.608516097068786621e-01,9.608044028282165527e-01,9.607570767402648926e-01,9.607097506523132324e-01,9.606624245643615723e-01,9.606151580810546875e-01,9.605678319931030273e-01,9.605206847190856934e-01,9.604733586311340332e-01,9.604260921478271484e-01,9.603787660598754883e-01,9.603314995765686035e-01,9.602842330932617188e-01,9.602370858192443848e-01,9.601898193359375000e-01,9.601425528526306152e-01,9.600953459739685059e-01,9.600480794906616211e-01,9.600008130073547363e-01,9.599536657333374023e-01,9.599064588546752930e-01,9.598592519760131836e-01,9.598119854927062988e-01,9.597647786140441895e-01,9.597176909446716309e-01,9.596704840660095215e-01,9.596232771873474121e-01,9.595760703086853027e-01,9.595288634300231934e-01,9.594816565513610840e-01,9.594345688819885254e-01,9.593874216079711914e-01,9.593402147293090820e-01,9.592930674552917480e-01,9.592458605766296387e-01,9.591987133026123047e-01,9.591516852378845215e-01,9.591045379638671875e-01,9.590573310852050781e-01,9.590102434158325195e-01,9.589630961418151855e-01,9.589159488677978516e-01,9.588689208030700684e-01,9.588217735290527344e-01,9.587746858596801758e-01
9.103301167488098145e-01,9.102876186370849609e-01,9.102451205253601074e-01,9.102026820182800293e-01,9.101603031158447266e-01,9.101178646087646484e-01,9.100753664970397949e-01,9.100329279899597168e-01,9.099904894828796387e-01,9.099480509757995605e-01,9.099056720733642578e-01,9.098632335662841797e-01,9.098207950592041016e-01,9.097784161567687988e-01,9.097359776496887207e-01,9.096936583518981934e-01,9.096512198448181152e-01,9.096087813377380371e-01,9.095664024353027344e-01,9.095239639282226562e-01,9.094815850257873535e-01,9.094392657279968262e-01,9.093968868255615234e-01,9.093545079231262207e-01,9.093121290206909180e-01,9.092697501182556152e-01,9.092273712158203125e-01,9.091851115226745605e-01,9.091427326202392578e-01,9.091003537178039551e-01,9.090579748153686523e-01,9.090155959129333496e-01,9.089732766151428223e-01,9.089310169219970703e-01,9.088886976242065430e-01,9.088463187217712402e-01,9.088039994239807129e-01,9.087616801261901855e-01,9.087193012237548828e-01,9.086771011352539062e-01,9.086347818374633789e-01,9.085924625396728516e-01,9.085501432418823242e-01,9.085078239440917969e-01,9.084656238555908203e-01,9.084233045578002930e-01,9.083810448646545410e-01,9.083387255668640137e-01,9.082964062690734863e-01,9.082541465759277344e-01,9.082119464874267578e-01,9.081696867942810059e-01,9.081274271011352539e-01,9.080851078033447266e-01,9.080428481101989746e-01,9.080005884170532227e-01,9.079584479331970215e-01,9.079161882400512695e-01,9.078739285469055176e-01,9.078316688537597656e-01,9.077894091606140137e-01,9.077472090721130371e-01,9.077050685882568359e-01,9.076628088951110840e-01,9.076206088066101074e-01,9.075783491134643555e-01,9.075361490249633789e-01,9.074939489364624023e-01,9.074518084526062012e-01,9.074096083641052246e-01,9.073674082756042480e-01,9.073252081871032715e-01,9.072830080986022949e-01,9.072409272193908691e-01,9.071987271308898926e-01,9.071565270423889160e-01,9.071143865585327148e-01,9.070721864700317383e-01,9.070299863815307617e-01,9.069879651069641113e-01
8.635166287422180176e-01,8.634784817695617676e-01,8.634402751922607422e-01,8.634020686149597168e-01,8.633638620376586914e-01,8.633256554603576660e-01,8.632875084877014160e-01,8.632493019104003906e-01,8.632110953330993652e-01,8.631729483604431152e-01,8.631347417831420898e-01,8.630965352058410645e-01,8.630584478378295898e-01,8.630203008651733398e-01,8.629820942878723145e-01,8.629439473152160645e-01,8.629057407379150391e-01,8.628675937652587891e-01,8.628295063972473145e-01,8.627913594245910645e-01,8.627532124519348145e-01,8.627150654792785645e-01,8.626769185066223145e-01,8.626387715339660645e-01,8.626006841659545898e-01,8.625625371932983398e-01,8.625243902206420898e-01,8.624863028526306152e-01,8.624481558799743652e-01,8.624100089073181152e-01,8.623719811439514160e-01,8.623338937759399414e-01,8.622957468032836914e-01,8.622576594352722168e-01,8.622195124626159668e-01,8.621814846992492676e-01,8.621433973312377930e-01,8.621053099632263184e-01,8.620672225952148438e-01,8.620291352272033691e-01,8.619910478591918945e-01,8.619530200958251953e-01,8.619149327278137207e-01,8.618768453598022461e-01,8.618388175964355469e-01,8.618007302284240723e-01,8.617626428604125977e-01,8.617246747016906738e-01,8.616865873336791992e-01,8.616485595703125000e-01,8.616104722023010254e-01,8.615724444389343262e-01,8.615344166755676270e-01,8.614964485168457031e-01,8.614584207534790039e-01,8.614203333854675293e-01,8.613823056221008301e-01,8.613442778587341309e-01,8.613062500953674316e-01,8.612683415412902832e-01,8.612303137779235840e-01,8.611922860145568848e-01,8.611542582511901855e-01,8.611162304878234863e-01,8.610783219337463379e-01,8.610403537750244141e-01,8.610023260116577148e-01,8.609643578529357910e-01,8.609263300895690918e-01,8.608883619308471680e-01,8.608504533767700195e-01,8.608124852180480957e-01,8.607744574546813965e-01,8.607364892959594727e-01,8.606985211372375488e-01,8.606605529785156250e-01,8.606226444244384766e-01,8.605847358703613281e-01,8.605467677116394043e-01,8.605087995529174805e-01
8.212824463844299316e-01,8.212478756904602051e-01,8.212133049964904785e-01,8.211788535118103027e-01,8.211442828178405762e-01,8.211097121238708496e-01,8.210751414299011230e-01,8.210406303405761719e-01,8.210060596466064453e-01,8.209716081619262695e-01,8.209370374679565430e-01,8.209024667739868164e-01,8.208679556846618652e-01,8.208333849906921387e-01,8.207988739013671875e-01,8.207644224166870117e-01,8.207299113273620605e-01,8.206953406333923340e-01,8.206608295440673828e-01,8.206263184547424316e-01,8.205918073654174805e-01,8.205573558807373047e-01,8.205228447914123535e-01,8.204883337020874023e-01,8.204538226127624512e-01,8.204193711280822754e-01,8.203849196434020996e-01,8.203504085540771484e-01,8.203159570693969727e-01,8.202814459800720215e-01,8.202469348907470703e-01,8.202124834060668945e-01,8.201780915260314941e-01,8.201435804367065430e-01,8.201091289520263672e-01,8.200746178627014160e-01,8.200401663780212402e-01,8.200057148933410645e-01,8.199713230133056641e-01,8.199368119239807129e-01,8.199023604393005371e-01,8.198679089546203613e-01,8.198334574699401855e-01,8.197990059852600098e-01,8.197646737098693848e-01,8.197302222251892090e-01,8.196957707405090332e-01,8.196613192558288574e-01,8.196268677711486816e-01,8.195924162864685059e-01,8.195580840110778809e-01,8.195236921310424805e-01,8.194892406463623047e-01,8.194547891616821289e-01,8.194203972816467285e-01,8.193860650062561035e-01,8.193516731262207031e-01,8.193172216415405273e-01,8.192828297615051270e-01,8.192484378814697266e-01,8.192139863967895508e-01,8.191797137260437012e-01,8.191453218460083008e-01,8.191109299659729004e-01,8.190765380859375000e-01,8.190421462059020996e-01,8.190077543258666992e-01,8.189734220504760742e-01,8.189390301704406738e-01,8.189046978950500488e-01,8.188703060150146484e-01,8.188359141349792480e-01,8.188015818595886230e-01,8.187673091888427734e-01,8.187329173088073730e-01,8.186985850334167480e-01,8.186641931533813477e-01,8.186298608779907227e-01,8.185954689979553223e-01,8.185611963272094727e-01
7.829869985580444336e-01,7.829555869102478027e-01,7.829241752624511719e-01,7.828927636146545410e-01,7.828613519668579102e-01,7.828299403190612793e-01,7.827985882759094238e-01,7.827671766281127930e-01,7.827357649803161621e-01,7.827043533325195312e-01,7.826729416847229004e-01,7.826416492462158203e-01,7.826102375984191895e-01,7.825788259506225586e-01,7.825474739074707031e-01,7.825160622596740723e-01,7.824846506118774414e-01,7.824533581733703613e-01,7.824219465255737305e-01,7.823905944824218750e-01,7.823592424392700195e-01,7.823278307914733887e-01,7.822964787483215332e-01,7.822651863098144531e-01,7.822338342666625977e-01,7.822024226188659668e-01,7.821710705757141113e-01,7.821397185325622559e-01,7.821083664894104004e-01,7.820770740509033203e-01,7.820457220077514648e-01,7.820143699645996094e-01,7.819830179214477539e-01,7.819516658782958984e-01,7.819203734397888184e-01,7.818890810012817383e-01,7.818577289581298828e-01,7.818263769149780273e-01,7.817950844764709473e-01,7.817637324333190918e-01,7.817324995994567871e-01,7.817011475563049316e-01,7.816698551177978516e-01,7.816385030746459961e-01,7.816072106361389160e-01,7.815759181976318359e-01,7.815446257591247559e-01,7.815133333206176758e-01,7.814820408821105957e-01,7.814507484436035156e-01,7.814194560050964355e-01,7.813881039619445801e-01,7.813569307327270508e-01,7.813256382942199707e-01,7.812943458557128906e-01,7.812630534172058105e-01,7.812317609786987305e-01,7.812004685401916504e-01,7.811692357063293457e-01,7.811380028724670410e-01,7.811067104339599609e-01,7.810754179954528809e-01,7.810441255569458008e-01,7.810128927230834961e-01,7.809816598892211914e-01,7.809504270553588867e-01,7.809191346168518066e-01,7.808879017829895020e-01,7.808566689491271973e-01,7.808254361152648926e-01,7.807942032814025879e-01,7.807629704475402832e-01,7.807317376136779785e-01,7.807005047798156738e-01,7.806692123413085938e-01,7.806380391120910645e-01,7.806068062782287598e-01,7.805755734443664551e-01,7.805443406105041504e-01,7.805131077766418457e-01
7.481037378311157227e-01,7.480750083923339844e-01,7.480463981628417969e-01,7.480177283287048340e-01,7.479890584945678711e-01,7.479603886604309082e-01,7.479317188262939453e-01,7.479029893875122070e-01,7.478744387626647949e-01,7.478457689285278320e-01,7.478170990943908691e-01,7.477884292602539062e-01,7.477597594261169434e-01,7.477310895919799805e-01,7.477024793624877930e-01,7.476738095283508301e-01,7.476451992988586426e-01,7.476165294647216797e-01,7.475878596305847168e-01,7.475592494010925293e-01,7.475306391716003418e-01,7.475020289421081543e-01,7.474733591079711914e-01,7.474447488784790039e-01,7.474160790443420410e-01,7.473874688148498535e-01,7.473589181900024414e-01,7.473302483558654785e-01,7.473016381263732910e-01,7.472730278968811035e-01,7.472443580627441406e-01,7.472158074378967285e-01,7.471871972084045410e-01,7.471585869789123535e-01,7.471299767494201660e-01,7.471013665199279785e-01,7.470727562904357910e-01,7.470442056655883789e-01,7.470155954360961914e-01,7.469869852066040039e-01,7.469584345817565918e-01,7.469298243522644043e-01,7.469012141227722168e-01,7.468726634979248047e-01,7.468441128730773926e-01,7.468155026435852051e-01,7.467868924140930176e-01,7.467583417892456055e-01,7.467297315597534180e-01,7.467012405395507812e-01,7.466726303100585938e-01,7.466440796852111816e-01,7.466154694557189941e-01,7.465869188308715820e-01,7.465583682060241699e-01,7.465298175811767578e-01,7.465012669563293457e-01,7.464727163314819336e-01,7.464441657066345215e-01,7.464156150817871094e-01,7.463871240615844727e-01,7.463585138320922852e-01,7.463299632072448730e-01,7.463014125823974609e-01,7.462728619575500488e-01,7.462443113327026367e-01,7.462158799171447754e-01,7.461873292922973633e-01,7.461587786674499512e-01,7.461302280426025391e-01,7.461016774177551270e-01,7.460731863975524902e-01,7.460446953773498535e-01,7.460161447525024414e-01,7.459876537322998047e-01,7.459591031074523926e-01,7.459306120872497559e-01,7.459020614624023438e-01,7.458736300468444824e-01,7.458450794219970703e-01
7.161961197853088379e-01,7.161698341369628906e-01,7.161435484886169434e-01,7.161172628402709961e-01,7.160909771919250488e-01,7.160647511482238770e-01,7.160384654998779297e-01,7.160121798515319824e-01,7.159858942031860352e-01,7.159596085548400879e-01,7.159333229064941406e-01,7.159070968627929688e-01,7.158808708190917969e-01,7.158545851707458496e-01,7.158282995223999023e-01,7.158020734786987305e-01,7.157757878303527832e-01,7.157495617866516113e-01,7.157233357429504395e-01,7.156970500946044922e-01,7.156708240509033203e-01,7.156445384025573730e-01,7.156183719635009766e-01,7.155921459197998047e-01,7.155658602714538574e-01,7.155396342277526855e-01,7.155134081840515137e-01,7.154871225357055664e-01,7.154609560966491699e-01,7.154347300529479980e-01,7.154085040092468262e-01,7.153822779655456543e-01,7.153560519218444824e-01,7.153297662734985352e-01,7.153035998344421387e-01,7.152773737907409668e-01,7.152511477470397949e-01,7.152249217033386230e-01,7.151987552642822266e-01,7.151725292205810547e-01,7.151463627815246582e-01,7.151201367378234863e-01,7.150939106941223145e-01,7.150677442550659180e-01,7.150415182113647461e-01,7.150152921676635742e-01,7.149891853332519531e-01,7.149629592895507812e-01,7.149367332458496094e-01,7.149105668067932129e-01,7.148843407630920410e-01,7.148582339286804199e-01,7.148320078849792480e-01,7.148058414459228516e-01,7.147796750068664551e-01,7.147534489631652832e-01,7.147272825241088867e-01,7.147011756896972656e-01,7.146749496459960938e-01,7.146487832069396973e-01,7.146226167678833008e-01,7.145964503288269043e-01,7.145702838897705078e-01,7.145441174507141113e-01,7.145179510116577148e-01,7.144917845726013184e-01,7.144656181335449219e-01,7.144394516944885254e-01,7.144132852554321289e-01,7.143871784210205078e-01,7.143610715866088867e-01,7.143349051475524902e-01,7.143087387084960938e-01,7.142825722694396973e-01,7.142564058303833008e-01,7.142303586006164551e-01,7.142041921615600586e-01,7.141780257225036621e-01,7.141519188880920410e-01,7.141257524490356445e-01
6.868989467620849609e-01,6.868747472763061523e-01,6.868506073951721191e-01,6.868264079093933105e-01,6.868022680282592773e-01,6.867780685424804688e-01,6.867538690567016602e-01,6.867297887802124023e-01,6.867055892944335938e-01,6.866814494132995605e-01,6.866572499275207520e-01,6.866331100463867188e-01,6.866089105606079102e-01,6.865848302841186523e-01,6.865606307983398438e-01,6.865364909172058105e-01,6.865123510360717773e-01,6.864881515502929688e-01,6.864640116691589355e-01,6.864399313926696777e-01,6.864157915115356445e-01,6.863915920257568359e-01,6.863674521446228027e-01,6.863433122634887695e-01,6.863191723823547363e-01,6.862950921058654785e-01,6.862709522247314453e-01,6.862468123435974121e-01,6.862226724624633789e-01,6.861985325813293457e-01,6.861743927001953125e-01,6.861503124237060547e-01,6.861261725425720215e-01,6.861020326614379883e-01,6.860778927803039551e-01,6.860538125038146973e-01,6.860297322273254395e-01,6.860055923461914062e-01,6.859814524650573730e-01,6.859573721885681152e-01,6.859332323074340820e-01,6.859090924263000488e-01,6.858850717544555664e-01,6.858609318733215332e-01,6.858368515968322754e-01,6.858127117156982422e-01,6.857886314392089844e-01,6.857644915580749512e-01,6.857404708862304688e-01,6.857163310050964355e-01,6.856922507286071777e-01,6.856681704521179199e-01,6.856440305709838867e-01,6.856199502944946289e-01,6.855959296226501465e-01,6.855717897415161133e-01,6.855477094650268555e-01,6.855236291885375977e-01,6.854995489120483398e-01,6.854754686355590820e-01,6.854514479637145996e-01,6.854273676872253418e-01,6.854032874107360840e-01,6.853792071342468262e-01,6.853551268577575684e-01,6.853311061859130859e-01,6.853070259094238281e-01,6.852829456329345703e-01,6.852588653564453125e-01,6.852347850799560547e-01,6.852107048034667969e-01,6.851867437362670898e-01,6.851626634597778320e-01,6.851385831832885742e-01,6.851145625114440918e-01,6.850904822349548340e-01,6.850664019584655762e-01,6.850424408912658691e-01,6.850183606147766113e-01,6.849942803382873535e-01
6.599044799804687500e-01,6.598821878433227539e-01,6.598598361015319824e-01,6.598375439643859863e-01,6.598152518272399902e-01,6.597929596900939941e-01,6.597706079483032227e-01,6.597483158111572266e-01,6.597260236740112305e-01,6.597036719322204590e-01,6.596814393997192383e-01,6.596591472625732422e-01,6.596368551254272461e-01,6.596145033836364746e-01,6.595922112464904785e-01,6.595699191093444824e-01,6.595476865768432617e-01,6.595253944396972656e-01,6.595031023025512695e-01,6.594808101654052734e-01,6.594585180282592773e-01,6.594362258911132812e-01,6.594139933586120605e-01,6.593917012214660645e-01,6.593694090843200684e-01,6.593471169471740723e-01,6.593248248100280762e-01,6.593025922775268555e-01,6.592803001403808594e-01,6.592580676078796387e-01,6.592357754707336426e-01,6.592134833335876465e-01,6.591911911964416504e-01,6.591689586639404297e-01,6.591467261314392090e-01,6.591244339942932129e-01,6.591022014617919922e-01,6.590799093246459961e-01,6.590576171875000000e-01,6.590354442596435547e-01,6.590131521224975586e-01,6.589909195899963379e-01,6.589686274528503418e-01,6.589463949203491211e-01,6.589241027832031250e-01,6.589019298553466797e-01,6.588796973228454590e-01,6.588574051856994629e-01,6.588351726531982422e-01,6.588129401206970215e-01,6.587906479835510254e-01,6.587684750556945801e-01,6.587462425231933594e-01,6.587240099906921387e-01,6.587017774581909180e-01,6.586794853210449219e-01,6.586573123931884766e-01,6.586350798606872559e-01,6.586128473281860352e-01,6.585906147956848145e-01,6.585683822631835938e-01,6.585461497306823730e-01,6.585239768028259277e-01,6.585017442703247070e-01,6.584795117378234863e-01,6.584572792053222656e-01,6.584350466728210449e-01,6.584128141403198242e-01,6.583907008171081543e-01,6.583684682846069336e-01,6.583462357521057129e-01,6.583240032196044922e-01,6.583018302917480469e-01,6.582795977592468262e-01,6.582574248313903809e-01,6.582351922988891602e-01,6.582130193710327148e-01,6.581907868385314941e-01,6.581686139106750488e-01,6.581463813781738281e-01
6.349514722824096680e-01,6.349308490753173828e-01,6.349101662635803223e-01,6.348895430564880371e-01,6.348688602447509766e-01,6.348481774330139160e-01,6.348275542259216309e-01,6.348069310188293457e-01,6.347862482070922852e-01,6.347656250000000000e-01,6.347449421882629395e-01,6.347243189811706543e-01,6.347036361694335938e-01,6.346830725669860840e-01,6.346623897552490234e-01,6.346417665481567383e-01,6.346211433410644531e-01,6.346004605293273926e-01,6.345798969268798828e-01,6.345592141151428223e-01,6.345385909080505371e-01,6.345179677009582520e-01,6.344973444938659668e-01,6.344766616821289062e-01,6.344560980796813965e-01,6.344354748725891113e-01,6.344148516654968262e-01,6.343942284584045410e-01,6.343736052513122559e-01,6.343529820442199707e-01,6.343323588371276855e-01,6.343117356300354004e-01,6.342911124229431152e-01,6.342704892158508301e-01,6.342498660087585449e-01,6.342292428016662598e-01,6.342086791992187500e-01,6.341880559921264648e-01,6.341674327850341797e-01,6.341468691825866699e-01,6.341262459754943848e-01,6.341056227684020996e-01,6.340850591659545898e-01,6.340644359588623047e-01,6.340438723564147949e-01,6.340232491493225098e-01,6.340026259422302246e-01,6.339820623397827148e-01,6.339614987373352051e-01,6.339408755302429199e-01,6.339202523231506348e-01,6.338996887207031250e-01,6.338790655136108398e-01,6.338585615158081055e-01,6.338379383087158203e-01,6.338173747062683105e-01,6.337967514991760254e-01,6.337761878967285156e-01,6.337555646896362305e-01,6.337350606918334961e-01,6.337144374847412109e-01,6.336938738822937012e-01,6.336733102798461914e-01,6.336526870727539062e-01,6.336321234703063965e-01,6.336115598678588867e-01,6.335909962654113770e-01,6.335704326629638672e-01,6.335498690605163574e-01,6.335292458534240723e-01,6.335086822509765625e-01,6.334881782531738281e-01,6.334676146507263184e-01,6.334470510482788086e-01,6.334264874458312988e-01,6.334059238433837891e-01,6.333853602409362793e-01,6.333647966384887695e-01,6.333442330360412598e-01,6.333236694335937500e-01
6.118168830871582031e-01,6.117976903915405273e-01,6.117784976959228516e-01,6.117593646049499512e-01,6.117401719093322754e-01,6.117209792137145996e-01,6.117017865180969238e-01,6.116826534271240234e-01,6.116634607315063477e-01,6.116443276405334473e-01,6.116251349449157715e-01,6.116059422492980957e-01,6.115868091583251953e-01,6.115676164627075195e-01,6.115484237670898438e-01,6.115293502807617188e-01,6.115101575851440430e-01,6.114909648895263672e-01,6.114718317985534668e-01,6.114526391029357910e-01,6.114335060119628906e-01,6.114143729209899902e-01,6.113951802253723145e-01,6.113760471343994141e-01,6.113569140434265137e-01,6.113377213478088379e-01,6.113185882568359375e-01,6.112994551658630371e-01,6.112803220748901367e-01,6.112611293792724609e-01,6.112419962882995605e-01,6.112228631973266602e-01,6.112036705017089844e-01,6.111845970153808594e-01,6.111654639244079590e-01,6.111462712287902832e-01,6.111271381378173828e-01,6.111080050468444824e-01,6.110889315605163574e-01,6.110697984695434570e-01,6.110506057739257812e-01,6.110314726829528809e-01,6.110123395919799805e-01,6.109932065010070801e-01,6.109741330146789551e-01,6.109549999237060547e-01,6.109358668327331543e-01,6.109167337417602539e-01,6.108976006507873535e-01,6.108784675598144531e-01,6.108593940734863281e-01,6.108402609825134277e-01,6.108211278915405273e-01,6.108019948005676270e-01,6.107828617095947266e-01,6.107637286186218262e-01,6.107446551322937012e-01,6.107255816459655762e-01,6.107064485549926758e-01,6.106873154640197754e-01,6.106681823730468750e-01,6.106491088867187500e-01,6.106300354003906250e-01,6.106109023094177246e-01,6.105917692184448242e-01,6.105726957321166992e-01,6.105535626411437988e-01,6.105344891548156738e-01,6.105154156684875488e-01,6.104962825775146484e-01,6.104772090911865234e-01,6.104580760002136230e-01,6.104390025138854980e-01,6.104199290275573730e-01,6.104008555412292480e-01,6.103817224502563477e-01,6.103626489639282227e-01,6.103435158729553223e-01,6.103244423866271973e-01,6.103054285049438477e-01
