5.000000000000000000e+00,5.000000000000000000e+00,5.000000000000000000e+00,5.000000000000000000e+00,5.000000000000000000e+00,5.000000000000000000e+00,5.000000000000000000e+00,5.000000000000000000e+00,5.000000000000000000e+00,5.000000000000000000e+00,5.000000000000000000e+00,5.000000000000000000e+00,5.000000000000000000e+00,5.000000000000000000e+00,5.000000000000000000e+00,5.000000000000000000e+00,5.000000000000000000e+00,5.000000000000000000e+00,5.000000000000000000e+00,5.000000000000000000e+00,5.000000000000000000e+00,5.000000000000000000e+00,5.000000000000000000e+00,5.000000000000000000e+00,5.000000000000000000e+00,5.000000000000000000e+00,5.000000000000000000e+00,5.000000000000000000e+00,5.000000000000000000e+00,5.000000000000000000e+00,5.000000000000000000e+00,5.000000000000000000e+00,1.952590227127075195e+00,1.935256719589233398e+00,1.942118883132934570e+00,1.859645843505859375e+00,1.837927460670471191e+00,1.830695629119873047e+00,1.834364533424377441e+00,1.848328709602355957e+00,1.850459575653076172e+00,1.866943836212158203e+00,1.941955804824829102e+00,2.030666351318359375e+00,1.981876254081726074e+00,1.982504487037658691e+00,3.781375885009765625e+00,3.664840459823608398e+00,3.555273056030273438e+00,3.452067136764526367e+00,3.354684114456176758e+00,3.262644529342651367e+00,3.175520420074462891e+00,3.092928409576416016e+00,3.014523744583129883e+00,2.939996004104614258e+00,2.869064569473266602e+00,2.801474809646606445e+00,2.736996412277221680e+00,2.675419330596923828e+00,2.616552114486694336e+00,2.560219287872314453e+00,2.506261348724365234e+00,2.454530715942382812e+00,2.404892444610595703e+00,2.357222080230712891e+00,2.311404705047607422e+00,2.267334461212158203e+00,2.224913597106933594e+00,2.184050559997558594e+00,2.144661664962768555e+00,2.106668233871459961e+00,2.069997549057006836e+00,2.034581661224365234e+00,2.000357151031494141e+00,1.967265367507934570e+00,1.935250401496887207e+00,1.904260635375976562e+00,1.874247908592224121e+00,1.845166325569152832e+00
5.000000000000000000e+00,5.000000000000000000e+00,5.000000000000000000e+00,5.000000000000000000e+00,5.000000000000000000e+00,5.000000000000000000e+00,5.000000000000000000e+00,5.000000000000000000e+00,5.000000000000000000e+00,5.000000000000000000e+00,5.000000000000000000e+00,5.000000000000000000e+00,5.000000000000000000e+00,5.000000000000000000e+00,5.000000000000000000e+00,5.000000000000000000e+00,5.000000000000000000e+00,5.000000000000000000e+00,5.000000000000000000e+00,5.000000000000000000e+00,5.000000000000000000e+00,5.000000000000000000e+00,5.000000000000000000e+00,5.000000000000000000e+00,5.000000000000000000e+00,5.000000000000000000e+00,5.000000000000000000e+00,5.000000000000000000e+00,5.000000000000000000e+00,5.000000000000000000e+00,5.000000000000000000e+00,5.000000000000000000e+00,1.962351202964782715e+00,1.942939877510070801e+00,1.896897077560424805e+00,1.857157349586486816e+00,1.833497285842895508e+00,1.826541781425476074e+00,1.829309582710266113e+00,1.839070081710815430e+00,1.845573186874389648e+00,1.859711289405822754e+00,1.902058362960815430e+00,4.180242061614990234e+00,1.991321325302124023e+00,1.989426970481872559e+00,3.781460762023925781e+00,3.664920091629028320e+00,3.555347919464111328e+00,3.452137470245361328e+00,3.354750871658325195e+00,3.262707710266113281e+00,3.175580263137817383e+00,3.092985153198242188e+00,3.014577627182006836e+00,2.940047264099121094e+00,2.869113206863403320e+00,2.801521301269531250e+00,2.737040758132934570e+00,2.675461769104003906e+00,2.616592645645141602e+00,2.560258150100708008e+00,2.506298542022705078e+00,2.454566478729248047e+00,2.404926776885986328e+00,2.357254981994628906e+00,2.311436414718627930e+00,2.267364978790283203e+00,2.224942684173583984e+00,2.184078931808471680e+00,2.144688844680786133e+00,2.106694698333740234e+00,2.070022821426391602e+00,2.034606218338012695e+00,2.000380992889404297e+00,1.967288136482238770e+00,1.935272455215454102e+00,1.904282212257385254e+00,1.874268651008605957e+00,1.845186591148376465e+00
5.000000000000000000e+00,5.000000000000000000e+00,5.000000000000000000e+00,5.000000000000000000e+00,5.000000000000000000e+00,5.000000000000000000e+00,5.000000000000000000e+00,5.000000000000000000e+00,5.000000000000000000e+00,5.000000000000000000e+00,5.000000000000000000e+00,5.000000000000000000e+00,5.000000000000000000e+00,5.000000000000000000e+00,5.000000000000000000e+00,5.000000000000000000e+00,5.000000000000000000e+00,5.000000000000000000e+00,5.000000000000000000e+00,5.000000000000000000e+00,5.000000000000000000e+00,5.000000000000000000e+00,5.000000000000000000e+00,5.000000000000000000e+00,5.000000000000000000e+00,5.000000000000000000e+00,5.000000000000000000e+00,5.000000000000000000e+00,5.000000000000000000e+00,5.000000000000000000e+00,5.000000000000000000e+00,5.000000000000000000e+00,1.971633076667785645e+00,1.954472541809082031e+00,1.898387670516967773e+00,1.856975197792053223e+00,1.850501656532287598e+00,1.839790225028991699e+00,1.838207483291625977e+00,1.839171886444091797e+00,1.854241132736206055e+00,1.875630378723144531e+00,1.912944078445434570e+00,4.180346012115478516e+00,1.994966745376586914e+00,1.982202649116516113e+00,2.008110523223876953e+00,3.664999723434448242e+00,3.555423021316528320e+00,3.452208280563354492e+00,3.354817152023315430e+00,3.262770652770996094e+00,3.175640106201171875e+00,3.093041896820068359e+00,3.014631509780883789e+00,2.940098524093627930e+00,2.869161844253540039e+00,2.801568031311035156e+00,2.737085342407226562e+00,2.675504207611083984e+00,2.616633176803588867e+00,2.560297012329101562e+00,2.506335735321044922e+00,2.454602003097534180e+00,2.404961109161376953e+00,2.357287883758544922e+00,2.311467885971069336e+00,2.267395496368408203e+00,2.224972009658813477e+00,2.184107065200805664e+00,2.144716262817382812e+00,2.106720924377441406e+00,2.070048332214355469e+00,2.034630775451660156e+00,2.000404834747314453e+00,1.967311263084411621e+00,1.935294866561889648e+00,1.904303669929504395e+00,1.874289512634277344e+00,1.845206737518310547e+00
5.000000000000000000e+00,5.000000000000000000e+00,5.000000000000000000e+00,5.000000000000000000e+00,5.000000000000000000e+00,5.000000000000000000e+00,5.000000000000000000e+00,5.000000000000000000e+00,5.000000000000000000e+00,5.000000000000000000e+00,5.000000000000000000e+00,5.000000000000000000e+00,5.000000000000000000e+00,5.000000000000000000e+00,5.000000000000000000e+00,5.000000000000000000e+00,5.000000000000000000e+00,5.000000000000000000e+00,5.000000000000000000e+00,5.000000000000000000e+00,5.000000000000000000e+00,5.000000000000000000e+00,5.000000000000000000e+00,5.000000000000000000e+00,5.000000000000000000e+00,5.000000000000000000e+00,5.000000000000000000e+00,5.000000000000000000e+00,5.000000000000000000e+00,5.000000000000000000e+00,5.000000000000000000e+00,5.000000000000000000e+00,1.973898649215698242e+00,1.952119231224060059e+00,1.905595302581787109e+00,1.866767525672912598e+00,1.852039813995361328e+00,1.842969894409179688e+00,1.842254281044006348e+00,1.838422298431396484e+00,1.855320692062377930e+00,1.870708584785461426e+00,1.905173778533935547e+00,4.180449485778808594e+00,1.983598709106445312e+00,1.963617920875549316e+00,1.967230081558227539e+00,3.665079355239868164e+00,3.555497884750366211e+00,3.452278852462768555e+00,3.354883909225463867e+00,3.262833595275878906e+00,3.175699949264526367e+00,3.093098640441894531e+00,3.014685392379760742e+00,2.940149784088134766e+00,2.869210720062255859e+00,2.801614284515380859e+00,2.737129688262939453e+00,2.675546646118164062e+00,2.616673707962036133e+00,2.560335874557495117e+00,2.506372928619384766e+00,2.454637765884399414e+00,2.404995203018188477e+00,2.357320785522460938e+00,2.311499595642089844e+00,2.267426013946533203e+00,2.225001335144042969e+00,2.184135437011718750e+00,2.144743442535400391e+00,2.106747150421142578e+00,2.070073604583740234e+00,2.034655332565307617e+00,2.000428438186645508e+00,1.967334032058715820e+00,1.935316920280456543e+00,1.904325246810913086e+00,1.874310255050659180e+00,1.845227003097534180e+00
5.000000000000000000e+00,5.000000000000000000e+00,5.000000000000000000e+00,5.000000000000000000e+00,5.000000000000000000e+00,5.000000000000000000e+00,5.000000000000000000e+00,5.000000000000000000e+00,5.000000000000000000e+00,5.000000000000000000e+00,5.000000000000000000e+00,5.000000000000000000e+00,5.000000000000000000e+00,5.000000000000000000e+00,5.000000000000000000e+00,5.000000000000000000e+00,5.000000000000000000e+00,5.000000000000000000e+00,5.000000000000000000e+00,5.000000000000000000e+00,5.000000000000000000e+00,5.000000000000000000e+00,5.000000000000000000e+00,5.000000000000000000e+00,5.000000000000000000e+00,5.000000000000000000e+00,5.000000000000000000e+00,5.000000000000000000e+00,5.000000000000000000e+00,5.000000000000000000e+00,5.000000000000000000e+00,5.000000000000000000e+00,1.953770995140075684e+00,1.933932185173034668e+00,1.916615366935729980e+00,1.861836791038513184e+00,1.844118833541870117e+00,1.852232098579406738e+00,1.851523756980895996e+00,1.844648003578186035e+00,1.862529993057250977e+00,1.872270464897155762e+00,1.899644732475280762e+00,4.180552959442138672e+00,1.980102062225341797e+00,1.955423831939697266e+00,1.953834533691406250e+00,3.665158987045288086e+00,3.555572986602783203e+00,3.452349662780761719e+00,3.354950666427612305e+00,3.262896776199340820e+00,3.175759792327880859e+00,3.093155384063720703e+00,3.014739274978637695e+00,2.940201044082641602e+00,2.869259595870971680e+00,2.801660776138305664e+00,2.737173795700073242e+00,2.675589084625244141e+00,2.616714477539062500e+00,2.560374975204467773e+00,2.506410360336303711e+00,2.454673528671264648e+00,2.405029535293579102e+00,2.357353925704956055e+00,2.311531305313110352e+00,2.267456293106079102e+00,2.225030660629272461e+00,2.184163570404052734e+00,2.144770622253417969e+00,2.106773376464843750e+00,2.070099115371704102e+00,2.034679889678955078e+00,2.000452280044555664e+00,1.967357158660888672e+00,1.935339093208312988e+00,1.904346704483032227e+00,1.874331235885620117e+00,1.845247149467468262e+00
5.000000000000000000e+00,5.000000000000000000e+00,5.000000000000000000e+00,5.000000000000000000e+00,5.000000000000000000e+00,5.000000000000000000e+00,5.000000000000000000e+00,5.000000000000000000e+00,5.000000000000000000e+00,5.000000000000000000e+00,5.000000000000000000e+00,5.000000000000000000e+00,5.000000000000000000e+00,5.000000000000000000e+00,5.000000000000000000e+00,5.000000000000000000e+00,5.000000000000000000e+00,5.000000000000000000e+00,5.000000000000000000e+00,5.000000000000000000e+00,5.000000000000000000e+00,5.000000000000000000e+00,5.000000000000000000e+00,5.000000000000000000e+00,5.000000000000000000e+00,5.000000000000000000e+00,5.000000000000000000e+00,5.000000000000000000e+00,5.000000000000000000e+00,5.000000000000000000e+00,5.000000000000000000e+00,5.000000000000000000e+00,1.941503405570983887e+00,1.922790288925170898e+00,1.823297739028930664e+00,1.798496723175048828e+00,1.777179002761840820e+00,1.808961629867553711e+00,1.865768074989318848e+00,1.858275532722473145e+00,1.880301117897033691e+00,1.882616519927978516e+00,1.892012238502502441e+00,4.180656433105468750e+00,2.011569261550903320e+00,1.953621864318847656e+00,1.934284687042236328e+00,3.665238618850708008e+00,3.555647850036621094e+00,3.452420234680175781e+00,3.355017423629760742e+00,3.262959718704223633e+00,3.175819158554077148e+00,3.093212127685546875e+00,3.014793157577514648e+00,2.940252304077148438e+00,2.869308471679687500e+00,2.801707267761230469e+00,2.737218379974365234e+00,2.675631523132324219e+00,2.616755008697509766e+00,2.560413837432861328e+00,2.506447553634643555e+00,2.454709291458129883e+00,2.405063629150390625e+00,2.357386589050292969e+00,2.311563014984130859e+00,2.267486810684204102e+00,2.225060224533081055e+00,2.184191942214965820e+00,2.144797801971435547e+00,2.106799840927124023e+00,2.070124387741088867e+00,2.034704446792602539e+00,2.000475883483886719e+00,1.967379927635192871e+00,1.935361385345458984e+00,1.904368042945861816e+00,1.874351978302001953e+00,1.845267415046691895e+00
5.000000000000000000e+00,5.000000000000000000e+00,5.000000000000000000e+00,5.000000000000000000e+00,5.000000000000000000e+00,5.000000000000000000e+00,5.000000000000000000e+00,5.000000000000000000e+00,5.000000000000000000e+00,5.000000000000000000e+00,5.000000000000000000e+00,5.000000000000000000e+00,5.000000000000000000e+00,5.000000000000000000e+00,5.000000000000000000e+00,5.000000000000000000e+00,5.000000000000000000e+00,5.000000000000000000e+00,5.000000000000000000e+00,5.000000000000000000e+00,5.000000000000000000e+00,5.000000000000000000e+00,5.000000000000000000e+00,5.000000000000000000e+00,5.000000000000000000e+00,5.000000000000000000e+00,5.000000000000000000e+00,5.000000000000000000e+00,5.000000000000000000e+00,5.000000000000000000e+00,5.000000000000000000e+00,5.000000000000000000e+00,1.932156443595886230e+00,1.910720586776733398e+00,1.797338724136352539e+00,1.775734543800354004e+00,1.755385041236877441e+00,1.768096208572387695e+00,1.794459223747253418e+00,1.893067598342895508e+00,1.882878065109252930e+00,1.875858306884765625e+00,1.881642103195190430e+00,1.914494633674621582e+00,4.038770198822021484e+00,1.953858017921447754e+00,1.921897768974304199e+00,1.938875555992126465e+00,3.555722951889038086e+00,3.452491044998168945e+00,3.355084180831909180e+00,3.263022899627685547e+00,3.175879001617431641e+00,3.093268632888793945e+00,3.014847040176391602e+00,2.940303564071655273e+00,2.869357109069824219e+00,2.801753997802734375e+00,2.737262725830078125e+00,2.675673961639404297e+00,2.616795539855957031e+00,2.560452699661254883e+00,2.506484746932983398e+00,2.454745054244995117e+00,2.405097961425781250e+00,2.357419490814208984e+00,2.311594486236572266e+00,2.267517328262329102e+00,2.225089550018310547e+00,2.184220314025878906e+00,2.144825220108032227e+00,2.106826066970825195e+00,2.070149898529052734e+00,2.034729003906250000e+00,2.000499725341796875e+00,1.967403054237365723e+00,1.935383439064025879e+00,1.904389739036560059e+00,1.874372720718383789e+00,1.845287561416625977e+00
5.000000000000000000e+00,5.000000000000000000e+00,5.000000000000000000e+00,5.000000000000000000e+00,5.000000000000000000e+00,5.000000000000000000e+00,5.000000000000000000e+00,5.000000000000000000e+00,5.000000000000000000e+00,5.000000000000000000e+00,5.000000000000000000e+00,5.000000000000000000e+00,5.000000000000000000e+00,5.000000000000000000e+00,5.000000000000000000e+00,5.000000000000000000e+00,5.000000000000000000e+00,5.000000000000000000e+00,5.000000000000000000e+00,5.000000000000000000e+00,5.000000000000000000e+00,5.000000000000000000e+00,5.000000000000000000e+00,5.000000000000000000e+00,5.000000000000000000e+00,5.000000000000000000e+00,5.000000000000000000e+00,5.000000000000000000e+00,5.000000000000000000e+00,5.000000000000000000e+00,5.000000000000000000e+00,5.000000000000000000e+00,1.916509389877319336e+00,1.893544554710388184e+00,1.778325200080871582e+00,1.757983565330505371e+00,1.738476276397705078e+00,1.750123739242553711e+00,1.773379087448120117e+00,1.902022123336791992e+00,1.871410965919494629e+00,1.861680150032043457e+00,1.867208600044250488e+00,1.898957729339599609e+00,4.038866996765136719e+00,3.906198978424072266e+00,1.937442898750305176e+00,1.930705308914184570e+00,3.555797815322875977e+00,3.452561616897583008e+00,3.355150938034057617e+00,3.263086080551147461e+00,3.175938844680786133e+00,3.093325376510620117e+00,3.014900684356689453e+00,2.940354824066162109e+00,2.869405984878540039e+00,2.801800489425659180e+00,2.737307071685791016e+00,2.675716400146484375e+00,2.616836071014404297e+00,2.560491561889648438e+00,2.506522178649902344e+00,2.454780817031860352e+00,2.405132293701171875e+00,2.357452630996704102e+00,2.311626195907592773e+00,2.267547607421875000e+00,2.225118875503540039e+00,2.184248447418212891e+00,2.144852399826049805e+00,2.106852293014526367e+00,2.070175170898437500e+00,2.034753322601318359e+00,2.000523328781127930e+00,1.967425942420959473e+00,1.935405850410461426e+00,1.904411077499389648e+00,1.874393582344055176e+00,1.845307588577270508e+00
5.000000000000000000e+00,5.000000000000000000e+00,5.000000000000000000e+00,5.000000000000000000e+00,4.912694931030273438e+00,5.000000000000000000e+00,5.000000000000000000e+00,5.000000000000000000e+00,5.000000000000000000e+00,5.000000000000000000e+00,5.000000000000000000e+00,5.000000000000000000e+00,5.000000000000000000e+00,5.000000000000000000e+00,5.000000000000000000e+00,5.000000000000000000e+00,5.000000000000000000e+00,5.000000000000000000e+00,5.000000000000000000e+00,5.000000000000000000e+00,5.000000000000000000e+00,5.000000000000000000e+00,5.000000000000000000e+00,5.000000000000000000e+00,5.000000000000000000e+00,5.000000000000000000e+00,5.000000000000000000e+00,5.000000000000000000e+00,5.000000000000000000e+00,5.000000000000000000e+00,5.000000000000000000e+00,5.000000000000000000e+00,1.904626607894897461e+00,1.898288369178771973e+00,1.763028383255004883e+00,1.741504669189453125e+00,1.721890330314636230e+00,1.733366847038269043e+00,1.753948926925659180e+00,1.892325520515441895e+00,1.862034916877746582e+00,1.854893207550048828e+00,1.862619757652282715e+00,1.895959496498107910e+00,4.038963794708251953e+00,3.906289339065551758e+00,1.891362547874450684e+00,1.895282149314880371e+00,3.555872440338134766e+00,3.452632427215576172e+00,3.355217695236206055e+00,3.263149261474609375e+00,3.175998687744140625e+00,3.093382120132446289e+00,3.014954805374145508e+00,2.940405845642089844e+00,2.869454860687255859e+00,2.801846981048583984e+00,2.737351655960083008e+00,2.675758838653564453e+00,2.616876602172851562e+00,2.560530185699462891e+00,2.506559371948242188e+00,2.454816579818725586e+00,2.405166625976562500e+00,2.357485532760620117e+00,2.311657905578613281e+00,2.267578125000000000e+00,2.225148200988769531e+00,2.184276819229125977e+00,2.144879817962646484e+00,2.106878757476806641e+00,2.070200681686401367e+00,2.034777879714965820e+00,2.000546932220458984e+00,1.967448949813842773e+00,1.935427904129028320e+00,1.904432773590087891e+00,1.874414324760437012e+00,1.845327854156494141e+00
5.000000000000000000e+00,5.000000000000000000e+00,5.000000000000000000e+00,4.934628486633300781e+00,4.905759811401367188e+00,5.000000000000000000e+00,5.000000000000000000e+00,5.000000000000000000e+00,5.000000000000000000e+00,5.000000000000000000e+00,5.000000000000000000e+00,5.000000000000000000e+00,5.000000000000000000e+00,5.000000000000000000e+00,5.000000000000000000e+00,5.000000000000000000e+00,5.000000000000000000e+00,5.000000000000000000e+00,5.000000000000000000e+00,5.000000000000000000e+00,5.000000000000000000e+00,5.000000000000000000e+00,5.000000000000000000e+00,5.000000000000000000e+00,5.000000000000000000e+00,5.000000000000000000e+00,5.000000000000000000e+00,5.000000000000000000e+00,5.000000000000000000e+00,5.000000000000000000e+00,5.000000000000000000e+00,5.000000000000000000e+00,1.904625177383422852e+00,1.879860877990722656e+00,1.772135138511657715e+00,1.726832389831542969e+00,1.706178188323974609e+00,1.714870691299438477e+00,1.734493970870971680e+00,1.891963601112365723e+00,1.860525250434875488e+00,1.852990388870239258e+00,1.861520648002624512e+00,1.894876718521118164e+00,4.039060592651367188e+00,3.906379938125610352e+00,1.871074438095092773e+00,1.878897070884704590e+00,3.555947542190551758e+00,3.452702760696411133e+00,3.355284452438354492e+00,3.263212442398071289e+00,3.176058530807495117e+00,3.093438863754272461e+00,3.015008687973022461e+00,2.940457105636596680e+00,2.869503736495971680e+00,2.801893472671508789e+00,2.737396001815795898e+00,2.675801277160644531e+00,2.616917371749877930e+00,2.560569047927856445e+00,2.506596326828002930e+00,2.454852104187011719e+00,2.405200958251953125e+00,2.357518434524536133e+00,2.311689615249633789e+00,2.267608642578125000e+00,2.225177526473999023e+00,2.184305191040039062e+00,2.144906997680664062e+00,2.106904983520507812e+00,2.070225954055786133e+00,2.034802436828613281e+00,2.000570774078369141e+00,1.967471837997436523e+00,1.935450196266174316e+00,1.904454112052917480e+00,1.874435305595397949e+00,1.845348000526428223e+00
5.000000000000000000e+00,5.000000000000000000e+00,5.000000000000000000e+00,5.000000000000000000e+00,4.922574043273925781e+00,5.000000000000000000e+00,5.000000000000000000e+00,5.000000000000000000e+00,5.000000000000000000e+00,5.000000000000000000e+00,5.000000000000000000e+00,5.000000000000000000e+00,5.000000000000000000e+00,5.000000000000000000e+00,5.000000000000000000e+00,5.000000000000000000e+00,5.000000000000000000e+00,5.000000000000000000e+00,5.000000000000000000e+00,5.000000000000000000e+00,5.000000000000000000e+00,5.000000000000000000e+00,5.000000000000000000e+00,5.000000000000000000e+00,5.000000000000000000e+00,5.000000000000000000e+00,5.000000000000000000e+00,5.000000000000000000e+00,5.000000000000000000e+00,5.000000000000000000e+00,5.000000000000000000e+00,5.000000000000000000e+00,1.883296012878417969e+00,1.857035636901855469e+00,1.789504289627075195e+00,1.709369778633117676e+00,1.687607049942016602e+00,1.697221994400024414e+00,1.715959548950195312e+00,1.892478346824645996e+00,1.861101269721984863e+00,1.853815555572509766e+00,1.862683057785034180e+00,1.896503210067749023e+00,4.039156913757324219e+00,3.906470298767089844e+00,1.866730213165283203e+00,3.665636777877807617e+00,1.886819601058959961e+00,3.452773332595825195e+00,3.355350971221923828e+00,3.263275623321533203e+00,3.176118373870849609e+00,3.093495607376098633e+00,3.015062570571899414e+00,2.940508365631103516e+00,2.869552373886108398e+00,2.801940202713012695e+00,2.737440586090087891e+00,2.675843715667724609e+00,2.616957902908325195e+00,2.560607910156250000e+00,2.506633758544921875e+00,2.454887866973876953e+00,2.405235290527343750e+00,2.357551336288452148e+00,2.311721324920654297e+00,2.267639160156250000e+00,2.225206851959228516e+00,2.184333324432373047e+00,2.144934415817260742e+00,2.106931447982788086e+00,2.070251464843750000e+00,2.034826993942260742e+00,2.000594377517700195e+00,1.967494606971740723e+00,1.935472369194030762e+00,1.904475688934326172e+00,1.874456048011779785e+00,1.845368266105651855e+00
5.000000000000000000e+00,4.854201316833496094e+00,4.892945766448974609e+00,4.891042709350585938e+00,4.972297191619873047e+00,4.987961769104003906e+00,5.000000000000000000e+00,5.000000000000000000e+00,5.000000000000000000e+00,5.000000000000000000e+00,5.000000000000000000e+00,5.000000000000000000e+00,5.000000000000000000e+00,5.000000000000000000e+00,5.000000000000000000e+00,5.000000000000000000e+00,5.000000000000000000e+00,5.000000000000000000e+00,5.000000000000000000e+00,5.000000000000000000e+00,5.000000000000000000e+00,5.000000000000000000e+00,5.000000000000000000e+00,5.000000000000000000e+00,5.000000000000000000e+00,5.000000000000000000e+00,5.000000000000000000e+00,5.000000000000000000e+00,5.000000000000000000e+00,5.000000000000000000e+00,5.000000000000000000e+00,5.000000000000000000e+00,1.863920569419860840e+00,1.852203011512756348e+00,1.839124202728271484e+00,1.691395401954650879e+00,1.669242858886718750e+00,1.680221319198608398e+00,1.695334792137145996e+00,1.892162203788757324e+00,1.860069155693054199e+00,1.854641675949096680e+00,1.863847017288208008e+00,1.900079488754272461e+00,4.039253711700439453e+00,3.906560897827148438e+00,3.782308578491210938e+00,3.665716409683227539e+00,1.841476559638977051e+00,3.452844142913818359e+00,3.355417728424072266e+00,3.263338327407836914e+00,3.176178216934204102e+00,3.093552350997924805e+00,3.015116453170776367e+00,2.940559625625610352e+00,2.869601011276245117e+00,2.801986455917358398e+00,2.737484931945800781e+00,2.675886154174804688e+00,2.616998434066772461e+00,2.560646772384643555e+00,2.506670951843261719e+00,2.454923391342163086e+00,2.405269622802734375e+00,2.357584476470947266e+00,2.311753034591674805e+00,2.267669677734375000e+00,2.225236177444458008e+00,2.184361696243286133e+00,2.144961357116699219e+00,2.106957674026489258e+00,2.070276975631713867e+00,2.034851551055908203e+00,2.000618219375610352e+00,1.967517733573913574e+00,1.935494422912597656e+00,1.904497146606445312e+00,1.874477028846740723e+00,1.845388412475585938e+00
5.000000000000000000e+00,4.849501609802246094e+00,4.857099056243896484e+00,4.859737873077392578e+00,4.904155731201171875e+00,4.945325374603271484e+00,5.000000000000000000e+00,5.000000000000000000e+00,5.000000000000000000e+00,5.000000000000000000e+00,5.000000000000000000e+00,5.000000000000000000e+00,5.000000000000000000e+00,5.000000000000000000e+00,5.000000000000000000e+00,5.000000000000000000e+00,5.000000000000000000e+00,5.000000000000000000e+00,5.000000000000000000e+00,5.000000000000000000e+00,5.000000000000000000e+00,5.000000000000000000e+00,5.000000000000000000e+00,5.000000000000000000e+00,5.000000000000000000e+00,5.000000000000000000e+00,5.000000000000000000e+00,5.000000000000000000e+00,5.000000000000000000e+00,5.000000000000000000e+00,5.000000000000000000e+00,5.000000000000000000e+00,1.851925253868103027e+00,5.000000000000000000e+00,5.000000000000000000e+00,1.679224967956542969e+00,1.651274085044860840e+00,1.661881685256958008e+00,1.674859881401062012e+00,1.891534686088562012e+00,1.859038472175598145e+00,1.854573726654052734e+00,1.865829944610595703e+00,1.903669714927673340e+00,4.039350509643554688e+00,3.906651020050048828e+00,3.782393455505371094e+00,3.665796041488647461e+00,3.556172370910644531e+00,3.452914714813232422e+00,3.355484485626220703e+00,3.263401508331298828e+00,3.176238059997558594e+00,3.093609094619750977e+00,3.015170335769653320e+00,2.940610885620117188e+00,2.869649887084960938e+00,2.802032947540283203e+00,2.737529039382934570e+00,2.675928592681884766e+00,2.617039203643798828e+00,2.560685634613037109e+00,2.506708145141601562e+00,2.454959154129028320e+00,2.405303716659545898e+00,2.357617378234863281e+00,2.311784744262695312e+00,2.267700195312500000e+00,2.225265502929687500e+00,2.184389829635620117e+00,2.144988775253295898e+00,2.106983900070190430e+00,2.070302248001098633e+00,2.034876108169555664e+00,2.000642061233520508e+00,1.967540502548217773e+00,1.935516715049743652e+00,1.904518604278564453e+00,1.874497771263122559e+00,1.845408678054809570e+00
5.000000000000000000e+00,4.882083415985107422e+00,4.872560501098632812e+00,4.865437984466552734e+00,4.893495082855224609e+00,4.950553894042968750e+00,5.000000000000000000e+00,5.000000000000000000e+00,5.000000000000000000e+00,5.000000000000000000e+00,5.000000000000000000e+00,5.000000000000000000e+00,5.000000000000000000e+00,5.000000000000000000e+00,5.000000000000000000e+00,5.000000000000000000e+00,5.000000000000000000e+00,5.000000000000000000e+00,5.000000000000000000e+00,5.000000000000000000e+00,5.000000000000000000e+00,5.000000000000000000e+00,5.000000000000000000e+00,5.000000000000000000e+00,5.000000000000000000e+00,5.000000000000000000e+00,5.000000000000000000e+00,5.000000000000000000e+00,5.000000000000000000e+00,5.000000000000000000e+00,5.000000000000000000e+00,5.000000000000000000e+00,1.839472413063049316e+00,5.000000000000000000e+00,5.000000000000000000e+00,1.667228698730468750e+00,1.636851549148559570e+00,1.643422484397888184e+00,1.654873728752136230e+00,1.890089750289916992e+00,1.858469963073730469e+00,1.854114174842834473e+00,1.866270899772644043e+00,4.181485652923583984e+00,4.039447307586669922e+00,3.906741380691528320e+00,3.782477855682373047e+00,3.665875673294067383e+00,3.556247472763061523e+00,3.452985525131225586e+00,3.355551242828369141e+00,3.263464689254760742e+00,3.176297426223754883e+00,3.093665838241577148e+00,3.015224218368530273e+00,2.940662145614624023e+00,2.869698762893676758e+00,2.802079677581787109e+00,2.737573623657226562e+00,2.675970792770385742e+00,2.617079734802246094e+00,2.560724735260009766e+00,2.506745576858520508e+00,2.454994916915893555e+00,2.405338048934936523e+00,2.357650279998779297e+00,2.311816453933715820e+00,2.267730712890625000e+00,2.225294828414916992e+00,2.184418201446533203e+00,2.145015954971313477e+00,2.107010126113891602e+00,2.070327758789062500e+00,2.034900665283203125e+00,2.000665664672851562e+00,1.967563629150390625e+00,1.935538887977600098e+00,1.904540181159973145e+00,1.874518513679504395e+00,1.845428824424743652e+00
5.000000000000000000e+00,4.898844718933105469e+00,4.909362316131591797e+00,4.863167762756347656e+00,4.891659259796142578e+00,4.946195602416992188e+00,5.000000000000000000e+00,5.000000000000000000e+00,5.000000000000000000e+00,5.000000000000000000e+00,5.000000000000000000e+00,5.000000000000000000e+00,5.000000000000000000e+00,5.000000000000000000e+00,5.000000000000000000e+00,5.000000000000000000e+00,5.000000000000000000e+00,5.000000000000000000e+00,5.000000000000000000e+00,5.000000000000000000e+00,5.000000000000000000e+00,5.000000000000000000e+00,5.000000000000000000e+00,5.000000000000000000e+00,5.000000000000000000e+00,5.000000000000000000e+00,5.000000000000000000e+00,5.000000000000000000e+00,5.000000000000000000e+00,5.000000000000000000e+00,5.000000000000000000e+00,5.000000000000000000e+00,5.000000000000000000e+00,5.000000000000000000e+00,5.000000000000000000e+00,1.695699810981750488e+00,1.629533648490905762e+00,1.635975241661071777e+00,1.645344972610473633e+00,1.885456562042236328e+00,1.856802940368652344e+00,1.854165673255920410e+00,1.864033818244934082e+00,4.181589126586914062e+00,4.039544105529785156e+00,3.906831979751586914e+00,3.782562732696533203e+00,3.665955066680908203e+00,3.556322336196899414e+00,3.453056335449218750e+00,3.355618000030517578e+00,3.263527870178222656e+00,3.176357269287109375e+00,3.093722343444824219e+00,3.015278100967407227e+00,2.940713644027709961e+00,2.869747638702392578e+00,2.802126169204711914e+00,2.737617969512939453e+00,2.676013469696044922e+00,2.617120265960693359e+00,2.560763597488403320e+00,2.506782770156860352e+00,2.455030679702758789e+00,2.405372381210327148e+00,2.357683181762695312e+00,2.311847925186157227e+00,2.267761230468750000e+00,2.225324153900146484e+00,2.184446573257446289e+00,2.145043373107910156e+00,2.107036590576171875e+00,2.070353031158447266e+00,2.034925222396850586e+00,2.000689506530761719e+00,1.967586517333984375e+00,1.935561180114746094e+00,1.904561519622802734e+00,1.874539375305175781e+00,1.845448851585388184e+00
5.000000000000000000e+00,4.922669410705566406e+00,4.873160362243652344e+00,4.848129749298095703e+00,4.887851238250732422e+00,4.935496807098388672e+00,5.000000000000000000e+00,5.000000000000000000e+00,5.000000000000000000e+00,5.000000000000000000e+00,5.000000000000000000e+00,5.000000000000000000e+00,5.000000000000000000e+00,5.000000000000000000e+00,5.000000000000000000e+00,5.000000000000000000e+00,5.000000000000000000e+00,5.000000000000000000e+00,5.000000000000000000e+00,5.000000000000000000e+00,5.000000000000000000e+00,5.000000000000000000e+00,5.000000000000000000e+00,5.000000000000000000e+00,5.000000000000000000e+00,5.000000000000000000e+00,5.000000000000000000e+00,5.000000000000000000e+00,5.000000000000000000e+00,5.000000000000000000e+00,5.000000000000000000e+00,5.000000000000000000e+00,5.000000000000000000e+00,5.000000000000000000e+00,5.000000000000000000e+00,5.000000000000000000e+00,1.630763173103332520e+00,1.635917544364929199e+00,1.645440340042114258e+00,1.883162856101989746e+00,1.854149222373962402e+00,1.854217290878295898e+00,1.861802220344543457e+00,4.181693077087402344e+00,4.039640426635742188e+00,3.906922578811645508e+00,3.782647371292114258e+00,3.666034698486328125e+00,3.556397438049316406e+00,3.453126907348632812e+00,3.355684757232666016e+00,3.263591051101684570e+00,3.176417112350463867e+00,3.093779087066650391e+00,3.015331745147705078e+00,2.940764904022216797e+00,2.869796514511108398e+00,2.802172660827636719e+00,2.737662553787231445e+00,2.676055908203125000e+00,2.617160797119140625e+00,2.560802459716796875e+00,2.506819963455200195e+00,2.455066442489624023e+00,2.405406713485717773e+00,2.357716083526611328e+00,2.311879634857177734e+00,2.267791509628295898e+00,2.225353717803955078e+00,2.184474706649780273e+00,2.145070552825927734e+00,2.107062816619873047e+00,2.070378541946411133e+00,2.034949779510498047e+00,2.000713109970092773e+00,1.967609524726867676e+00,1.935583353042602539e+00,1.904583215713500977e+00,1.874560117721557617e+00,1.845469117164611816e+00
5.000000000000000000e+00,4.900623321533203125e+00,4.886475086212158203e+00,4.866521358489990234e+00,4.891660690307617188e+00,4.944425106048583984e+00,5.000000000000000000e+00,5.000000000000000000e+00,5.000000000000000000e+00,5.000000000000000000e+00,5.000000000000000000e+00,5.000000000000000000e+00,5.000000000000000000e+00,5.000000000000000000e+00,5.000000000000000000e+00,5.000000000000000000e+00,5.000000000000000000e+00,5.000000000000000000e+00,5.000000000000000000e+00,5.000000000000000000e+00,5.000000000000000000e+00,5.000000000000000000e+00,5.000000000000000000e+00,5.000000000000000000e+00,5.000000000000000000e+00,5.000000000000000000e+00,5.000000000000000000e+00,5.000000000000000000e+00,5.000000000000000000e+00,5.000000000000000000e+00,5.000000000000000000e+00,5.000000000000000000e+00,5.000000000000000000e+00,5.000000000000000000e+00,5.000000000000000000e+00,5.000000000000000000e+00,1.640527009963989258e+00,1.645137190818786621e+00,1.655734777450561523e+00,1.883673906326293945e+00,1.851503372192382812e+00,1.851700305938720703e+00,1.862797141075134277e+00,4.181796550750732422e+00,4.039737224578857422e+00,3.907012939453125000e+00,3.782732248306274414e+00,3.666114568710327148e+00,3.556472063064575195e+00,3.453197717666625977e+00,3.355751514434814453e+00,3.263654232025146484e+00,3.176476955413818359e+00,3.093835830688476562e+00,3.015385866165161133e+00,2.940815925598144531e+00,2.869845390319824219e+00,2.802219390869140625e+00,2.737706899642944336e+00,2.676098346710205078e+00,2.617201328277587891e+00,2.560841083526611328e+00,2.506857156753540039e+00,2.455102205276489258e+00,2.405441045761108398e+00,2.357748985290527344e+00,2.311911344528198242e+00,2.267822027206420898e+00,2.225383043289184570e+00,2.184503078460693359e+00,2.145097970962524414e+00,2.107089281082153320e+00,2.070403814315795898e+00,2.034974336624145508e+00,2.000736713409423828e+00,1.967632412910461426e+00,1.935605645179748535e+00,1.904604554176330566e+00,1.874581098556518555e+00,1.845489263534545898e+00
5.000000000000000000e+00,4.874494552612304688e+00,4.787211418151855469e+00,4.798514366149902344e+00,4.950394153594970703e+00,4.947238922119140625e+00,5.000000000000000000e+00,5.000000000000000000e+00,5.000000000000000000e+00,5.000000000000000000e+00,5.000000000000000000e+00,5.000000000000000000e+00,5.000000000000000000e+00,5.000000000000000000e+00,5.000000000000000000e+00,5.000000000000000000e+00,5.000000000000000000e+00,5.000000000000000000e+00,5.000000000000000000e+00,5.000000000000000000e+00,5.000000000000000000e+00,5.000000000000000000e+00,5.000000000000000000e+00,5.000000000000000000e+00,5.000000000000000000e+00,5.000000000000000000e+00,5.000000000000000000e+00,5.000000000000000000e+00,5.000000000000000000e+00,5.000000000000000000e+00,5.000000000000000000e+00,5.000000000000000000e+00,5.000000000000000000e+00,5.000000000000000000e+00,5.000000000000000000e+00,1.706184148788452148e+00,1.665438532829284668e+00,1.663692712783813477e+00,1.681337356567382812e+00,1.883235216140747070e+00,1.851596951484680176e+00,1.852780461311340332e+00,1.869725942611694336e+00,4.181900024414062500e+00,4.039834022521972656e+00,3.907103538513183594e+00,3.782817125320434570e+00,3.666194200515747070e+00,3.556547164916992188e+00,3.453268051147460938e+00,3.355818271636962891e+00,3.263717412948608398e+00,3.176536798477172852e+00,3.093892574310302734e+00,3.015439748764038086e+00,2.940867185592651367e+00,2.869894027709960938e+00,2.802265882492065430e+00,2.737751483917236328e+00,2.676140785217285156e+00,2.617242097854614258e+00,2.560879945755004883e+00,2.506894350051879883e+00,2.455137968063354492e+00,2.405475378036499023e+00,2.357782125473022461e+00,2.311943054199218750e+00,2.267852544784545898e+00,2.225412130355834961e+00,2.184531450271606445e+00,2.145125150680541992e+00,2.107115507125854492e+00,2.070429325103759766e+00,2.034998893737792969e+00,2.000760555267333984e+00,1.967655301094055176e+00,1.935627698898315430e+00,1.904626250267028809e+00,1.874601840972900391e+00,1.845509529113769531e+00
5.000000000000000000e+00,4.858502864837646484e+00,4.750058650970458984e+00,4.764240264892578125e+00,4.958584785461425781e+00,4.930047988891601562e+00,4.999169826507568359e+00,5.000000000000000000e+00,5.000000000000000000e+00,5.000000000000000000e+00,5.000000000000000000e+00,5.000000000000000000e+00,5.000000000000000000e+00,5.000000000000000000e+00,5.000000000000000000e+00,5.000000000000000000e+00,5.000000000000000000e+00,5.000000000000000000e+00,5.000000000000000000e+00,5.000000000000000000e+00,5.000000000000000000e+00,5.000000000000000000e+00,5.000000000000000000e+00,5.000000000000000000e+00,5.000000000000000000e+00,5.000000000000000000e+00,5.000000000000000000e+00,5.000000000000000000e+00,5.000000000000000000e+00,5.000000000000000000e+00,5.000000000000000000e+00,5.000000000000000000e+00,5.000000000000000000e+00,5.000000000000000000e+00,5.000000000000000000e+00,1.722600817680358887e+00,1.689327001571655273e+00,1.682671546936035156e+00,1.707744240760803223e+00,1.892961144447326660e+00,1.861475110054016113e+00,1.860478520393371582e+00,4.334433555603027344e+00,4.182003974914550781e+00,4.039930820465087891e+00,3.907194137573242188e+00,3.782902002334594727e+00,3.666273832321166992e+00,3.556622028350830078e+00,3.453338861465454102e+00,3.355884790420532227e+00,3.263780593872070312e+00,3.176596641540527344e+00,3.093949317932128906e+00,3.015493631362915039e+00,2.940918445587158203e+00,2.869942665100097656e+00,2.802312374114990234e+00,2.737795829772949219e+00,2.676183223724365234e+00,2.617282629013061523e+00,2.560918807983398438e+00,2.506931543350219727e+00,2.455173492431640625e+00,2.405509710311889648e+00,2.357815027236938477e+00,2.311974763870239258e+00,2.267883062362670898e+00,2.225441694259643555e+00,2.184559583663940430e+00,2.145152568817138672e+00,2.107141733169555664e+00,2.070454597473144531e+00,2.035023450851440430e+00,2.000784158706665039e+00,1.967678308486938477e+00,1.935650110244750977e+00,1.904647588729858398e+00,1.874622821807861328e+00,1.845529675483703613e+00
5.000000000000000000e+00,4.821044921875000000e+00,4.713845729827880859e+00,4.727638721466064453e+00,4.960727214813232422e+00,4.932942390441894531e+00,5.000000000000000000e+00,5.000000000000000000e+00,5.000000000000000000e+00,5.000000000000000000e+00,5.000000000000000000e+00,5.000000000000000000e+00,5.000000000000000000e+00,5.000000000000000000e+00,5.000000000000000000e+00,5.000000000000000000e+00,5.000000000000000000e+00,5.000000000000000000e+00,5.000000000000000000e+00,5.000000000000000000e+00,5.000000000000000000e+00,5.000000000000000000e+00,5.000000000000000000e+00,5.000000000000000000e+00,5.000000000000000000e+00,5.000000000000000000e+00,5.000000000000000000e+00,5.000000000000000000e+00,5.000000000000000000e+00,5.000000000000000000e+00,5.000000000000000000e+00,5.000000000000000000e+00,5.000000000000000000e+00,5.000000000000000000e+00,5.000000000000000000e+00,1.740777134895324707e+00,1.707701683044433594e+00,1.707095384597778320e+00,1.732760429382324219e+00,1.912783980369567871e+00,1.882436752319335938e+00,1.879960894584655762e+00,4.334545135498046875e+00,4.182107448577880859e+00,4.040027618408203125e+00,3.907284736633300781e+00,3.782986879348754883e+00,3.666353702545166016e+00,3.556697130203247070e+00,3.453409433364868164e+00,3.355951547622680664e+00,3.263843536376953125e+00,3.176656484603881836e+00,3.094006061553955078e+00,3.015547513961791992e+00,2.940969705581665039e+00,2.869991540908813477e+00,2.802358865737915039e+00,2.737840414047241211e+00,2.676225662231445312e+00,2.617323398590087891e+00,2.560957670211791992e+00,2.506968975067138672e+00,2.455209255218505859e+00,2.405544042587280273e+00,2.357847929000854492e+00,2.312006473541259766e+00,2.267913579940795898e+00,2.225471019744873047e+00,2.184587955474853516e+00,2.145179748535156250e+00,2.107168197631835938e+00,2.070480108261108398e+00,2.035048007965087891e+00,2.000808000564575195e+00,1.967701196670532227e+00,1.935672163963317871e+00,1.904669284820556641e+00,1.874643445014953613e+00,1.845549941062927246e+00
5.000000000000000000e+00,5.000000000000000000e+00,5.000000000000000000e+00,4.691156864166259766e+00,4.953920364379882812e+00,4.933493614196777344e+00,5.000000000000000000e+00,5.000000000000000000e+00,5.000000000000000000e+00,5.000000000000000000e+00,5.000000000000000000e+00,5.000000000000000000e+00,5.000000000000000000e+00,5.000000000000000000e+00,5.000000000000000000e+00,5.000000000000000000e+00,5.000000000000000000e+00,5.000000000000000000e+00,5.000000000000000000e+00,5.000000000000000000e+00,5.000000000000000000e+00,5.000000000000000000e+00,5.000000000000000000e+00,5.000000000000000000e+00,5.000000000000000000e+00,5.000000000000000000e+00,5.000000000000000000e+00,5.000000000000000000e+00,5.000000000000000000e+00,5.000000000000000000e+00,5.000000000000000000e+00,5.000000000000000000e+00,5.000000000000000000e+00,5.000000000000000000e+00,5.000000000000000000e+00,1.758904576301574707e+00,1.720596790313720703e+00,1.721334695816040039e+00,1.743308544158935547e+00,1.924230694770812988e+00,1.906707525253295898e+00,1.920408368110656738e+00,4.334656238555908203e+00,4.182211399078369141e+00,4.040124416351318359e+00,3.907374620437622070e+00,3.783071756362915039e+00,3.666433334350585938e+00,3.556772232055664062e+00,3.453480243682861328e+00,3.356018304824829102e+00,3.263906717300415039e+00,3.176716327667236328e+00,3.094063043594360352e+00,3.015601396560668945e+00,2.941020965576171875e+00,2.870040416717529297e+00,2.802405357360839844e+00,2.737884521484375000e+00,2.676268100738525391e+00,2.617363929748535156e+00,2.560996770858764648e+00,2.507006168365478516e+00,2.455245018005371094e+00,2.405578136444091797e+00,2.357881069183349609e+00,2.312038183212280273e+00,2.267944097518920898e+00,2.225500345230102539e+00,2.184616088867187500e+00,2.145206928253173828e+00,2.107194423675537109e+00,2.070505619049072266e+00,2.035072565078735352e+00,2.000831842422485352e+00,1.967724204063415527e+00,1.935694336891174316e+00,1.904690623283386230e+00,1.874664425849914551e+00,1.845570087432861328e+00
5.000000000000000000e+00,5.000000000000000000e+00,5.000000000000000000e+00,4.699106216430664062e+00,4.944413661956787109e+00,4.932725906372070312e+00,5.000000000000000000e+00,5.000000000000000000e+00,5.000000000000000000e+00,5.000000000000000000e+00,5.000000000000000000e+00,5.000000000000000000e+00,5.000000000000000000e+00,5.000000000000000000e+00,5.000000000000000000e+00,5.000000000000000000e+00,5.000000000000000000e+00,5.000000000000000000e+00,5.000000000000000000e+00,5.000000000000000000e+00,5.000000000000000000e+00,5.000000000000000000e+00,5.000000000000000000e+00,5.000000000000000000e+00,5.000000000000000000e+00,5.000000000000000000e+00,5.000000000000000000e+00,5.000000000000000000e+00,5.000000000000000000e+00,5.000000000000000000e+00,5.000000000000000000e+00,5.000000000000000000e+00,5.000000000000000000e+00,5.000000000000000000e+00,5.000000000000000000e+00,1.777373313903808594e+00,1.731266021728515625e+00,1.732364416122436523e+00,1.753775954246520996e+00,1.947446942329406738e+00,1.933738350868225098e+00,1.955285668373107910e+00,4.334767818450927734e+00,4.182314872741699219e+00,4.040221214294433594e+00,3.907465219497680664e+00,3.783156394958496094e+00,3.666513204574584961e+00,3.556847095489501953e+00,3.453551054000854492e+00,3.356085300445556641e+00,3.263969898223876953e+00,3.176775932312011719e+00,3.094119787216186523e+00,3.015655517578125000e+00,2.941072225570678711e+00,2.870089292526245117e+00,2.802451848983764648e+00,2.737929105758666992e+00,2.676310539245605469e+00,2.617404460906982422e+00,2.561035633087158203e+00,2.507043361663818359e+00,2.455280780792236328e+00,2.405612468719482422e+00,2.357913732528686523e+00,2.312069892883300781e+00,2.267974615097045898e+00,2.225529670715332031e+00,2.184644460678100586e+00,2.145234107971191406e+00,2.107220649719238281e+00,2.070530891418457031e+00,2.035097122192382812e+00,2.000855445861816406e+00,1.967747092247009277e+00,1.935716629028320312e+00,1.904712080955505371e+00,1.874685168266296387e+00,1.845590353012084961e+00
5.000000000000000000e+00,5.000000000000000000e+00,5.000000000000000000e+00,4.746501445770263672e+00,4.992866039276123047e+00,4.966179847717285156e+00,5.000000000000000000e+00,5.000000000000000000e+00,5.000000000000000000e+00,5.000000000000000000e+00,5.000000000000000000e+00,5.000000000000000000e+00,5.000000000000000000e+00,5.000000000000000000e+00,5.000000000000000000e+00,5.000000000000000000e+00,5.000000000000000000e+00,5.000000000000000000e+00,5.000000000000000000e+00,5.000000000000000000e+00,5.000000000000000000e+00,5.000000000000000000e+00,5.000000000000000000e+00,5.000000000000000000e+00,5.000000000000000000e+00,5.000000000000000000e+00,5.000000000000000000e+00,5.000000000000000000e+00,5.000000000000000000e+00,5.000000000000000000e+00,5.000000000000000000e+00,5.000000000000000000e+00,5.000000000000000000e+00,5.000000000000000000e+00,5.000000000000000000e+00,1.796234130859375000e+00,1.742632269859313965e+00,1.743536233901977539e+00,1.764369964599609375e+00,1.957144141197204590e+00,1.945997714996337891e+00,1.984933137893676758e+00,4.334878921508789062e+00,4.182418346405029297e+00,4.040318012237548828e+00,3.907555818557739258e+00,3.783241271972656250e+00,3.666592359542846680e+00,3.556922197341918945e+00,3.453621625900268555e+00,3.356152057647705078e+00,3.264033079147338867e+00,3.176835775375366211e+00,3.094176292419433594e+00,3.015709400177001953e+00,2.941123723983764648e+00,2.870138168334960938e+00,2.802498579025268555e+00,2.737973451614379883e+00,2.676352977752685547e+00,2.617445230484008789e+00,2.561074495315551758e+00,2.507080793380737305e+00,2.455316543579101562e+00,2.405646800994873047e+00,2.357946634292602539e+00,2.312101364135742188e+00,2.268005132675170898e+00,2.225558996200561523e+00,2.184672832489013672e+00,2.145261526107788086e+00,2.107247114181518555e+00,2.070556163787841797e+00,2.035121679306030273e+00,2.000879287719726562e+00,1.967770218849182129e+00,1.935738682746887207e+00,1.904733657836914062e+00,1.874705910682678223e+00,1.845610499382019043e+00
5.000000000000000000e+00,5.000000000000000000e+00,5.000000000000000000e+00,4.767042160034179688e+00,5.000000000000000000e+00,5.000000000000000000e+00,5.000000000000000000e+00,5.000000000000000000e+00,5.000000000000000000e+00,5.000000000000000000e+00,5.000000000000000000e+00,5.000000000000000000e+00,5.000000000000000000e+00,5.000000000000000000e+00,5.000000000000000000e+00,5.000000000000000000e+00,5.000000000000000000e+00,5.000000000000000000e+00,5.000000000000000000e+00,5.000000000000000000e+00,5.000000000000000000e+00,5.000000000000000000e+00,5.000000000000000000e+00,5.000000000000000000e+00,5.000000000000000000e+00,5.000000000000000000e+00,5.000000000000000000e+00,5.000000000000000000e+00,5.000000000000000000e+00,5.000000000000000000e+00,5.000000000000000000e+00,5.000000000000000000e+00,5.000000000000000000e+00,5.000000000000000000e+00,5.000000000000000000e+00,1.815529465675354004e+00,1.756437897682189941e+00,1.754096746444702148e+00,1.775121450424194336e+00,1.966471076011657715e+00,1.955899477005004883e+00,4.498995304107666016e+00,4.334990501403808594e+00,4.182522296905517578e+00,4.040414333343505859e+00,3.907646417617797852e+00,3.783326148986816406e+00,3.666672229766845703e+00,3.556997299194335938e+00,3.453692436218261719e+00,3.356218814849853516e+00,3.264096260070800781e+00,3.176895618438720703e+00,3.094233036041259766e+00,3.015763044357299805e+00,2.941174983978271484e+00,2.870187044143676758e+00,2.802545070648193359e+00,2.738018035888671875e+00,2.676395416259765625e+00,2.617485523223876953e+00,2.561113357543945312e+00,2.507117986679077148e+00,2.455352306365966797e+00,2.405681133270263672e+00,2.357979774475097656e+00,2.312133073806762695e+00,2.268035411834716797e+00,2.225588560104370117e+00,2.184700965881347656e+00,2.145288705825805664e+00,2.107273340225219727e+00,2.070581674575805664e+00,2.035145998001098633e+00,2.000902891159057617e+00,1.967792987823486328e+00,1.935761094093322754e+00,1.904755115509033203e+00,1.874726891517639160e+00,1.845630526542663574e+00
5.000000000000000000e+00,5.000000000000000000e+00,5.000000000000000000e+00,4.787877082824707031e+00,5.000000000000000000e+00,5.000000000000000000e+00,5.000000000000000000e+00,5.000000000000000000e+00,5.000000000000000000e+00,5.000000000000000000e+00,5.000000000000000000e+00,5.000000000000000000e+00,5.000000000000000000e+00,5.000000000000000000e+00,5.000000000000000000e+00,5.000000000000000000e+00,5.000000000000000000e+00,5.000000000000000000e+00,5.000000000000000000e+00,5.000000000000000000e+00,5.000000000000000000e+00,5.000000000000000000e+00,5.000000000000000000e+00,5.000000000000000000e+00,5.000000000000000000e+00,5.000000000000000000e+00,5.000000000000000000e+00,5.000000000000000000e+00,5.000000000000000000e+00,5.000000000000000000e+00,5.000000000000000000e+00,5.000000000000000000e+00,5.000000000000000000e+00,5.000000000000000000e+00,5.000000000000000000e+00,5.000000000000000000e+00,1.775043010711669922e+00,1.765598177909851074e+00,1.788818836212158203e+00,1.975887537002563477e+00,1.965902924537658691e+00,4.499113559722900391e+00,4.335101604461669922e+00,4.182625770568847656e+00,4.040511131286621094e+00,3.907737016677856445e+00,3.783411026000976562e+00,3.666751861572265625e+00,3.557071924209594727e+00,3.453763246536254883e+00,3.356285572052001953e+00,3.264159440994262695e+00,3.176955461502075195e+00,3.094289779663085938e+00,3.015816926956176758e+00,2.941226005554199219e+00,2.870235919952392578e+00,2.802591562271118164e+00,2.738062381744384766e+00,2.676437854766845703e+00,2.617526292800903320e+00,2.561151981353759766e+00,2.507155179977416992e+00,2.455388069152832031e+00,2.405715465545654297e+00,2.358012676239013672e+00,2.312164783477783203e+00,2.268065929412841797e+00,2.225617885589599609e+00,2.184729337692260742e+00,2.145316123962402344e+00,2.107299804687500000e+00,2.070607185363769531e+00,2.035170555114746094e+00,2.000926494598388672e+00,1.967816114425659180e+00,1.935783147811889648e+00,1.904776692390441895e+00,1.874747633934020996e+00,1.845650911331176758e+00
5.000000000000000000e+00,5.000000000000000000e+00,5.000000000000000000e+00,4.823659896850585938e+00,5.000000000000000000e+00,5.000000000000000000e+00,5.000000000000000000e+00,5.000000000000000000e+00,5.000000000000000000e+00,5.000000000000000000e+00,5.000000000000000000e+00,5.000000000000000000e+00,5.000000000000000000e+00,5.000000000000000000e+00,5.000000000000000000e+00,5.000000000000000000e+00,5.000000000000000000e+00,5.000000000000000000e+00,5.000000000000000000e+00,5.000000000000000000e+00,5.000000000000000000e+00,5.000000000000000000e+00,5.000000000000000000e+00,5.000000000000000000e+00,5.000000000000000000e+00,5.000000000000000000e+00,5.000000000000000000e+00,5.000000000000000000e+00,5.000000000000000000e+00,5.000000000000000000e+00,5.000000000000000000e+00,5.000000000000000000e+00,5.000000000000000000e+00,5.000000000000000000e+00,5.000000000000000000e+00,5.000000000000000000e+00,1.789637088775634766e+00,1.777775287628173828e+00,1.811090946197509766e+00,1.985815286636352539e+00,1.989145755767822266e+00,4.499231815338134766e+00,4.335212230682373047e+00,4.182729244232177734e+00,4.040607929229736328e+00,3.907827377319335938e+00,3.783495903015136719e+00,3.666831731796264648e+00,3.557147026062011719e+00,3.453833580017089844e+00,3.356352329254150391e+00,3.264222621917724609e+00,3.177015304565429688e+00,3.094346523284912109e+00,3.015870809555053711e+00,2.941277265548706055e+00,2.870284795761108398e+00,2.802638292312622070e+00,2.738106966018676758e+00,2.676480293273925781e+00,2.617566823959350586e+00,2.561191082000732422e+00,2.507192373275756836e+00,2.455423831939697266e+00,2.405749797821044922e+00,2.358045578002929688e+00,2.312196493148803711e+00,2.268096446990966797e+00,2.225646972656250000e+00,2.184757709503173828e+00,2.145343303680419922e+00,2.107326030731201172e+00,2.070632457733154297e+00,2.035195350646972656e+00,2.000950336456298828e+00,1.967839002609252930e+00,1.935805559158325195e+00,1.904798150062561035e+00,1.874768614768981934e+00,1.845670938491821289e+00
5.000000000000000000e+00,5.000000000000000000e+00,5.000000000000000000e+00,4.803119182586669922e+00,5.000000000000000000e+00,5.000000000000000000e+00,5.000000000000000000e+00,5.000000000000000000e+00,5.000000000000000000e+00,5.000000000000000000e+00,5.000000000000000000e+00,5.000000000000000000e+00,5.000000000000000000e+00,5.000000000000000000e+00,5.000000000000000000e+00,5.000000000000000000e+00,5.000000000000000000e+00,5.000000000000000000e+00,5.000000000000000000e+00,5.000000000000000000e+00,5.000000000000000000e+00,5.000000000000000000e+00,5.000000000000000000e+00,5.000000000000000000e+00,5.000000000000000000e+00,5.000000000000000000e+00,5.000000000000000000e+00,5.000000000000000000e+00,5.000000000000000000e+00,5.000000000000000000e+00,5.000000000000000000e+00,5.000000000000000000e+00,5.000000000000000000e+00,5.000000000000000000e+00,5.000000000000000000e+00,5.000000000000000000e+00,1.811900019645690918e+00,1.790121674537658691e+00,1.834025263786315918e+00,1.996568083763122559e+00,2.044474840164184570e+00,4.499350547790527344e+00,4.335321903228759766e+00,4.182832241058349609e+00,4.040704727172851562e+00,3.907917976379394531e+00,3.783580780029296875e+00,3.666911363601684570e+00,3.557221889495849609e+00,3.453904390335083008e+00,3.356418848037719727e+00,3.264285802841186523e+00,3.177075147628784180e+00,3.094403266906738281e+00,3.015924930572509766e+00,2.941328525543212891e+00,2.870333433151245117e+00,2.802684783935546875e+00,2.738151311874389648e+00,2.676522970199584961e+00,2.617607593536376953e+00,2.561229944229125977e+00,2.507229566574096680e+00,2.455459356307983398e+00,2.405784130096435547e+00,2.358078718185424805e+00,2.312228202819824219e+00,2.268126964569091797e+00,2.225676536560058594e+00,2.184785842895507812e+00,2.145370721817016602e+00,2.107352495193481445e+00,2.070657968521118164e+00,2.035219907760620117e+00,2.000974178314208984e+00,1.967861771583557129e+00,1.935827612876892090e+00,1.904819726943969727e+00,1.874789357185363770e+00,1.845691323280334473e+00
4.874741077423095703e+00,4.873529911041259766e+00,4.872318744659423828e+00,4.871108531951904297e+00,4.869899272918701172e+00,4.868690013885498047e+00,4.867481708526611328e+00,4.866273880004882812e+00,4.865066528320312500e+00,4.863860130310058594e+00,4.862654209136962891e+00,4.861448764801025391e+00,4.860243797302246094e+00,4.859039783477783203e+00,4.857836246490478516e+00,4.856633186340332031e+00,4.855430603027343750e+00,4.854228973388671875e+00,4.853027820587158203e+00,4.851827144622802734e+00,4.850626945495605469e+00,4.849427700042724609e+00,4.848228454589843750e+00,4.847030639648437500e+00,4.845833301544189453e+00,4.844635963439941406e+00,4.843439579010009766e+00,4.842243671417236328e+00,4.841048240661621094e+00,4.839853286743164062e+00,4.838659286499023438e+00,4.837465763092041016e+00,4.836272716522216797e+00,4.835080146789550781e+00,4.833888530731201172e+00,4.832697391510009766e+00,1.834723711013793945e+00,1.809521079063415527e+00,2.021879196166992188e+00,2.007437944412231445e+00,4.676406860351562500e+00,4.499469280242919922e+00,4.335432052612304688e+00,4.182934761047363281e+00,4.040801525115966797e+00,3.908008575439453125e+00,3.783665657043457031e+00,3.666990995407104492e+00,3.557296991348266602e+00,3.453975200653076172e+00,3.356485843658447266e+00,3.264348506927490234e+00,3.177134990692138672e+00,3.094460248947143555e+00,3.015978813171386719e+00,2.941379785537719727e+00,2.870382308959960938e+00,2.802731275558471680e+00,2.738195896148681641e+00,2.676565408706665039e+00,2.617648124694824219e+00,2.561268806457519531e+00,2.507266998291015625e+00,2.455495119094848633e+00,2.405818462371826172e+00,2.358111619949340820e+00,2.312259912490844727e+00,2.268157482147216797e+00,2.225705862045288086e+00,2.184814214706420898e+00,2.145397901535034180e+00,2.107378721237182617e+00,2.070683479309082031e+00,2.035244464874267578e+00,2.000997781753540039e+00,1.967884898185729980e+00,1.935849785804748535e+00,1.904841184616088867e+00,1.874810218811035156e+00,1.845711350440979004e+00
3.777499437332153320e+00,3.776772022247314453e+00,3.776044607162475586e+00,3.775317668914794922e+00,3.774591207504272461e+00,3.773864746093750000e+00,3.773138761520385742e+00,3.772412776947021484e+00,3.771687269210815430e+00,3.770961999893188477e+00,3.770237207412719727e+00,3.769512414932250977e+00,3.768788099288940430e+00,3.768063783645629883e+00,3.767339944839477539e+00,3.766616344451904297e+00,3.765893220901489258e+00,3.765170097351074219e+00,3.764447212219238281e+00,3.763724803924560547e+00,3.763002634048461914e+00,3.762280702590942383e+00,3.761559247970581055e+00,3.760837793350219727e+00,3.760116815567016602e+00,3.759396314620971680e+00,3.758675813674926758e+00,3.757955551147460938e+00,3.757235527038574219e+00,3.756515979766845703e+00,3.755796432495117188e+00,3.755077362060546875e+00,3.754358291625976562e+00,3.753639698028564453e+00,3.752921342849731445e+00,3.752203464508056641e+00,3.751485586166381836e+00,1.833917140960693359e+00,2.032557725906372070e+00,2.031198978424072266e+00,3.748617172241210938e+00,3.747900724411010742e+00,3.747184753417968750e+00,3.746468782424926758e+00,3.745753288269042969e+00,3.745038032531738281e+00,3.744323015213012695e+00,3.667070865631103516e+00,3.557372093200683594e+00,3.454045772552490234e+00,3.356552600860595703e+00,3.264411687850952148e+00,3.177195072174072266e+00,3.094516992568969727e+00,3.016032695770263672e+00,2.941431283950805664e+00,2.870431184768676758e+00,2.802777767181396484e+00,2.738240003585815430e+00,2.676607847213745117e+00,2.617688894271850586e+00,2.561307668685913086e+00,2.507304191589355469e+00,2.455530881881713867e+00,2.405852556228637695e+00,2.358144521713256836e+00,2.312291622161865234e+00,2.268187999725341797e+00,2.225735187530517578e+00,2.184842586517333984e+00,2.145425081253051758e+00,2.107404947280883789e+00,2.070708751678466797e+00,2.035269021987915039e+00,2.001021623611450195e+00,1.967907786369323730e+00,1.935872077941894531e+00,1.904862642288208008e+00,1.874830961227416992e+00,1.845731735229492188e+00
3.083453416824340820e+00,3.082968711853027344e+00,3.082484006881713867e+00,3.081999540328979492e+00,3.081515312194824219e+00,3.081031322479248047e+00,3.080547332763671875e+00,3.080063343048095703e+00,3.079579830169677734e+00,3.079096317291259766e+00,3.078612804412841797e+00,3.078129529953002930e+00,3.077646493911743164e+00,3.077163696289062500e+00,3.076680898666381836e+00,3.076198577880859375e+00,3.075716018676757812e+00,3.075233697891235352e+00,3.074751615524291992e+00,3.074269533157348633e+00,3.073787689208984375e+00,3.073306083679199219e+00,3.072824478149414062e+00,3.072343111038208008e+00,3.071861743927001953e+00,3.071380615234375000e+00,3.070899724960327148e+00,3.070419073104858398e+00,3.069938421249389648e+00,3.069457769393920898e+00,3.068977355957031250e+00,3.068497180938720703e+00,3.068017244338989258e+00,3.067537307739257812e+00,3.067057609558105469e+00,3.066577911376953125e+00,1.856415510177612305e+00,1.817350387573242188e+00,2.049786090850830078e+00,2.080328702926635742e+00,3.064182281494140625e+00,3.063703536987304688e+00,3.063225030899047852e+00,3.062747001647949219e+00,3.062268733978271484e+00,3.061790704727172852e+00,3.061312675476074219e+00,3.060834884643554688e+00,3.060357093811035156e+00,3.059879779815673828e+00,3.059402227401733398e+00,3.058925151824951172e+00,3.058448076248168945e+00,3.057971239089965820e+00,3.016086578369140625e+00,2.941482543945312500e+00,2.870479822158813477e+00,2.802824258804321289e+00,2.738284587860107422e+00,2.676650047302246094e+00,2.617729425430297852e+00,2.561346530914306641e+00,2.507341623306274414e+00,2.455566644668579102e+00,2.405886888504028320e+00,2.358177423477172852e+00,2.312323331832885742e+00,2.268218517303466797e+00,2.225764513015747070e+00,2.184870719909667969e+00,2.145452499389648438e+00,2.107431173324584961e+00,2.070734262466430664e+00,2.035293579101562500e+00,2.001045227050781250e+00,1.967930793762207031e+00,1.935894250869750977e+00,1.904884219169616699e+00,1.874851703643798828e+00,1.845751762390136719e+00
2.604858398437500000e+00,2.604512453079223633e+00,2.604166746139526367e+00,2.603820800781250000e+00,2.603475332260131836e+00,2.603129863739013672e+00,2.602784395217895508e+00,2.602438926696777344e+00,2.602093696594238281e+00,2.601748466491699219e+00,2.601403236389160156e+00,2.601058244705200195e+00,2.600713253021240234e+00,2.600368499755859375e+00,2.600023746490478516e+00,2.599678993225097656e+00,2.599334478378295898e+00,2.598989963531494141e+00,2.598645687103271484e+00,2.598301172256469727e+00,2.597957134246826172e+00,2.597612857818603516e+00,2.597268819808959961e+00,2.596925020217895508e+00,2.596581220626831055e+00,2.596237421035766602e+00,2.595893859863281250e+00,2.595550060272216797e+00,2.595206737518310547e+00,2.594863414764404297e+00,2.594520092010498047e+00,2.594176769256591797e+00,2.593833684921264648e+00,2.593490839004516602e+00,2.593147993087768555e+00,2.592805147171020508e+00,1.814040780067443848e+00,1.791894078254699707e+00,2.005894184112548828e+00,2.038793802261352539e+00,2.591092109680175781e+00,2.590749979019165039e+00,2.590407609939575195e+00,2.590065479278564453e+00,2.589723587036132812e+00,2.589381694793701172e+00,2.589039802551269531e+00,2.588697910308837891e+00,2.588356256484985352e+00,2.588014841079711914e+00,2.587673187255859375e+00,2.587331771850585938e+00,2.586990594863891602e+00,2.586649417877197266e+00,2.586308240890502930e+00,2.585967302322387695e+00,2.585626363754272461e+00,2.585285425186157227e+00,2.584944725036621094e+00,2.584604263305664062e+00,2.584263563156127930e+00,2.561385393142700195e+00,2.507378816604614258e+00,2.455602407455444336e+00,2.405921220779418945e+00,2.358210325241088867e+00,2.312355041503906250e+00,2.268249034881591797e+00,2.225794076919555664e+00,2.184899091720581055e+00,2.145479679107666016e+00,2.107457637786865234e+00,2.070759534835815430e+00,2.035318136215209961e+00,2.001069068908691406e+00,1.967953681945800781e+00,1.935916543006896973e+00,1.904905676841735840e+00,1.874872684478759766e+00,1.845771908760070801e+00
2.254920244216918945e+00,2.254658699035644531e+00,2.254397392272949219e+00,2.254136085510253906e+00,2.253874778747558594e+00,2.253613710403442383e+00,2.253352642059326172e+00,2.253091335296630859e+00,2.252830505371093750e+00,2.252569437026977539e+00,2.252308607101440430e+00,2.252048015594482422e+00,2.251786947250366211e+00,2.251526355743408203e+00,2.251265764236450195e+00,2.251005172729492188e+00,2.250744581222534180e+00,2.250484228134155273e+00,2.250223875045776367e+00,2.249963521957397461e+00,2.249703168869018555e+00,2.249443054199218750e+00,2.249182701110839844e+00,2.248924016952514648e+00,2.248666286468505859e+00,2.248408317565917969e+00,2.248150587081909180e+00,2.247892856597900391e+00,2.247635364532470703e+00,2.247377872467041016e+00,2.247120141983032227e+00,2.246862888336181641e+00,2.246605396270751953e+00,2.246348142623901367e+00,2.246090888977050781e+00,2.245833635330200195e+00,1.774163603782653809e+00,1.764561295509338379e+00,1.773061990737915039e+00,1.981475234031677246e+00,2.244548320770263672e+00,2.244291543960571289e+00,2.244034528732299805e+00,2.243777990341186523e+00,2.243521213531494141e+00,2.243264436721801758e+00,2.243007898330688477e+00,2.242751359939575195e+00,2.242495059967041016e+00,2.242238759994506836e+00,2.241982460021972656e+00,2.241726160049438477e+00,2.241469860076904297e+00,2.241213798522949219e+00,2.240957736968994141e+00,2.240701675415039062e+00,2.240445613861083984e+00,2.240189790725708008e+00,2.239933729171752930e+00,2.239677906036376953e+00,2.239422321319580078e+00,2.239166498184204102e+00,2.238910913467407227e+00,2.238655328750610352e+00,2.238399744033813477e+00,2.238144397735595703e+00,2.237889051437377930e+00,2.237633705139160156e+00,2.225823402404785156e+00,2.184927463531494141e+00,2.145507097244262695e+00,2.107483863830566406e+00,2.070785045623779297e+00,2.035342454910278320e+00,2.001092910766601562e+00,1.967976689338684082e+00,1.935938715934753418e+00,1.904927253723144531e+00,1.874893426895141602e+00,1.845792174339294434e+00
1.987965226173400879e+00,1.987761974334716797e+00,1.987558722496032715e+00,1.987355828285217285e+00,1.987152576446533203e+00,1.986949563026428223e+00,1.986746668815612793e+00,1.986543655395507812e+00,1.986340761184692383e+00,1.986137866973876953e+00,1.985935211181640625e+00,1.985732316970825195e+00,1.985529541969299316e+00,1.985327005386352539e+00,1.985124230384826660e+00,1.984921574592590332e+00,1.984719157218933105e+00,1.984516620635986328e+00,1.984313964843750000e+00,1.984111666679382324e+00,1.983909249305725098e+00,1.983706831932067871e+00,1.983504414558410645e+00,1.983302235603332520e+00,1.983099937438964844e+00,1.982897758483886719e+00,1.982695698738098145e+00,1.982493519783020020e+00,1.982291340827941895e+00,1.982089519500732422e+00,1.981887459754943848e+00,1.981685400009155273e+00,1.981483697891235352e+00,1.981281757354736328e+00,1.981079816818237305e+00,1.980877995491027832e+00,1.746483087539672852e+00,1.731236696243286133e+00,1.729283094406127930e+00,1.936655282974243164e+00,1.979869723320007324e+00,1.979668140411376953e+00,1.979466795921325684e+00,1.979265213012695312e+00,1.979063749313354492e+00,1.978862524032592773e+00,1.978661179542541504e+00,1.978459715843200684e+00,1.978258728981018066e+00,1.978057384490966797e+00,1.977856159210205078e+00,1.977654933929443359e+00,1.977453947067260742e+00,1.977252840995788574e+00,1.977051734924316406e+00,1.976850986480712891e+00,1.976649999618530273e+00,1.976449012756347656e+00,1.976248264312744141e+00,1.976047396659851074e+00,1.975846648216247559e+00,1.975646018981933594e+00,1.975445270538330078e+00,1.975244522094726562e+00,1.975043892860412598e+00,1.974843502044677734e+00,1.974642872810363770e+00,1.974442362785339355e+00,1.974242091178894043e+00,1.974041581153869629e+00,1.973841190338134766e+00,1.973641037940979004e+00,1.973440647125244141e+00,1.973240375518798828e+00,1.973040342330932617e+00,1.967999577522277832e+00,1.935961008071899414e+00,1.904948711395263672e+00,1.874914407730102539e+00,1.845812320709228516e+00
1.777527689933776855e+00,1.777365088462829590e+00,1.777202606201171875e+00,1.777040362358093262e+00,1.776877999305725098e+00,1.776715636253356934e+00,1.776553392410278320e+00,1.776391029357910156e+00,1.776228785514831543e+00,1.776066541671752930e+00,1.775904417037963867e+00,1.775742292404174805e+00,1.775580048561096191e+00,1.775418043136596680e+00,1.775255918502807617e+00,1.775093913078308105e+00,1.774932026863098145e+00,1.774769902229309082e+00,1.774607896804809570e+00,1.774446129798889160e+00,1.774284243583679199e+00,1.774122238159179688e+00,1.773960351943969727e+00,1.773798704147338867e+00,1.773636937141418457e+00,1.773475050926208496e+00,1.773313522338867188e+00,1.773151755332946777e+00,1.772989988327026367e+00,1.772828578948974609e+00,1.772666931152343750e+00,1.772505283355712891e+00,1.772343873977661133e+00,1.772182345390319824e+00,1.772020697593688965e+00,1.771859288215637207e+00,1.771697998046875000e+00,1.771536469459533691e+00,1.771375060081481934e+00,1.771213889122009277e+00,1.771052479743957520e+00,1.770891189575195312e+00,1.770730018615722656e+00,1.770568847656250000e+00,1.770407557487487793e+00,1.770246505737304688e+00,1.770085334777832031e+00,1.769924163818359375e+00,1.769763231277465820e+00,1.769602179527282715e+00,1.769441127777099609e+00,1.769280076026916504e+00,1.769119262695312500e+00,1.768958210945129395e+00,1.768797278404235840e+00,1.768636584281921387e+00,1.768475651741027832e+00,1.768314838409423828e+00,1.768154144287109375e+00,1.767993330955505371e+00,1.767832636833190918e+00,1.767672061920166016e+00,1.767511248588562012e+00,1.767350673675537109e+00,1.767189979553222656e+00,1.767029523849487305e+00,1.766868948936462402e+00,1.766708374023437500e+00,1.766548037528991699e+00,1.766387462615966797e+00,1.766227006912231445e+00,1.766066789627075195e+00,1.765906333923339844e+00,1.765745997428894043e+00,1.765585780143737793e+00,1.765425443649291992e+00,1.765265107154846191e+00,1.765105128288269043e+00,1.764944791793823242e+00,1.764784574508666992e+00
1.607377529144287109e+00,1.607244610786437988e+00,1.607111692428588867e+00,1.606979012489318848e+00,1.606846213340759277e+00,1.606713414192199707e+00,1.606580734252929688e+00,1.606448054313659668e+00,1.606315255165100098e+00,1.606182575225830078e+00,1.606050014495849609e+00,1.605917334556579590e+00,1.605784773826599121e+00,1.605652213096618652e+00,1.605519652366638184e+00,1.605387091636657715e+00,1.605254650115966797e+00,1.605122089385986328e+00,1.604989647865295410e+00,1.604857206344604492e+00,1.604724764823913574e+00,1.604592323303222656e+00,1.604459881782531738e+00,1.604327678680419922e+00,1.604195237159729004e+00,1.604062914848327637e+00,1.603930711746215820e+00,1.603798389434814453e+00,1.603666067123413086e+00,1.603533983230590820e+00,1.603401660919189453e+00,1.603269457817077637e+00,1.603137373924255371e+00,1.603005170822143555e+00,1.602873086929321289e+00,1.602740883827209473e+00,1.602608919143676758e+00,1.602476835250854492e+00,1.602344751358032227e+00,1.602212905883789062e+00,1.602080821990966797e+00,1.601948857307434082e+00,1.601817011833190918e+00,1.601685047149658203e+00,1.601553082466125488e+00,1.601421236991882324e+00,1.601289391517639160e+00,1.601157546043395996e+00,1.601025819778442383e+00,1.600893974304199219e+00,1.600762128829956055e+00,1.600630283355712891e+00,1.600498676300048828e+00,1.600366950035095215e+00,1.600235223770141602e+00,1.600103616714477539e+00,1.599971890449523926e+00,1.599840283393859863e+00,1.599708795547485352e+00,1.599577188491821289e+00,1.599445581436157227e+00,1.599314093589782715e+00,1.599182605743408203e+00,1.599050998687744141e+00,1.598919510841369629e+00,1.598788142204284668e+00,1.598656654357910156e+00,1.598525285720825195e+00,1.598393917083740234e+00,1.598262548446655273e+00,1.598131179809570312e+00,1.597999930381774902e+00,1.597868680953979492e+00,1.597737312316894531e+00,1.597606182098388672e+00,1.597474932670593262e+00,1.597343564033508301e+00,1.597212553024291992e+00,1.597081303596496582e+00,1.596950173377990723e+00
1.466956138610839844e+00,1.466845393180847168e+00,1.466734766960144043e+00,1.466624259948730469e+00,1.466513633728027344e+00,1.466403007507324219e+00,1.466292500495910645e+00,1.466181874275207520e+00,1.466071367263793945e+00,1.465960741043090820e+00,1.465850353240966797e+00,1.465739846229553223e+00,1.465629339218139648e+00,1.465518951416015625e+00,1.465408563613891602e+00,1.465298056602478027e+00,1.465187788009643555e+00,1.465077400207519531e+00,1.464966893196105957e+00,1.464856743812561035e+00,1.464746356010437012e+00,1.464635968208312988e+00,1.464525580406188965e+00,1.464415431022644043e+00,1.464305162429809570e+00,1.464194893836975098e+00,1.464084744453430176e+00,1.463974475860595703e+00,1.463864207267761230e+00,1.463754057884216309e+00,1.463643908500671387e+00,1.463533759117126465e+00,1.463423728942871094e+00,1.463313579559326172e+00,1.463203430175781250e+00,1.463093280792236328e+00,1.462983250617980957e+00,1.462873220443725586e+00,1.462763190269470215e+00,1.462653160095214844e+00,1.462543129920959473e+00,1.462433099746704102e+00,1.462323307991027832e+00,1.462213277816772461e+00,1.462103366851806641e+00,1.461993455886840820e+00,1.461883544921875000e+00,1.461773633956909180e+00,1.461663842201232910e+00,1.461553931236267090e+00,1.461444139480590820e+00,1.461334228515625000e+00,1.461224555969238281e+00,1.461114764213562012e+00,1.461004972457885742e+00,1.460895299911499023e+00,1.460785508155822754e+00,1.460675716400146484e+00,1.460566163063049316e+00,1.460456371307373047e+00,1.460346698760986328e+00,1.460237145423889160e+00,1.460127472877502441e+00,1.460017800331115723e+00,1.459908127784729004e+00,1.459798693656921387e+00,1.459689021110534668e+00,1.459579467773437500e+00,1.459470033645629883e+00,1.459360480308532715e+00,1.459250926971435547e+00,1.459141492843627930e+00,1.459031939506530762e+00,1.458922505378723145e+00,1.458813190460205078e+00,1.458703637123107910e+00,1.458594202995300293e+00,1.458484888076782227e+00,1.458375573158264160e+00,1.458266139030456543e+00
1.349098086357116699e+00,1.349004507064819336e+00,1.348910927772521973e+00,1.348817467689514160e+00,1.348723888397216797e+00,1.348630309104919434e+00,1.348536849021911621e+00,1.348443269729614258e+00,1.348349809646606445e+00,1.348256230354309082e+00,1.348162889480590820e+00,1.348069429397583008e+00,1.347975969314575195e+00,1.347882628440856934e+00,1.347789168357849121e+00,1.347695708274841309e+00,1.347602367401123047e+00,1.347509026527404785e+00,1.347415566444396973e+00,1.347322344779968262e+00,1.347229003906250000e+00,1.347135663032531738e+00,1.347042322158813477e+00,1.346949100494384766e+00,1.346855759620666504e+00,1.346762418746948242e+00,1.346669316291809082e+00,1.346575975418090820e+00,1.346482753753662109e+00,1.346389532089233398e+00,1.346296310424804688e+00,1.346203088760375977e+00,1.346109986305236816e+00,1.346016764640808105e+00,1.345923662185668945e+00,1.345830440521240234e+00,1.345737338066101074e+00,1.345644235610961914e+00,1.345551133155822754e+00,1.345458149909973145e+00,1.345364928245544434e+00,1.345271825790405273e+00,1.345178842544555664e+00,1.345085859298706055e+00,1.344992756843566895e+00,1.344899773597717285e+00,1.344806790351867676e+00,1.344713807106018066e+00,1.344620823860168457e+00,1.344527840614318848e+00,1.344434857368469238e+00,1.344341874122619629e+00,1.344249129295349121e+00,1.344156146049499512e+00,1.344063162803649902e+00,1.343970417976379395e+00,1.343877434730529785e+00,1.343784570693969727e+00,1.343691825866699219e+00,1.343598961830139160e+00,1.343506097793579102e+00,1.343413352966308594e+00,1.343320488929748535e+00,1.343227744102478027e+00,1.343134880065917969e+00,1.343042254447937012e+00,1.342949390411376953e+00,1.342856645584106445e+00,1.342764019966125488e+00,1.342671275138854980e+00,1.342578530311584473e+00,1.342485904693603516e+00,1.342393279075622559e+00,1.342300534248352051e+00,1.342208027839660645e+00,1.342115283012390137e+00,1.342022657394409180e+00,1.341930150985717773e+00,1.341837525367736816e+00,1.341744899749755859e+00
1.248769760131835938e+00,1.248689532279968262e+00,1.248609304428100586e+00,1.248529195785522461e+00,1.248448967933654785e+00,1.248368859291076660e+00,1.248288750648498535e+00,1.248208642005920410e+00,1.248128533363342285e+00,1.248048424720764160e+00,1.247968316078186035e+00,1.247888207435607910e+00,1.247808098793029785e+00,1.247728109359741211e+00,1.247648119926452637e+00,1.247568011283874512e+00,1.247488021850585938e+00,1.247408032417297363e+00,1.247327923774719238e+00,1.247248053550720215e+00,1.247168064117431641e+00,1.247088074684143066e+00,1.247007966041564941e+00,1.246928095817565918e+00,1.246848106384277344e+00,1.246768236160278320e+00,1.246688365936279297e+00,1.246608376502990723e+00,1.246528506278991699e+00,1.246448636054992676e+00,1.246368765830993652e+00,1.246288776397705078e+00,1.246209025382995605e+00,1.246129155158996582e+00,1.246049284934997559e+00,1.245969414710998535e+00,1.245889663696289062e+00,1.245809793472290039e+00,1.245729923248291016e+00,1.245650291442871094e+00,1.245570421218872070e+00,1.245490670204162598e+00,1.245410919189453125e+00,1.245331168174743652e+00,1.245251417160034180e+00,1.245171666145324707e+00,1.245091915130615234e+00,1.245012283325195312e+00,1.244932651519775391e+00,1.244852900505065918e+00,1.244773149490356445e+00,1.244693517684936523e+00,1.244613885879516602e+00,1.244534254074096680e+00,1.244454503059387207e+00,1.244374990463256836e+00,1.244295358657836914e+00,1.244215726852416992e+00,1.244136214256286621e+00,1.244056582450866699e+00,1.243976950645446777e+00,1.243897438049316406e+00,1.243817806243896484e+00,1.243738293647766113e+00,1.243658661842346191e+00,1.243579268455505371e+00,1.243499755859375000e+00,1.243420124053955078e+00,1.243340730667114258e+00,1.243261218070983887e+00,1.243181705474853516e+00,1.243102312088012695e+00,1.243022799491882324e+00,1.242943406105041504e+00,1.242864012718200684e+00,1.242784500122070312e+00,1.242705106735229492e+00,1.242625832557678223e+00,1.242546319961547852e+00,1.242466926574707031e+00
1.162330627441406250e+00,1.162261128425598145e+00,1.162191629409790039e+00,1.162122249603271484e+00,1.162052750587463379e+00,1.161983370780944824e+00,1.161913990974426270e+00,1.161844491958618164e+00,1.161775112152099609e+00,1.161705732345581055e+00,1.161636352539062500e+00,1.161566972732543945e+00,1.161497592926025391e+00,1.161428213119506836e+00,1.161358833312988281e+00,1.161289453506469727e+00,1.161220192909240723e+00,1.161150813102722168e+00,1.161081433296203613e+00,1.161012172698974609e+00,1.160942912101745605e+00,1.160873532295227051e+00,1.160804271697998047e+00,1.160735011100769043e+00,1.160665750503540039e+00,1.160596370697021484e+00,1.160527229309082031e+00,1.160457968711853027e+00,1.160388708114624023e+00,1.160319447517395020e+00,1.160250186920166016e+00,1.160181045532226562e+00,1.160111784934997559e+00,1.160042643547058105e+00,1.159973382949829102e+00,1.159904241561889648e+00,1.159835100173950195e+00,1.159765839576721191e+00,1.159696698188781738e+00,1.159627556800842285e+00,1.159558415412902832e+00,1.159489274024963379e+00,1.159420132637023926e+00,1.159350991249084473e+00,1.159281849861145020e+00,1.159212827682495117e+00,1.159143686294555664e+00,1.159074664115905762e+00,1.159005641937255859e+00,1.158936500549316406e+00,1.158867478370666504e+00,1.158798336982727051e+00,1.158729314804077148e+00,1.158660292625427246e+00,1.158591270446777344e+00,1.158522248268127441e+00,1.158453226089477539e+00,1.158384203910827637e+00,1.158315300941467285e+00,1.158246278762817383e+00,1.158177256584167480e+00,1.158108353614807129e+00,1.158039331436157227e+00,1.157970428466796875e+00,1.157901406288146973e+00,1.157832503318786621e+00,1.157763600349426270e+00,1.157694697380065918e+00,1.157625794410705566e+00,1.157556891441345215e+00,1.157487988471984863e+00,1.157419085502624512e+00,1.157350182533264160e+00,1.157281279563903809e+00,1.157212495803833008e+00,1.157143592834472656e+00,1.157074809074401855e+00,1.157006025314331055e+00,1.156937122344970703e+00,1.156868219375610352e+00
1.087083339691162109e+00,1.087022542953491211e+00,1.086961746215820312e+00,1.086901068687438965e+00,1.086840271949768066e+00,1.086779594421386719e+00,1.086718916893005371e+00,1.086658120155334473e+00,1.086597442626953125e+00,1.086536645889282227e+00,1.086475968360900879e+00,1.086415290832519531e+00,1.086354613304138184e+00,1.086293935775756836e+00,1.086233258247375488e+00,1.086172580718994141e+00,1.086112022399902344e+00,1.086051344871520996e+00,1.085990667343139648e+00,1.085929989814758301e+00,1.085869431495666504e+00,1.085808753967285156e+00,1.085748076438903809e+00,1.085687518119812012e+00,1.085626840591430664e+00,1.085566282272338867e+00,1.085505723953247070e+00,1.085445165634155273e+00,1.085384488105773926e+00,1.085324048995971680e+00,1.085263371467590332e+00,1.085202813148498535e+00,1.085142374038696289e+00,1.085081815719604492e+00,1.085021257400512695e+00,1.084960699081420898e+00,1.084900140762329102e+00,1.084839701652526855e+00,1.084779143333435059e+00,1.084718585014343262e+00,1.084658145904541016e+00,1.084597587585449219e+00,1.084537148475646973e+00,1.084476709365844727e+00,1.084416151046752930e+00,1.084355711936950684e+00,1.084295272827148438e+00,1.084234833717346191e+00,1.084174394607543945e+00,1.084113955497741699e+00,1.084053516387939453e+00,1.083993077278137207e+00,1.083932638168334961e+00,1.083872318267822266e+00,1.083811879158020020e+00,1.083751440048217773e+00,1.083691120147705078e+00,1.083630681037902832e+00,1.083570361137390137e+00,1.083509922027587891e+00,1.083449602127075195e+00,1.083389282226562500e+00,1.083328843116760254e+00,1.083268523216247559e+00,1.083208203315734863e+00,1.083147883415222168e+00,1.083087563514709473e+00,1.083027243614196777e+00,1.082966923713684082e+00,1.082906603813171387e+00,1.082846283912658691e+00,1.082786083221435547e+00,1.082725763320922852e+00,1.082665443420410156e+00,1.082605242729187012e+00,1.082544922828674316e+00,1.082484602928161621e+00,1.082424402236938477e+00,1.082364201545715332e+00,1.082303881645202637e+00
1.020986437797546387e+00,1.020932793617248535e+00,1.020879268646240234e+00,1.020825624465942383e+00,1.020772099494934082e+00,1.020718455314636230e+00,1.020664930343627930e+00,1.020611405372619629e+00,1.020557761192321777e+00,1.020504236221313477e+00,1.020450711250305176e+00,1.020397186279296875e+00,1.020343661308288574e+00,1.020290136337280273e+00,1.020236611366271973e+00,1.020183086395263672e+00,1.020129561424255371e+00,1.020076036453247070e+00,1.020022511482238770e+00,1.019969105720520020e+00,1.019915580749511719e+00,1.019862055778503418e+00,1.019808530807495117e+00,1.019755125045776367e+00,1.019701600074768066e+00,1.019648194313049316e+00,1.019594788551330566e+00,1.019541263580322266e+00,1.019487738609313965e+00,1.019434452056884766e+00,1.019380927085876465e+00,1.019327521324157715e+00,1.019274115562438965e+00,1.019220709800720215e+00,1.019167184829711914e+00,1.019113779067993164e+00,1.019060492515563965e+00,1.019007086753845215e+00,1.018953680992126465e+00,1.018900275230407715e+00,1.018846869468688965e+00,1.018793463706970215e+00,1.018740177154541016e+00,1.018686771392822266e+00,1.018633365631103516e+00,1.018580079078674316e+00,1.018526792526245117e+00,1.018473386764526367e+00,1.018420100212097168e+00,1.018366694450378418e+00,1.018313407897949219e+00,1.018260121345520020e+00,1.018206834793090820e+00,1.018153429031372070e+00,1.018100142478942871e+00,1.018046855926513672e+00,1.017993569374084473e+00,1.017940282821655273e+00,1.017886996269226074e+00,1.017833709716796875e+00,1.017780423164367676e+00,1.017727255821228027e+00,1.017673969268798828e+00,1.017620682716369629e+00,1.017567396163940430e+00,1.017514228820800781e+00,1.017460942268371582e+00,1.017407774925231934e+00,1.017354607582092285e+00,1.017301321029663086e+00,1.017248034477233887e+00,1.017194867134094238e+00,1.017141699790954590e+00,1.017088532447814941e+00,1.017035365104675293e+00,1.016982197761535645e+00,1.016928911209106445e+00,1.016875863075256348e+00,1.016822576522827148e+00,1.016769409179687500e+00
9.624665379524230957e-01,9.624189734458923340e-01,9.623712301254272461e-01,9.623236656188964844e-01,9.622761011123657227e-01,9.622284173965454102e-01,9.621807932853698730e-01,9.621332883834838867e-01,9.620856046676635742e-01,9.620380401611328125e-01,9.619904756546020508e-01,9.619428515434265137e-01,9.618952870368957520e-01,9.618477821350097656e-01,9.618000984191894531e-01,9.617525935173034668e-01,9.617050886154174805e-01,9.616574645042419434e-01,9.616099596023559570e-01,9.615624547004699707e-01,9.615148305892944336e-01,9.614673256874084473e-01,9.614197015762329102e-01,9.613722562789916992e-01,9.613247513771057129e-01,9.612771272659301758e-01,9.612296819686889648e-01,9.611822366714477539e-01,9.611346125602722168e-01,9.610871672630310059e-01,9.610397219657897949e-01,9.609921574592590332e-01,9.609447121620178223e-01,9.608972668647766113e-01,9.608497023582458496e-01,9.608023166656494141e-01,9.607548713684082031e-01,9.607073068618774414e-01,9.606599211692810059e-01,9.606124758720397949e-01,9.605649709701538086e-01,9.605175852775573730e-01,9.604701995849609375e-01,9.604226946830749512e-01,9.603752493858337402e-01,9.603279232978820801e-01,9.602804183959960938e-01,9.602330327033996582e-01,9.601856470108032227e-01,9.601382017135620117e-01,9.600908160209655762e-01,9.600433707237243652e-01,9.599959850311279297e-01,9.599486589431762695e-01,9.599012136459350586e-01,9.598538279533386230e-01,9.598065018653869629e-01,9.597590565681457520e-01,9.597117304801940918e-01,9.596644043922424316e-01,9.596170186996459961e-01,9.595696926116943359e-01,9.595223665237426758e-01,9.594749808311462402e-01,9.594276547431945801e-01,9.593803882598876953e-01,9.593330025672912598e-01,9.592856764793395996e-01,9.592384099960327148e-01,9.591910243034362793e-01,9.591437578201293945e-01,9.590964913368225098e-01,9.590491056442260742e-01,9.590018987655639648e-01,9.589546322822570801e-01,9.589072465896606445e-01,9.588600397109985352e-01,9.588127732276916504e-01,9.587654471397399902e-01,9.587182402610778809e-01
9.102913737297058105e-01,9.102486968040466309e-01,9.102061390876770020e-01,9.101635813713073730e-01,9.101209044456481934e-01,9.100783467292785645e-01,9.100357890129089355e-01,9.099931716918945312e-01,9.099506139755249023e-01,9.099079370498657227e-01,9.098654389381408691e-01,9.098228812217712402e-01,9.097802639007568359e-01,9.097377657890319824e-01,9.096952080726623535e-01,9.096525907516479492e-01,9.096100926399230957e-01,9.095675945281982422e-01,9.095249772071838379e-01,9.094824790954589844e-01,9.094399809837341309e-01,9.093973636627197266e-01,9.093549251556396484e-01,9.093124270439147949e-01,9.092698097229003906e-01,9.092273712158203125e-01,9.091848731040954590e-01,9.091423153877258301e-01,9.090998768806457520e-01,9.090573787689208984e-01,9.090148210525512695e-01,9.089723825454711914e-01,9.089299440383911133e-01,9.088873863220214844e-01,9.088449478149414062e-01,9.088023900985717773e-01,9.087599515914916992e-01,9.087175726890563965e-01,9.086750149726867676e-01,9.086325764656066895e-01,9.085901975631713867e-01,9.085476994514465332e-01,9.085052609443664551e-01,9.084628820419311523e-01,9.084203839302062988e-01,9.083779454231262207e-01,9.083355665206909180e-01,9.082930684089660645e-01,9.082506895065307617e-01,9.082083106040954590e-01,9.081658720970153809e-01,9.081234931945800781e-01,9.080811142921447754e-01,9.080386161804199219e-01,9.079962968826293945e-01,9.079539179801940918e-01,9.079114794731140137e-01,9.078691005706787109e-01,9.078267812728881836e-01,9.077843427658081055e-01,9.077419638633728027e-01,9.076996445655822754e-01,9.076572060585021973e-01,9.076148867607116699e-01,9.075725078582763672e-01,9.075301885604858398e-01,9.074878692626953125e-01,9.074454307556152344e-01,9.074031114578247070e-01,9.073608517646789551e-01,9.073184132575988770e-01,9.072761535644531250e-01,9.072338342666625977e-01,9.071914553642272949e-01,9.071491956710815430e-01,9.071069359779357910e-01,9.070645570755004883e-01,9.070222973823547363e-01,9.069799780845642090e-01,9.069376587867736816e-01
8.634820580482482910e-01,8.634437322616577148e-01,8.634053468704223633e-01,8.633670210838317871e-01,8.633287549018859863e-01,8.632903695106506348e-01,8.632520437240600586e-01,8.632137775421142578e-01,8.631753921508789062e-01,8.631371259689331055e-01,8.630988597869873047e-01,8.630604743957519531e-01,8.630222082138061523e-01,8.629839420318603516e-01,8.629456162452697754e-01,8.629073500633239746e-01,8.628690838813781738e-01,8.628307580947875977e-01,8.627924919128417969e-01,8.627542853355407715e-01,8.627159595489501953e-01,8.626776933670043945e-01,8.626393675804138184e-01,8.626011610031127930e-01,8.625628948211669922e-01,8.625245690345764160e-01,8.624863624572753906e-01,8.624481558799743652e-01,8.624098300933837891e-01,8.623716235160827637e-01,8.623334169387817383e-01,8.622951507568359375e-01,8.622569441795349121e-01,8.622187376022338867e-01,8.621804714202880859e-01,8.621422648429870605e-01,8.621040582656860352e-01,8.620657920837402344e-01,8.620275855064392090e-01,8.619894385337829590e-01,8.619511723518371582e-01,8.619130253791809082e-01,8.618748188018798828e-01,8.618366122245788574e-01,8.617984056472778320e-01,8.617602586746215820e-01,8.617219924926757812e-01,8.616838455200195312e-01,8.616456985473632812e-01,8.616074919700622559e-01,8.615693449974060059e-01,8.615311384201049805e-01,8.614929914474487305e-01,8.614548444747924805e-01,8.614166378974914551e-01,8.613784909248352051e-01,8.613404035568237305e-01,8.613021969795227051e-01,8.612641096115112305e-01,8.612259626388549805e-01,8.611877560615539551e-01,8.611496686935424805e-01,8.611115813255310059e-01,8.610733747482299805e-01,8.610352873802185059e-01,8.609972000122070312e-01,8.609590530395507812e-01,8.609209656715393066e-01,8.608828783035278320e-01,8.608447313308715820e-01,8.608066439628601074e-01,8.607685565948486328e-01,8.607304096221923828e-01,8.606923222541809082e-01,8.606542944908142090e-01,8.606161475181579590e-01,8.605780601501464844e-01,8.605400323867797852e-01,8.605018854141235352e-01,8.604638576507568359e-01
8.212514519691467285e-01,8.212167024612426758e-01,8.211820721626281738e-01,8.211474418640136719e-01,8.211126923561096191e-01,8.210780620574951172e-01,8.210434317588806152e-01,8.210086822509765625e-01,8.209740519523620605e-01,8.209393620491027832e-01,8.209047317504882812e-01,8.208701014518737793e-01,8.208354115486145020e-01,8.208007812500000000e-01,8.207662105560302734e-01,8.207315206527709961e-01,8.206968903541564941e-01,8.206623196601867676e-01,8.206276297569274902e-01,8.205929994583129883e-01,8.205584287643432617e-01,8.205237388610839844e-01,8.204891681671142578e-01,8.204545974731445312e-01,8.204199075698852539e-01,8.203853368759155273e-01,8.203507661819458008e-01,8.203160762786865234e-01,8.202815055847167969e-01,8.202469348907470703e-01,8.202123045921325684e-01,8.201777338981628418e-01,8.201431632041931152e-01,8.201085329055786133e-01,8.200739622116088867e-01,8.200393319129943848e-01,8.200048208236694336e-01,8.199702501296997070e-01,8.199356198310852051e-01,8.199011087417602539e-01,8.198665380477905273e-01,8.198319673538208008e-01,8.197973966598510742e-01,8.197628855705261230e-01,8.197282552719116211e-01,8.196937441825866699e-01,8.196592330932617188e-01,8.196246623992919922e-01,8.195900917053222656e-01,8.195556402206420898e-01,8.195210099220275879e-01,8.194864988327026367e-01,8.194519877433776855e-01,8.194174170494079590e-01,8.193829655647277832e-01,8.193484544754028320e-01,8.193138837814331055e-01,8.192793726921081543e-01,8.192449212074279785e-01,8.192103505134582520e-01,8.191758394241333008e-01,8.191413879394531250e-01,8.191068172454833984e-01,8.190723657608032227e-01,8.190377950668334961e-01,8.190033435821533203e-01,8.189688920974731445e-01,8.189343214035034180e-01,8.188998699188232422e-01,8.188654184341430664e-01,8.188309073448181152e-01,8.187964558601379395e-01,8.187620043754577637e-01,8.187274932861328125e-01,8.186930418014526367e-01,8.186585903167724609e-01,8.186240792274475098e-01,8.185896873474121094e-01,8.185552358627319336e-01,8.185207247734069824e-01
7.829589247703552246e-01,7.829274535179138184e-01,7.828958630561828613e-01,7.828643918037414551e-01,7.828329205513000488e-01,7.828013300895690918e-01,7.827698588371276855e-01,7.827383875846862793e-01,7.827068567276000977e-01,7.826753854751586914e-01,7.826439142227172852e-01,7.826123237609863281e-01,7.825808525085449219e-01,7.825494408607482910e-01,7.825178503990173340e-01,7.824864387512207031e-01,7.824549674987792969e-01,7.824234366416931152e-01,7.823919653892517090e-01,7.823605537414550781e-01,7.823290228843688965e-01,7.822975516319274902e-01,7.822660207748413086e-01,7.822346091270446777e-01,7.822031974792480469e-01,7.821716666221618652e-01,7.821402549743652344e-01,7.821087837219238281e-01,7.820773124694824219e-01,7.820459008216857910e-01,7.820144295692443848e-01,7.819829583168029785e-01,7.819515466690063477e-01,7.819201350212097168e-01,7.818886637687683105e-01,7.818572521209716797e-01,7.818258404731750488e-01,7.817943692207336426e-01,7.817629575729370117e-01,7.817315459251403809e-01,7.817000746726989746e-01,7.816686630249023438e-01,7.816373109817504883e-01,7.816058397293090820e-01,7.815744280815124512e-01,7.815430760383605957e-01,7.815116047859191895e-01,7.814801931381225586e-01,7.814488410949707031e-01,7.814173698425292969e-01,7.813860177993774414e-01,7.813546061515808105e-01,7.813231945037841797e-01,7.812918424606323242e-01,7.812604308128356934e-01,7.812290787696838379e-01,7.811976671218872070e-01,7.811662554740905762e-01,7.811349034309387207e-01,7.811035513877868652e-01,7.810721397399902344e-01,7.810407876968383789e-01,7.810094356536865234e-01,7.809780240058898926e-01,7.809467315673828125e-01,7.809153795242309570e-01,7.808839678764343262e-01,7.808526754379272461e-01,7.808213233947753906e-01,7.807899117469787598e-01,7.807586193084716797e-01,7.807272672653198242e-01,7.806959152221679688e-01,7.806645631790161133e-01,7.806332707405090332e-01,7.806019186973571777e-01,7.805705666542053223e-01,7.805392742156982422e-01,7.805079221725463867e-01,7.804766297340393066e-01
7.480783462524414062e-01,7.480495572090148926e-01,7.480207681655883789e-01,7.479920387268066406e-01,7.479632496833801270e-01,7.479345202445983887e-01,7.479057312011718750e-01,7.478769421577453613e-01,7.478482127189636230e-01,7.478194236755371094e-01,7.477906942367553711e-01,7.477619647979736328e-01,7.477331757545471191e-01,7.477044463157653809e-01,7.476757168769836426e-01,7.476469278335571289e-01,7.476181983947753906e-01,7.475894689559936523e-01,7.475606799125671387e-01,7.475320100784301758e-01,7.475032806396484375e-01,7.474744915962219238e-01,7.474458217620849609e-01,7.474170923233032227e-01,7.473883032798767090e-01,7.473596334457397461e-01,7.473309040069580078e-01,7.473021745681762695e-01,7.472735047340393066e-01,7.472447752952575684e-01,7.472160458564758301e-01,7.471873760223388672e-01,7.471586465835571289e-01,7.471299171447753906e-01,7.471012473106384277e-01,7.470725178718566895e-01,7.470437884330749512e-01,7.470151185989379883e-01,7.469863891601562500e-01,7.469577193260192871e-01,7.469290494918823242e-01,7.469003200531005859e-01,7.468717098236083984e-01,7.468430399894714355e-01,7.468143105506896973e-01,7.467856407165527344e-01,7.467569708824157715e-01,7.467283010482788086e-01,7.466996312141418457e-01,7.466709613800048828e-01,7.466422915458679199e-01,7.466136217117309570e-01,7.465850114822387695e-01,7.465562820434570312e-01,7.465276718139648438e-01,7.464990019798278809e-01,7.464703321456909180e-01,7.464416623115539551e-01,7.464130520820617676e-01,7.463843822479248047e-01,7.463557720184326172e-01,7.463271021842956543e-01,7.462984323501586914e-01,7.462698221206665039e-01,7.462411522865295410e-01,7.462125420570373535e-01,7.461839318275451660e-01,7.461552619934082031e-01,7.461266517639160156e-01,7.460980415344238281e-01,7.460693717002868652e-01,7.460407614707946777e-01,7.460122108459472656e-01,7.459835410118103027e-01,7.459549307823181152e-01,7.459263801574707031e-01,7.458977103233337402e-01,7.458691000938415527e-01,7.458405494689941406e-01,7.458118796348571777e-01
