5.000000000000000000e+00,5.000000000000000000e+00,5.000000000000000000e+00,5.000000000000000000e+00,5.000000000000000000e+00,5.000000000000000000e+00,5.000000000000000000e+00,5.000000000000000000e+00,5.000000000000000000e+00,5.000000000000000000e+00,5.000000000000000000e+00,5.000000000000000000e+00,5.000000000000000000e+00,5.000000000000000000e+00,5.000000000000000000e+00,5.000000000000000000e+00,5.000000000000000000e+00,5.000000000000000000e+00,5.000000000000000000e+00,5.000000000000000000e+00,5.000000000000000000e+00,5.000000000000000000e+00,5.000000000000000000e+00,5.000000000000000000e+00,5.000000000000000000e+00,5.000000000000000000e+00,5.000000000000000000e+00,5.000000000000000000e+00,5.000000000000000000e+00,5.000000000000000000e+00,5.000000000000000000e+00,5.000000000000000000e+00,5.000000000000000000e+00,5.000000000000000000e+00,5.000000000000000000e+00,5.000000000000000000e+00,5.000000000000000000e+00,1.721086978912353516e+00,1.704193711280822754e+00,1.692366361618041992e+00,1.703257679939270020e+00,1.668440699577331543e+00,1.648448824882507324e+00,1.635723114013671875e+00,1.632196664810180664e+00,1.635491728782653809e+00,1.644471406936645508e+00,1.658441662788391113e+00,1.682363152503967285e+00,1.746380567550659180e+00,1.801078796386718750e+00,1.821095347404479980e+00,3.259015798568725586e+00,3.171444177627563477e+00,3.088455677032470703e+00,3.009699821472167969e+00,2.934860706329345703e+00,2.863652944564819336e+00,2.795818567276000977e+00,2.731123924255371094e+00,2.669355630874633789e+00,2.610319375991821289e+00,2.553837776184082031e+00,2.499748706817626953e+00,2.447903633117675781e+00,2.398164987564086914e+00,2.350407600402832031e+00,2.304514884948730469e+00,2.260380506515502930e+00,2.217904567718505859e+00,2.176995277404785156e+00,2.137568235397338867e+00,2.099543571472167969e+00,2.062848329544067383e+00,2.027413606643676758e+00,1.993175745010375977e+00,1.960075139999389648e+00,1.928055763244628906e+00,1.897065877914428711e+00,1.867056250572204590e+00
5.000000000000000000e+00,5.000000000000000000e+00,5.000000000000000000e+00,5.000000000000000000e+00,5.000000000000000000e+00,5.000000000000000000e+00,5.000000000000000000e+00,5.000000000000000000e+00,5.000000000000000000e+00,5.000000000000000000e+00,5.000000000000000000e+00,5.000000000000000000e+00,5.000000000000000000e+00,5.000000000000000000e+00,5.000000000000000000e+00,5.000000000000000000e+00,5.000000000000000000e+00,5.000000000000000000e+00,5.000000000000000000e+00,5.000000000000000000e+00,5.000000000000000000e+00,5.000000000000000000e+00,5.000000000000000000e+00,5.000000000000000000e+00,5.000000000000000000e+00,5.000000000000000000e+00,5.000000000000000000e+00,5.000000000000000000e+00,5.000000000000000000e+00,5.000000000000000000e+00,5.000000000000000000e+00,5.000000000000000000e+00,5.000000000000000000e+00,5.000000000000000000e+00,5.000000000000000000e+00,5.000000000000000000e+00,5.000000000000000000e+00,1.727085351943969727e+00,1.706588745117187500e+00,1.695876359939575195e+00,1.708942413330078125e+00,1.663350105285644531e+00,1.638574004173278809e+00,1.625407099723815918e+00,1.621931433677673340e+00,1.631139039993286133e+00,1.648331522941589355e+00,1.662276983261108398e+00,1.688158869743347168e+00,1.818994760513305664e+00,1.805289864540100098e+00,1.819378495216369629e+00,3.259079456329345703e+00,3.171504497528076172e+00,3.088512897491455078e+00,3.009753942489624023e+00,2.934912204742431641e+00,2.863702058792114258e+00,2.795865535736083984e+00,2.731168508529663086e+00,2.669398307800292969e+00,2.610360145568847656e+00,2.553876876831054688e+00,2.499786138534545898e+00,2.447939395904541016e+00,2.398199558258056641e+00,2.350440740585327148e+00,2.304546833038330078e+00,2.260411024093627930e+00,2.217933893203735352e+00,2.177023649215698242e+00,2.137595415115356445e+00,2.099570035934448242e+00,2.062873840332031250e+00,2.027438163757324219e+00,1.993199348449707031e+00,1.960098028182983398e+00,1.928078055381774902e+00,1.897087335586547852e+00,1.867077231407165527e+00
5.000000000000000000e+00,5.000000000000000000e+00,5.000000000000000000e+00,5.000000000000000000e+00,5.000000000000000000e+00,5.000000000000000000e+00,5.000000000000000000e+00,5.000000000000000000e+00,5.000000000000000000e+00,5.000000000000000000e+00,5.000000000000000000e+00,5.000000000000000000e+00,5.000000000000000000e+00,5.000000000000000000e+00,5.000000000000000000e+00,5.000000000000000000e+00,5.000000000000000000e+00,5.000000000000000000e+00,5.000000000000000000e+00,5.000000000000000000e+00,5.000000000000000000e+00,5.000000000000000000e+00,5.000000000000000000e+00,5.000000000000000000e+00,5.000000000000000000e+00,5.000000000000000000e+00,5.000000000000000000e+00,5.000000000000000000e+00,5.000000000000000000e+00,5.000000000000000000e+00,5.000000000000000000e+00,5.000000000000000000e+00,5.000000000000000000e+00,5.000000000000000000e+00,5.000000000000000000e+00,5.000000000000000000e+00,5.000000000000000000e+00,1.734561681747436523e+00,1.712914586067199707e+00,1.706196546554565430e+00,1.688854575157165527e+00,1.651819825172424316e+00,1.632906675338745117e+00,1.620609879493713379e+00,1.616241455078125000e+00,1.624620914459228516e+00,1.643971443176269531e+00,1.658379912376403809e+00,1.680070281028747559e+00,1.827781796455383301e+00,1.814552664756774902e+00,1.822552680969238281e+00,3.259143114089965820e+00,3.171564817428588867e+00,3.088570117950439453e+00,3.009808301925659180e+00,2.934963941574096680e+00,2.863751173019409180e+00,2.795912265777587891e+00,2.731213092803955078e+00,2.669440984725952148e+00,2.610400915145874023e+00,2.553915977478027344e+00,2.499823570251464844e+00,2.447975397109985352e+00,2.398233890533447266e+00,2.350473642349243164e+00,2.304578542709350586e+00,2.260441780090332031e+00,2.217963457107543945e+00,2.177052021026611328e+00,2.137622833251953125e+00,2.099596500396728516e+00,2.062899351119995117e+00,2.027462720870971680e+00,1.993223309516906738e+00,1.960121154785156250e+00,1.928100228309631348e+00,1.897109031677246094e+00,1.867097973823547363e+00
5.000000000000000000e+00,5.000000000000000000e+00,5.000000000000000000e+00,5.000000000000000000e+00,5.000000000000000000e+00,5.000000000000000000e+00,5.000000000000000000e+00,5.000000000000000000e+00,5.000000000000000000e+00,5.000000000000000000e+00,5.000000000000000000e+00,5.000000000000000000e+00,5.000000000000000000e+00,5.000000000000000000e+00,5.000000000000000000e+00,5.000000000000000000e+00,5.000000000000000000e+00,5.000000000000000000e+00,5.000000000000000000e+00,5.000000000000000000e+00,5.000000000000000000e+00,5.000000000000000000e+00,5.000000000000000000e+00,5.000000000000000000e+00,5.000000000000000000e+00,5.000000000000000000e+00,5.000000000000000000e+00,5.000000000000000000e+00,5.000000000000000000e+00,5.000000000000000000e+00,5.000000000000000000e+00,5.000000000000000000e+00,5.000000000000000000e+00,5.000000000000000000e+00,5.000000000000000000e+00,5.000000000000000000e+00,5.000000000000000000e+00,1.742896318435668945e+00,1.719287514686584473e+00,1.716643095016479492e+00,1.676440834999084473e+00,1.650181174278259277e+00,1.630271196365356445e+00,1.617153525352478027e+00,1.614181280136108398e+00,1.621525883674621582e+00,1.633700370788574219e+00,1.649900794029235840e+00,1.672736048698425293e+00,1.836644649505615234e+00,1.823910832405090332e+00,1.827204823493957520e+00,3.259206295013427734e+00,3.171624898910522461e+00,3.088627099990844727e+00,3.009862661361694336e+00,2.935015201568603516e+00,2.863800287246704102e+00,2.795959234237670898e+00,2.731257915496826172e+00,2.669483423233032227e+00,2.610441684722900391e+00,2.553955078125000000e+00,2.499861001968383789e+00,2.448011159896850586e+00,2.398268461227416992e+00,2.350506782531738281e+00,2.304610490798950195e+00,2.260472059249877930e+00,2.217992782592773438e+00,2.177080631256103516e+00,2.137650251388549805e+00,2.099622726440429688e+00,2.062924623489379883e+00,2.027487516403198242e+00,1.993247032165527344e+00,1.960144042968750000e+00,1.928122639656066895e+00,1.897130370140075684e+00,1.867118954658508301e+00
5.000000000000000000e+00,5.000000000000000000e+00,5.000000000000000000e+00,5.000000000000000000e+00,5.000000000000000000e+00,5.000000000000000000e+00,5.000000000000000000e+00,5.000000000000000000e+00,5.000000000000000000e+00,5.000000000000000000e+00,5.000000000000000000e+00,5.000000000000000000e+00,5.000000000000000000e+00,5.000000000000000000e+00,5.000000000000000000e+00,5.000000000000000000e+00,5.000000000000000000e+00,5.000000000000000000e+00,5.000000000000000000e+00,5.000000000000000000e+00,5.000000000000000000e+00,5.000000000000000000e+00,5.000000000000000000e+00,5.000000000000000000e+00,5.000000000000000000e+00,5.000000000000000000e+00,5.000000000000000000e+00,5.000000000000000000e+00,5.000000000000000000e+00,5.000000000000000000e+00,5.000000000000000000e+00,5.000000000000000000e+00,5.000000000000000000e+00,5.000000000000000000e+00,5.000000000000000000e+00,5.000000000000000000e+00,5.000000000000000000e+00,1.751311540603637695e+00,1.726455450057983398e+00,1.727218389511108398e+00,1.673992633819580078e+00,1.653575420379638672e+00,1.636032462120056152e+00,1.631163239479064941e+00,1.627006292343139648e+00,1.632767796516418457e+00,1.640841007232666016e+00,1.652186155319213867e+00,1.667506933212280273e+00,1.847051739692687988e+00,1.833318233489990234e+00,1.837069392204284668e+00,3.259269952774047852e+00,3.171685218811035156e+00,3.088684320449829102e+00,3.009916782379150391e+00,2.935066938400268555e+00,2.863849401473999023e+00,2.796005964279174805e+00,2.731302499771118164e+00,2.669526100158691406e+00,2.610482454299926758e+00,2.553993940353393555e+00,2.499898433685302734e+00,2.448046922683715820e+00,2.398302793502807617e+00,2.350539922714233398e+00,2.304642200469970703e+00,2.260502815246582031e+00,2.218022346496582031e+00,2.177109003067016602e+00,2.137677669525146484e+00,2.099649190902709961e+00,2.062950134277343750e+00,2.027512073516845703e+00,1.993270874023437500e+00,1.960166931152343750e+00,1.928144812583923340e+00,1.897152066230773926e+00,1.867139816284179688e+00
5.000000000000000000e+00,5.000000000000000000e+00,5.000000000000000000e+00,5.000000000000000000e+00,5.000000000000000000e+00,5.000000000000000000e+00,5.000000000000000000e+00,5.000000000000000000e+00,5.000000000000000000e+00,5.000000000000000000e+00,5.000000000000000000e+00,5.000000000000000000e+00,5.000000000000000000e+00,5.000000000000000000e+00,5.000000000000000000e+00,5.000000000000000000e+00,5.000000000000000000e+00,5.000000000000000000e+00,5.000000000000000000e+00,5.000000000000000000e+00,5.000000000000000000e+00,5.000000000000000000e+00,5.000000000000000000e+00,5.000000000000000000e+00,5.000000000000000000e+00,5.000000000000000000e+00,5.000000000000000000e+00,5.000000000000000000e+00,5.000000000000000000e+00,5.000000000000000000e+00,5.000000000000000000e+00,5.000000000000000000e+00,5.000000000000000000e+00,5.000000000000000000e+00,5.000000000000000000e+00,5.000000000000000000e+00,5.000000000000000000e+00,1.757399439811706543e+00,1.729677081108093262e+00,1.731660485267639160e+00,1.678539037704467773e+00,1.644974589347839355e+00,1.635587453842163086e+00,1.630719900131225586e+00,1.629173159599304199e+00,1.636191844940185547e+00,1.641192078590393066e+00,1.659941315650939941e+00,1.684330463409423828e+00,1.847382783889770508e+00,1.828357577323913574e+00,1.816660642623901367e+00,1.820926666259765625e+00,3.171745538711547852e+00,3.088741540908813477e+00,3.009971141815185547e+00,2.935118436813354492e+00,2.863898515701293945e+00,2.796052694320678711e+00,2.731347322463989258e+00,2.669568777084350586e+00,2.610523462295532227e+00,2.554033041000366211e+00,2.499935865402221680e+00,2.448082923889160156e+00,2.398337364196777344e+00,2.350573062896728516e+00,2.304674148559570312e+00,2.260533332824707031e+00,2.218051910400390625e+00,2.177137374877929688e+00,2.137705087661743164e+00,2.099675655364990234e+00,2.062975645065307617e+00,2.027536630630493164e+00,1.993294596672058105e+00,1.960190057754516602e+00,1.928167223930358887e+00,1.897173523902893066e+00,1.867160797119140625e+00
5.000000000000000000e+00,5.000000000000000000e+00,5.000000000000000000e+00,5.000000000000000000e+00,5.000000000000000000e+00,5.000000000000000000e+00,5.000000000000000000e+00,5.000000000000000000e+00,5.000000000000000000e+00,5.000000000000000000e+00,5.000000000000000000e+00,5.000000000000000000e+00,5.000000000000000000e+00,5.000000000000000000e+00,5.000000000000000000e+00,5.000000000000000000e+00,5.000000000000000000e+00,5.000000000000000000e+00,5.000000000000000000e+00,5.000000000000000000e+00,5.000000000000000000e+00,5.000000000000000000e+00,5.000000000000000000e+00,5.000000000000000000e+00,5.000000000000000000e+00,5.000000000000000000e+00,5.000000000000000000e+00,5.000000000000000000e+00,5.000000000000000000e+00,5.000000000000000000e+00,5.000000000000000000e+00,5.000000000000000000e+00,5.000000000000000000e+00,5.000000000000000000e+00,5.000000000000000000e+00,5.000000000000000000e+00,5.000000000000000000e+00,1.750244855880737305e+00,1.721034169197082520e+00,1.721552133560180664e+00,1.669986963272094727e+00,1.636124610900878906e+00,1.630782961845397949e+00,1.628834366798400879e+00,1.635415196418762207e+00,1.641749262809753418e+00,1.648132443428039551e+00,1.662297964096069336e+00,1.688923835754394531e+00,1.862364649772644043e+00,1.818339943885803223e+00,1.801223278045654297e+00,1.803049683570861816e+00,3.171805858612060547e+00,3.088798522949218750e+00,3.010025262832641602e+00,2.935170173645019531e+00,2.863947629928588867e+00,2.796099662780761719e+00,2.731391906738281250e+00,2.669611454010009766e+00,2.610564231872558594e+00,2.554072141647338867e+00,2.499973297119140625e+00,2.448118686676025391e+00,2.398371696472167969e+00,2.350606203079223633e+00,2.304705858230590820e+00,2.260564088821411133e+00,2.218081235885620117e+00,2.177165746688842773e+00,2.137732267379760742e+00,2.099701881408691406e+00,2.063001155853271484e+00,2.027561187744140625e+00,1.993318557739257812e+00,1.960212945938110352e+00,1.928189396858215332e+00,1.897195219993591309e+00,1.867181539535522461e+00
5.000000000000000000e+00,5.000000000000000000e+00,5.000000000000000000e+00,5.000000000000000000e+00,5.000000000000000000e+00,5.000000000000000000e+00,5.000000000000000000e+00,5.000000000000000000e+00,5.000000000000000000e+00,5.000000000000000000e+00,5.000000000000000000e+00,5.000000000000000000e+00,5.000000000000000000e+00,5.000000000000000000e+00,5.000000000000000000e+00,5.000000000000000000e+00,5.000000000000000000e+00,5.000000000000000000e+00,5.000000000000000000e+00,5.000000000000000000e+00,5.000000000000000000e+00,5.000000000000000000e+00,5.000000000000000000e+00,5.000000000000000000e+00,5.000000000000000000e+00,5.000000000000000000e+00,5.000000000000000000e+00,5.000000000000000000e+00,5.000000000000000000e+00,5.000000000000000000e+00,5.000000000000000000e+00,5.000000000000000000e+00,5.000000000000000000e+00,5.000000000000000000e+00,5.000000000000000000e+00,5.000000000000000000e+00,5.000000000000000000e+00,1.741670370101928711e+00,1.714114427566528320e+00,1.713876843452453613e+00,1.663904309272766113e+00,1.626462221145629883e+00,1.614234805107116699e+00,1.617162466049194336e+00,1.634363174438476562e+00,1.657366871833801270e+00,1.651829242706298828e+00,1.676885366439819336e+00,1.693789362907409668e+00,1.750700473785400391e+00,1.821750998497009277e+00,1.795765757560729980e+00,1.784692168235778809e+00,3.171865940093994141e+00,3.088855743408203125e+00,3.010079622268676758e+00,2.935221672058105469e+00,2.863996744155883789e+00,2.796146392822265625e+00,2.731436729431152344e+00,2.669654130935668945e+00,2.610605001449584961e+00,2.554111242294311523e+00,2.500010728836059570e+00,2.448154687881469727e+00,2.398406267166137695e+00,2.350639104843139648e+00,2.304737806320190430e+00,2.260594606399536133e+00,2.218110799789428711e+00,2.177194118499755859e+00,2.137759685516357422e+00,2.099728345870971680e+00,2.063026666641235352e+00,2.027585983276367188e+00,1.993342161178588867e+00,1.960236072540283203e+00,1.928211688995361328e+00,1.897216677665710449e+00,1.867202520370483398e+00
5.000000000000000000e+00,5.000000000000000000e+00,5.000000000000000000e+00,5.000000000000000000e+00,5.000000000000000000e+00,5.000000000000000000e+00,5.000000000000000000e+00,5.000000000000000000e+00,5.000000000000000000e+00,5.000000000000000000e+00,5.000000000000000000e+00,5.000000000000000000e+00,5.000000000000000000e+00,5.000000000000000000e+00,5.000000000000000000e+00,5.000000000000000000e+00,5.000000000000000000e+00,5.000000000000000000e+00,5.000000000000000000e+00,5.000000000000000000e+00,5.000000000000000000e+00,5.000000000000000000e+00,5.000000000000000000e+00,5.000000000000000000e+00,5.000000000000000000e+00,5.000000000000000000e+00,5.000000000000000000e+00,5.000000000000000000e+00,5.000000000000000000e+00,5.000000000000000000e+00,5.000000000000000000e+00,5.000000000000000000e+00,5.000000000000000000e+00,5.000000000000000000e+00,5.000000000000000000e+00,5.000000000000000000e+00,5.000000000000000000e+00,1.738558411598205566e+00,1.709534406661987305e+00,1.710109233856201172e+00,1.655368685722351074e+00,1.614835381507873535e+00,1.592421650886535645e+00,1.590340375900268555e+00,1.589207410812377930e+00,1.673284411430358887e+00,1.671009778976440430e+00,1.694955706596374512e+00,1.701930880546569824e+00,1.745221138000488281e+00,1.841904997825622559e+00,1.794833421707153320e+00,1.770931959152221680e+00,1.768276095390319824e+00,3.088912963867187500e+00,3.010133981704711914e+00,2.935273170471191406e+00,2.864045858383178711e+00,2.796193361282348633e+00,2.731481313705444336e+00,2.669696807861328125e+00,2.610645771026611328e+00,2.554150342941284180e+00,2.500048160552978516e+00,2.448190689086914062e+00,2.398440599441528320e+00,2.350672245025634766e+00,2.304769515991210938e+00,2.260625123977661133e+00,2.218140125274658203e+00,2.177222490310668945e+00,2.137787103652954102e+00,2.099754810333251953e+00,2.063052177429199219e+00,2.027610540390014648e+00,1.993366122245788574e+00,1.960259079933166504e+00,1.928233861923217773e+00,1.897238373756408691e+00,1.867223262786865234e+00
5.000000000000000000e+00,5.000000000000000000e+00,5.000000000000000000e+00,5.000000000000000000e+00,5.000000000000000000e+00,5.000000000000000000e+00,5.000000000000000000e+00,5.000000000000000000e+00,5.000000000000000000e+00,5.000000000000000000e+00,5.000000000000000000e+00,5.000000000000000000e+00,5.000000000000000000e+00,5.000000000000000000e+00,5.000000000000000000e+00,5.000000000000000000e+00,5.000000000000000000e+00,5.000000000000000000e+00,5.000000000000000000e+00,5.000000000000000000e+00,5.000000000000000000e+00,5.000000000000000000e+00,5.000000000000000000e+00,5.000000000000000000e+00,5.000000000000000000e+00,5.000000000000000000e+00,5.000000000000000000e+00,5.000000000000000000e+00,5.000000000000000000e+00,5.000000000000000000e+00,5.000000000000000000e+00,5.000000000000000000e+00,5.000000000000000000e+00,5.000000000000000000e+00,5.000000000000000000e+00,5.000000000000000000e+00,5.000000000000000000e+00,1.735457658767700195e+00,1.704849958419799805e+00,1.707003593444824219e+00,1.645863771438598633e+00,1.609144091606140137e+00,1.584734082221984863e+00,1.582376122474670410e+00,1.580116629600524902e+00,1.594227552413940430e+00,1.700384497642517090e+00,1.699195027351379395e+00,1.699321746826171875e+00,1.739367604255676270e+00,3.450156450271606445e+00,1.808658123016357422e+00,1.769571542739868164e+00,1.751320004463195801e+00,3.088970184326171875e+00,3.010188102722167969e+00,2.935324907302856445e+00,2.864095211029052734e+00,2.796240091323852539e+00,2.731526136398315430e+00,2.669739484786987305e+00,2.610686540603637695e+00,2.554189443588256836e+00,2.500085592269897461e+00,2.448226451873779297e+00,2.398475170135498047e+00,2.350705385208129883e+00,2.304801225662231445e+00,2.260655879974365234e+00,2.218169689178466797e+00,2.177250862121582031e+00,2.137814521789550781e+00,2.099781274795532227e+00,2.063077688217163086e+00,2.027635097503662109e+00,1.993389844894409180e+00,1.960282087326049805e+00,1.928256273269653320e+00,1.897259831428527832e+00,1.867244243621826172e+00
5.000000000000000000e+00,5.000000000000000000e+00,5.000000000000000000e+00,5.000000000000000000e+00,5.000000000000000000e+00,5.000000000000000000e+00,5.000000000000000000e+00,5.000000000000000000e+00,5.000000000000000000e+00,5.000000000000000000e+00,5.000000000000000000e+00,5.000000000000000000e+00,5.000000000000000000e+00,5.000000000000000000e+00,5.000000000000000000e+00,5.000000000000000000e+00,5.000000000000000000e+00,5.000000000000000000e+00,5.000000000000000000e+00,5.000000000000000000e+00,5.000000000000000000e+00,5.000000000000000000e+00,5.000000000000000000e+00,5.000000000000000000e+00,5.000000000000000000e+00,5.000000000000000000e+00,5.000000000000000000e+00,5.000000000000000000e+00,5.000000000000000000e+00,5.000000000000000000e+00,5.000000000000000000e+00,5.000000000000000000e+00,5.000000000000000000e+00,5.000000000000000000e+00,5.000000000000000000e+00,5.000000000000000000e+00,5.000000000000000000e+00,1.726338267326354980e+00,1.695368885993957520e+00,1.701476693153381348e+00,1.650902986526489258e+00,1.601216316223144531e+00,1.577891230583190918e+00,1.575618147850036621e+00,1.573351621627807617e+00,1.574281930923461914e+00,1.628378868103027344e+00,1.695218801498413086e+00,1.694346070289611816e+00,1.727283000946044922e+00,3.450227737426757812e+00,3.352233409881591797e+00,1.786122798919677734e+00,1.745737433433532715e+00,3.089027166366577148e+00,3.010242462158203125e+00,2.935376405715942383e+00,2.864144086837768555e+00,2.796287059783935547e+00,2.731570720672607422e+00,2.669782400131225586e+00,2.610727310180664062e+00,2.554228544235229492e+00,2.500123023986816406e+00,2.448262453079223633e+00,2.398509502410888672e+00,2.350738525390625000e+00,2.304833173751831055e+00,2.260686397552490234e+00,2.218199014663696289e+00,2.177279233932495117e+00,2.137841939926147461e+00,2.099807500839233398e+00,2.063102960586547852e+00,2.027659893035888672e+00,1.993413686752319336e+00,1.960305094718933105e+00,1.928278446197509766e+00,1.897281408309936523e+00,1.867265105247497559e+00
5.000000000000000000e+00,5.000000000000000000e+00,5.000000000000000000e+00,5.000000000000000000e+00,5.000000000000000000e+00,5.000000000000000000e+00,5.000000000000000000e+00,5.000000000000000000e+00,5.000000000000000000e+00,5.000000000000000000e+00,5.000000000000000000e+00,5.000000000000000000e+00,5.000000000000000000e+00,5.000000000000000000e+00,5.000000000000000000e+00,5.000000000000000000e+00,5.000000000000000000e+00,5.000000000000000000e+00,5.000000000000000000e+00,5.000000000000000000e+00,5.000000000000000000e+00,5.000000000000000000e+00,5.000000000000000000e+00,5.000000000000000000e+00,5.000000000000000000e+00,5.000000000000000000e+00,5.000000000000000000e+00,5.000000000000000000e+00,5.000000000000000000e+00,5.000000000000000000e+00,5.000000000000000000e+00,5.000000000000000000e+00,5.000000000000000000e+00,5.000000000000000000e+00,5.000000000000000000e+00,5.000000000000000000e+00,5.000000000000000000e+00,5.000000000000000000e+00,1.689057588577270508e+00,1.700562000274658203e+00,1.656858801841735840e+00,1.604061484336853027e+00,1.573690056800842285e+00,1.570510149002075195e+00,1.568258285522460938e+00,1.566012740135192871e+00,1.611465573310852051e+00,1.690296769142150879e+00,1.688142657279968262e+00,1.714366078376770020e+00,3.450299263000488281e+00,3.352300643920898438e+00,3.259715557098388672e+00,1.706772923469543457e+00,1.716387033462524414e+00,3.010296821594238281e+00,2.935428142547607422e+00,2.864193201065063477e+00,2.796333789825439453e+00,2.731615304946899414e+00,2.669825077056884766e+00,2.610768079757690430e+00,2.554267644882202148e+00,2.500160455703735352e+00,2.448298215866088867e+00,2.398543834686279297e+00,2.350771665573120117e+00,2.304864883422851562e+00,2.260717153549194336e+00,2.218228578567504883e+00,2.177307605743408203e+00,2.137869358062744141e+00,2.099833965301513672e+00,2.063128471374511719e+00,2.027684450149536133e+00,1.993437409400939941e+00,1.960328221321105957e+00,1.928300619125366211e+00,1.897302865982055664e+00,1.867286086082458496e+00
5.000000000000000000e+00,5.000000000000000000e+00,5.000000000000000000e+00,5.000000000000000000e+00,5.000000000000000000e+00,5.000000000000000000e+00,5.000000000000000000e+00,5.000000000000000000e+00,5.000000000000000000e+00,5.000000000000000000e+00,5.000000000000000000e+00,5.000000000000000000e+00,5.000000000000000000e+00,5.000000000000000000e+00,5.000000000000000000e+00,5.000000000000000000e+00,5.000000000000000000e+00,5.000000000000000000e+00,5.000000000000000000e+00,5.000000000000000000e+00,5.000000000000000000e+00,5.000000000000000000e+00,5.000000000000000000e+00,5.000000000000000000e+00,5.000000000000000000e+00,5.000000000000000000e+00,5.000000000000000000e+00,5.000000000000000000e+00,5.000000000000000000e+00,5.000000000000000000e+00,5.000000000000000000e+00,5.000000000000000000e+00,5.000000000000000000e+00,5.000000000000000000e+00,5.000000000000000000e+00,5.000000000000000000e+00,5.000000000000000000e+00,5.000000000000000000e+00,1.700823187828063965e+00,1.719604849815368652e+00,1.665226101875305176e+00,1.610935091972351074e+00,1.575739979743957520e+00,1.566323041915893555e+00,1.563197612762451172e+00,1.560966730117797852e+00,1.598887085914611816e+00,1.688767194747924805e+00,1.687579751014709473e+00,1.715334057807922363e+00,3.450370550155639648e+00,3.352368116378784180e+00,3.259779214859008789e+00,3.172167062759399414e+00,1.720590829849243164e+00,1.696909904479980469e+00,2.935479640960693359e+00,2.864242315292358398e+00,2.796380758285522461e+00,2.731660127639770508e+00,2.669867753982543945e+00,2.610808849334716797e+00,2.554306745529174805e+00,2.500197887420654297e+00,2.448334217071533203e+00,2.398578405380249023e+00,2.350804805755615234e+00,2.304896831512451172e+00,2.260747671127319336e+00,2.218257904052734375e+00,2.177335977554321289e+00,2.137896537780761719e+00,2.099860429763793945e+00,2.063153982162475586e+00,2.027709007263183594e+00,1.993461370468139648e+00,1.960351109504699707e+00,1.928323030471801758e+00,1.897324562072753906e+00,1.867306828498840332e+00
5.000000000000000000e+00,5.000000000000000000e+00,5.000000000000000000e+00,5.000000000000000000e+00,5.000000000000000000e+00,5.000000000000000000e+00,5.000000000000000000e+00,5.000000000000000000e+00,5.000000000000000000e+00,5.000000000000000000e+00,5.000000000000000000e+00,5.000000000000000000e+00,5.000000000000000000e+00,5.000000000000000000e+00,5.000000000000000000e+00,5.000000000000000000e+00,5.000000000000000000e+00,5.000000000000000000e+00,5.000000000000000000e+00,5.000000000000000000e+00,5.000000000000000000e+00,5.000000000000000000e+00,5.000000000000000000e+00,5.000000000000000000e+00,5.000000000000000000e+00,5.000000000000000000e+00,5.000000000000000000e+00,5.000000000000000000e+00,5.000000000000000000e+00,5.000000000000000000e+00,5.000000000000000000e+00,5.000000000000000000e+00,5.000000000000000000e+00,5.000000000000000000e+00,5.000000000000000000e+00,5.000000000000000000e+00,5.000000000000000000e+00,5.000000000000000000e+00,1.689075708389282227e+00,1.685543537139892578e+00,1.681150317192077637e+00,1.619441628456115723e+00,1.582588195800781250e+00,1.562551379203796387e+00,1.559024691581726074e+00,1.555953025817871094e+00,1.584764361381530762e+00,1.690752863883972168e+00,1.688916087150573730e+00,1.718484997749328613e+00,3.450441837310791016e+00,3.352435350418090820e+00,3.259842872619628906e+00,3.172227382659912109e+00,1.766191482543945312e+00,1.681725859642028809e+00,2.935531377792358398e+00,2.864291429519653320e+00,2.796427488327026367e+00,2.731704711914062500e+00,2.669910430908203125e+00,2.610849857330322266e+00,2.554345846176147461e+00,2.500235319137573242e+00,2.448370218276977539e+00,2.398612737655639648e+00,2.350837707519531250e+00,2.304928541183471680e+00,2.260778188705444336e+00,2.218287467956542969e+00,2.177364587783813477e+00,2.137923955917358398e+00,2.099886894226074219e+00,2.063179492950439453e+00,2.027733802795410156e+00,1.993484973907470703e+00,1.960374236106872559e+00,1.928345084190368652e+00,1.897346019744873047e+00,1.867327809333801270e+00
5.000000000000000000e+00,5.000000000000000000e+00,5.000000000000000000e+00,5.000000000000000000e+00,5.000000000000000000e+00,5.000000000000000000e+00,5.000000000000000000e+00,5.000000000000000000e+00,5.000000000000000000e+00,5.000000000000000000e+00,5.000000000000000000e+00,5.000000000000000000e+00,5.000000000000000000e+00,5.000000000000000000e+00,5.000000000000000000e+00,5.000000000000000000e+00,5.000000000000000000e+00,5.000000000000000000e+00,5.000000000000000000e+00,5.000000000000000000e+00,5.000000000000000000e+00,5.000000000000000000e+00,5.000000000000000000e+00,5.000000000000000000e+00,5.000000000000000000e+00,5.000000000000000000e+00,5.000000000000000000e+00,5.000000000000000000e+00,5.000000000000000000e+00,5.000000000000000000e+00,5.000000000000000000e+00,5.000000000000000000e+00,5.000000000000000000e+00,5.000000000000000000e+00,5.000000000000000000e+00,5.000000000000000000e+00,5.000000000000000000e+00,5.000000000000000000e+00,1.673519372940063477e+00,1.675551652908325195e+00,4.876014232635498047e+00,1.635034561157226562e+00,1.589496135711669922e+00,1.558797955513000488e+00,1.555044054985046387e+00,1.551239609718322754e+00,1.570888996124267578e+00,1.694845080375671387e+00,1.693228363990783691e+00,1.724861502647399902e+00,3.450513124465942383e+00,3.352502584457397461e+00,3.259906530380249023e+00,3.172287702560424805e+00,3.089255809783935547e+00,1.740822911262512207e+00,1.700422048568725586e+00,2.864340543746948242e+00,2.796474456787109375e+00,2.731749534606933594e+00,2.669953107833862305e+00,2.610890626907348633e+00,2.554384946823120117e+00,2.500272750854492188e+00,2.448405981063842773e+00,2.398647308349609375e+00,2.350870847702026367e+00,2.304960489273071289e+00,2.260808944702148438e+00,2.218317031860351562e+00,2.177392959594726562e+00,2.137951374053955078e+00,2.099913358688354492e+00,2.063205003738403320e+00,2.027758359909057617e+00,1.993508934974670410e+00,1.960397124290466309e+00,1.928367495536804199e+00,1.897367715835571289e+00,1.867348670959472656e+00
5.000000000000000000e+00,5.000000000000000000e+00,5.000000000000000000e+00,5.000000000000000000e+00,5.000000000000000000e+00,5.000000000000000000e+00,5.000000000000000000e+00,5.000000000000000000e+00,5.000000000000000000e+00,5.000000000000000000e+00,5.000000000000000000e+00,5.000000000000000000e+00,5.000000000000000000e+00,5.000000000000000000e+00,5.000000000000000000e+00,5.000000000000000000e+00,5.000000000000000000e+00,5.000000000000000000e+00,5.000000000000000000e+00,5.000000000000000000e+00,5.000000000000000000e+00,5.000000000000000000e+00,5.000000000000000000e+00,5.000000000000000000e+00,5.000000000000000000e+00,5.000000000000000000e+00,5.000000000000000000e+00,5.000000000000000000e+00,5.000000000000000000e+00,5.000000000000000000e+00,5.000000000000000000e+00,5.000000000000000000e+00,5.000000000000000000e+00,5.000000000000000000e+00,5.000000000000000000e+00,5.000000000000000000e+00,5.000000000000000000e+00,1.709152340888977051e+00,1.666468262672424316e+00,5.000000000000000000e+00,4.876156330108642578e+00,1.648869156837463379e+00,1.596645832061767578e+00,1.560749769210815430e+00,1.547929048538208008e+00,1.544159173965454102e+00,1.557606220245361328e+00,1.699083328247070312e+00,1.697562813758850098e+00,1.731285333633422852e+00,3.450584411621093750e+00,3.352570056915283203e+00,3.259970188140869141e+00,3.172348022460937500e+00,3.089313030242919922e+00,3.010514020919799805e+00,2.935634613037109375e+00,2.864389657974243164e+00,2.796521186828613281e+00,2.731794118881225586e+00,2.669995784759521484e+00,2.610931396484375000e+00,2.554424047470092773e+00,2.500310182571411133e+00,2.448441982269287109e+00,2.398681640625000000e+00,2.350903987884521484e+00,2.304992198944091797e+00,2.260839462280273438e+00,2.218346357345581055e+00,2.177421331405639648e+00,2.137978792190551758e+00,2.099939584732055664e+00,2.063230514526367188e+00,2.027782917022705078e+00,1.993532657623291016e+00,1.960420250892639160e+00,1.928389668464660645e+00,1.897389173507690430e+00,1.867369651794433594e+00
5.000000000000000000e+00,5.000000000000000000e+00,5.000000000000000000e+00,5.000000000000000000e+00,5.000000000000000000e+00,5.000000000000000000e+00,5.000000000000000000e+00,5.000000000000000000e+00,5.000000000000000000e+00,5.000000000000000000e+00,5.000000000000000000e+00,5.000000000000000000e+00,5.000000000000000000e+00,5.000000000000000000e+00,5.000000000000000000e+00,5.000000000000000000e+00,5.000000000000000000e+00,5.000000000000000000e+00,5.000000000000000000e+00,5.000000000000000000e+00,5.000000000000000000e+00,5.000000000000000000e+00,5.000000000000000000e+00,5.000000000000000000e+00,5.000000000000000000e+00,5.000000000000000000e+00,5.000000000000000000e+00,5.000000000000000000e+00,5.000000000000000000e+00,5.000000000000000000e+00,5.000000000000000000e+00,5.000000000000000000e+00,5.000000000000000000e+00,5.000000000000000000e+00,5.000000000000000000e+00,5.000000000000000000e+00,5.000000000000000000e+00,1.707902073860168457e+00,1.657978892326354980e+00,5.000000000000000000e+00,4.876298904418945312e+00,4.682826995849609375e+00,1.607230544090270996e+00,1.568512797355651855e+00,1.543476819992065430e+00,1.537143349647521973e+00,1.544587612152099609e+00,1.580604314804077148e+00,1.701919317245483398e+00,1.741281151771545410e+00,3.450655698776245117e+00,3.352637290954589844e+00,3.260033845901489258e+00,3.172408342361450195e+00,3.089370250701904297e+00,3.010568141937255859e+00,2.935686349868774414e+00,2.864438772201538086e+00,2.796568155288696289e+00,2.731838941574096680e+00,2.670038461685180664e+00,2.610972166061401367e+00,2.554462909698486328e+00,2.500347614288330078e+00,2.448477983474731445e+00,2.398716211318969727e+00,2.350937128067016602e+00,2.305024147033691406e+00,2.260870218276977539e+00,2.218375921249389648e+00,2.177449703216552734e+00,2.138006210327148438e+00,2.099966049194335938e+00,2.063256025314331055e+00,2.027807474136352539e+00,1.993556618690490723e+00,1.960443139076232910e+00,1.928412079811096191e+00,1.897410869598388672e+00,1.867390394210815430e+00
5.000000000000000000e+00,5.000000000000000000e+00,5.000000000000000000e+00,5.000000000000000000e+00,5.000000000000000000e+00,5.000000000000000000e+00,5.000000000000000000e+00,5.000000000000000000e+00,5.000000000000000000e+00,5.000000000000000000e+00,5.000000000000000000e+00,5.000000000000000000e+00,5.000000000000000000e+00,5.000000000000000000e+00,5.000000000000000000e+00,5.000000000000000000e+00,5.000000000000000000e+00,5.000000000000000000e+00,5.000000000000000000e+00,5.000000000000000000e+00,5.000000000000000000e+00,5.000000000000000000e+00,5.000000000000000000e+00,5.000000000000000000e+00,5.000000000000000000e+00,5.000000000000000000e+00,5.000000000000000000e+00,5.000000000000000000e+00,5.000000000000000000e+00,5.000000000000000000e+00,5.000000000000000000e+00,5.000000000000000000e+00,5.000000000000000000e+00,5.000000000000000000e+00,5.000000000000000000e+00,5.000000000000000000e+00,5.000000000000000000e+00,1.704251289367675781e+00,1.652092456817626953e+00,5.000000000000000000e+00,4.876441478729248047e+00,4.682958602905273438e+00,1.622333884239196777e+00,1.576246619224548340e+00,1.541920781135559082e+00,1.531238436698913574e+00,1.531784772872924805e+00,1.564969182014465332e+00,1.705671429634094238e+00,1.751564741134643555e+00,3.450726985931396484e+00,3.352704763412475586e+00,3.260097503662109375e+00,3.172468423843383789e+00,3.089427471160888672e+00,3.010622501373291016e+00,2.935737848281860352e+00,2.864488124847412109e+00,2.796614885330200195e+00,2.731883525848388672e+00,2.670081138610839844e+00,2.611013174057006836e+00,2.554502010345458984e+00,2.500385284423828125e+00,2.448513746261596680e+00,2.398750543594360352e+00,2.350970268249511719e+00,2.305055856704711914e+00,2.260900735855102539e+00,2.218405485153198242e+00,2.177478075027465820e+00,2.138033628463745117e+00,2.099992513656616211e+00,2.063281536102294922e+00,2.027832269668579102e+00,1.993580222129821777e+00,1.960466384887695312e+00,1.928434252738952637e+00,1.897432327270507812e+00,1.867411375045776367e+00
5.000000000000000000e+00,5.000000000000000000e+00,5.000000000000000000e+00,5.000000000000000000e+00,5.000000000000000000e+00,5.000000000000000000e+00,5.000000000000000000e+00,5.000000000000000000e+00,5.000000000000000000e+00,5.000000000000000000e+00,5.000000000000000000e+00,5.000000000000000000e+00,5.000000000000000000e+00,5.000000000000000000e+00,5.000000000000000000e+00,5.000000000000000000e+00,5.000000000000000000e+00,5.000000000000000000e+00,5.000000000000000000e+00,5.000000000000000000e+00,5.000000000000000000e+00,5.000000000000000000e+00,5.000000000000000000e+00,5.000000000000000000e+00,5.000000000000000000e+00,5.000000000000000000e+00,5.000000000000000000e+00,5.000000000000000000e+00,5.000000000000000000e+00,5.000000000000000000e+00,5.000000000000000000e+00,5.000000000000000000e+00,5.000000000000000000e+00,5.000000000000000000e+00,5.000000000000000000e+00,5.000000000000000000e+00,5.000000000000000000e+00,1.696130871772766113e+00,5.000000000000000000e+00,5.000000000000000000e+00,4.876583576202392578e+00,4.683089733123779297e+00,1.632647991180419922e+00,1.584444642066955566e+00,1.545881986618041992e+00,1.529707074165344238e+00,1.519649982452392578e+00,1.549640297889709473e+00,1.709724783897399902e+00,1.755026698112487793e+00,3.450798034667968750e+00,3.352771997451782227e+00,3.260161161422729492e+00,3.172528743743896484e+00,3.089484214782714844e+00,3.010676860809326172e+00,2.935789585113525391e+00,2.864537239074707031e+00,2.796661615371704102e+00,2.731928348541259766e+00,2.670123815536499023e+00,2.611053943634033203e+00,2.554541110992431641e+00,2.500422716140747070e+00,2.448549747467041016e+00,2.398785114288330078e+00,2.351003170013427734e+00,2.305087804794311523e+00,2.260931491851806641e+00,2.218434810638427734e+00,2.177506446838378906e+00,2.138060808181762695e+00,2.100018978118896484e+00,2.063307046890258789e+00,2.027856826782226562e+00,1.993604183197021484e+00,1.960489273071289062e+00,1.928456664085388184e+00,1.897453784942626953e+00,1.867432117462158203e+00
5.000000000000000000e+00,5.000000000000000000e+00,5.000000000000000000e+00,5.000000000000000000e+00,5.000000000000000000e+00,5.000000000000000000e+00,5.000000000000000000e+00,5.000000000000000000e+00,5.000000000000000000e+00,5.000000000000000000e+00,5.000000000000000000e+00,5.000000000000000000e+00,5.000000000000000000e+00,5.000000000000000000e+00,5.000000000000000000e+00,5.000000000000000000e+00,5.000000000000000000e+00,5.000000000000000000e+00,5.000000000000000000e+00,5.000000000000000000e+00,5.000000000000000000e+00,5.000000000000000000e+00,5.000000000000000000e+00,5.000000000000000000e+00,5.000000000000000000e+00,5.000000000000000000e+00,5.000000000000000000e+00,5.000000000000000000e+00,5.000000000000000000e+00,5.000000000000000000e+00,5.000000000000000000e+00,5.000000000000000000e+00,5.000000000000000000e+00,5.000000000000000000e+00,5.000000000000000000e+00,5.000000000000000000e+00,5.000000000000000000e+00,5.000000000000000000e+00,5.000000000000000000e+00,5.000000000000000000e+00,4.876725673675537109e+00,4.683221340179443359e+00,4.504486560821533203e+00,1.596398234367370605e+00,1.554183959960937500e+00,1.528204798698425293e+00,1.516424655914306641e+00,1.539774179458618164e+00,1.713850498199462891e+00,3.554804801940917969e+00,3.450869321823120117e+00,3.352839469909667969e+00,3.260224819183349609e+00,3.172589063644409180e+00,3.089541435241699219e+00,3.010730981826782227e+00,2.935841083526611328e+00,2.864586353302001953e+00,2.796708345413208008e+00,2.731972932815551758e+00,2.670166492462158203e+00,2.611094713211059570e+00,2.554580211639404297e+00,2.500460147857666016e+00,2.448585510253906250e+00,2.398819684982299805e+00,2.351036310195922852e+00,2.305119514465332031e+00,2.260962009429931641e+00,2.218464374542236328e+00,2.177534818649291992e+00,2.138088226318359375e+00,2.100045442581176758e+00,2.063332557678222656e+00,2.027881383895874023e+00,1.993627905845642090e+00,1.960512399673461914e+00,1.928478837013244629e+00,1.897475481033325195e+00,1.867453217506408691e+00
5.000000000000000000e+00,5.000000000000000000e+00,5.000000000000000000e+00,5.000000000000000000e+00,5.000000000000000000e+00,5.000000000000000000e+00,5.000000000000000000e+00,5.000000000000000000e+00,5.000000000000000000e+00,5.000000000000000000e+00,5.000000000000000000e+00,5.000000000000000000e+00,5.000000000000000000e+00,5.000000000000000000e+00,5.000000000000000000e+00,5.000000000000000000e+00,5.000000000000000000e+00,5.000000000000000000e+00,5.000000000000000000e+00,5.000000000000000000e+00,5.000000000000000000e+00,5.000000000000000000e+00,5.000000000000000000e+00,5.000000000000000000e+00,5.000000000000000000e+00,5.000000000000000000e+00,5.000000000000000000e+00,5.000000000000000000e+00,5.000000000000000000e+00,5.000000000000000000e+00,5.000000000000000000e+00,5.000000000000000000e+00,5.000000000000000000e+00,5.000000000000000000e+00,5.000000000000000000e+00,5.000000000000000000e+00,5.000000000000000000e+00,5.000000000000000000e+00,5.000000000000000000e+00,5.000000000000000000e+00,4.876868247985839844e+00,4.683352470397949219e+00,4.504608154296875000e+00,1.605345845222473145e+00,1.563430309295654297e+00,1.531563997268676758e+00,1.517789840698242188e+00,1.538729190826416016e+00,1.717996120452880859e+00,3.554880619049072266e+00,3.450940608978271484e+00,3.352906703948974609e+00,3.260288476943969727e+00,3.172649383544921875e+00,3.089598655700683594e+00,3.010785341262817383e+00,2.935892820358276367e+00,2.864635467529296875e+00,2.796755313873291016e+00,2.732017755508422852e+00,2.670209407806396484e+00,2.611135721206665039e+00,2.554619073867797852e+00,2.500497579574584961e+00,2.448621511459350586e+00,2.398854017257690430e+00,2.351069450378417969e+00,2.305151462554931641e+00,2.260992527008056641e+00,2.218493700027465820e+00,2.177563190460205078e+00,2.138115644454956055e+00,2.100071668624877930e+00,2.063358068466186523e+00,2.027905941009521484e+00,1.993651747703552246e+00,1.960535287857055664e+00,1.928501129150390625e+00,1.897496938705444336e+00,1.867473959922790527e+00
5.000000000000000000e+00,5.000000000000000000e+00,5.000000000000000000e+00,5.000000000000000000e+00,5.000000000000000000e+00,5.000000000000000000e+00,5.000000000000000000e+00,5.000000000000000000e+00,5.000000000000000000e+00,5.000000000000000000e+00,5.000000000000000000e+00,5.000000000000000000e+00,5.000000000000000000e+00,5.000000000000000000e+00,5.000000000000000000e+00,5.000000000000000000e+00,5.000000000000000000e+00,5.000000000000000000e+00,5.000000000000000000e+00,5.000000000000000000e+00,5.000000000000000000e+00,5.000000000000000000e+00,5.000000000000000000e+00,5.000000000000000000e+00,5.000000000000000000e+00,5.000000000000000000e+00,5.000000000000000000e+00,5.000000000000000000e+00,5.000000000000000000e+00,5.000000000000000000e+00,5.000000000000000000e+00,5.000000000000000000e+00,5.000000000000000000e+00,5.000000000000000000e+00,5.000000000000000000e+00,5.000000000000000000e+00,5.000000000000000000e+00,5.000000000000000000e+00,5.000000000000000000e+00,5.000000000000000000e+00,4.877010822296142578e+00,4.683484077453613281e+00,4.504729270935058594e+00,1.612049937248229980e+00,1.563363313674926758e+00,1.539218902587890625e+00,1.524235963821411133e+00,1.549789905548095703e+00,1.722161889076232910e+00,3.554956197738647461e+00,3.451012134552001953e+00,3.352973937988281250e+00,3.260352134704589844e+00,3.172709703445434570e+00,3.089655876159667969e+00,3.010839700698852539e+00,2.935944318771362305e+00,2.864684581756591797e+00,2.796802043914794922e+00,2.732062578201293945e+00,2.670252084732055664e+00,2.611176490783691406e+00,2.554658174514770508e+00,2.500535011291503906e+00,2.448657512664794922e+00,2.398888587951660156e+00,2.351102590560913086e+00,2.305183172225952148e+00,2.261023283004760742e+00,2.218523263931274414e+00,2.177591562271118164e+00,2.138143062591552734e+00,2.100098133087158203e+00,2.063383579254150391e+00,2.027930736541748047e+00,1.993675470352172852e+00,1.960558414459228516e+00,1.928523302078247070e+00,1.897518515586853027e+00,1.867494940757751465e+00
5.000000000000000000e+00,5.000000000000000000e+00,5.000000000000000000e+00,5.000000000000000000e+00,5.000000000000000000e+00,5.000000000000000000e+00,5.000000000000000000e+00,5.000000000000000000e+00,5.000000000000000000e+00,5.000000000000000000e+00,5.000000000000000000e+00,5.000000000000000000e+00,5.000000000000000000e+00,5.000000000000000000e+00,5.000000000000000000e+00,5.000000000000000000e+00,5.000000000000000000e+00,5.000000000000000000e+00,5.000000000000000000e+00,5.000000000000000000e+00,5.000000000000000000e+00,5.000000000000000000e+00,5.000000000000000000e+00,5.000000000000000000e+00,5.000000000000000000e+00,5.000000000000000000e+00,5.000000000000000000e+00,5.000000000000000000e+00,5.000000000000000000e+00,5.000000000000000000e+00,5.000000000000000000e+00,5.000000000000000000e+00,5.000000000000000000e+00,5.000000000000000000e+00,5.000000000000000000e+00,5.000000000000000000e+00,5.000000000000000000e+00,5.000000000000000000e+00,5.000000000000000000e+00,5.000000000000000000e+00,4.877153396606445312e+00,4.683615207672119141e+00,4.504850864410400391e+00,1.608165740966796875e+00,1.564237236976623535e+00,1.550273656845092773e+00,1.537085890769958496e+00,1.564397335052490234e+00,1.726987719535827637e+00,3.555032014846801758e+00,3.451083421707153320e+00,3.353041410446166992e+00,3.260415792465209961e+00,3.172770023345947266e+00,3.089713096618652344e+00,3.010894060134887695e+00,2.935996055603027344e+00,2.864733695983886719e+00,2.796849012374877930e+00,2.732107162475585938e+00,2.670294761657714844e+00,2.611217260360717773e+00,2.554697275161743164e+00,2.500572443008422852e+00,2.448693275451660156e+00,2.398922920227050781e+00,2.351135730743408203e+00,2.305215120315551758e+00,2.261053800582885742e+00,2.218552827835083008e+00,2.177619934082031250e+00,2.138170480728149414e+00,2.100124597549438477e+00,2.063409090042114258e+00,2.027955293655395508e+00,1.993699431419372559e+00,1.960581302642822266e+00,1.928545713424682617e+00,1.897540092468261719e+00,1.867515683174133301e+00
5.000000000000000000e+00,5.000000000000000000e+00,5.000000000000000000e+00,5.000000000000000000e+00,5.000000000000000000e+00,5.000000000000000000e+00,5.000000000000000000e+00,5.000000000000000000e+00,5.000000000000000000e+00,5.000000000000000000e+00,5.000000000000000000e+00,5.000000000000000000e+00,5.000000000000000000e+00,5.000000000000000000e+00,5.000000000000000000e+00,5.000000000000000000e+00,5.000000000000000000e+00,5.000000000000000000e+00,5.000000000000000000e+00,5.000000000000000000e+00,5.000000000000000000e+00,5.000000000000000000e+00,5.000000000000000000e+00,5.000000000000000000e+00,5.000000000000000000e+00,5.000000000000000000e+00,5.000000000000000000e+00,5.000000000000000000e+00,5.000000000000000000e+00,5.000000000000000000e+00,5.000000000000000000e+00,5.000000000000000000e+00,5.000000000000000000e+00,5.000000000000000000e+00,5.000000000000000000e+00,5.000000000000000000e+00,5.000000000000000000e+00,5.000000000000000000e+00,5.000000000000000000e+00,5.000000000000000000e+00,4.877295970916748047e+00,4.683746814727783203e+00,4.504972457885742188e+00,1.602139234542846680e+00,1.568786859512329102e+00,1.558234214782714844e+00,1.550631165504455566e+00,1.593935132026672363e+00,1.737539529800415039e+00,3.555107593536376953e+00,3.451154708862304688e+00,3.353108644485473633e+00,3.260479450225830078e+00,3.172830343246459961e+00,3.089770317077636719e+00,3.010948181152343750e+00,2.936047554016113281e+00,2.864783048629760742e+00,2.796895742416381836e+00,2.732151985168457031e+00,2.670337438583374023e+00,2.611258268356323242e+00,2.554736375808715820e+00,2.500609874725341797e+00,2.448729276657104492e+00,2.398957490921020508e+00,2.351168870925903320e+00,2.305246829986572266e+00,2.261084556579589844e+00,2.218582153320312500e+00,2.177648305892944336e+00,2.138197898864746094e+00,2.100151062011718750e+00,2.063434600830078125e+00,2.027979850769042969e+00,1.993723154067993164e+00,1.960604429244995117e+00,1.928567886352539062e+00,1.897561669349670410e+00,1.867536783218383789e+00
5.000000000000000000e+00,5.000000000000000000e+00,5.000000000000000000e+00,5.000000000000000000e+00,5.000000000000000000e+00,5.000000000000000000e+00,5.000000000000000000e+00,5.000000000000000000e+00,5.000000000000000000e+00,5.000000000000000000e+00,5.000000000000000000e+00,5.000000000000000000e+00,5.000000000000000000e+00,5.000000000000000000e+00,5.000000000000000000e+00,5.000000000000000000e+00,5.000000000000000000e+00,5.000000000000000000e+00,5.000000000000000000e+00,5.000000000000000000e+00,5.000000000000000000e+00,5.000000000000000000e+00,5.000000000000000000e+00,5.000000000000000000e+00,5.000000000000000000e+00,5.000000000000000000e+00,5.000000000000000000e+00,5.000000000000000000e+00,5.000000000000000000e+00,5.000000000000000000e+00,5.000000000000000000e+00,5.000000000000000000e+00,5.000000000000000000e+00,5.000000000000000000e+00,5.000000000000000000e+00,5.000000000000000000e+00,5.000000000000000000e+00,5.000000000000000000e+00,5.000000000000000000e+00,5.000000000000000000e+00,4.877438068389892578e+00,4.683878421783447266e+00,4.505094051361083984e+00,1.597782373428344727e+00,1.574681997299194336e+00,1.566277146339416504e+00,1.564417123794555664e+00,1.755950689315795898e+00,3.665597915649414062e+00,3.555183410644531250e+00,3.451225996017456055e+00,3.353176116943359375e+00,3.260543107986450195e+00,3.172890663146972656e+00,3.089827299118041992e+00,3.011002540588378906e+00,2.936099290847778320e+00,2.864832162857055664e+00,2.796942710876464844e+00,2.732196569442749023e+00,2.670380115509033203e+00,2.611299037933349609e+00,2.554775476455688477e+00,2.500647306442260742e+00,2.448765277862548828e+00,2.398991823196411133e+00,2.351201772689819336e+00,2.305278778076171875e+00,2.261115074157714844e+00,2.218611717224121094e+00,2.177676677703857422e+00,2.138225317001342773e+00,2.100177526473999023e+00,2.063460111618041992e+00,2.028004646301269531e+00,1.993746995925903320e+00,1.960627436637878418e+00,1.928590297698974609e+00,1.897583127021789551e+00,1.867557525634765625e+00
5.000000000000000000e+00,5.000000000000000000e+00,5.000000000000000000e+00,5.000000000000000000e+00,5.000000000000000000e+00,5.000000000000000000e+00,5.000000000000000000e+00,5.000000000000000000e+00,5.000000000000000000e+00,5.000000000000000000e+00,5.000000000000000000e+00,5.000000000000000000e+00,5.000000000000000000e+00,5.000000000000000000e+00,5.000000000000000000e+00,5.000000000000000000e+00,5.000000000000000000e+00,5.000000000000000000e+00,5.000000000000000000e+00,5.000000000000000000e+00,5.000000000000000000e+00,5.000000000000000000e+00,5.000000000000000000e+00,5.000000000000000000e+00,5.000000000000000000e+00,5.000000000000000000e+00,5.000000000000000000e+00,5.000000000000000000e+00,5.000000000000000000e+00,5.000000000000000000e+00,5.000000000000000000e+00,5.000000000000000000e+00,5.000000000000000000e+00,5.000000000000000000e+00,5.000000000000000000e+00,5.000000000000000000e+00,5.000000000000000000e+00,5.000000000000000000e+00,5.000000000000000000e+00,5.000000000000000000e+00,4.877580642700195312e+00,4.684009075164794922e+00,4.505215644836425781e+00,1.602192163467407227e+00,1.580467224121093750e+00,1.572568058967590332e+00,1.578362703323364258e+00,3.783175945281982422e+00,3.665678262710571289e+00,3.555258989334106445e+00,3.451297521591186523e+00,3.353243112564086914e+00,3.260606765747070312e+00,3.172950983047485352e+00,3.089884519577026367e+00,3.011056661605834961e+00,2.936151027679443359e+00,2.864881277084350586e+00,2.796989440917968750e+00,2.732241153717041016e+00,2.670422792434692383e+00,2.611339807510375977e+00,2.554814577102661133e+00,2.500684738159179688e+00,2.448801040649414062e+00,2.399026393890380859e+00,2.351234912872314453e+00,2.305310487747192383e+00,2.261145830154418945e+00,2.218641281127929688e+00,2.177705287933349609e+00,2.138252496719360352e+00,2.100203752517700195e+00,2.063485622406005859e+00,2.028029203414916992e+00,1.993770718574523926e+00,1.960650563240051270e+00,1.928612470626831055e+00,1.897604823112487793e+00,1.867578268051147461e+00
5.000000000000000000e+00,5.000000000000000000e+00,5.000000000000000000e+00,5.000000000000000000e+00,5.000000000000000000e+00,5.000000000000000000e+00,5.000000000000000000e+00,5.000000000000000000e+00,5.000000000000000000e+00,5.000000000000000000e+00,5.000000000000000000e+00,5.000000000000000000e+00,5.000000000000000000e+00,5.000000000000000000e+00,5.000000000000000000e+00,5.000000000000000000e+00,5.000000000000000000e+00,5.000000000000000000e+00,5.000000000000000000e+00,5.000000000000000000e+00,5.000000000000000000e+00,5.000000000000000000e+00,5.000000000000000000e+00,5.000000000000000000e+00,5.000000000000000000e+00,5.000000000000000000e+00,5.000000000000000000e+00,5.000000000000000000e+00,5.000000000000000000e+00,5.000000000000000000e+00,5.000000000000000000e+00,5.000000000000000000e+00,5.000000000000000000e+00,5.000000000000000000e+00,5.000000000000000000e+00,5.000000000000000000e+00,5.000000000000000000e+00,5.000000000000000000e+00,5.000000000000000000e+00,5.000000000000000000e+00,4.877722263336181641e+00,4.684140682220458984e+00,1.953644633293151855e+00,1.607545614242553711e+00,1.585730671882629395e+00,1.574279904365539551e+00,1.578406572341918945e+00,3.783261537551879883e+00,3.665758848190307617e+00,3.555334806442260742e+00,3.451368808746337891e+00,3.353310346603393555e+00,3.260670423507690430e+00,3.173011302947998047e+00,3.089941740036010742e+00,3.011111021041870117e+00,2.936202526092529297e+00,2.864930391311645508e+00,2.797036409378051758e+00,2.732285737991333008e+00,2.670465707778930664e+00,2.611380815505981445e+00,2.554853677749633789e+00,2.500722169876098633e+00,2.448837041854858398e+00,2.399060964584350586e+00,2.351268053054809570e+00,2.305342197418212891e+00,2.261176347732543945e+00,2.218670845031738281e+00,2.177733659744262695e+00,2.138279914855957031e+00,2.100230216979980469e+00,2.063511133193969727e+00,2.028053760528564453e+00,1.993794441223144531e+00,1.960673451423645020e+00,1.928634881973266602e+00,1.897626280784606934e+00,1.867599248886108398e+00
5.000000000000000000e+00,5.000000000000000000e+00,5.000000000000000000e+00,5.000000000000000000e+00,5.000000000000000000e+00,5.000000000000000000e+00,5.000000000000000000e+00,5.000000000000000000e+00,5.000000000000000000e+00,5.000000000000000000e+00,5.000000000000000000e+00,5.000000000000000000e+00,5.000000000000000000e+00,5.000000000000000000e+00,5.000000000000000000e+00,5.000000000000000000e+00,5.000000000000000000e+00,5.000000000000000000e+00,5.000000000000000000e+00,5.000000000000000000e+00,5.000000000000000000e+00,5.000000000000000000e+00,5.000000000000000000e+00,5.000000000000000000e+00,5.000000000000000000e+00,5.000000000000000000e+00,5.000000000000000000e+00,5.000000000000000000e+00,5.000000000000000000e+00,5.000000000000000000e+00,5.000000000000000000e+00,5.000000000000000000e+00,5.000000000000000000e+00,5.000000000000000000e+00,5.000000000000000000e+00,5.000000000000000000e+00,5.000000000000000000e+00,5.000000000000000000e+00,5.000000000000000000e+00,5.000000000000000000e+00,4.877862453460693359e+00,4.684271812438964844e+00,1.944571852684020996e+00,1.612934947013854980e+00,1.591110587120056152e+00,1.575996518135070801e+00,1.578450322151184082e+00,3.783347368240356445e+00,3.665839433670043945e+00,3.555410385131835938e+00,3.451440095901489258e+00,3.353377819061279297e+00,3.260734319686889648e+00,3.173071622848510742e+00,3.089998960494995117e+00,3.011165142059326172e+00,2.936254262924194336e+00,2.864979505538940430e+00,2.797083139419555664e+00,2.732330560684204102e+00,2.670508384704589844e+00,2.611421585083007812e+00,2.554892778396606445e+00,2.500759601593017578e+00,2.448873043060302734e+00,2.399095296859741211e+00,2.351301193237304688e+00,2.305374145507812500e+00,2.261207103729248047e+00,2.218700170516967773e+00,2.177762031555175781e+00,2.138307332992553711e+00,2.100256681442260742e+00,2.063536643981933594e+00,2.028078556060791016e+00,1.993818402290344238e+00,1.960696578025817871e+00,1.928657054901123047e+00,1.897647976875305176e+00,1.867620110511779785e+00
5.000000000000000000e+00,5.000000000000000000e+00,5.000000000000000000e+00,5.000000000000000000e+00,5.000000000000000000e+00,5.000000000000000000e+00,5.000000000000000000e+00,5.000000000000000000e+00,5.000000000000000000e+00,5.000000000000000000e+00,5.000000000000000000e+00,5.000000000000000000e+00,5.000000000000000000e+00,5.000000000000000000e+00,5.000000000000000000e+00,5.000000000000000000e+00,5.000000000000000000e+00,5.000000000000000000e+00,5.000000000000000000e+00,5.000000000000000000e+00,5.000000000000000000e+00,5.000000000000000000e+00,5.000000000000000000e+00,5.000000000000000000e+00,5.000000000000000000e+00,5.000000000000000000e+00,5.000000000000000000e+00,5.000000000000000000e+00,5.000000000000000000e+00,5.000000000000000000e+00,5.000000000000000000e+00,5.000000000000000000e+00,5.000000000000000000e+00,5.000000000000000000e+00,5.000000000000000000e+00,5.000000000000000000e+00,5.000000000000000000e+00,5.000000000000000000e+00,5.000000000000000000e+00,5.000000000000000000e+00,4.878002166748046875e+00,4.684401035308837891e+00,1.960317254066467285e+00,1.618360519409179688e+00,1.596527099609375000e+00,1.579546213150024414e+00,1.578494191169738770e+00,3.783433198928833008e+00,3.665919780731201172e+00,3.555486202239990234e+00,3.451511621475219727e+00,3.353445291519165039e+00,3.260797977447509766e+00,3.173131942749023438e+00,3.090056180953979492e+00,3.011219501495361328e+00,2.936305761337280273e+00,2.865028858184814453e+00,2.797130107879638672e+00,2.732375383377075195e+00,2.670551061630249023e+00,2.611462354660034180e+00,2.554931879043579102e+00,2.500797033309936523e+00,2.448908805847167969e+00,2.399129867553710938e+00,2.351334333419799805e+00,2.305405855178833008e+00,2.261237621307373047e+00,2.218729734420776367e+00,2.177790403366088867e+00,2.138334751129150391e+00,2.100283145904541016e+00,2.063562154769897461e+00,2.028103113174438477e+00,1.993842005729675293e+00,1.960719466209411621e+00,1.928679466247558594e+00,1.897669434547424316e+00,1.867641091346740723e+00
5.000000000000000000e+00,5.000000000000000000e+00,5.000000000000000000e+00,5.000000000000000000e+00,5.000000000000000000e+00,5.000000000000000000e+00,5.000000000000000000e+00,5.000000000000000000e+00,5.000000000000000000e+00,5.000000000000000000e+00,5.000000000000000000e+00,5.000000000000000000e+00,5.000000000000000000e+00,5.000000000000000000e+00,5.000000000000000000e+00,5.000000000000000000e+00,5.000000000000000000e+00,5.000000000000000000e+00,5.000000000000000000e+00,5.000000000000000000e+00,5.000000000000000000e+00,5.000000000000000000e+00,5.000000000000000000e+00,5.000000000000000000e+00,5.000000000000000000e+00,5.000000000000000000e+00,5.000000000000000000e+00,5.000000000000000000e+00,5.000000000000000000e+00,5.000000000000000000e+00,5.000000000000000000e+00,5.000000000000000000e+00,5.000000000000000000e+00,5.000000000000000000e+00,5.000000000000000000e+00,5.000000000000000000e+00,5.000000000000000000e+00,5.000000000000000000e+00,5.000000000000000000e+00,5.000000000000000000e+00,4.878142356872558594e+00,2.026116609573364258e+00,1.977111458778381348e+00,1.636105179786682129e+00,1.601980328559875488e+00,1.583112001419067383e+00,1.578537940979003906e+00,3.783518791198730469e+00,3.666000366210937500e+00,3.555562019348144531e+00,3.451582908630371094e+00,3.353512525558471680e+00,3.260861635208129883e+00,3.173192262649536133e+00,3.090113401412963867e+00,3.011273860931396484e+00,2.936357498168945312e+00,2.865077972412109375e+00,2.797177076339721680e+00,2.732419967651367188e+00,2.670593738555908203e+00,2.611503362655639648e+00,2.554970979690551758e+00,2.500834465026855469e+00,2.448944807052612305e+00,2.399164438247680664e+00,2.351367473602294922e+00,2.305437803268432617e+00,2.261268377304077148e+00,2.218759298324584961e+00,2.177818775177001953e+00,2.138361930847167969e+00,2.100309610366821289e+00,2.063587665557861328e+00,2.028127670288085938e+00,1.993865966796875000e+00,1.960742592811584473e+00,1.928701639175415039e+00,1.897691130638122559e+00,1.867661833763122559e+00
5.000000000000000000e+00,5.000000000000000000e+00,5.000000000000000000e+00,5.000000000000000000e+00,5.000000000000000000e+00,5.000000000000000000e+00,5.000000000000000000e+00,5.000000000000000000e+00,5.000000000000000000e+00,5.000000000000000000e+00,5.000000000000000000e+00,5.000000000000000000e+00,5.000000000000000000e+00,5.000000000000000000e+00,5.000000000000000000e+00,5.000000000000000000e+00,5.000000000000000000e+00,5.000000000000000000e+00,5.000000000000000000e+00,5.000000000000000000e+00,5.000000000000000000e+00,5.000000000000000000e+00,5.000000000000000000e+00,5.000000000000000000e+00,5.000000000000000000e+00,5.000000000000000000e+00,5.000000000000000000e+00,5.000000000000000000e+00,5.000000000000000000e+00,5.000000000000000000e+00,5.000000000000000000e+00,5.000000000000000000e+00,5.000000000000000000e+00,5.000000000000000000e+00,5.000000000000000000e+00,5.000000000000000000e+00,5.000000000000000000e+00,5.000000000000000000e+00,5.000000000000000000e+00,5.000000000000000000e+00,4.878282546997070312e+00,2.044072151184082031e+00,2.006556987762451172e+00,1.651363968849182129e+00,1.607730627059936523e+00,1.587986588478088379e+00,1.579535961151123047e+00,3.783604621887207031e+00,3.666080951690673828e+00,3.555637598037719727e+00,3.451654195785522461e+00,3.353579998016357422e+00,3.260925292968750000e+00,3.173252582550048828e+00,3.090170621871948242e+00,3.011328220367431641e+00,2.936409235000610352e+00,2.865127086639404297e+00,2.797223806381225586e+00,2.732464790344238281e+00,2.670636415481567383e+00,2.611544132232666016e+00,2.555010080337524414e+00,2.500871896743774414e+00,2.448980808258056641e+00,2.399198770523071289e+00,2.351400613784790039e+00,2.305469512939453125e+00,2.261298894882202148e+00,2.218788623809814453e+00,2.177847146987915039e+00,2.138389348983764648e+00,2.100336074829101562e+00,2.063613176345825195e+00,2.028152465820312500e+00,1.993889689445495605e+00,1.960765600204467773e+00,1.928723931312561035e+00,1.897712588310241699e+00,1.867682933807373047e+00
5.000000000000000000e+00,5.000000000000000000e+00,5.000000000000000000e+00,5.000000000000000000e+00,5.000000000000000000e+00,5.000000000000000000e+00,5.000000000000000000e+00,5.000000000000000000e+00,5.000000000000000000e+00,5.000000000000000000e+00,5.000000000000000000e+00,5.000000000000000000e+00,5.000000000000000000e+00,5.000000000000000000e+00,5.000000000000000000e+00,5.000000000000000000e+00,5.000000000000000000e+00,5.000000000000000000e+00,5.000000000000000000e+00,5.000000000000000000e+00,5.000000000000000000e+00,5.000000000000000000e+00,5.000000000000000000e+00,5.000000000000000000e+00,5.000000000000000000e+00,5.000000000000000000e+00,5.000000000000000000e+00,5.000000000000000000e+00,5.000000000000000000e+00,5.000000000000000000e+00,5.000000000000000000e+00,5.000000000000000000e+00,5.000000000000000000e+00,5.000000000000000000e+00,5.000000000000000000e+00,5.000000000000000000e+00,5.000000000000000000e+00,5.000000000000000000e+00,5.000000000000000000e+00,5.000000000000000000e+00,2.152601718902587891e+00,2.070073366165161133e+00,2.046140670776367188e+00,1.670379519462585449e+00,1.614279031753540039e+00,1.593517184257507324e+00,1.587588429450988770e+00,3.783690452575683594e+00,3.666161298751831055e+00,3.555713415145874023e+00,3.451725721359252930e+00,3.353647232055664062e+00,3.260988950729370117e+00,3.173312902450561523e+00,3.090227842330932617e+00,3.011382579803466797e+00,2.936460733413696289e+00,2.865176200866699219e+00,2.797270774841308594e+00,2.732509374618530273e+00,2.670679330825805664e+00,2.611584901809692383e+00,2.555049180984497070e+00,2.500909328460693359e+00,2.449016571044921875e+00,2.399233341217041016e+00,2.351433753967285156e+00,2.305501461029052734e+00,2.261329650878906250e+00,2.218818187713623047e+00,2.177875757217407227e+00,2.138416767120361328e+00,2.100362300872802734e+00,2.063638687133789062e+00,2.028177022933959961e+00,1.993913650512695312e+00,1.960788726806640625e+00,1.928746104240417480e+00,1.897734284400939941e+00,1.867703676223754883e+00
4.872244358062744141e+00,4.871025085449218750e+00,4.869806289672851562e+00,4.868588447570800781e+00,4.867371559143066406e+00,4.866154670715332031e+00,4.864938735961914062e+00,4.863723278045654297e+00,4.862508296966552734e+00,4.861293792724609375e+00,4.860080242156982422e+00,4.858867168426513672e+00,4.857654571533203125e+00,4.856442928314208984e+00,4.855231761932373047e+00,4.854021549224853516e+00,4.852811336517333984e+00,4.851602077484130859e+00,4.850393295288085938e+00,4.849184513092041016e+00,4.847977161407470703e+00,4.846770286560058594e+00,4.845563411712646484e+00,4.844357967376708984e+00,4.843152999877929688e+00,4.841948509216308594e+00,4.840744018554687500e+00,4.839540481567382812e+00,4.838337898254394531e+00,4.837135314941406250e+00,4.835934162139892578e+00,4.834733009338378906e+00,4.833532333374023438e+00,4.832332611083984375e+00,4.831133365631103516e+00,4.829935073852539062e+00,4.828736782073974609e+00,4.827539443969726562e+00,4.826342582702636719e+00,4.825146198272705078e+00,4.823950290679931641e+00,2.072556257247924805e+00,4.506058692932128906e+00,4.340354442596435547e+00,1.620880961418151855e+00,1.600113034248352051e+00,1.595723390579223633e+00,3.783776044845581055e+00,3.666241884231567383e+00,3.555789232254028320e+00,3.451797008514404297e+00,3.353714704513549805e+00,3.261052608489990234e+00,3.173373222351074219e+00,3.090285062789916992e+00,3.011436939239501953e+00,2.936512470245361328e+00,2.865225553512573242e+00,2.797317504882812500e+00,2.732554197311401367e+00,2.670722007751464844e+00,2.611625909805297852e+00,2.555088281631469727e+00,2.500946998596191406e+00,2.449052572250366211e+00,2.399267673492431641e+00,2.351466894149780273e+00,2.305533409118652344e+00,2.261360168457031250e+00,2.218847751617431641e+00,2.177904129028320312e+00,2.138444185256958008e+00,2.100388765335083008e+00,2.063664197921752930e+00,2.028201580047607422e+00,1.993937253952026367e+00,1.960811614990234375e+00,1.928768515586853027e+00,1.897755742073059082e+00,1.867724657058715820e+00
3.776737451553344727e+00,3.776004791259765625e+00,3.775272369384765625e+00,3.774540662765502930e+00,3.773808717727661133e+00,3.773077487945556641e+00,3.772346258163452148e+00,3.771615266799926758e+00,3.770884990692138672e+00,3.770154476165771484e+00,3.769424200057983398e+00,3.768694877624511719e+00,3.767965316772460938e+00,3.767235994338989258e+00,3.766507387161254883e+00,3.765778541564941406e+00,3.765050172805786133e+00,3.764322280883789062e+00,3.763594388961791992e+00,3.762866735458374023e+00,3.762139797210693359e+00,3.761412858963012695e+00,3.760686159133911133e+00,3.759959936141967773e+00,3.759233713150024414e+00,3.758508205413818359e+00,3.757782697677612305e+00,3.757057189941406250e+00,3.756332397460937500e+00,3.755607604980468750e+00,3.754883050918579102e+00,3.754159212112426758e+00,3.753435373306274414e+00,3.752711534500122070e+00,3.751988649368286133e+00,3.751265525817871094e+00,3.750542640686035156e+00,3.749820470809936523e+00,3.749098062515258789e+00,3.748376131057739258e+00,2.080643653869628906e+00,2.077919960021972656e+00,3.746212005615234375e+00,3.745491504669189453e+00,1.627536892890930176e+00,1.606763601303100586e+00,1.602694153785705566e+00,3.742610931396484375e+00,3.666321992874145508e+00,3.555864810943603516e+00,3.451868295669555664e+00,3.353781938552856445e+00,3.261116027832031250e+00,3.173433542251586914e+00,3.090342283248901367e+00,3.011491060256958008e+00,2.936563968658447266e+00,2.865274667739868164e+00,2.797364473342895508e+00,2.732599020004272461e+00,2.670764446258544922e+00,2.611666679382324219e+00,2.555127382278442383e+00,2.500984430313110352e+00,2.449088335037231445e+00,2.399302244186401367e+00,2.351500034332275391e+00,2.305565118789672852e+00,2.261390686035156250e+00,2.218877077102661133e+00,2.177932500839233398e+00,2.138471603393554688e+00,2.100415229797363281e+00,2.063689708709716797e+00,2.028226375579833984e+00,1.993961215019226074e+00,1.960834503173828125e+00,1.928790688514709473e+00,1.897777438163757324e+00,1.867745518684387207e+00
3.083437442779541016e+00,3.082949161529541016e+00,3.082460880279541016e+00,3.081973075866699219e+00,3.081485033035278320e+00,3.080997467041015625e+00,3.080509901046752930e+00,3.080022335052490234e+00,3.079535484313964844e+00,3.079048156738281250e+00,3.078561067581176758e+00,3.078074455261230469e+00,3.077587842941284180e+00,3.077101230621337891e+00,3.076615095138549805e+00,3.076128959655761719e+00,3.075642824172973633e+00,3.075157165527343750e+00,3.074671268463134766e+00,3.074185609817504883e+00,3.073700428009033203e+00,3.073215007781982422e+00,3.072729825973510742e+00,3.072245121002197266e+00,3.071760177612304688e+00,3.071275949478149414e+00,3.070791244506835938e+00,3.070306777954101562e+00,3.069822788238525391e+00,3.069338798522949219e+00,3.068854808807373047e+00,3.068371295928955078e+00,3.067887544631958008e+00,3.067404031753540039e+00,3.066920995712280273e+00,3.066437959671020508e+00,3.065954923629760742e+00,3.065472364425659180e+00,3.064989566802978516e+00,3.064507007598876953e+00,2.067575693130493164e+00,2.082071542739868164e+00,3.063060283660888672e+00,3.062578678131103516e+00,1.634319186210632324e+00,1.613469600677490234e+00,1.605666756629943848e+00,3.060652494430541992e+00,3.060171604156494141e+00,3.059690475463867188e+00,3.059209585189819336e+00,3.058729171752929688e+00,3.058248519897460938e+00,3.057768106460571289e+00,3.057287931442260742e+00,3.011545419692993164e+00,2.936615467071533203e+00,2.865323781967163086e+00,2.797411203384399414e+00,2.732643604278564453e+00,2.670807123184204102e+00,2.611707448959350586e+00,2.555166721343994141e+00,2.501021862030029297e+00,2.449124336242675781e+00,2.399336814880371094e+00,2.351533174514770508e+00,2.305597066879272461e+00,2.261421203613281250e+00,2.218906641006469727e+00,2.177960872650146484e+00,2.138499021530151367e+00,2.100441455841064453e+00,2.063715219497680664e+00,2.028250932693481445e+00,1.993984937667846680e+00,1.960857629776000977e+00,1.928813099861145020e+00,1.897798895835876465e+00,1.867766499519348145e+00
2.605198144912719727e+00,2.604849576950073242e+00,2.604501008987426758e+00,2.604152679443359375e+00,2.603804349899291992e+00,2.603456258773803711e+00,2.603107929229736328e+00,2.602759838104248047e+00,2.602411985397338867e+00,2.602064132690429688e+00,2.601716279983520508e+00,2.601368904113769531e+00,2.601021289825439453e+00,2.600673675537109375e+00,2.600326299667358398e+00,2.599978923797607422e+00,2.599631786346435547e+00,2.599284648895263672e+00,2.598937511444091797e+00,2.598590612411499023e+00,2.598243951797485352e+00,2.597897052764892578e+00,2.597550392150878906e+00,2.597203969955444336e+00,2.596857547760009766e+00,2.596511125564575195e+00,2.596164941787719727e+00,2.595818519592285156e+00,2.595472574234008789e+00,2.595126628875732422e+00,2.594780683517456055e+00,2.594434976577758789e+00,2.594089269638061523e+00,2.593743562698364258e+00,2.593398094177246094e+00,2.593052625656127930e+00,2.592707157135009766e+00,2.592361927032470703e+00,2.592016696929931641e+00,2.591671466827392578e+00,2.054936647415161133e+00,2.071477174758911133e+00,2.590636968612670898e+00,2.590292215347290039e+00,2.589947700500488281e+00,1.629238247871398926e+00,1.619787812232971191e+00,2.588914394378662109e+00,2.588570117950439453e+00,2.588225841522216797e+00,2.587881803512573242e+00,2.587538003921508789e+00,2.587193965911865234e+00,2.586850166320800781e+00,2.586506605148315430e+00,2.586162805557250977e+00,2.585819244384765625e+00,2.585476160049438477e+00,2.585132598876953125e+00,2.584789276123046875e+00,2.584446191787719727e+00,2.584103107452392578e+00,2.555205821990966797e+00,2.501059293746948242e+00,2.449160099029541016e+00,2.399371147155761719e+00,2.351566314697265625e+00,2.305628776550292969e+00,2.261451959609985352e+00,2.218936204910278320e+00,2.177989244461059570e+00,2.138526439666748047e+00,2.100467920303344727e+00,2.063740730285644531e+00,2.028275489807128906e+00,1.994008898735046387e+00,1.960880637168884277e+00,1.928835272789001465e+00,1.897820591926574707e+00,1.867787241935729980e+00
2.255378723144531250e+00,2.255118608474731445e+00,2.254858732223510742e+00,2.254598617553710938e+00,2.254338979721069336e+00,2.254079103469848633e+00,2.253819227218627930e+00,2.253559589385986328e+00,2.253299951553344727e+00,2.253039598464965820e+00,2.252778768539428711e+00,2.252518177032470703e+00,2.252257585525512695e+00,2.251996994018554688e+00,2.251736640930175781e+00,2.251476049423217773e+00,2.251215696334838867e+00,2.250955581665039062e+00,2.250695228576660156e+00,2.250434875488281250e+00,2.250174999237060547e+00,2.249914884567260742e+00,2.249654769897460938e+00,2.249394893646240234e+00,2.249135017395019531e+00,2.248875141143798828e+00,2.248615503311157227e+00,2.248355627059936523e+00,2.248096227645874023e+00,2.247836589813232422e+00,2.247576951980590820e+00,2.247317552566528320e+00,2.247058153152465820e+00,2.246798753738403320e+00,2.246539592742919922e+00,2.246280193328857422e+00,2.246021032333374023e+00,2.245762109756469727e+00,2.245502948760986328e+00,2.245243787765502930e+00,2.244985103607177734e+00,2.244726181030273438e+00,2.244467258453369141e+00,2.244208574295043945e+00,2.243949890136718750e+00,1.626831412315368652e+00,1.609550118446350098e+00,1.618463516235351562e+00,2.242915868759155273e+00,2.242657423019409180e+00,2.242398977279663086e+00,2.242140769958496094e+00,2.241882562637329102e+00,2.241624355316162109e+00,2.241366386413574219e+00,2.241108179092407227e+00,2.240850210189819336e+00,2.240592479705810547e+00,2.240334510803222656e+00,2.240076541900634766e+00,2.239819049835205078e+00,2.239561319351196289e+00,2.239303588867187500e+00,2.239046096801757812e+00,2.238788604736328125e+00,2.238531112670898438e+00,2.238273859024047852e+00,2.238016366958618164e+00,2.237759351730346680e+00,2.218965530395507812e+00,2.178017616271972656e+00,2.138553857803344727e+00,2.100494384765625000e+00,2.063766241073608398e+00,2.028300285339355469e+00,1.994032621383666992e+00,1.960903763771057129e+00,1.928857684135437012e+00,1.897842049598693848e+00,1.867808222770690918e+00
1.988319277763366699e+00,1.988117098808288574e+00,1.987915039062500000e+00,1.987713217735290527e+00,1.987511157989501953e+00,1.987309217453002930e+00,1.987107157707214355e+00,1.986905336380004883e+00,1.986703634262084961e+00,1.986501812934875488e+00,1.986300110816955566e+00,1.986098289489746094e+00,1.985896825790405273e+00,1.985695123672485352e+00,1.985493540763854980e+00,1.985291957855224609e+00,1.985090494155883789e+00,1.984889149665832520e+00,1.984687685966491699e+00,1.984486222267150879e+00,1.984284877777099609e+00,1.984083771705627441e+00,1.983882546424865723e+00,1.983681201934814453e+00,1.983479976654052734e+00,1.983278870582580566e+00,1.983077883720397949e+00,1.982876896858215332e+00,1.982675790786743164e+00,1.982474803924560547e+00,1.982274055480957031e+00,1.982073068618774414e+00,1.981872200965881348e+00,1.981671333312988281e+00,1.981470584869384766e+00,1.981270074844360352e+00,1.981069326400756836e+00,1.980868577957153320e+00,1.980667948722839355e+00,1.980467557907104492e+00,1.980267047882080078e+00,1.980066537857055664e+00,1.979866027832031250e+00,1.979665517807006836e+00,1.691100478172302246e+00,1.618395328521728516e+00,1.592802762985229492e+00,1.581473112106323242e+00,1.587585210800170898e+00,1.978464245796203613e+00,1.978264093399047852e+00,1.978063941001892090e+00,1.977863788604736328e+00,1.977663993835449219e+00,1.977463960647583008e+00,1.977264046669006348e+00,1.977064132690429688e+00,1.976864457130432129e+00,1.976664662361145020e+00,1.976464867591857910e+00,1.976265072822570801e+00,1.976065397262573242e+00,1.975865960121154785e+00,1.975666284561157227e+00,1.975466728210449219e+00,1.975267171859741211e+00,1.975067853927612305e+00,1.974868416786193848e+00,1.974668979644775391e+00,1.974469542503356934e+00,1.974270224571228027e+00,1.974071145057678223e+00,1.973871827125549316e+00,1.973672628402709961e+00,1.973473429679870605e+00,1.973274469375610352e+00,1.960926651954650879e+00,1.928879857063293457e+00,1.897863745689392090e+00,1.867829084396362305e+00
1.777809023857116699e+00,1.777647376060485840e+00,1.777485847473144531e+00,1.777324318885803223e+00,1.777162790298461914e+00,1.777001380920410156e+00,1.776839971542358398e+00,1.776678562164306641e+00,1.776517152786254883e+00,1.776355862617492676e+00,1.776194572448730469e+00,1.776033282279968262e+00,1.775871872901916504e+00,1.775710701942443848e+00,1.775549650192260742e+00,1.775388360023498535e+00,1.775227189064025879e+00,1.775066018104553223e+00,1.774905085563659668e+00,1.774744033813476562e+00,1.774582982063293457e+00,1.774421930313110352e+00,1.774260878562927246e+00,1.774100184440612793e+00,1.773939251899719238e+00,1.773778319358825684e+00,1.773617386817932129e+00,1.773456692695617676e+00,1.773295879364013672e+00,1.773135066032409668e+00,1.772974252700805664e+00,1.772813558578491211e+00,1.772652983665466309e+00,1.772492289543151855e+00,1.772331714630126953e+00,1.772171020507812500e+00,1.772010684013366699e+00,1.771850109100341797e+00,1.771689534187316895e+00,1.771529078483581543e+00,1.771368503570556641e+00,1.771208286285400391e+00,1.771047830581665039e+00,1.770887494087219238e+00,1.770727038383483887e+00,1.612702250480651855e+00,1.569971203804016113e+00,1.557371139526367188e+00,1.550605773925781250e+00,1.549633026123046875e+00,1.769765853881835938e+00,1.769605636596679688e+00,1.769445538520812988e+00,1.769285440444946289e+00,1.769125580787658691e+00,1.768965482711791992e+00,1.768805503845214844e+00,1.768645524978637695e+00,1.768485546112060547e+00,1.768325805664062500e+00,1.768165946006774902e+00,1.768005967140197754e+00,1.767846226692199707e+00,1.767686605453491211e+00,1.767526745796203613e+00,1.767367005348205566e+00,1.767207264900207520e+00,1.767047524452209473e+00,1.766888141632080078e+00,1.766728401184082031e+00,1.766568779945373535e+00,1.766409277915954590e+00,1.766249895095825195e+00,1.766090393066406250e+00,1.765930891036987305e+00,1.765771389007568359e+00,1.765612006187438965e+00,1.765452742576599121e+00,1.765293359756469727e+00,1.765134096145629883e+00
1.607606053352355957e+00,1.607473850250244141e+00,1.607341885566711426e+00,1.607209801673889160e+00,1.607077717781066895e+00,1.606945633888244629e+00,1.606813788414001465e+00,1.606681704521179199e+00,1.606549739837646484e+00,1.606417775154113770e+00,1.606285810470581055e+00,1.606153964996337891e+00,1.606022000312805176e+00,1.605890154838562012e+00,1.605758309364318848e+00,1.605626583099365234e+00,1.605494737625122070e+00,1.605362892150878906e+00,1.605231165885925293e+00,1.605099320411682129e+00,1.604967832565307617e+00,1.604836106300354004e+00,1.604704380035400391e+00,1.604572653770446777e+00,1.604441165924072266e+00,1.604309558868408203e+00,1.604177951812744141e+00,1.604046344757080078e+00,1.603914737701416016e+00,1.603783369064331055e+00,1.603651881217956543e+00,1.603520274162292480e+00,1.603388786315917969e+00,1.603257536888122559e+00,1.603126049041748047e+00,1.602994680404663086e+00,1.602863311767578125e+00,1.602731823921203613e+00,1.602600693702697754e+00,1.602469325065612793e+00,1.602338075637817383e+00,1.602206707000732422e+00,1.602075576782226562e+00,1.601944327354431152e+00,1.601813197135925293e+00,1.601681947708129883e+00,1.554716467857360840e+00,1.524357318878173828e+00,1.519537210464477539e+00,1.513930559158325195e+00,1.509798526763916016e+00,1.600895524024963379e+00,1.600764393806457520e+00,1.600633382797241211e+00,1.600502371788024902e+00,1.600371360778808594e+00,1.600240588188171387e+00,1.600109577178955078e+00,1.599978685379028320e+00,1.599847674369812012e+00,1.599717020988464355e+00,1.599586129188537598e+00,1.599455356597900391e+00,1.599324464797973633e+00,1.599193692207336426e+00,1.599063038825988770e+00,1.598932266235351562e+00,1.598801612854003906e+00,1.598670840263366699e+00,1.598540306091308594e+00,1.598409652709960938e+00,1.598278999328613281e+00,1.598148345947265625e+00,1.598017930984497070e+00,1.597887396812438965e+00,1.597756743431091309e+00,1.597626209259033203e+00,1.597495675086975098e+00,1.597365379333496094e+00,1.597234845161437988e+00
1.467145323753356934e+00,1.467035293579101562e+00,1.466925263404846191e+00,1.466815352439880371e+00,1.466705322265625000e+00,1.466595292091369629e+00,1.466485261917114258e+00,1.466375350952148438e+00,1.466265439987182617e+00,1.466155529022216797e+00,1.466045618057250977e+00,1.465935707092285156e+00,1.465825915336608887e+00,1.465716004371643066e+00,1.465606212615966797e+00,1.465496301651000977e+00,1.465386509895324707e+00,1.465276837348937988e+00,1.465167045593261719e+00,1.465057253837585449e+00,1.464947462081909180e+00,1.464837908744812012e+00,1.464728116989135742e+00,1.464618444442749023e+00,1.464508771896362305e+00,1.464399099349975586e+00,1.464289546012878418e+00,1.464179873466491699e+00,1.464070320129394531e+00,1.463960647583007812e+00,1.463851213455200195e+00,1.463741540908813477e+00,1.463631987571716309e+00,1.463522434234619141e+00,1.463413000106811523e+00,1.463303565979003906e+00,1.463194012641906738e+00,1.463084578514099121e+00,1.462975144386291504e+00,1.462865829467773438e+00,1.462756395339965820e+00,1.462646961212158203e+00,1.462537527084350586e+00,1.462428212165832520e+00,1.462318897247314453e+00,1.462209582328796387e+00,1.462100267410278320e+00,1.461990952491760254e+00,1.461881756782531738e+00,1.461772441864013672e+00,1.461663246154785156e+00,1.461553931236267090e+00,1.461444735527038574e+00,1.461335659027099609e+00,1.461226463317871094e+00,1.461117267608642578e+00,1.461008071899414062e+00,1.460899114608764648e+00,1.460789918899536133e+00,1.460680842399597168e+00,1.460571765899658203e+00,1.460462808609008789e+00,1.460353732109069824e+00,1.460244655609130859e+00,1.460135579109191895e+00,1.460026502609252930e+00,1.459917664527893066e+00,1.459808707237243652e+00,1.459699749946594238e+00,1.459590792655944824e+00,1.459481954574584961e+00,1.459372997283935547e+00,1.459264159202575684e+00,1.459155201911926270e+00,1.459046363830566406e+00,1.458937644958496094e+00,1.458828806877136230e+00,1.458719968795776367e+00,1.458611130714416504e+00,1.458502411842346191e+00
1.349257230758666992e+00,1.349164128303527832e+00,1.349071025848388672e+00,1.348977923393249512e+00,1.348884940147399902e+00,1.348791956901550293e+00,1.348698973655700684e+00,1.348605871200561523e+00,1.348512887954711914e+00,1.348420023918151855e+00,1.348327040672302246e+00,1.348234057426452637e+00,1.348141074180603027e+00,1.348048210144042969e+00,1.347955346107482910e+00,1.347862482070922852e+00,1.347769498825073242e+00,1.347676634788513184e+00,1.347583889961242676e+00,1.347491025924682617e+00,1.347398161888122559e+00,1.347305417060852051e+00,1.347212553024291992e+00,1.347119808197021484e+00,1.347027063369750977e+00,1.346934318542480469e+00,1.346841454505920410e+00,1.346748828887939453e+00,1.346656084060668945e+00,1.346563339233398438e+00,1.346470594406127930e+00,1.346377968788146973e+00,1.346285343170166016e+00,1.346192598342895508e+00,1.346099972724914551e+00,1.346007347106933594e+00,1.345914721488952637e+00,1.345822095870971680e+00,1.345729470252990723e+00,1.345636844635009766e+00,1.345544457435607910e+00,1.345451831817626953e+00,1.345359206199645996e+00,1.345266699790954590e+00,1.345174193382263184e+00,1.345081686973571777e+00,1.344989180564880371e+00,1.344896674156188965e+00,1.344804167747497559e+00,1.344711780548095703e+00,1.344619393348693848e+00,1.344526886940002441e+00,1.344434499740600586e+00,1.344341993331909180e+00,1.344249725341796875e+00,1.344157338142395020e+00,1.344064950942993164e+00,1.343972563743591309e+00,1.343880295753479004e+00,1.343787908554077148e+00,1.343695521354675293e+00,1.343603253364562988e+00,1.343510985374450684e+00,1.343418717384338379e+00,1.343326449394226074e+00,1.343234181404113770e+00,1.343141913414001465e+00,1.343049764633178711e+00,1.342957496643066406e+00,1.342865228652954102e+00,1.342773079872131348e+00,1.342680811882019043e+00,1.342588782310485840e+00,1.342496633529663086e+00,1.342404365539550781e+00,1.342312216758728027e+00,1.342220187187194824e+00,1.342128157615661621e+00,1.342036008834838867e+00,1.341943860054016113e+00
1.248905062675476074e+00,1.248825311660766602e+00,1.248745679855346680e+00,1.248665928840637207e+00,1.248586177825927734e+00,1.248506426811218262e+00,1.248426795005798340e+00,1.248347163200378418e+00,1.248267412185668945e+00,1.248187780380249023e+00,1.248108029365539551e+00,1.248028516769409180e+00,1.247948884963989258e+00,1.247869253158569336e+00,1.247789621353149414e+00,1.247710108757019043e+00,1.247630476951599121e+00,1.247550845146179199e+00,1.247471213340759277e+00,1.247391819953918457e+00,1.247312188148498535e+00,1.247232675552368164e+00,1.247153043746948242e+00,1.247073531150817871e+00,1.246994137763977051e+00,1.246914625167846680e+00,1.246835112571716309e+00,1.246755599975585938e+00,1.246676206588745117e+00,1.246596693992614746e+00,1.246517300605773926e+00,1.246437788009643555e+00,1.246358394622802734e+00,1.246279001235961914e+00,1.246199607849121094e+00,1.246120214462280273e+00,1.246040701866149902e+00,1.245961427688598633e+00,1.245882034301757812e+00,1.245802640914916992e+00,1.245723366737365723e+00,1.245643973350524902e+00,1.245564699172973633e+00,1.245485305786132812e+00,1.245406031608581543e+00,1.245326757431030273e+00,1.245247483253479004e+00,1.245168209075927734e+00,1.245088934898376465e+00,1.245009660720825195e+00,1.244930386543273926e+00,1.244851231575012207e+00,1.244771957397460938e+00,1.244692683219909668e+00,1.244613528251647949e+00,1.244534373283386230e+00,1.244455218315124512e+00,1.244375944137573242e+00,1.244296789169311523e+00,1.244217634201049805e+00,1.244138598442077637e+00,1.244059443473815918e+00,1.243980288505554199e+00,1.243901133537292480e+00,1.243822097778320312e+00,1.243742942810058594e+00,1.243663907051086426e+00,1.243584752082824707e+00,1.243505716323852539e+00,1.243426680564880371e+00,1.243347644805908203e+00,1.243268609046936035e+00,1.243189573287963867e+00,1.243110656738281250e+00,1.243031620979309082e+00,1.242952585220336914e+00,1.242873549461364746e+00,1.242794632911682129e+00,1.242715716361999512e+00,1.242636680603027344e+00
1.162447214126586914e+00,1.162378072738647461e+00,1.162308931350708008e+00,1.162239909172058105e+00,1.162170886993408203e+00,1.162101864814758301e+00,1.162032723426818848e+00,1.161963820457458496e+00,1.161894798278808594e+00,1.161825656890869141e+00,1.161756634712219238e+00,1.161687612533569336e+00,1.161618709564208984e+00,1.161549687385559082e+00,1.161480784416198730e+00,1.161411762237548828e+00,1.161342859268188477e+00,1.161273837089538574e+00,1.161204934120178223e+00,1.161135911941528320e+00,1.161067008972167969e+00,1.160998106002807617e+00,1.160929203033447266e+00,1.160860300064086914e+00,1.160791397094726562e+00,1.160722613334655762e+00,1.160653710365295410e+00,1.160584807395935059e+00,1.160515904426574707e+00,1.160447001457214355e+00,1.160378217697143555e+00,1.160309433937072754e+00,1.160240530967712402e+00,1.160171747207641602e+00,1.160102963447570801e+00,1.160034060478210449e+00,1.159965276718139648e+00,1.159896492958068848e+00,1.159827709197998047e+00,1.159758925437927246e+00,1.159690141677856445e+00,1.159621357917785645e+00,1.159552693367004395e+00,1.159484028816223145e+00,1.159415245056152344e+00,1.159346461296081543e+00,1.159277796745300293e+00,1.159209012985229492e+00,1.159140348434448242e+00,1.159071683883666992e+00,1.159003019332885742e+00,1.158934235572814941e+00,1.158865690231323242e+00,1.158797025680541992e+00,1.158728361129760742e+00,1.158659696578979492e+00,1.158591032028198242e+00,1.158522486686706543e+00,1.158453822135925293e+00,1.158385157585144043e+00,1.158316612243652344e+00,1.158248066902160645e+00,1.158179402351379395e+00,1.158110857009887695e+00,1.158042311668395996e+00,1.157973647117614746e+00,1.157905220985412598e+00,1.157836675643920898e+00,1.157768130302429199e+00,1.157699584960937500e+00,1.157631039619445801e+00,1.157562494277954102e+00,1.157494068145751953e+00,1.157425522804260254e+00,1.157356977462768555e+00,1.157288551330566406e+00,1.157220125198364258e+00,1.157151579856872559e+00,1.157083153724670410e+00,1.157014727592468262e+00
1.087184667587280273e+00,1.087124228477478027e+00,1.087063789367675781e+00,1.087003350257873535e+00,1.086943030357360840e+00,1.086882591247558594e+00,1.086822152137756348e+00,1.086761713027954102e+00,1.086701393127441406e+00,1.086641073226928711e+00,1.086580634117126465e+00,1.086520314216613770e+00,1.086459875106811523e+00,1.086399674415588379e+00,1.086339235305786133e+00,1.086278915405273438e+00,1.086218595504760742e+00,1.086158275604248047e+00,1.086097955703735352e+00,1.086037635803222656e+00,1.085977315902709961e+00,1.085916996002197266e+00,1.085856795310974121e+00,1.085796475410461426e+00,1.085736274719238281e+00,1.085675954818725586e+00,1.085615634918212891e+00,1.085555434226989746e+00,1.085495233535766602e+00,1.085434913635253906e+00,1.085374712944030762e+00,1.085314512252807617e+00,1.085254311561584473e+00,1.085194110870361328e+00,1.085133790969848633e+00,1.085073590278625488e+00,1.085013508796691895e+00,1.084953308105468750e+00,1.084893107414245605e+00,1.084832906723022461e+00,1.084772825241088867e+00,1.084712624549865723e+00,1.084652423858642578e+00,1.084592223167419434e+00,1.084532141685485840e+00,1.084472060203552246e+00,1.084411859512329102e+00,1.084351778030395508e+00,1.084291696548461914e+00,1.084231615066528320e+00,1.084171414375305176e+00,1.084111332893371582e+00,1.084051251411437988e+00,1.083991169929504395e+00,1.083931207656860352e+00,1.083871126174926758e+00,1.083811044692993164e+00,1.083750963211059570e+00,1.083690881729125977e+00,1.083630919456481934e+00,1.083570837974548340e+00,1.083510756492614746e+00,1.083450794219970703e+00,1.083390831947326660e+00,1.083330750465393066e+00,1.083270788192749023e+00,1.083210706710815430e+00,1.083150863647460938e+00,1.083090782165527344e+00,1.083030819892883301e+00,1.082970857620239258e+00,1.082910895347595215e+00,1.082850933074951172e+00,1.082790970802307129e+00,1.082731008529663086e+00,1.082671046257019043e+00,1.082611203193664551e+00,1.082551240921020508e+00,1.082491397857666016e+00,1.082431435585021973e+00
1.021075248718261719e+00,1.021021962165832520e+00,1.020968675613403320e+00,1.020915269851684570e+00,1.020861983299255371e+00,1.020808696746826172e+00,1.020755529403686523e+00,1.020702242851257324e+00,1.020648956298828125e+00,1.020595669746398926e+00,1.020542502403259277e+00,1.020489215850830078e+00,1.020435929298400879e+00,1.020382642745971680e+00,1.020329475402832031e+00,1.020276308059692383e+00,1.020223021507263184e+00,1.020169854164123535e+00,1.020116567611694336e+00,1.020063400268554688e+00,1.020010232925415039e+00,1.019957065582275391e+00,1.019903779029846191e+00,1.019850611686706543e+00,1.019797563552856445e+00,1.019744277000427246e+00,1.019691109657287598e+00,1.019637942314147949e+00,1.019584894180297852e+00,1.019531726837158203e+00,1.019478559494018555e+00,1.019425392150878906e+00,1.019372224807739258e+00,1.019319176673889160e+00,1.019266009330749512e+00,1.019212961196899414e+00,1.019159793853759766e+00,1.019106745719909668e+00,1.019053697586059570e+00,1.019000530242919922e+00,1.018947482109069824e+00,1.018894314765930176e+00,1.018841266632080078e+00,1.018788218498229980e+00,1.018735170364379883e+00,1.018682122230529785e+00,1.018629074096679688e+00,1.018576025962829590e+00,1.018522977828979492e+00,1.018469929695129395e+00,1.018416881561279297e+00,1.018363952636718750e+00,1.018310904502868652e+00,1.018257856369018555e+00,1.018204808235168457e+00,1.018151879310607910e+00,1.018098831176757812e+00,1.018045902252197266e+00,1.017992854118347168e+00,1.017939925193786621e+00,1.017886877059936523e+00,1.017833948135375977e+00,1.017781019210815430e+00,1.017727971076965332e+00,1.017675042152404785e+00,1.017622113227844238e+00,1.017569184303283691e+00,1.017516255378723145e+00,1.017463326454162598e+00,1.017410397529602051e+00,1.017357468605041504e+00,1.017304539680480957e+00,1.017251610755920410e+00,1.017198801040649414e+00,1.017145872116088867e+00,1.017092943191528320e+00,1.017040014266967773e+00,1.016987204551696777e+00,1.016934275627136230e+00,1.016881465911865234e+00
9.625449776649475098e-01,9.624975919723510742e-01,9.624502062797546387e-01,9.624028205871582031e-01,9.623554348945617676e-01,9.623081088066101074e-01,9.622607231140136719e-01,9.622135162353515625e-01,9.621661305427551270e-01,9.621188044548034668e-01,9.620714783668518066e-01,9.620241522789001465e-01,9.619768261909484863e-01,9.619295001029968262e-01,9.618821740150451660e-01,9.618348479270935059e-01,9.617876410484313965e-01,9.617403745651245117e-01,9.616930484771728516e-01,9.616457819938659668e-01,9.615984559059143066e-01,9.615511894226074219e-01,9.615039229393005371e-01,9.614566564559936523e-01,9.614093303680419922e-01,9.613621830940246582e-01,9.613149166107177734e-01,9.612677097320556641e-01,9.612204432487487793e-01,9.611731767654418945e-01,9.611259102821350098e-01,9.610787034034729004e-01,9.610314369201660156e-01,9.609842300415039062e-01,9.609371423721313477e-01,9.608898758888244629e-01,9.608426690101623535e-01,9.607954621315002441e-01,9.607482552528381348e-01,9.607010483741760254e-01,9.606538414955139160e-01,9.606066942214965820e-01,9.605594873428344727e-01,9.605123996734619141e-01,9.604652523994445801e-01,9.604180455207824707e-01,9.603708982467651367e-01,9.603236913681030273e-01,9.602765440940856934e-01,9.602293968200683594e-01,9.601822495460510254e-01,9.601351022720336914e-01,9.600880742073059082e-01,9.600409269332885742e-01,9.599937796592712402e-01,9.599466919898986816e-01,9.598995447158813477e-01,9.598523974418640137e-01,9.598053097724914551e-01,9.597582221031188965e-01,9.597110748291015625e-01,9.596641063690185547e-01,9.596170186996459961e-01,9.595699310302734375e-01,9.595228433609008789e-01,9.594757556915283203e-01,9.594286680221557617e-01,9.593815803527832031e-01,9.593345522880554199e-01,9.592874646186828613e-01,9.592404961585998535e-01,9.591934680938720703e-01,9.591463804244995117e-01,9.590993523597717285e-01,9.590523242950439453e-01,9.590052962303161621e-01,9.589582681655883789e-01,9.589112401008605957e-01,9.588642120361328125e-01,9.588173031806945801e-01
