5.000000000000000000e+00,5.000000000000000000e+00,5.000000000000000000e+00,5.000000000000000000e+00,5.000000000000000000e+00,5.000000000000000000e+00,5.000000000000000000e+00,5.000000000000000000e+00,5.000000000000000000e+00,5.000000000000000000e+00,5.000000000000000000e+00,5.000000000000000000e+00,5.000000000000000000e+00,5.000000000000000000e+00,5.000000000000000000e+00,5.000000000000000000e+00,5.000000000000000000e+00,5.000000000000000000e+00,5.000000000000000000e+00,5.000000000000000000e+00,5.000000000000000000e+00,5.000000000000000000e+00,5.000000000000000000e+00,5.000000000000000000e+00,5.000000000000000000e+00,5.000000000000000000e+00,5.000000000000000000e+00,5.000000000000000000e+00,5.000000000000000000e+00,5.000000000000000000e+00,5.000000000000000000e+00,5.000000000000000000e+00,5.000000000000000000e+00,5.000000000000000000e+00,5.000000000000000000e+00,5.000000000000000000e+00,5.000000000000000000e+00,5.000000000000000000e+00,5.000000000000000000e+00,1.607757091522216797e+00,1.597872853279113770e+00,1.599623918533325195e+00,1.626340389251708984e+00,1.597779631614685059e+00,1.574273586273193359e+00,1.569493174552917480e+00,1.569598317146301270e+00,1.579554319381713867e+00,1.598504424095153809e+00,1.614968180656433105e+00,1.653528809547424316e+00,1.809981703758239746e+00,3.169379711151123047e+00,3.087149143218994141e+00,3.009077548980712891e+00,2.934857368469238281e+00,2.864210367202758789e+00,2.796884536743164062e+00,2.732651233673095703e+00,2.671302080154418945e+00,2.612646818161010742e+00,2.556512355804443359e+00,2.502739191055297852e+00,2.451181411743164062e+00,2.401705265045166016e+00,2.354187011718750000e+00,2.308512210845947266e+00,2.264576196670532227e+00,2.222281217575073242e+00,2.181537389755249023e+00,2.142260551452636719e+00,2.104372739791870117e+00,2.067801952362060547e+00,2.032480716705322266e+00,1.998345732688903809e+00,1.965338468551635742e+00,1.933403730392456055e+00,1.902490496635437012e+00,1.872550010681152344e+00,1.843537330627441406e+00
5.000000000000000000e+00,5.000000000000000000e+00,5.000000000000000000e+00,5.000000000000000000e+00,5.000000000000000000e+00,5.000000000000000000e+00,5.000000000000000000e+00,5.000000000000000000e+00,5.000000000000000000e+00,5.000000000000000000e+00,5.000000000000000000e+00,5.000000000000000000e+00,5.000000000000000000e+00,5.000000000000000000e+00,5.000000000000000000e+00,5.000000000000000000e+00,5.000000000000000000e+00,5.000000000000000000e+00,5.000000000000000000e+00,5.000000000000000000e+00,5.000000000000000000e+00,5.000000000000000000e+00,5.000000000000000000e+00,5.000000000000000000e+00,5.000000000000000000e+00,5.000000000000000000e+00,5.000000000000000000e+00,5.000000000000000000e+00,5.000000000000000000e+00,5.000000000000000000e+00,5.000000000000000000e+00,5.000000000000000000e+00,5.000000000000000000e+00,5.000000000000000000e+00,5.000000000000000000e+00,5.000000000000000000e+00,5.000000000000000000e+00,5.000000000000000000e+00,5.000000000000000000e+00,1.611705899238586426e+00,1.600625395774841309e+00,1.606721520423889160e+00,1.609911441802978516e+00,1.589018225669860840e+00,1.570845365524291992e+00,1.564064502716064453e+00,1.564459562301635742e+00,1.572185516357421875e+00,1.594801664352416992e+00,1.604246139526367188e+00,1.629176020622253418e+00,1.811191439628601074e+00,3.169439554214477539e+00,3.087205648422241211e+00,3.009131431579589844e+00,2.934908390045166016e+00,2.864259243011474609e+00,2.796931028366088867e+00,2.732695579528808594e+00,2.671344280242919922e+00,2.612687587738037109e+00,2.556551218032836914e+00,2.502776384353637695e+00,2.451217174530029297e+00,2.401739597320556641e+00,2.354219675064086914e+00,2.308543682098388672e+00,2.264606475830078125e+00,2.222310543060302734e+00,2.181565523147583008e+00,2.142287731170654297e+00,2.104398965835571289e+00,2.067827463150024414e+00,2.032505273818969727e+00,1.998369574546813965e+00,1.965361595153808594e+00,1.933426022529602051e+00,1.902511835098266602e+00,1.872570633888244629e+00,1.843557357788085938e+00
5.000000000000000000e+00,5.000000000000000000e+00,5.000000000000000000e+00,5.000000000000000000e+00,5.000000000000000000e+00,5.000000000000000000e+00,5.000000000000000000e+00,5.000000000000000000e+00,5.000000000000000000e+00,5.000000000000000000e+00,5.000000000000000000e+00,5.000000000000000000e+00,5.000000000000000000e+00,5.000000000000000000e+00,5.000000000000000000e+00,5.000000000000000000e+00,5.000000000000000000e+00,5.000000000000000000e+00,5.000000000000000000e+00,5.000000000000000000e+00,5.000000000000000000e+00,5.000000000000000000e+00,5.000000000000000000e+00,5.000000000000000000e+00,5.000000000000000000e+00,5.000000000000000000e+00,5.000000000000000000e+00,5.000000000000000000e+00,5.000000000000000000e+00,5.000000000000000000e+00,5.000000000000000000e+00,5.000000000000000000e+00,5.000000000000000000e+00,5.000000000000000000e+00,5.000000000000000000e+00,5.000000000000000000e+00,5.000000000000000000e+00,5.000000000000000000e+00,5.000000000000000000e+00,1.615213036537170410e+00,1.603342056274414062e+00,1.613882541656494141e+00,1.607302427291870117e+00,1.587273240089416504e+00,1.568339943885803223e+00,1.560684919357299805e+00,1.560108184814453125e+00,1.568708300590515137e+00,1.583509206771850586e+00,1.597905397415161133e+00,1.620966434478759766e+00,1.823883771896362305e+00,3.169499158859252930e+00,3.087262153625488281e+00,3.009185075759887695e+00,2.934959888458251953e+00,2.864307880401611328e+00,2.796977281570434570e+00,2.732739686965942383e+00,2.671386718750000000e+00,2.612728118896484375e+00,2.556589841842651367e+00,2.502813577651977539e+00,2.451252937316894531e+00,2.401773691177368164e+00,2.354252576828002930e+00,2.308575391769409180e+00,2.264637231826782227e+00,2.222339868545532227e+00,2.181593894958496094e+00,2.142314910888671875e+00,2.104425430297851562e+00,2.067852735519409180e+00,2.032529830932617188e+00,1.998393177986145020e+00,1.965384602546691895e+00,1.933448314666748047e+00,1.902533411979675293e+00,1.872591614723205566e+00,1.843577623367309570e+00
5.000000000000000000e+00,5.000000000000000000e+00,5.000000000000000000e+00,5.000000000000000000e+00,5.000000000000000000e+00,5.000000000000000000e+00,5.000000000000000000e+00,5.000000000000000000e+00,5.000000000000000000e+00,5.000000000000000000e+00,5.000000000000000000e+00,5.000000000000000000e+00,5.000000000000000000e+00,5.000000000000000000e+00,5.000000000000000000e+00,5.000000000000000000e+00,5.000000000000000000e+00,5.000000000000000000e+00,5.000000000000000000e+00,5.000000000000000000e+00,5.000000000000000000e+00,5.000000000000000000e+00,5.000000000000000000e+00,5.000000000000000000e+00,5.000000000000000000e+00,5.000000000000000000e+00,5.000000000000000000e+00,5.000000000000000000e+00,5.000000000000000000e+00,5.000000000000000000e+00,5.000000000000000000e+00,5.000000000000000000e+00,5.000000000000000000e+00,5.000000000000000000e+00,5.000000000000000000e+00,5.000000000000000000e+00,5.000000000000000000e+00,5.000000000000000000e+00,5.000000000000000000e+00,1.609539389610290527e+00,1.586640834808349609e+00,1.598184347152709961e+00,1.607368350028991699e+00,1.587300062179565430e+00,1.581387281417846680e+00,1.575518369674682617e+00,1.573312640190124512e+00,1.579470872879028320e+00,1.586302876472473145e+00,1.609784364700317383e+00,1.641965389251708984e+00,1.836983799934387207e+00,3.169558763504028320e+00,3.087318897247314453e+00,3.009238719940185547e+00,2.935010910034179688e+00,2.864356517791748047e+00,2.797023773193359375e+00,2.732784032821655273e+00,2.671429157257080078e+00,2.612768650054931641e+00,2.556628704071044922e+00,2.502850532531738281e+00,2.451288700103759766e+00,2.401808023452758789e+00,2.354285478591918945e+00,2.308606863021850586e+00,2.264667510986328125e+00,2.222369194030761719e+00,2.181622028350830078e+00,2.142342090606689453e+00,2.104451656341552734e+00,2.067878246307373047e+00,2.032554388046264648e+00,1.998416900634765625e+00,1.965407371520996094e+00,1.933470368385314941e+00,1.902554750442504883e+00,1.872612237930297852e+00,1.843597888946533203e+00
5.000000000000000000e+00,5.000000000000000000e+00,5.000000000000000000e+00,5.000000000000000000e+00,5.000000000000000000e+00,5.000000000000000000e+00,5.000000000000000000e+00,5.000000000000000000e+00,5.000000000000000000e+00,5.000000000000000000e+00,5.000000000000000000e+00,5.000000000000000000e+00,5.000000000000000000e+00,5.000000000000000000e+00,5.000000000000000000e+00,5.000000000000000000e+00,5.000000000000000000e+00,5.000000000000000000e+00,5.000000000000000000e+00,5.000000000000000000e+00,5.000000000000000000e+00,5.000000000000000000e+00,5.000000000000000000e+00,5.000000000000000000e+00,5.000000000000000000e+00,5.000000000000000000e+00,5.000000000000000000e+00,5.000000000000000000e+00,5.000000000000000000e+00,5.000000000000000000e+00,5.000000000000000000e+00,5.000000000000000000e+00,5.000000000000000000e+00,5.000000000000000000e+00,5.000000000000000000e+00,5.000000000000000000e+00,5.000000000000000000e+00,5.000000000000000000e+00,5.000000000000000000e+00,1.593375205993652344e+00,1.571454644203186035e+00,1.571686267852783203e+00,1.606295466423034668e+00,1.585716724395751953e+00,1.579959630966186523e+00,1.574356079101562500e+00,1.574913740158081055e+00,1.581372976303100586e+00,1.585322260856628418e+00,1.608651757240295410e+00,1.632260203361511230e+00,1.878884077072143555e+00,3.169618368148803711e+00,3.087375402450561523e+00,3.009292840957641602e+00,2.935061931610107422e+00,2.864405155181884766e+00,2.797070264816284180e+00,2.732828617095947266e+00,2.671471595764160156e+00,2.612808942794799805e+00,2.556667566299438477e+00,2.502887964248657227e+00,2.451324224472045898e+00,2.401842117309570312e+00,2.354318380355834961e+00,2.308638811111450195e+00,2.264698028564453125e+00,2.222398519515991211e+00,2.181650161743164062e+00,2.142369508743286133e+00,2.104477882385253906e+00,2.067903518676757812e+00,2.032578706741333008e+00,1.998440742492675781e+00,1.965430378913879395e+00,1.933492660522460938e+00,1.902576327323913574e+00,1.872633218765258789e+00,1.843617916107177734e+00
5.000000000000000000e+00,5.000000000000000000e+00,5.000000000000000000e+00,5.000000000000000000e+00,5.000000000000000000e+00,5.000000000000000000e+00,5.000000000000000000e+00,5.000000000000000000e+00,5.000000000000000000e+00,5.000000000000000000e+00,5.000000000000000000e+00,5.000000000000000000e+00,5.000000000000000000e+00,5.000000000000000000e+00,5.000000000000000000e+00,5.000000000000000000e+00,5.000000000000000000e+00,5.000000000000000000e+00,5.000000000000000000e+00,5.000000000000000000e+00,5.000000000000000000e+00,5.000000000000000000e+00,5.000000000000000000e+00,5.000000000000000000e+00,5.000000000000000000e+00,5.000000000000000000e+00,5.000000000000000000e+00,5.000000000000000000e+00,5.000000000000000000e+00,5.000000000000000000e+00,5.000000000000000000e+00,5.000000000000000000e+00,5.000000000000000000e+00,5.000000000000000000e+00,5.000000000000000000e+00,5.000000000000000000e+00,5.000000000000000000e+00,5.000000000000000000e+00,5.000000000000000000e+00,1.610641479492187500e+00,1.562080502510070801e+00,1.553448796272277832e+00,1.573536038398742676e+00,1.582448601722717285e+00,1.579016923904418945e+00,1.574019908905029297e+00,1.576925277709960938e+00,1.585035324096679688e+00,1.590349674224853516e+00,1.610355019569396973e+00,1.635846138000488281e+00,3.256425857543945312e+00,3.169677972793579102e+00,3.087432146072387695e+00,3.009346485137939453e+00,2.935112953186035156e+00,2.864453792572021484e+00,2.797116756439208984e+00,2.732872962951660156e+00,2.671513795852661133e+00,2.612849473953247070e+00,2.556706428527832031e+00,2.502925157546997070e+00,2.451359987258911133e+00,2.401876449584960938e+00,2.354351520538330078e+00,2.308670282363891602e+00,2.264728307723999023e+00,2.222427845001220703e+00,2.181678533554077148e+00,2.142396688461303711e+00,2.104504346847534180e+00,2.067928791046142578e+00,2.032603502273559570e+00,1.998464345932006836e+00,1.965453147888183594e+00,1.933514714241027832e+00,1.902597904205322266e+00,1.872654080390930176e+00,1.843638181686401367e+00
5.000000000000000000e+00,5.000000000000000000e+00,5.000000000000000000e+00,5.000000000000000000e+00,5.000000000000000000e+00,5.000000000000000000e+00,5.000000000000000000e+00,5.000000000000000000e+00,5.000000000000000000e+00,5.000000000000000000e+00,5.000000000000000000e+00,5.000000000000000000e+00,5.000000000000000000e+00,5.000000000000000000e+00,5.000000000000000000e+00,5.000000000000000000e+00,5.000000000000000000e+00,5.000000000000000000e+00,5.000000000000000000e+00,5.000000000000000000e+00,5.000000000000000000e+00,5.000000000000000000e+00,5.000000000000000000e+00,5.000000000000000000e+00,5.000000000000000000e+00,5.000000000000000000e+00,5.000000000000000000e+00,5.000000000000000000e+00,5.000000000000000000e+00,5.000000000000000000e+00,5.000000000000000000e+00,5.000000000000000000e+00,5.000000000000000000e+00,5.000000000000000000e+00,5.000000000000000000e+00,5.000000000000000000e+00,5.000000000000000000e+00,5.000000000000000000e+00,5.000000000000000000e+00,4.849012851715087891e+00,1.553224086761474609e+00,1.531852602958679199e+00,1.540522933006286621e+00,1.574693441390991211e+00,1.571406960487365723e+00,1.568134307861328125e+00,1.590283393859863281e+00,1.598531842231750488e+00,1.592912673950195312e+00,1.627242088317871094e+00,1.644583702087402344e+00,1.697176456451416016e+00,3.169737339019775391e+00,3.087488651275634766e+00,3.009400129318237305e+00,2.935164213180541992e+00,2.864502429962158203e+00,2.797163248062133789e+00,2.732917070388793945e+00,2.671556234359741211e+00,2.612890005111694336e+00,2.556745290756225586e+00,2.502962350845336914e+00,2.451395511627197266e+00,2.401910543441772461e+00,2.354384183883666992e+00,2.308701992034912109e+00,2.264758825302124023e+00,2.222457170486450195e+00,2.181706905364990234e+00,2.142423868179321289e+00,2.104530572891235352e+00,2.067954301834106445e+00,2.032627820968627930e+00,1.998488068580627441e+00,1.965476155281066895e+00,1.933537006378173828e+00,1.902619242668151855e+00,1.872674822807312012e+00,1.843658208847045898e+00
5.000000000000000000e+00,5.000000000000000000e+00,5.000000000000000000e+00,5.000000000000000000e+00,5.000000000000000000e+00,5.000000000000000000e+00,5.000000000000000000e+00,5.000000000000000000e+00,5.000000000000000000e+00,5.000000000000000000e+00,5.000000000000000000e+00,5.000000000000000000e+00,5.000000000000000000e+00,5.000000000000000000e+00,5.000000000000000000e+00,5.000000000000000000e+00,5.000000000000000000e+00,5.000000000000000000e+00,5.000000000000000000e+00,5.000000000000000000e+00,5.000000000000000000e+00,5.000000000000000000e+00,5.000000000000000000e+00,5.000000000000000000e+00,5.000000000000000000e+00,5.000000000000000000e+00,5.000000000000000000e+00,5.000000000000000000e+00,5.000000000000000000e+00,5.000000000000000000e+00,5.000000000000000000e+00,5.000000000000000000e+00,5.000000000000000000e+00,5.000000000000000000e+00,5.000000000000000000e+00,5.000000000000000000e+00,5.000000000000000000e+00,5.000000000000000000e+00,5.000000000000000000e+00,4.849152565002441406e+00,1.538830757141113281e+00,1.520608305931091309e+00,1.519369721412658691e+00,1.556816697120666504e+00,1.555492281913757324e+00,1.555906176567077637e+00,1.583865404129028320e+00,1.612259984016418457e+00,1.619737625122070312e+00,1.636430859565734863e+00,1.634247541427612305e+00,1.664877653121948242e+00,3.169797420501708984e+00,3.087545156478881836e+00,3.009453773498535156e+00,2.935215234756469727e+00,2.864551305770874023e+00,2.797209501266479492e+00,2.732961416244506836e+00,2.671598434448242188e+00,2.612930774688720703e+00,2.556783914566040039e+00,2.502999544143676758e+00,2.451431274414062500e+00,2.401944875717163086e+00,2.354417085647583008e+00,2.308733463287353516e+00,2.264789104461669922e+00,2.222486495971679688e+00,2.181735038757324219e+00,2.142451047897338867e+00,2.104556798934936523e+00,2.067979812622070312e+00,2.032652378082275391e+00,1.998511672019958496e+00,1.965499043464660645e+00,1.933559179306030273e+00,1.902640819549560547e+00,1.872695684432983398e+00,1.843678474426269531e+00
5.000000000000000000e+00,5.000000000000000000e+00,5.000000000000000000e+00,5.000000000000000000e+00,5.000000000000000000e+00,5.000000000000000000e+00,5.000000000000000000e+00,5.000000000000000000e+00,5.000000000000000000e+00,5.000000000000000000e+00,5.000000000000000000e+00,5.000000000000000000e+00,5.000000000000000000e+00,5.000000000000000000e+00,5.000000000000000000e+00,5.000000000000000000e+00,5.000000000000000000e+00,5.000000000000000000e+00,5.000000000000000000e+00,5.000000000000000000e+00,5.000000000000000000e+00,5.000000000000000000e+00,5.000000000000000000e+00,5.000000000000000000e+00,5.000000000000000000e+00,5.000000000000000000e+00,5.000000000000000000e+00,5.000000000000000000e+00,5.000000000000000000e+00,5.000000000000000000e+00,5.000000000000000000e+00,5.000000000000000000e+00,5.000000000000000000e+00,5.000000000000000000e+00,5.000000000000000000e+00,5.000000000000000000e+00,5.000000000000000000e+00,5.000000000000000000e+00,5.000000000000000000e+00,4.849292278289794922e+00,1.537778735160827637e+00,1.518286228179931641e+00,1.537140727043151855e+00,1.544150829315185547e+00,1.540721893310546875e+00,1.537436842918395996e+00,1.551870346069335938e+00,1.638523101806640625e+00,1.630560398101806641e+00,1.618068337440490723e+00,1.614311456680297852e+00,1.610603332519531250e+00,3.169857025146484375e+00,3.087601661682128906e+00,3.009507656097412109e+00,2.935266494750976562e+00,2.864599943161010742e+00,2.797255992889404297e+00,2.733005762100219727e+00,2.671641111373901367e+00,2.612971067428588867e+00,2.556822776794433594e+00,2.503036499023437500e+00,2.451467037200927734e+00,2.401979207992553711e+00,2.354449987411499023e+00,2.308765172958374023e+00,2.264819860458374023e+00,2.222515821456909180e+00,2.181763410568237305e+00,2.142478227615356445e+00,2.104583263397216797e+00,2.068005084991455078e+00,2.032676935195922852e+00,1.998535513877868652e+00,1.965522050857543945e+00,1.933581352233886719e+00,1.902662158012390137e+00,1.872716426849365234e+00,1.843698740005493164e+00
5.000000000000000000e+00,5.000000000000000000e+00,5.000000000000000000e+00,5.000000000000000000e+00,5.000000000000000000e+00,5.000000000000000000e+00,5.000000000000000000e+00,5.000000000000000000e+00,5.000000000000000000e+00,5.000000000000000000e+00,5.000000000000000000e+00,5.000000000000000000e+00,5.000000000000000000e+00,5.000000000000000000e+00,5.000000000000000000e+00,5.000000000000000000e+00,5.000000000000000000e+00,5.000000000000000000e+00,5.000000000000000000e+00,5.000000000000000000e+00,5.000000000000000000e+00,5.000000000000000000e+00,5.000000000000000000e+00,5.000000000000000000e+00,5.000000000000000000e+00,5.000000000000000000e+00,5.000000000000000000e+00,5.000000000000000000e+00,5.000000000000000000e+00,5.000000000000000000e+00,5.000000000000000000e+00,5.000000000000000000e+00,5.000000000000000000e+00,5.000000000000000000e+00,5.000000000000000000e+00,5.000000000000000000e+00,5.000000000000000000e+00,5.000000000000000000e+00,5.000000000000000000e+00,4.849431991577148438e+00,1.541302680969238281e+00,1.506096839904785156e+00,1.498030185699462891e+00,1.538922190666198730e+00,1.535336256027221680e+00,1.531810283660888672e+00,1.533028960227966309e+00,1.581110477447509766e+00,1.621460437774658203e+00,1.596549034118652344e+00,1.596617102622985840e+00,1.596685171127319336e+00,1.642412185668945312e+00,3.087658166885375977e+00,3.009561538696289062e+00,2.935317754745483398e+00,2.864648580551147461e+00,2.797302484512329102e+00,2.733050346374511719e+00,2.671683311462402344e+00,2.613011598587036133e+00,2.556861400604248047e+00,2.503073930740356445e+00,2.451502561569213867e+00,2.402013301849365234e+00,2.354482889175415039e+00,2.308796882629394531e+00,2.264850139617919922e+00,2.222545146942138672e+00,2.181791543960571289e+00,2.142505645751953125e+00,2.104609489440917969e+00,2.068030357360839844e+00,2.032701492309570312e+00,1.998559236526489258e+00,1.965545058250427246e+00,1.933603525161743164e+00,1.902683734893798828e+00,1.872737288475036621e+00,1.843718886375427246e+00
5.000000000000000000e+00,5.000000000000000000e+00,5.000000000000000000e+00,5.000000000000000000e+00,5.000000000000000000e+00,5.000000000000000000e+00,5.000000000000000000e+00,5.000000000000000000e+00,5.000000000000000000e+00,5.000000000000000000e+00,5.000000000000000000e+00,5.000000000000000000e+00,5.000000000000000000e+00,5.000000000000000000e+00,5.000000000000000000e+00,5.000000000000000000e+00,5.000000000000000000e+00,5.000000000000000000e+00,5.000000000000000000e+00,5.000000000000000000e+00,5.000000000000000000e+00,5.000000000000000000e+00,5.000000000000000000e+00,5.000000000000000000e+00,5.000000000000000000e+00,5.000000000000000000e+00,5.000000000000000000e+00,5.000000000000000000e+00,5.000000000000000000e+00,5.000000000000000000e+00,5.000000000000000000e+00,5.000000000000000000e+00,5.000000000000000000e+00,5.000000000000000000e+00,5.000000000000000000e+00,5.000000000000000000e+00,5.000000000000000000e+00,5.000000000000000000e+00,5.000000000000000000e+00,4.849571228027343750e+00,4.659656524658203125e+00,1.491344928741455078e+00,1.466192603111267090e+00,1.476941347122192383e+00,1.530897736549377441e+00,1.527207970619201660e+00,1.523678779602050781e+00,1.564189314842224121e+00,1.616170406341552734e+00,1.591788291931152344e+00,1.589384675025939941e+00,1.588890075683593750e+00,1.619471430778503418e+00,3.087714910507202148e+00,3.009615182876586914e+00,2.935368776321411133e+00,2.864697456359863281e+00,2.797348737716674805e+00,2.733094692230224609e+00,2.671725749969482422e+00,2.613052129745483398e+00,2.556900262832641602e+00,2.503111124038696289e+00,2.451538324356079102e+00,2.402047634124755859e+00,2.354515790939331055e+00,2.308828592300415039e+00,2.264880657196044922e+00,2.222574472427368164e+00,2.181819677352905273e+00,2.142532825469970703e+00,2.104635715484619141e+00,2.068055868148803711e+00,2.032726049423217773e+00,1.998582839965820312e+00,1.965567827224731445e+00,1.933625698089599609e+00,1.902705192565917969e+00,1.872758150100708008e+00,1.843739151954650879e+00
5.000000000000000000e+00,5.000000000000000000e+00,5.000000000000000000e+00,5.000000000000000000e+00,5.000000000000000000e+00,5.000000000000000000e+00,5.000000000000000000e+00,5.000000000000000000e+00,5.000000000000000000e+00,5.000000000000000000e+00,5.000000000000000000e+00,5.000000000000000000e+00,5.000000000000000000e+00,5.000000000000000000e+00,5.000000000000000000e+00,5.000000000000000000e+00,5.000000000000000000e+00,5.000000000000000000e+00,5.000000000000000000e+00,5.000000000000000000e+00,5.000000000000000000e+00,5.000000000000000000e+00,5.000000000000000000e+00,5.000000000000000000e+00,5.000000000000000000e+00,5.000000000000000000e+00,5.000000000000000000e+00,5.000000000000000000e+00,5.000000000000000000e+00,5.000000000000000000e+00,5.000000000000000000e+00,5.000000000000000000e+00,5.000000000000000000e+00,5.000000000000000000e+00,5.000000000000000000e+00,5.000000000000000000e+00,5.000000000000000000e+00,5.000000000000000000e+00,5.000000000000000000e+00,4.849710941314697266e+00,4.659785270690917969e+00,1.479519009590148926e+00,1.460276126861572266e+00,1.532340049743652344e+00,1.457253575325012207e+00,1.524198055267333984e+00,1.520612478256225586e+00,1.558040261268615723e+00,1.615582585334777832e+00,1.590600490570068359e+00,1.584663391113281250e+00,1.584683895111083984e+00,1.604814291000366211e+00,3.087771654129028320e+00,3.009669065475463867e+00,2.935419797897338867e+00,2.864746093750000000e+00,2.797395467758178711e+00,2.733138799667358398e+00,2.671767950057983398e+00,2.613092660903930664e+00,2.556939363479614258e+00,2.503148317337036133e+00,2.451573848724365234e+00,2.402081966400146484e+00,2.354548931121826172e+00,2.308860063552856445e+00,2.264911174774169922e+00,2.222603797912597656e+00,2.181848049163818359e+00,2.142560243606567383e+00,2.104661941528320312e+00,2.068081140518188477e+00,2.032750606536865234e+00,1.998606681823730469e+00,1.965590834617614746e+00,1.933647990226745605e+00,1.902726769447326660e+00,1.872778892517089844e+00,1.843759179115295410e+00
5.000000000000000000e+00,5.000000000000000000e+00,5.000000000000000000e+00,5.000000000000000000e+00,5.000000000000000000e+00,5.000000000000000000e+00,5.000000000000000000e+00,5.000000000000000000e+00,5.000000000000000000e+00,5.000000000000000000e+00,5.000000000000000000e+00,5.000000000000000000e+00,5.000000000000000000e+00,5.000000000000000000e+00,5.000000000000000000e+00,5.000000000000000000e+00,5.000000000000000000e+00,5.000000000000000000e+00,5.000000000000000000e+00,5.000000000000000000e+00,5.000000000000000000e+00,5.000000000000000000e+00,5.000000000000000000e+00,5.000000000000000000e+00,5.000000000000000000e+00,5.000000000000000000e+00,5.000000000000000000e+00,5.000000000000000000e+00,5.000000000000000000e+00,5.000000000000000000e+00,5.000000000000000000e+00,5.000000000000000000e+00,5.000000000000000000e+00,5.000000000000000000e+00,5.000000000000000000e+00,5.000000000000000000e+00,5.000000000000000000e+00,5.000000000000000000e+00,5.000000000000000000e+00,4.849850654602050781e+00,4.659914016723632812e+00,1.479964971542358398e+00,1.455405950546264648e+00,1.426336050033569336e+00,1.458452105522155762e+00,1.521200060844421387e+00,1.517558455467224121e+00,1.554834365844726562e+00,1.613981485366821289e+00,1.588752746582031250e+00,1.579285502433776855e+00,1.580500125885009766e+00,1.590654492378234863e+00,3.087828159332275391e+00,3.009722709655761719e+00,2.935471057891845703e+00,2.864794969558715820e+00,2.797441959381103516e+00,2.733183145523071289e+00,2.671810388565063477e+00,2.613133430480957031e+00,2.556977987289428711e+00,2.503185510635375977e+00,2.451609611511230469e+00,2.402116298675537109e+00,2.354581832885742188e+00,2.308891773223876953e+00,2.264941453933715820e+00,2.222633123397827148e+00,2.181876420974731445e+00,2.142587423324584961e+00,2.104688167572021484e+00,2.068106651306152344e+00,2.032775163650512695e+00,1.998630285263061523e+00,1.965613722801208496e+00,1.933670163154602051e+00,1.902748346328735352e+00,1.872799754142761230e+00,1.843779444694519043e+00
5.000000000000000000e+00,5.000000000000000000e+00,5.000000000000000000e+00,5.000000000000000000e+00,5.000000000000000000e+00,5.000000000000000000e+00,5.000000000000000000e+00,5.000000000000000000e+00,5.000000000000000000e+00,5.000000000000000000e+00,5.000000000000000000e+00,5.000000000000000000e+00,5.000000000000000000e+00,5.000000000000000000e+00,5.000000000000000000e+00,5.000000000000000000e+00,5.000000000000000000e+00,5.000000000000000000e+00,5.000000000000000000e+00,5.000000000000000000e+00,5.000000000000000000e+00,5.000000000000000000e+00,5.000000000000000000e+00,5.000000000000000000e+00,5.000000000000000000e+00,5.000000000000000000e+00,5.000000000000000000e+00,5.000000000000000000e+00,5.000000000000000000e+00,5.000000000000000000e+00,5.000000000000000000e+00,5.000000000000000000e+00,5.000000000000000000e+00,5.000000000000000000e+00,5.000000000000000000e+00,5.000000000000000000e+00,5.000000000000000000e+00,5.000000000000000000e+00,5.000000000000000000e+00,4.849990367889404297e+00,4.660042762756347656e+00,1.470036864280700684e+00,1.438090801239013672e+00,1.416420340538024902e+00,1.523306965827941895e+00,1.518298625946044922e+00,1.514584898948669434e+00,1.549615979194641113e+00,1.612188816070556641e+00,1.586894631385803223e+00,1.572963237762451172e+00,1.575527667999267578e+00,1.576742410659790039e+00,3.087884664535522461e+00,3.009776353836059570e+00,2.935522317886352539e+00,2.864843606948852539e+00,2.797488212585449219e+00,2.733227491378784180e+00,2.671852827072143555e+00,2.613173961639404297e+00,2.557016849517822266e+00,2.503222465515136719e+00,2.451645374298095703e+00,2.402150392532348633e+00,2.354614496231079102e+00,2.308923482894897461e+00,2.264971971511840820e+00,2.222662448883056641e+00,2.181904554367065430e+00,2.142614603042602539e+00,2.104714632034301758e+00,2.068131923675537109e+00,2.032799482345581055e+00,1.998654007911682129e+00,1.965636730194091797e+00,1.933692336082458496e+00,1.902769684791564941e+00,1.872820496559143066e+00,1.843799710273742676e+00
5.000000000000000000e+00,5.000000000000000000e+00,5.000000000000000000e+00,5.000000000000000000e+00,5.000000000000000000e+00,5.000000000000000000e+00,5.000000000000000000e+00,5.000000000000000000e+00,5.000000000000000000e+00,5.000000000000000000e+00,5.000000000000000000e+00,5.000000000000000000e+00,5.000000000000000000e+00,5.000000000000000000e+00,5.000000000000000000e+00,5.000000000000000000e+00,5.000000000000000000e+00,5.000000000000000000e+00,5.000000000000000000e+00,5.000000000000000000e+00,5.000000000000000000e+00,5.000000000000000000e+00,5.000000000000000000e+00,5.000000000000000000e+00,5.000000000000000000e+00,5.000000000000000000e+00,5.000000000000000000e+00,5.000000000000000000e+00,5.000000000000000000e+00,5.000000000000000000e+00,5.000000000000000000e+00,5.000000000000000000e+00,5.000000000000000000e+00,5.000000000000000000e+00,5.000000000000000000e+00,5.000000000000000000e+00,5.000000000000000000e+00,5.000000000000000000e+00,5.000000000000000000e+00,4.850130081176757812e+00,4.660171985626220703e+00,1.486842155456542969e+00,1.428474307060241699e+00,1.537602424621582031e+00,1.521332263946533203e+00,1.516336679458618164e+00,1.511624574661254883e+00,1.544182419776916504e+00,1.610400080680847168e+00,1.585040926933288574e+00,1.566691398620605469e+00,1.569235444068908691e+00,1.571841716766357422e+00,3.087941408157348633e+00,3.009830236434936523e+00,2.935573577880859375e+00,2.864892244338989258e+00,2.797534704208374023e+00,2.733271837234497070e+00,2.671895265579223633e+00,2.613214254379272461e+00,2.557055473327636719e+00,2.503259658813476562e+00,2.451681137084960938e+00,2.402184724807739258e+00,2.354647397994995117e+00,2.308954954147338867e+00,2.265002489089965820e+00,2.222691774368286133e+00,2.181932926177978516e+00,2.142641782760620117e+00,2.104740858078002930e+00,2.068157434463500977e+00,2.032824039459228516e+00,1.998677611351013184e+00,1.965659737586975098e+00,1.933714509010314941e+00,1.902791261672973633e+00,1.872841358184814453e+00,1.843819737434387207e+00
5.000000000000000000e+00,5.000000000000000000e+00,5.000000000000000000e+00,5.000000000000000000e+00,5.000000000000000000e+00,5.000000000000000000e+00,5.000000000000000000e+00,5.000000000000000000e+00,5.000000000000000000e+00,5.000000000000000000e+00,5.000000000000000000e+00,5.000000000000000000e+00,5.000000000000000000e+00,5.000000000000000000e+00,5.000000000000000000e+00,5.000000000000000000e+00,5.000000000000000000e+00,5.000000000000000000e+00,5.000000000000000000e+00,5.000000000000000000e+00,5.000000000000000000e+00,5.000000000000000000e+00,5.000000000000000000e+00,5.000000000000000000e+00,5.000000000000000000e+00,5.000000000000000000e+00,5.000000000000000000e+00,5.000000000000000000e+00,5.000000000000000000e+00,5.000000000000000000e+00,5.000000000000000000e+00,5.000000000000000000e+00,5.000000000000000000e+00,5.000000000000000000e+00,5.000000000000000000e+00,5.000000000000000000e+00,5.000000000000000000e+00,5.000000000000000000e+00,5.000000000000000000e+00,4.850269317626953125e+00,4.660300731658935547e+00,4.484652042388916016e+00,1.594516754150390625e+00,1.542989492416381836e+00,1.518106579780578613e+00,1.513144254684448242e+00,1.508544325828552246e+00,1.539267539978027344e+00,1.608535170555114746e+00,1.582331299781799316e+00,1.559660553932189941e+00,1.563946962356567383e+00,1.566615462303161621e+00,3.087997913360595703e+00,3.009884119033813477e+00,2.935624599456787109e+00,2.864940881729125977e+00,2.797581195831298828e+00,2.733316421508789062e+00,2.671937465667724609e+00,2.613254785537719727e+00,2.557094335556030273e+00,2.503297090530395508e+00,2.451716661453247070e+00,2.402218818664550781e+00,2.354680299758911133e+00,2.308986902236938477e+00,2.265033006668090820e+00,2.222721099853515625e+00,2.181961059570312500e+00,2.142669200897216797e+00,2.104767322540283203e+00,2.068182706832885742e+00,2.032848596572875977e+00,1.998701453208923340e+00,1.965682506561279297e+00,1.933736681938171387e+00,1.902812600135803223e+00,1.872862339019775391e+00,1.843840003013610840e+00
5.000000000000000000e+00,5.000000000000000000e+00,5.000000000000000000e+00,5.000000000000000000e+00,5.000000000000000000e+00,5.000000000000000000e+00,5.000000000000000000e+00,5.000000000000000000e+00,5.000000000000000000e+00,5.000000000000000000e+00,5.000000000000000000e+00,5.000000000000000000e+00,5.000000000000000000e+00,5.000000000000000000e+00,5.000000000000000000e+00,5.000000000000000000e+00,5.000000000000000000e+00,5.000000000000000000e+00,5.000000000000000000e+00,5.000000000000000000e+00,5.000000000000000000e+00,5.000000000000000000e+00,5.000000000000000000e+00,5.000000000000000000e+00,5.000000000000000000e+00,5.000000000000000000e+00,5.000000000000000000e+00,5.000000000000000000e+00,5.000000000000000000e+00,5.000000000000000000e+00,5.000000000000000000e+00,5.000000000000000000e+00,5.000000000000000000e+00,5.000000000000000000e+00,5.000000000000000000e+00,5.000000000000000000e+00,5.000000000000000000e+00,5.000000000000000000e+00,5.000000000000000000e+00,4.850409507751464844e+00,4.660429477691650391e+00,4.484771728515625000e+00,1.606287360191345215e+00,1.548814058303833008e+00,1.515413522720336914e+00,1.509562611579895020e+00,1.505607843399047852e+00,1.536210298538208008e+00,1.604548573493957520e+00,1.578346610069274902e+00,1.557698726654052734e+00,1.557935714721679688e+00,1.561423659324645996e+00,3.088054656982421875e+00,3.009938001632690430e+00,2.935675621032714844e+00,2.864989757537841797e+00,2.797627687454223633e+00,2.733360528945922852e+00,2.671979904174804688e+00,2.613295316696166992e+00,2.557133436203002930e+00,2.503334283828735352e+00,2.451752424240112305e+00,2.402253150939941406e+00,2.354713439941406250e+00,2.309018373489379883e+00,2.265063285827636719e+00,2.222750425338745117e+00,2.181989431381225586e+00,2.142696380615234375e+00,2.104793548583984375e+00,2.068208217620849609e+00,2.032873153686523438e+00,1.998725295066833496e+00,1.965705513954162598e+00,1.933758974075317383e+00,1.902834177017211914e+00,1.872882962226867676e+00,1.843860030174255371e+00
5.000000000000000000e+00,5.000000000000000000e+00,5.000000000000000000e+00,5.000000000000000000e+00,5.000000000000000000e+00,5.000000000000000000e+00,5.000000000000000000e+00,5.000000000000000000e+00,5.000000000000000000e+00,5.000000000000000000e+00,5.000000000000000000e+00,5.000000000000000000e+00,5.000000000000000000e+00,5.000000000000000000e+00,5.000000000000000000e+00,5.000000000000000000e+00,5.000000000000000000e+00,5.000000000000000000e+00,5.000000000000000000e+00,5.000000000000000000e+00,5.000000000000000000e+00,5.000000000000000000e+00,5.000000000000000000e+00,5.000000000000000000e+00,5.000000000000000000e+00,5.000000000000000000e+00,5.000000000000000000e+00,5.000000000000000000e+00,5.000000000000000000e+00,5.000000000000000000e+00,5.000000000000000000e+00,5.000000000000000000e+00,5.000000000000000000e+00,5.000000000000000000e+00,5.000000000000000000e+00,5.000000000000000000e+00,5.000000000000000000e+00,5.000000000000000000e+00,5.000000000000000000e+00,4.850548744201660156e+00,4.660558700561523438e+00,4.484890937805175781e+00,4.321985244750976562e+00,1.554682612419128418e+00,1.514340996742248535e+00,1.505998134613037109e+00,1.502682685852050781e+00,1.532100677490234375e+00,1.606286883354187012e+00,1.574381947517395020e+00,1.555741786956787109e+00,1.549371719360351562e+00,1.556266427040100098e+00,3.088111162185668945e+00,3.009991645812988281e+00,2.935726881027221680e+00,2.865038633346557617e+00,2.797674179077148438e+00,2.733404874801635742e+00,2.672022342681884766e+00,2.613336086273193359e+00,2.557172060012817383e+00,2.503371477127075195e+00,2.451787948608398438e+00,2.402287483215332031e+00,2.354746341705322266e+00,2.309050083160400391e+00,2.265093803405761719e+00,2.222779750823974609e+00,2.182017803192138672e+00,2.142723560333251953e+00,2.104819774627685547e+00,2.068233728408813477e+00,2.032897710800170898e+00,1.998748779296875000e+00,1.965728402137756348e+00,1.933781266212463379e+00,1.902855753898620605e+00,1.872903943061828613e+00,1.843880295753479004e+00
5.000000000000000000e+00,5.000000000000000000e+00,5.000000000000000000e+00,5.000000000000000000e+00,5.000000000000000000e+00,5.000000000000000000e+00,5.000000000000000000e+00,5.000000000000000000e+00,5.000000000000000000e+00,5.000000000000000000e+00,5.000000000000000000e+00,5.000000000000000000e+00,5.000000000000000000e+00,5.000000000000000000e+00,5.000000000000000000e+00,5.000000000000000000e+00,5.000000000000000000e+00,5.000000000000000000e+00,5.000000000000000000e+00,5.000000000000000000e+00,5.000000000000000000e+00,5.000000000000000000e+00,5.000000000000000000e+00,5.000000000000000000e+00,5.000000000000000000e+00,5.000000000000000000e+00,5.000000000000000000e+00,5.000000000000000000e+00,5.000000000000000000e+00,5.000000000000000000e+00,5.000000000000000000e+00,5.000000000000000000e+00,5.000000000000000000e+00,5.000000000000000000e+00,5.000000000000000000e+00,5.000000000000000000e+00,5.000000000000000000e+00,5.000000000000000000e+00,5.000000000000000000e+00,4.850688457489013672e+00,4.660687446594238281e+00,4.485010623931884766e+00,4.322095870971679688e+00,1.562896966934204102e+00,1.514210820198059082e+00,1.502999186515808105e+00,1.499768733978271484e+00,1.526267886161804199e+00,1.612673521041870117e+00,1.572140812873840332e+00,1.553789734840393066e+00,1.540901303291320801e+00,1.547844409942626953e+00,3.088167905807495117e+00,3.010045289993286133e+00,2.935777902603149414e+00,2.865087270736694336e+00,2.797720670700073242e+00,2.733449220657348633e+00,2.672064542770385742e+00,2.613376617431640625e+00,2.557210922241210938e+00,2.503408670425415039e+00,2.451823711395263672e+00,2.402321815490722656e+00,2.354779243469238281e+00,2.309081554412841797e+00,2.265124082565307617e+00,2.222809076309204102e+00,2.182045936584472656e+00,2.142750978469848633e+00,2.104846000671386719e+00,2.068259000778198242e+00,2.032922267913818359e+00,1.998772621154785156e+00,1.965751409530639648e+00,1.933803319931030273e+00,1.902877211570739746e+00,1.872924566268920898e+00,1.843900442123413086e+00
5.000000000000000000e+00,5.000000000000000000e+00,5.000000000000000000e+00,5.000000000000000000e+00,5.000000000000000000e+00,5.000000000000000000e+00,5.000000000000000000e+00,5.000000000000000000e+00,5.000000000000000000e+00,5.000000000000000000e+00,5.000000000000000000e+00,5.000000000000000000e+00,5.000000000000000000e+00,5.000000000000000000e+00,5.000000000000000000e+00,5.000000000000000000e+00,5.000000000000000000e+00,5.000000000000000000e+00,5.000000000000000000e+00,5.000000000000000000e+00,5.000000000000000000e+00,5.000000000000000000e+00,5.000000000000000000e+00,5.000000000000000000e+00,5.000000000000000000e+00,5.000000000000000000e+00,5.000000000000000000e+00,5.000000000000000000e+00,5.000000000000000000e+00,5.000000000000000000e+00,5.000000000000000000e+00,5.000000000000000000e+00,5.000000000000000000e+00,5.000000000000000000e+00,5.000000000000000000e+00,5.000000000000000000e+00,5.000000000000000000e+00,5.000000000000000000e+00,5.000000000000000000e+00,4.850828170776367188e+00,4.660816669464111328e+00,4.485129833221435547e+00,4.322206497192382812e+00,1.573417663574218750e+00,1.520327687263488770e+00,1.501944065093994141e+00,1.496866345405578613e+00,1.520479321479797363e+00,1.631442666053771973e+00,1.569523334503173828e+00,1.551374673843383789e+00,1.535026907920837402e+00,1.543174982070922852e+00,1.550117850303649902e+00,3.010099172592163086e+00,2.935829401016235352e+00,2.865135908126831055e+00,2.797766923904418945e+00,2.733493566513061523e+00,2.672107219696044922e+00,2.613417148590087891e+00,2.557249784469604492e+00,2.503445863723754883e+00,2.451859474182128906e+00,2.402355909347534180e+00,2.354812145233154297e+00,2.309113264083862305e+00,2.265154838562011719e+00,2.222838401794433594e+00,2.182074069976806641e+00,2.142778158187866211e+00,2.104872465133666992e+00,2.068284273147583008e+00,2.032946825027465820e+00,1.998796224594116211e+00,1.965774416923522949e+00,1.933825612068176270e+00,1.902898788452148438e+00,1.872945547103881836e+00,1.843920707702636719e+00
5.000000000000000000e+00,5.000000000000000000e+00,5.000000000000000000e+00,5.000000000000000000e+00,5.000000000000000000e+00,5.000000000000000000e+00,5.000000000000000000e+00,5.000000000000000000e+00,5.000000000000000000e+00,5.000000000000000000e+00,5.000000000000000000e+00,5.000000000000000000e+00,5.000000000000000000e+00,5.000000000000000000e+00,5.000000000000000000e+00,5.000000000000000000e+00,5.000000000000000000e+00,5.000000000000000000e+00,5.000000000000000000e+00,5.000000000000000000e+00,5.000000000000000000e+00,5.000000000000000000e+00,5.000000000000000000e+00,5.000000000000000000e+00,5.000000000000000000e+00,5.000000000000000000e+00,5.000000000000000000e+00,5.000000000000000000e+00,5.000000000000000000e+00,5.000000000000000000e+00,5.000000000000000000e+00,5.000000000000000000e+00,5.000000000000000000e+00,5.000000000000000000e+00,5.000000000000000000e+00,5.000000000000000000e+00,5.000000000000000000e+00,5.000000000000000000e+00,5.000000000000000000e+00,4.850967884063720703e+00,4.660945415496826172e+00,4.485249519348144531e+00,4.322317600250244141e+00,1.580385923385620117e+00,1.526672959327697754e+00,1.502197384834289551e+00,1.496034741401672363e+00,1.516518235206604004e+00,3.548827648162841797e+00,1.569910764694213867e+00,1.552718043327331543e+00,1.536218047142028809e+00,1.542631506919860840e+00,1.550119519233703613e+00,3.010153055191040039e+00,2.935880422592163086e+00,2.865184545516967773e+00,2.797813415527343750e+00,2.733538150787353516e+00,2.672149419784545898e+00,2.613457679748535156e+00,2.557288408279418945e+00,2.503483057022094727e+00,2.451894998550415039e+00,2.402390241622924805e+00,2.354845046997070312e+00,2.309144973754882812e+00,2.265185117721557617e+00,2.222867727279663086e+00,2.182102441787719727e+00,2.142805576324462891e+00,2.104898691177368164e+00,2.068309783935546875e+00,2.032971382141113281e+00,1.998820066452026367e+00,1.965797185897827148e+00,1.933847665786743164e+00,1.902920126914978027e+00,1.872966408729553223e+00,1.843940973281860352e+00
5.000000000000000000e+00,5.000000000000000000e+00,5.000000000000000000e+00,5.000000000000000000e+00,5.000000000000000000e+00,5.000000000000000000e+00,5.000000000000000000e+00,5.000000000000000000e+00,5.000000000000000000e+00,5.000000000000000000e+00,5.000000000000000000e+00,5.000000000000000000e+00,5.000000000000000000e+00,5.000000000000000000e+00,5.000000000000000000e+00,5.000000000000000000e+00,5.000000000000000000e+00,5.000000000000000000e+00,5.000000000000000000e+00,5.000000000000000000e+00,5.000000000000000000e+00,5.000000000000000000e+00,5.000000000000000000e+00,5.000000000000000000e+00,5.000000000000000000e+00,5.000000000000000000e+00,5.000000000000000000e+00,5.000000000000000000e+00,5.000000000000000000e+00,5.000000000000000000e+00,5.000000000000000000e+00,5.000000000000000000e+00,5.000000000000000000e+00,5.000000000000000000e+00,5.000000000000000000e+00,5.000000000000000000e+00,5.000000000000000000e+00,5.000000000000000000e+00,5.000000000000000000e+00,4.851107597351074219e+00,4.661074638366699219e+00,4.485368728637695312e+00,4.322428703308105469e+00,1.583808183670043945e+00,1.533800244331359863e+00,1.506140589714050293e+00,1.503649711608886719e+00,1.523047804832458496e+00,3.548902511596679688e+00,1.575681447982788086e+00,1.557285189628601074e+00,1.546060919761657715e+00,1.551443696022033691e+00,3.088337898254394531e+00,3.010206937789916992e+00,2.935931444168090820e+00,2.865233421325683594e+00,2.797860145568847656e+00,2.733582496643066406e+00,2.672191858291625977e+00,2.613497972488403320e+00,2.557327508926391602e+00,2.503520250320434570e+00,2.451930761337280273e+00,2.402424335479736328e+00,2.354877948760986328e+00,2.309176683425903320e+00,2.265215635299682617e+00,2.222897052764892578e+00,2.182130813598632812e+00,2.142832756042480469e+00,2.104924917221069336e+00,2.068335056304931641e+00,2.032995939254760742e+00,1.998843789100646973e+00,1.965820312500000000e+00,1.933869957923889160e+00,1.902941703796386719e+00,1.872987151145935059e+00,1.843961000442504883e+00
5.000000000000000000e+00,5.000000000000000000e+00,5.000000000000000000e+00,5.000000000000000000e+00,5.000000000000000000e+00,5.000000000000000000e+00,5.000000000000000000e+00,5.000000000000000000e+00,5.000000000000000000e+00,5.000000000000000000e+00,5.000000000000000000e+00,5.000000000000000000e+00,5.000000000000000000e+00,5.000000000000000000e+00,5.000000000000000000e+00,5.000000000000000000e+00,5.000000000000000000e+00,5.000000000000000000e+00,5.000000000000000000e+00,5.000000000000000000e+00,5.000000000000000000e+00,5.000000000000000000e+00,5.000000000000000000e+00,5.000000000000000000e+00,5.000000000000000000e+00,5.000000000000000000e+00,5.000000000000000000e+00,5.000000000000000000e+00,5.000000000000000000e+00,5.000000000000000000e+00,5.000000000000000000e+00,5.000000000000000000e+00,5.000000000000000000e+00,5.000000000000000000e+00,5.000000000000000000e+00,5.000000000000000000e+00,5.000000000000000000e+00,5.000000000000000000e+00,5.000000000000000000e+00,4.851247310638427734e+00,4.661203384399414062e+00,4.485488414764404297e+00,1.621950387954711914e+00,1.574221372604370117e+00,1.536109447479248047e+00,1.514185190200805664e+00,1.515358805656433105e+00,1.534734964370727539e+00,1.622345805168151855e+00,1.583775043487548828e+00,1.562618970870971680e+00,1.558352470397949219e+00,1.563821315765380859e+00,3.088394403457641602e+00,3.010260581970214844e+00,2.935982704162597656e+00,2.865282058715820312e+00,2.797906637191772461e+00,2.733626842498779297e+00,2.672234296798706055e+00,2.613538503646850586e+00,2.557366132736206055e+00,2.503557443618774414e+00,2.451966524124145508e+00,2.402458667755126953e+00,2.354910850524902344e+00,2.309208393096923828e+00,2.265246152877807617e+00,2.222926378250122070e+00,2.182158946990966797e+00,2.142859935760498047e+00,2.104951381683349609e+00,2.068360567092895508e+00,2.033020496368408203e+00,1.998867392539978027e+00,1.965843081474304199e+00,1.933892011642456055e+00,1.902963280677795410e+00,1.873008012771606445e+00,1.843981266021728516e+00
5.000000000000000000e+00,5.000000000000000000e+00,5.000000000000000000e+00,5.000000000000000000e+00,5.000000000000000000e+00,5.000000000000000000e+00,5.000000000000000000e+00,5.000000000000000000e+00,5.000000000000000000e+00,5.000000000000000000e+00,5.000000000000000000e+00,5.000000000000000000e+00,5.000000000000000000e+00,5.000000000000000000e+00,5.000000000000000000e+00,5.000000000000000000e+00,5.000000000000000000e+00,5.000000000000000000e+00,5.000000000000000000e+00,5.000000000000000000e+00,5.000000000000000000e+00,5.000000000000000000e+00,5.000000000000000000e+00,5.000000000000000000e+00,5.000000000000000000e+00,5.000000000000000000e+00,5.000000000000000000e+00,5.000000000000000000e+00,5.000000000000000000e+00,5.000000000000000000e+00,5.000000000000000000e+00,5.000000000000000000e+00,5.000000000000000000e+00,5.000000000000000000e+00,5.000000000000000000e+00,5.000000000000000000e+00,5.000000000000000000e+00,5.000000000000000000e+00,5.000000000000000000e+00,4.851387023925781250e+00,4.661332607269287109e+00,1.682138323783874512e+00,1.620620489120483398e+00,1.583627700805664062e+00,1.556434035301208496e+00,1.524877905845642090e+00,1.539397120475769043e+00,3.658165216445922852e+00,1.611181735992431641e+00,1.589774608612060547e+00,1.574654936790466309e+00,1.570840835571289062e+00,3.170752048492431641e+00,3.088450908660888672e+00,3.010314226150512695e+00,2.936033725738525391e+00,2.865330934524536133e+00,2.797953128814697266e+00,2.733670949935913086e+00,2.672276496887207031e+00,2.613579273223876953e+00,2.557404994964599609e+00,2.503594636917114258e+00,2.452002048492431641e+00,2.402493000030517578e+00,2.354943752288818359e+00,2.309239864349365234e+00,2.265276432037353516e+00,2.222955703735351562e+00,2.182187318801879883e+00,2.142887115478515625e+00,2.104977607727050781e+00,2.068386077880859375e+00,2.033045053482055664e+00,1.998891234397888184e+00,1.965866088867187500e+00,1.933914303779602051e+00,1.902984619140625000e+00,1.873028755187988281e+00,1.844001293182373047e+00
5.000000000000000000e+00,5.000000000000000000e+00,5.000000000000000000e+00,5.000000000000000000e+00,5.000000000000000000e+00,5.000000000000000000e+00,5.000000000000000000e+00,5.000000000000000000e+00,5.000000000000000000e+00,5.000000000000000000e+00,5.000000000000000000e+00,5.000000000000000000e+00,5.000000000000000000e+00,5.000000000000000000e+00,5.000000000000000000e+00,5.000000000000000000e+00,5.000000000000000000e+00,5.000000000000000000e+00,5.000000000000000000e+00,5.000000000000000000e+00,5.000000000000000000e+00,5.000000000000000000e+00,5.000000000000000000e+00,5.000000000000000000e+00,5.000000000000000000e+00,5.000000000000000000e+00,5.000000000000000000e+00,5.000000000000000000e+00,5.000000000000000000e+00,5.000000000000000000e+00,5.000000000000000000e+00,5.000000000000000000e+00,5.000000000000000000e+00,5.000000000000000000e+00,5.000000000000000000e+00,5.000000000000000000e+00,5.000000000000000000e+00,5.000000000000000000e+00,5.000000000000000000e+00,4.851526737213134766e+00,4.661461353302001953e+00,1.677779912948608398e+00,1.637877345085144043e+00,1.609684109687805176e+00,1.586540460586547852e+00,1.589606404304504395e+00,3.774285078048706055e+00,3.658244848251342773e+00,1.617890834808349609e+00,1.592900395393371582e+00,1.588053941726684570e+00,1.583531022071838379e+00,3.170811653137207031e+00,3.088507413864135742e+00,3.010368108749389648e+00,2.936085224151611328e+00,2.865379571914672852e+00,2.797999382019042969e+00,2.733715295791625977e+00,2.672319173812866211e+00,2.613619804382324219e+00,2.557443857192993164e+00,2.503631830215454102e+00,2.452037811279296875e+00,2.402527332305908203e+00,2.354976654052734375e+00,2.309271574020385742e+00,2.265307188034057617e+00,2.222985029220581055e+00,2.182215452194213867e+00,2.142914295196533203e+00,2.105004072189331055e+00,2.068411350250244141e+00,2.033069372177124023e+00,1.998914837837219238e+00,1.965889096260070801e+00,1.933936595916748047e+00,1.903006196022033691e+00,1.873049616813659668e+00,1.844021558761596680e+00
5.000000000000000000e+00,5.000000000000000000e+00,5.000000000000000000e+00,5.000000000000000000e+00,5.000000000000000000e+00,5.000000000000000000e+00,5.000000000000000000e+00,5.000000000000000000e+00,5.000000000000000000e+00,5.000000000000000000e+00,5.000000000000000000e+00,5.000000000000000000e+00,5.000000000000000000e+00,5.000000000000000000e+00,5.000000000000000000e+00,5.000000000000000000e+00,5.000000000000000000e+00,5.000000000000000000e+00,5.000000000000000000e+00,5.000000000000000000e+00,5.000000000000000000e+00,5.000000000000000000e+00,5.000000000000000000e+00,5.000000000000000000e+00,5.000000000000000000e+00,5.000000000000000000e+00,5.000000000000000000e+00,5.000000000000000000e+00,5.000000000000000000e+00,5.000000000000000000e+00,5.000000000000000000e+00,5.000000000000000000e+00,5.000000000000000000e+00,5.000000000000000000e+00,5.000000000000000000e+00,5.000000000000000000e+00,5.000000000000000000e+00,5.000000000000000000e+00,5.000000000000000000e+00,4.851666450500488281e+00,1.772075414657592773e+00,1.696577310562133789e+00,1.657911896705627441e+00,1.642194867134094238e+00,1.662976622581481934e+00,3.898018598556518555e+00,3.774369478225708008e+00,1.679844260215759277e+00,1.617743730545043945e+00,1.596979260444641113e+00,1.595454454421997070e+00,1.593618869781494141e+00,3.170871257781982422e+00,3.088564157485961914e+00,3.010421752929687500e+00,2.936136245727539062e+00,2.865428209304809570e+00,2.798045873641967773e+00,2.733759641647338867e+00,2.672361373901367188e+00,2.613660335540771484e+00,2.557482719421386719e+00,2.503669023513793945e+00,2.452073574066162109e+00,2.402561664581298828e+00,2.355009555816650391e+00,2.309303283691406250e+00,2.265337467193603516e+00,2.223014354705810547e+00,2.182243824005126953e+00,2.142941713333129883e+00,2.105030298233032227e+00,2.068436622619628906e+00,2.033093929290771484e+00,1.998938560485839844e+00,1.965911984443664551e+00,1.933958649635314941e+00,1.903027653694152832e+00,1.873070359230041504e+00,1.844041824340820312e+00
5.000000000000000000e+00,5.000000000000000000e+00,5.000000000000000000e+00,5.000000000000000000e+00,5.000000000000000000e+00,5.000000000000000000e+00,5.000000000000000000e+00,5.000000000000000000e+00,5.000000000000000000e+00,5.000000000000000000e+00,5.000000000000000000e+00,5.000000000000000000e+00,5.000000000000000000e+00,5.000000000000000000e+00,5.000000000000000000e+00,5.000000000000000000e+00,5.000000000000000000e+00,5.000000000000000000e+00,5.000000000000000000e+00,5.000000000000000000e+00,5.000000000000000000e+00,5.000000000000000000e+00,5.000000000000000000e+00,5.000000000000000000e+00,5.000000000000000000e+00,5.000000000000000000e+00,5.000000000000000000e+00,5.000000000000000000e+00,5.000000000000000000e+00,5.000000000000000000e+00,5.000000000000000000e+00,5.000000000000000000e+00,5.000000000000000000e+00,5.000000000000000000e+00,5.000000000000000000e+00,5.000000000000000000e+00,5.000000000000000000e+00,5.000000000000000000e+00,5.000000000000000000e+00,4.851804256439208984e+00,1.759835004806518555e+00,1.716584324836730957e+00,1.683748602867126465e+00,1.672481060028076172e+00,4.030139446258544922e+00,3.898108720779418945e+00,3.774454355239868164e+00,1.673784494400024414e+00,1.616568326950073242e+00,1.598809599876403809e+00,1.597843766212463379e+00,1.603884696960449219e+00,3.170930862426757812e+00,3.088620662689208984e+00,3.010475873947143555e+00,2.936187505722045898e+00,2.865477085113525391e+00,2.798092365264892578e+00,2.733804225921630859e+00,2.672403812408447266e+00,2.613700866699218750e+00,2.557521343231201172e+00,2.503706455230712891e+00,2.452109336853027344e+00,2.402595758438110352e+00,2.355042457580566406e+00,2.309334993362426758e+00,2.265367984771728516e+00,2.223043680191040039e+00,2.182271957397460938e+00,2.142968893051147461e+00,2.105056524276733398e+00,2.068462133407592773e+00,2.033118486404418945e+00,1.998962402343750000e+00,1.965934991836547852e+00,1.933980941772460938e+00,1.903049230575561523e+00,1.873091220855712891e+00,1.844061970710754395e+00
5.000000000000000000e+00,5.000000000000000000e+00,5.000000000000000000e+00,5.000000000000000000e+00,5.000000000000000000e+00,5.000000000000000000e+00,5.000000000000000000e+00,5.000000000000000000e+00,5.000000000000000000e+00,5.000000000000000000e+00,5.000000000000000000e+00,5.000000000000000000e+00,5.000000000000000000e+00,5.000000000000000000e+00,5.000000000000000000e+00,5.000000000000000000e+00,5.000000000000000000e+00,5.000000000000000000e+00,5.000000000000000000e+00,5.000000000000000000e+00,5.000000000000000000e+00,5.000000000000000000e+00,5.000000000000000000e+00,5.000000000000000000e+00,5.000000000000000000e+00,5.000000000000000000e+00,5.000000000000000000e+00,5.000000000000000000e+00,5.000000000000000000e+00,5.000000000000000000e+00,5.000000000000000000e+00,5.000000000000000000e+00,5.000000000000000000e+00,5.000000000000000000e+00,5.000000000000000000e+00,5.000000000000000000e+00,5.000000000000000000e+00,5.000000000000000000e+00,5.000000000000000000e+00,4.851942539215087891e+00,1.783325433731079102e+00,1.737172126770019531e+00,1.711236834526062012e+00,1.755273580551147461e+00,4.030236244201660156e+00,3.898199319839477539e+00,3.774538993835449219e+00,1.667768239974975586e+00,1.615790247917175293e+00,1.600644350051879883e+00,1.600240230560302734e+00,1.615396976470947266e+00,3.170990467071533203e+00,3.088677406311035156e+00,3.010529518127441406e+00,2.936238527297973633e+00,2.865525722503662109e+00,2.798139095306396484e+00,2.733848571777343750e+00,2.672446250915527344e+00,2.613741397857666016e+00,2.557560443878173828e+00,2.503743410110473633e+00,2.452144861221313477e+00,2.402630090713500977e+00,2.355075597763061523e+00,2.309366703033447266e+00,2.265398502349853516e+00,2.223073005676269531e+00,2.182300329208374023e+00,2.142996311187744141e+00,2.105082750320434570e+00,2.068487405776977539e+00,2.033143043518066406e+00,1.998986005783081055e+00,1.965957760810852051e+00,1.934002995491027832e+00,1.903070807456970215e+00,1.873112201690673828e+00,1.844082236289978027e+00
5.000000000000000000e+00,5.000000000000000000e+00,5.000000000000000000e+00,5.000000000000000000e+00,5.000000000000000000e+00,5.000000000000000000e+00,5.000000000000000000e+00,5.000000000000000000e+00,5.000000000000000000e+00,5.000000000000000000e+00,5.000000000000000000e+00,5.000000000000000000e+00,5.000000000000000000e+00,5.000000000000000000e+00,5.000000000000000000e+00,5.000000000000000000e+00,5.000000000000000000e+00,5.000000000000000000e+00,5.000000000000000000e+00,5.000000000000000000e+00,5.000000000000000000e+00,5.000000000000000000e+00,5.000000000000000000e+00,5.000000000000000000e+00,5.000000000000000000e+00,5.000000000000000000e+00,5.000000000000000000e+00,5.000000000000000000e+00,5.000000000000000000e+00,5.000000000000000000e+00,5.000000000000000000e+00,5.000000000000000000e+00,5.000000000000000000e+00,5.000000000000000000e+00,5.000000000000000000e+00,5.000000000000000000e+00,5.000000000000000000e+00,5.000000000000000000e+00,5.000000000000000000e+00,1.860175490379333496e+00,1.808027029037475586e+00,1.773775100708007812e+00,1.772331118583679199e+00,4.171634674072265625e+00,4.030332565307617188e+00,3.898289442062377930e+00,3.774623394012451172e+00,1.661795139312744141e+00,1.615545511245727539e+00,1.602483153343200684e+00,1.602421998977661133e+00,3.257874250411987305e+00,3.171050310134887695e+00,3.088734149932861328e+00,3.010583400726318359e+00,2.936289787292480469e+00,2.865574598312377930e+00,2.798185348510742188e+00,2.733892917633056641e+00,2.672488451004028320e+00,2.613782167434692383e+00,2.557599067687988281e+00,2.503780603408813477e+00,2.452180624008178711e+00,2.402664422988891602e+00,2.355108499526977539e+00,2.309398174285888672e+00,2.265428781509399414e+00,2.223102569580078125e+00,2.182328701019287109e+00,2.143023490905761719e+00,2.105109214782714844e+00,2.068512916564941406e+00,2.033167600631713867e+00,1.999009847640991211e+00,1.965980887413024902e+00,1.934025287628173828e+00,1.903092145919799805e+00,1.873132824897766113e+00,1.844102263450622559e+00
5.000000000000000000e+00,5.000000000000000000e+00,5.000000000000000000e+00,5.000000000000000000e+00,5.000000000000000000e+00,5.000000000000000000e+00,5.000000000000000000e+00,5.000000000000000000e+00,5.000000000000000000e+00,5.000000000000000000e+00,5.000000000000000000e+00,5.000000000000000000e+00,5.000000000000000000e+00,5.000000000000000000e+00,5.000000000000000000e+00,5.000000000000000000e+00,5.000000000000000000e+00,5.000000000000000000e+00,5.000000000000000000e+00,5.000000000000000000e+00,5.000000000000000000e+00,5.000000000000000000e+00,5.000000000000000000e+00,5.000000000000000000e+00,5.000000000000000000e+00,5.000000000000000000e+00,5.000000000000000000e+00,5.000000000000000000e+00,5.000000000000000000e+00,5.000000000000000000e+00,5.000000000000000000e+00,5.000000000000000000e+00,5.000000000000000000e+00,5.000000000000000000e+00,5.000000000000000000e+00,5.000000000000000000e+00,5.000000000000000000e+00,5.000000000000000000e+00,5.000000000000000000e+00,1.902443528175354004e+00,1.834147214889526367e+00,1.815334677696228027e+00,4.323316097259521484e+00,4.171738147735595703e+00,4.030428886413574219e+00,3.898379564285278320e+00,3.774707794189453125e+00,1.656361818313598633e+00,1.615754723548889160e+00,1.604326248168945312e+00,1.604265093803405762e+00,3.257937192916870117e+00,3.171110153198242188e+00,3.088790655136108398e+00,3.010637044906616211e+00,2.936340808868408203e+00,2.865623474121093750e+00,2.798231840133666992e+00,2.733937263488769531e+00,2.672530889511108398e+00,2.613822698593139648e+00,2.557637929916381836e+00,2.503817796707153320e+00,2.452216148376464844e+00,2.402698755264282227e+00,2.355141401290893555e+00,2.309429883956909180e+00,2.265459299087524414e+00,2.223131656646728516e+00,2.182356834411621094e+00,2.143050670623779297e+00,2.105135440826416016e+00,2.068538427352905273e+00,2.033192157745361328e+00,1.999033451080322266e+00,1.966003656387329102e+00,1.934047579765319824e+00,1.903113722801208496e+00,1.873153805732727051e+00,1.844122529029846191e+00
5.000000000000000000e+00,5.000000000000000000e+00,5.000000000000000000e+00,5.000000000000000000e+00,5.000000000000000000e+00,5.000000000000000000e+00,5.000000000000000000e+00,5.000000000000000000e+00,5.000000000000000000e+00,5.000000000000000000e+00,5.000000000000000000e+00,5.000000000000000000e+00,5.000000000000000000e+00,5.000000000000000000e+00,5.000000000000000000e+00,5.000000000000000000e+00,5.000000000000000000e+00,5.000000000000000000e+00,5.000000000000000000e+00,5.000000000000000000e+00,5.000000000000000000e+00,5.000000000000000000e+00,5.000000000000000000e+00,5.000000000000000000e+00,5.000000000000000000e+00,5.000000000000000000e+00,5.000000000000000000e+00,5.000000000000000000e+00,5.000000000000000000e+00,5.000000000000000000e+00,5.000000000000000000e+00,5.000000000000000000e+00,5.000000000000000000e+00,5.000000000000000000e+00,5.000000000000000000e+00,5.000000000000000000e+00,5.000000000000000000e+00,5.000000000000000000e+00,5.000000000000000000e+00,1.906233072280883789e+00,1.882556676864624023e+00,4.486440658569335938e+00,4.323425292968750000e+00,4.171841621398925781e+00,4.030525207519531250e+00,3.898469686508178711e+00,3.774792432785034180e+00,1.652184128761291504e+00,1.617780327796936035e+00,1.606953024864196777e+00,1.606671094894409180e+00,3.258000373840332031e+00,3.171169757843017578e+00,3.088847160339355469e+00,3.010690927505493164e+00,2.936392307281494141e+00,2.865672111511230469e+00,2.798278331756591797e+00,2.733981609344482422e+00,2.672573566436767578e+00,2.613863229751586914e+00,2.557676792144775391e+00,2.503854990005493164e+00,2.452252149581909180e+00,2.402732849121093750e+00,2.355174303054809570e+00,2.309461593627929688e+00,2.265489816665649414e+00,2.223160982131958008e+00,2.182385206222534180e+00,2.143077850341796875e+00,2.105161905288696289e+00,2.068563699722290039e+00,2.033216714859008789e+00,1.999057173728942871e+00,1.966026663780212402e+00,1.934069633483886719e+00,1.903135061264038086e+00,1.873174548149108887e+00,1.844142794609069824e+00
5.000000000000000000e+00,5.000000000000000000e+00,5.000000000000000000e+00,5.000000000000000000e+00,5.000000000000000000e+00,5.000000000000000000e+00,5.000000000000000000e+00,5.000000000000000000e+00,5.000000000000000000e+00,5.000000000000000000e+00,5.000000000000000000e+00,5.000000000000000000e+00,5.000000000000000000e+00,5.000000000000000000e+00,5.000000000000000000e+00,5.000000000000000000e+00,5.000000000000000000e+00,5.000000000000000000e+00,5.000000000000000000e+00,5.000000000000000000e+00,5.000000000000000000e+00,5.000000000000000000e+00,5.000000000000000000e+00,5.000000000000000000e+00,5.000000000000000000e+00,5.000000000000000000e+00,5.000000000000000000e+00,5.000000000000000000e+00,5.000000000000000000e+00,5.000000000000000000e+00,5.000000000000000000e+00,5.000000000000000000e+00,5.000000000000000000e+00,5.000000000000000000e+00,5.000000000000000000e+00,5.000000000000000000e+00,5.000000000000000000e+00,5.000000000000000000e+00,5.000000000000000000e+00,1.905722022056579590e+00,1.894516706466674805e+00,4.486558437347412109e+00,4.323535442352294922e+00,4.171944618225097656e+00,4.030622005462646484e+00,3.898559808731079102e+00,3.774877309799194336e+00,1.648027420043945312e+00,1.619666576385498047e+00,1.609628677368164062e+00,1.609345793724060059e+00,3.258063316345214844e+00,3.171229362487792969e+00,3.088903903961181641e+00,3.010744810104370117e+00,2.936443328857421875e+00,2.865720748901367188e+00,2.798324823379516602e+00,2.734026193618774414e+00,2.672615766525268555e+00,2.613903760910034180e+00,2.557715654373168945e+00,2.503892421722412109e+00,2.452287673950195312e+00,2.402767181396484375e+00,2.355207204818725586e+00,2.309493303298950195e+00,2.265520095825195312e+00,2.223190307617187500e+00,2.182413339614868164e+00,2.143105268478393555e+00,2.105188131332397461e+00,2.068589210510253906e+00,2.033241271972656250e+00,1.999081015586853027e+00,1.966049671173095703e+00,1.934091925621032715e+00,1.903156638145446777e+00,1.873195409774780273e+00,1.844162821769714355e+00
4.874655246734619141e+00,4.873444557189941406e+00,4.872234821319580078e+00,4.871025562286376953e+00,4.869816780090332031e+00,4.868608951568603516e+00,4.867401599884033203e+00,4.866194248199462891e+00,4.864988327026367188e+00,4.863782405853271484e+00,4.862577438354492188e+00,4.861372947692871094e+00,4.860168933868408203e+00,4.858965873718261719e+00,4.857762813568115234e+00,4.856561183929443359e+00,4.855359554290771484e+00,4.854158878326416016e+00,4.852958679199218750e+00,4.851758480072021484e+00,4.850559711456298828e+00,4.849360942840576172e+00,4.848163127899169922e+00,4.846965789794921875e+00,4.845768928527832031e+00,4.844573020935058594e+00,4.843377113342285156e+00,4.842182159423828125e+00,4.840987682342529297e+00,4.839794158935546875e+00,4.838601112365722656e+00,4.837408065795898438e+00,4.836216449737548828e+00,4.835024356842041016e+00,4.833833694458007812e+00,4.832643508911132812e+00,4.831453800201416016e+00,4.830264568328857422e+00,4.829076290130615234e+00,1.905648350715637207e+00,1.900848507881164551e+00,4.486676692962646484e+00,4.323645114898681641e+00,4.172046184539794922e+00,4.030718326568603516e+00,3.898650407791137695e+00,3.774961948394775391e+00,1.646049499511718750e+00,1.621467113494873047e+00,1.612313270568847656e+00,1.633776307106018066e+00,3.258126258850097656e+00,3.171288967132568359e+00,3.088960647583007812e+00,3.010798692703247070e+00,2.936494588851928711e+00,2.865769386291503906e+00,2.798371553421020508e+00,2.734070539474487305e+00,2.672658205032348633e+00,2.613944053649902344e+00,2.557754516601562500e+00,2.503929615020751953e+00,2.452323436737060547e+00,2.402801275253295898e+00,2.355240106582641602e+00,2.309525012969970703e+00,2.265550613403320312e+00,2.223219633102416992e+00,2.182441711425781250e+00,2.143132448196411133e+00,2.105214357376098633e+00,2.068614482879638672e+00,2.033265829086303711e+00,1.999104619026184082e+00,1.966072559356689453e+00,1.934114098548889160e+00,1.903178334236145020e+00,1.873216271400451660e+00,1.844183206558227539e+00
3.777453422546386719e+00,3.776726961135864258e+00,3.776000022888183594e+00,3.775273561477661133e+00,3.774547338485717773e+00,3.773821830749511719e+00,3.773096323013305664e+00,3.772370815277099609e+00,3.771646261215209961e+00,3.770921468734741211e+00,3.770196914672851562e+00,3.769473075866699219e+00,3.768748998641967773e+00,3.768025398254394531e+00,3.767302036285400391e+00,3.766579151153564453e+00,3.765856266021728516e+00,3.765133857727050781e+00,3.764411926269531250e+00,3.763689756393432617e+00,3.762968063354492188e+00,3.762246608734130859e+00,3.761525869369506836e+00,3.760804891586303711e+00,3.760084390640258789e+00,3.759364366531372070e+00,3.758644342422485352e+00,3.757924318313598633e+00,3.757204771041870117e+00,3.756485939025878906e+00,3.755767107009887695e+00,3.755048274993896484e+00,3.754330158233642578e+00,3.753612041473388672e+00,3.752894163131713867e+00,3.752177000045776367e+00,3.751459598541259766e+00,3.750742435455322266e+00,3.750025749206542969e+00,1.902171373367309570e+00,1.905726313591003418e+00,3.747877359390258789e+00,3.747162103652954102e+00,3.746446609497070312e+00,3.745731592178344727e+00,3.745016574859619141e+00,3.744302511215209961e+00,1.648151874542236328e+00,1.623271584510803223e+00,1.615006804466247559e+00,3.349919557571411133e+00,3.258189201354980469e+00,3.171348571777343750e+00,3.089017391204833984e+00,3.010852336883544922e+00,2.936545610427856445e+00,2.865818262100219727e+00,2.798417806625366211e+00,2.734114885330200195e+00,2.672700643539428711e+00,2.613984584808349609e+00,2.557793378829956055e+00,2.503966808319091797e+00,2.452358961105346680e+00,2.402835607528686523e+00,2.355273008346557617e+00,2.309556484222412109e+00,2.265581130981445312e+00,2.223248958587646484e+00,2.182470083236694336e+00,2.143159866333007812e+00,2.105240583419799805e+00,2.068639755249023438e+00,2.033290386199951172e+00,1.999128460884094238e+00,1.966095566749572754e+00,1.934136390686035156e+00,1.903199672698974609e+00,1.873237013816833496e+00,1.844203233718872070e+00
3.083426952362060547e+00,3.082942485809326172e+00,3.082458257675170898e+00,3.081974506378173828e+00,3.081490516662597656e+00,3.081006526947021484e+00,3.080523252487182617e+00,3.080039739608764648e+00,3.079556226730346680e+00,3.079072952270507812e+00,3.078590154647827148e+00,3.078107357025146484e+00,3.077624559402465820e+00,3.077142238616943359e+00,3.076659679412841797e+00,3.076177358627319336e+00,3.075695276260375977e+00,3.075213432312011719e+00,3.074731588363647461e+00,3.074249982833862305e+00,3.073768615722656250e+00,3.073287248611450195e+00,3.072805881500244141e+00,3.072324991226196289e+00,3.071844100952148438e+00,3.071363210678100586e+00,3.070882558822631836e+00,3.070402383804321289e+00,3.069921970367431641e+00,3.069441795349121094e+00,3.068962097167968750e+00,3.068482160568237305e+00,3.068002462387084961e+00,3.067522764205932617e+00,3.067043542861938477e+00,3.066564321517944336e+00,3.066085100173950195e+00,3.065606355667114258e+00,3.065127611160278320e+00,1.898950934410095215e+00,1.899293541908264160e+00,3.063692092895507812e+00,3.063213825225830078e+00,3.062735795974731445e+00,3.062258005142211914e+00,3.061780214309692383e+00,3.061302661895751953e+00,1.674779772758483887e+00,1.640472769737243652e+00,1.617709398269653320e+00,3.059393644332885742e+00,3.058917045593261719e+00,3.058440208435058594e+00,3.057963609695434570e+00,3.010906219482421875e+00,2.936596870422363281e+00,2.865867137908935547e+00,2.798464298248291016e+00,2.734158992767333984e+00,2.672742843627929688e+00,2.614025354385375977e+00,2.557832241058349609e+00,2.504004001617431641e+00,2.452394723892211914e+00,2.402869939804077148e+00,2.355305910110473633e+00,2.309588193893432617e+00,2.265611410140991211e+00,2.223278522491455078e+00,2.182498216629028320e+00,2.143187046051025391e+00,2.105267047882080078e+00,2.068665266036987305e+00,2.033314943313598633e+00,1.999152064323425293e+00,1.966118335723876953e+00,1.934158682823181152e+00,1.903221249580383301e+00,1.873257994651794434e+00,1.844223499298095703e+00
2.604842424392700195e+00,2.604496955871582031e+00,2.604151248931884766e+00,2.603805780410766602e+00,2.603460311889648438e+00,2.603115081787109375e+00,2.602769851684570312e+00,2.602424621582031250e+00,2.602079629898071289e+00,2.601734638214111328e+00,2.601389884948730469e+00,2.601045131683349609e+00,2.600700378417968750e+00,2.600355863571166992e+00,2.600011348724365234e+00,2.599667072296142578e+00,2.599322557449340820e+00,2.598978281021118164e+00,2.598634243011474609e+00,2.598290205001831055e+00,2.597946166992187500e+00,2.597602367401123047e+00,2.597258567810058594e+00,2.596915006637573242e+00,2.596571207046508789e+00,2.596227884292602539e+00,2.595884561538696289e+00,2.595541238784790039e+00,2.595197916030883789e+00,2.594854831695556641e+00,2.594511747360229492e+00,2.594168663024902344e+00,2.593826055526733398e+00,2.593483209609985352e+00,2.593140602111816406e+00,2.592797994613647461e+00,2.592455625534057617e+00,2.592113018035888672e+00,2.591770648956298828e+00,2.591428518295288086e+00,2.591086387634277344e+00,2.590744256973266602e+00,2.590402603149414062e+00,2.590060472488403320e+00,2.589718818664550781e+00,2.589376926422119141e+00,2.589035511016845703e+00,1.656691312789916992e+00,1.634145140647888184e+00,2.588011264801025391e+00,2.587670087814331055e+00,2.587328910827636719e+00,2.586987733840942383e+00,2.586647033691406250e+00,2.586306095123291016e+00,2.585965156555175781e+00,2.585624694824218750e+00,2.585283994674682617e+00,2.584943532943725586e+00,2.584603071212768555e+00,2.584262847900390625e+00,2.557870864868164062e+00,2.504041194915771484e+00,2.452430486679077148e+00,2.402904272079467773e+00,2.355338811874389648e+00,2.309619903564453125e+00,2.265642166137695312e+00,2.223307847976684570e+00,2.182526588439941406e+00,2.143214225769042969e+00,2.105293273925781250e+00,2.068690776824951172e+00,2.033339500427246094e+00,1.999175906181335449e+00,1.966141462326049805e+00,1.934180736541748047e+00,1.903242588043212891e+00,1.873278617858886719e+00,1.844243764877319336e+00
2.254911184310913086e+00,2.254650115966796875e+00,2.254389047622680664e+00,2.254127979278564453e+00,2.253866910934448242e+00,2.253605842590332031e+00,2.253345251083374023e+00,2.253084421157836914e+00,2.252823591232299805e+00,2.252562999725341797e+00,2.252302408218383789e+00,2.252041816711425781e+00,2.251781225204467773e+00,2.251520872116088867e+00,2.251260280609130859e+00,2.251000165939331055e+00,2.250739812850952148e+00,2.250479698181152344e+00,2.250219583511352539e+00,2.249959468841552734e+00,2.249699354171752930e+00,2.249439477920532227e+00,2.249179601669311523e+00,2.248919725418090820e+00,2.248661041259765625e+00,2.248403310775756836e+00,2.248145580291748047e+00,2.247888326644897461e+00,2.247630834579467773e+00,2.247373342514038086e+00,2.247116088867187500e+00,2.246858835220336914e+00,2.246601581573486328e+00,2.246344327926635742e+00,2.246087551116943359e+00,2.245830297470092773e+00,2.245573282241821289e+00,2.245316505432128906e+00,2.245059728622436523e+00,2.244802713394165039e+00,2.244545936584472656e+00,2.244289398193359375e+00,2.244032859802246094e+00,2.243776321411132812e+00,2.243519783020019531e+00,2.243263244628906250e+00,2.243006944656372070e+00,1.651621699333190918e+00,1.612830638885498047e+00,1.611882209777832031e+00,2.241981983184814453e+00,2.241725921630859375e+00,2.241469860076904297e+00,2.241213798522949219e+00,2.240958213806152344e+00,2.240702152252197266e+00,2.240446329116821289e+00,2.240190505981445312e+00,2.239934921264648438e+00,2.239679336547851562e+00,2.239423751831054688e+00,2.239168405532836914e+00,2.238912820816040039e+00,2.238657474517822266e+00,2.238402128219604492e+00,2.238146781921386719e+00,2.237891674041748047e+00,2.237636327743530273e+00,2.223337173461914062e+00,2.182554721832275391e+00,2.143241643905639648e+00,2.105319738388061523e+00,2.068716049194335938e+00,2.033363819122314453e+00,1.999199628829956055e+00,1.966164469718933105e+00,1.934203028678894043e+00,1.903264164924621582e+00,1.873299598693847656e+00,1.844263792037963867e+00
1.987956285476684570e+00,1.987753272056579590e+00,1.987550258636474609e+00,1.987347245216369629e+00,1.987144589424133301e+00,1.986941814422607422e+00,1.986738920211791992e+00,1.986536145210266113e+00,1.986333489418029785e+00,1.986130714416503906e+00,1.985928297042846680e+00,1.985725760459899902e+00,1.985523104667663574e+00,1.985320687294006348e+00,1.985118150711059570e+00,1.984915733337402344e+00,1.984713315963745117e+00,1.984511256217956543e+00,1.984308838844299316e+00,1.984106540679931641e+00,1.983904242515563965e+00,1.983702063560485840e+00,1.983500003814697266e+00,1.983298063278198242e+00,1.983096003532409668e+00,1.982893943786621094e+00,1.982692003250122070e+00,1.982490062713623047e+00,1.982288122177124023e+00,1.982086181640625000e+00,1.981884598731994629e+00,1.981682896614074707e+00,1.981481075286865234e+00,1.981279373168945312e+00,1.981077671051025391e+00,1.980876088142395020e+00,1.980674743652343750e+00,1.980473160743713379e+00,1.980271697044372559e+00,1.980070233345031738e+00,1.979868769645690918e+00,1.979667425155639648e+00,1.979466080665588379e+00,1.979264974594116211e+00,1.979063749313354492e+00,1.978862524032592773e+00,1.978661417961120605e+00,1.657091856002807617e+00,1.589447379112243652e+00,1.568996310234069824e+00,1.977857351303100586e+00,1.977656364440917969e+00,1.977455377578735352e+00,1.977254509925842285e+00,1.977053642272949219e+00,1.976853013038635254e+00,1.976652264595031738e+00,1.976451516151428223e+00,1.976250886917114258e+00,1.976050257682800293e+00,1.975849628448486328e+00,1.975649118423461914e+00,1.975448727607727051e+00,1.975248336791992188e+00,1.975047826766967773e+00,1.974847435951232910e+00,1.974647045135498047e+00,1.974446773529052734e+00,1.974246740341186523e+00,1.974046468734741211e+00,1.973846316337585449e+00,1.973646163940429688e+00,1.973446011543273926e+00,1.973245978355407715e+00,1.973045825958251953e+00,1.966187238693237305e+00,1.934225082397460938e+00,1.903285622596740723e+00,1.873320460319519043e+00,1.844284057617187500e+00
1.777518987655639648e+00,1.777356624603271484e+00,1.777194380760192871e+00,1.777032136917114258e+00,1.776869893074035645e+00,1.776707649230957031e+00,1.776545643806457520e+00,1.776383519172668457e+00,1.776221394538879395e+00,1.776059389114379883e+00,1.775897264480590820e+00,1.775735259056091309e+00,1.775573492050170898e+00,1.775411486625671387e+00,1.775249600410461426e+00,1.775087714195251465e+00,1.774925827980041504e+00,1.774763941764831543e+00,1.774602293968200684e+00,1.774440526962280273e+00,1.774278759956359863e+00,1.774116992950439453e+00,1.773955345153808594e+00,1.773793697357177734e+00,1.773632049560546875e+00,1.773470640182495117e+00,1.773308992385864258e+00,1.773147463798522949e+00,1.772985935211181641e+00,1.772824406623840332e+00,1.772662997245788574e+00,1.772501707077026367e+00,1.772340297698974609e+00,1.772178888320922852e+00,1.772017598152160645e+00,1.771856188774108887e+00,1.771695017814636230e+00,1.771533727645874023e+00,1.771372675895690918e+00,1.771211504936218262e+00,1.771050333976745605e+00,1.770889163017272949e+00,1.770727992057800293e+00,1.770566940307617188e+00,1.770406007766723633e+00,1.770245075225830078e+00,1.770084023475646973e+00,1.769923090934753418e+00,1.568737030029296875e+00,1.530862212181091309e+00,1.536352992057800293e+00,1.576815128326416016e+00,1.769118785858154297e+00,1.768958091735839844e+00,1.768797278404235840e+00,1.768636584281921387e+00,1.768475890159606934e+00,1.768315315246582031e+00,1.768154740333557129e+00,1.767994046211242676e+00,1.767833471298217773e+00,1.767672896385192871e+00,1.767512440681457520e+00,1.767351865768432617e+00,1.767191648483276367e+00,1.767031192779541016e+00,1.766870737075805664e+00,1.766710400581359863e+00,1.766550064086914062e+00,1.766389727592468262e+00,1.766229629516601562e+00,1.766069412231445312e+00,1.765909075736999512e+00,1.765748858451843262e+00,1.765588760375976562e+00,1.765428662300109863e+00,1.765268683433532715e+00,1.765108585357666016e+00,1.764948487281799316e+00,1.764788508415222168e+00
1.607369065284729004e+00,1.607236385345458984e+00,1.607103705406188965e+00,1.606971025466918945e+00,1.606838345527648926e+00,1.606705665588378906e+00,1.606573104858398438e+00,1.606440663337707520e+00,1.606308102607727051e+00,1.606175541877746582e+00,1.606042981147766113e+00,1.605910420417785645e+00,1.605777978897094727e+00,1.605645537376403809e+00,1.605513215065002441e+00,1.605380773544311523e+00,1.605248332023620605e+00,1.605116009712219238e+00,1.604983568191528320e+00,1.604851245880126953e+00,1.604719161987304688e+00,1.604586839675903320e+00,1.604454517364501953e+00,1.604322314262390137e+00,1.604189991950988770e+00,1.604057788848876953e+00,1.603925704956054688e+00,1.603793621063232422e+00,1.603661537170410156e+00,1.603529334068298340e+00,1.603397250175476074e+00,1.603265166282653809e+00,1.603133082389831543e+00,1.603001236915588379e+00,1.602869272232055664e+00,1.602737188339233398e+00,1.602605223655700684e+00,1.602473378181457520e+00,1.602341413497924805e+00,1.602209687232971191e+00,1.602077722549438477e+00,1.601945877075195312e+00,1.601814031600952148e+00,1.601682186126708984e+00,1.601550459861755371e+00,1.601418614387512207e+00,1.601287126541137695e+00,1.601155400276184082e+00,1.601023674011230469e+00,1.551321387290954590e+00,1.490015268325805664e+00,1.520192384719848633e+00,1.600497126579284668e+00,1.600365519523620605e+00,1.600234031677246094e+00,1.600102424621582031e+00,1.599970817565917969e+00,1.599839329719543457e+00,1.599707841873168945e+00,1.599576592445373535e+00,1.599445104598999023e+00,1.599313616752624512e+00,1.599182248115539551e+00,1.599050879478454590e+00,1.598919510841369629e+00,1.598788380622863770e+00,1.598657011985778809e+00,1.598525643348693848e+00,1.598394393920898438e+00,1.598263144493103027e+00,1.598131895065307617e+00,1.598000764846801758e+00,1.597869634628295898e+00,1.597738504409790039e+00,1.597607374191284180e+00,1.597476243972778320e+00,1.597345113754272461e+00,1.597214102745056152e+00,1.597083091735839844e+00,1.596952080726623535e+00
1.466948032379150391e+00,1.466837525367736816e+00,1.466727018356323242e+00,1.466616511344909668e+00,1.466506004333496094e+00,1.466395497322082520e+00,1.466285109519958496e+00,1.466174602508544922e+00,1.466064214706420898e+00,1.465953826904296875e+00,1.465843439102172852e+00,1.465733051300048828e+00,1.465622663497924805e+00,1.465512394905090332e+00,1.465402007102966309e+00,1.465291857719421387e+00,1.465181469917297363e+00,1.465071201324462891e+00,1.464960932731628418e+00,1.464850664138793945e+00,1.464740395545959473e+00,1.464630246162414551e+00,1.464520096778869629e+00,1.464409947395324707e+00,1.464299798011779785e+00,1.464189648628234863e+00,1.464079499244689941e+00,1.463969349861145020e+00,1.463859319686889648e+00,1.463749289512634277e+00,1.463639140129089355e+00,1.463529109954833984e+00,1.463419079780578613e+00,1.463309049606323242e+00,1.463199019432067871e+00,1.463089227676391602e+00,1.462979197502136230e+00,1.462869286537170410e+00,1.462759256362915039e+00,1.462649345397949219e+00,1.462539434432983398e+00,1.462429761886596680e+00,1.462319850921630859e+00,1.462209939956665039e+00,1.462100148200988770e+00,1.461990356445312500e+00,1.461880564689636230e+00,1.461770892143249512e+00,1.461661100387573242e+00,1.461551308631896973e+00,1.461441516876220703e+00,1.461331844329833984e+00,1.461222171783447266e+00,1.461112380027770996e+00,1.461002826690673828e+00,1.460893273353576660e+00,1.460783600807189941e+00,1.460673928260803223e+00,1.460564374923706055e+00,1.460454702377319336e+00,1.460345268249511719e+00,1.460235714912414551e+00,1.460126161575317383e+00,1.460016608238220215e+00,1.459907174110412598e+00,1.459797620773315430e+00,1.459688186645507812e+00,1.459578871726989746e+00,1.459469318389892578e+00,1.459359884262084961e+00,1.459250569343566895e+00,1.459141135215759277e+00,1.459031701087951660e+00,1.458922505378723145e+00,1.458813190460205078e+00,1.458703756332397461e+00,1.458594441413879395e+00,1.458485245704650879e+00,1.458375930786132812e+00,1.458266615867614746e+00
1.349090456962585449e+00,1.348996877670288086e+00,1.348903417587280273e+00,1.348809957504272461e+00,1.348716616630554199e+00,1.348623156547546387e+00,1.348529696464538574e+00,1.348436236381530762e+00,1.348342895507812500e+00,1.348249435424804688e+00,1.348156213760375977e+00,1.348062753677368164e+00,1.347969412803649902e+00,1.347876071929931641e+00,1.347782731056213379e+00,1.347689390182495117e+00,1.347596168518066406e+00,1.347502946853637695e+00,1.347409605979919434e+00,1.347316384315490723e+00,1.347223162651062012e+00,1.347129940986633301e+00,1.347036719322204590e+00,1.346943616867065430e+00,1.346850395202636719e+00,1.346757173538208008e+00,1.346663951873779297e+00,1.346570849418640137e+00,1.346477627754211426e+00,1.346384525299072266e+00,1.346291542053222656e+00,1.346198320388793945e+00,1.346105217933654785e+00,1.346012115478515625e+00,1.345919132232666016e+00,1.345826029777526855e+00,1.345733046531677246e+00,1.345640063285827637e+00,1.345546960830688477e+00,1.345453977584838867e+00,1.345360994338989258e+00,1.345268011093139648e+00,1.345175027847290039e+00,1.345082163810729980e+00,1.344989180564880371e+00,1.344896316528320312e+00,1.344803333282470703e+00,1.344710469245910645e+00,1.344617486000061035e+00,1.344524741172790527e+00,1.344431877136230469e+00,1.344339013099670410e+00,1.344246149063110352e+00,1.344153285026550293e+00,1.344060540199279785e+00,1.343967795372009277e+00,1.343875050544738770e+00,1.343782186508178711e+00,1.343689441680908203e+00,1.343596696853637695e+00,1.343503952026367188e+00,1.343411207199096680e+00,1.343318581581115723e+00,1.343225836753845215e+00,1.343133211135864258e+00,1.343040466308593750e+00,1.342947840690612793e+00,1.342855215072631836e+00,1.342762589454650879e+00,1.342669963836669922e+00,1.342577338218688965e+00,1.342484831809997559e+00,1.342392206192016602e+00,1.342299580574035645e+00,1.342207074165344238e+00,1.342114567756652832e+00,1.342022061347961426e+00,1.341929554939270020e+00,1.341837048530578613e+00,1.341744542121887207e+00
1.248762369155883789e+00,1.248682260513305664e+00,1.248602151870727539e+00,1.248522043228149414e+00,1.248441934585571289e+00,1.248361945152282715e+00,1.248281955718994141e+00,1.248201847076416016e+00,1.248121857643127441e+00,1.248041749000549316e+00,1.247961759567260742e+00,1.247881770133972168e+00,1.247801899909973145e+00,1.247721791267395020e+00,1.247641921043395996e+00,1.247561931610107422e+00,1.247481942176818848e+00,1.247401952743530273e+00,1.247322082519531250e+00,1.247242212295532227e+00,1.247162222862243652e+00,1.247082352638244629e+00,1.247002482414245605e+00,1.246922612190246582e+00,1.246842741966247559e+00,1.246762871742248535e+00,1.246683001518249512e+00,1.246603250503540039e+00,1.246523380279541016e+00,1.246443510055541992e+00,1.246363759040832520e+00,1.246284008026123047e+00,1.246204257011413574e+00,1.246124386787414551e+00,1.246044635772705078e+00,1.245964884757995605e+00,1.245885133743286133e+00,1.245805382728576660e+00,1.245725750923156738e+00,1.245645999908447266e+00,1.245566248893737793e+00,1.245486617088317871e+00,1.245406866073608398e+00,1.245327234268188477e+00,1.245247602462768555e+00,1.245167970657348633e+00,1.245088219642639160e+00,1.245008587837219238e+00,1.244928956031799316e+00,1.244849324226379395e+00,1.244769811630249023e+00,1.244690299034118652e+00,1.244610667228698730e+00,1.244531035423278809e+00,1.244451522827148438e+00,1.244371891021728516e+00,1.244292378425598145e+00,1.244212985038757324e+00,1.244133353233337402e+00,1.244053840637207031e+00,1.243974328041076660e+00,1.243894815444946289e+00,1.243815422058105469e+00,1.243735909461975098e+00,1.243656516075134277e+00,1.243577003479003906e+00,1.243497610092163086e+00,1.243418097496032715e+00,1.243338704109191895e+00,1.243259310722351074e+00,1.243180036544799805e+00,1.243100523948669434e+00,1.243021249771118164e+00,1.242941856384277344e+00,1.242862462997436523e+00,1.242783069610595703e+00,1.242703795433044434e+00,1.242624521255493164e+00,1.242545127868652344e+00,1.242465853691101074e+00
1.162323594093322754e+00,1.162254214286804199e+00,1.162184834480285645e+00,1.162115454673767090e+00,1.162046074867248535e+00,1.161976695060729980e+00,1.161907315254211426e+00,1.161838054656982422e+00,1.161768674850463867e+00,1.161699295043945312e+00,1.161630034446716309e+00,1.161560654640197754e+00,1.161491394042968750e+00,1.161422014236450195e+00,1.161352872848510742e+00,1.161283493041992188e+00,1.161214232444763184e+00,1.161144971847534180e+00,1.161075711250305176e+00,1.161006450653076172e+00,1.160937309265136719e+00,1.160868048667907715e+00,1.160798788070678711e+00,1.160729527473449707e+00,1.160660386085510254e+00,1.160591125488281250e+00,1.160521864891052246e+00,1.160452842712402344e+00,1.160383582115173340e+00,1.160314440727233887e+00,1.160245299339294434e+00,1.160176157951354980e+00,1.160106897354125977e+00,1.160037875175476074e+00,1.159968733787536621e+00,1.159899592399597168e+00,1.159830451011657715e+00,1.159761428833007812e+00,1.159692287445068359e+00,1.159623265266418457e+00,1.159554123878479004e+00,1.159485101699829102e+00,1.159416079521179199e+00,1.159346938133239746e+00,1.159277915954589844e+00,1.159208893775939941e+00,1.159139871597290039e+00,1.159070849418640137e+00,1.159001827239990234e+00,1.158932805061340332e+00,1.158863782882690430e+00,1.158794760704040527e+00,1.158725857734680176e+00,1.158656954765319824e+00,1.158587932586669922e+00,1.158519029617309570e+00,1.158450007438659668e+00,1.158381104469299316e+00,1.158312201499938965e+00,1.158243298530578613e+00,1.158174395561218262e+00,1.158105492591857910e+00,1.158036589622497559e+00,1.157967686653137207e+00,1.157898783683776855e+00,1.157829999923706055e+00,1.157761096954345703e+00,1.157692313194274902e+00,1.157623410224914551e+00,1.157554507255554199e+00,1.157485723495483398e+00,1.157416939735412598e+00,1.157348155975341797e+00,1.157279372215270996e+00,1.157210469245910645e+00,1.157141685485839844e+00,1.157072901725769043e+00,1.157004117965698242e+00,1.156935453414916992e+00,1.156866669654846191e+00
1.087076544761657715e+00,1.087015867233276367e+00,1.086955189704895020e+00,1.086894512176513672e+00,1.086833834648132324e+00,1.086773157119750977e+00,1.086712479591369629e+00,1.086651802062988281e+00,1.086591124534606934e+00,1.086530566215515137e+00,1.086469888687133789e+00,1.086409211158752441e+00,1.086348652839660645e+00,1.086287975311279297e+00,1.086227416992187500e+00,1.086166858673095703e+00,1.086106181144714355e+00,1.086045622825622559e+00,1.085984945297241211e+00,1.085924386978149414e+00,1.085863828659057617e+00,1.085803270339965820e+00,1.085742712020874023e+00,1.085682153701782227e+00,1.085621595382690430e+00,1.085561037063598633e+00,1.085500597953796387e+00,1.085440039634704590e+00,1.085379600524902344e+00,1.085319042205810547e+00,1.085258483886718750e+00,1.085198044776916504e+00,1.085137486457824707e+00,1.085077047348022461e+00,1.085016489028930664e+00,1.084956049919128418e+00,1.084895610809326172e+00,1.084835171699523926e+00,1.084774732589721680e+00,1.084714174270629883e+00,1.084653735160827637e+00,1.084593415260314941e+00,1.084532976150512695e+00,1.084472537040710449e+00,1.084412097930908203e+00,1.084351658821105957e+00,1.084291338920593262e+00,1.084230899810791016e+00,1.084170579910278320e+00,1.084110140800476074e+00,1.084049820899963379e+00,1.083989381790161133e+00,1.083929061889648438e+00,1.083868741989135742e+00,1.083808422088623047e+00,1.083748102188110352e+00,1.083687663078308105e+00,1.083627343177795410e+00,1.083567023277282715e+00,1.083506703376770020e+00,1.083446502685546875e+00,1.083386182785034180e+00,1.083325862884521484e+00,1.083265542984008789e+00,1.083205342292785645e+00,1.083145022392272949e+00,1.083084702491760254e+00,1.083024501800537109e+00,1.082964301109313965e+00,1.082903981208801270e+00,1.082843780517578125e+00,1.082783579826354980e+00,1.082723259925842285e+00,1.082663178443908691e+00,1.082602858543395996e+00,1.082542657852172852e+00,1.082482457160949707e+00,1.082422256469726562e+00,1.082362055778503418e+00,1.082301855087280273e+00
1.020980000495910645e+00,1.020926475524902344e+00,1.020872950553894043e+00,1.020819306373596191e+00,1.020765900611877441e+00,1.020712375640869141e+00,1.020658850669860840e+00,1.020605325698852539e+00,1.020551800727844238e+00,1.020498275756835938e+00,1.020444869995117188e+00,1.020391345024108887e+00,1.020337820053100586e+00,1.020284295082092285e+00,1.020230889320373535e+00,1.020177364349365234e+00,1.020123958587646484e+00,1.020070552825927734e+00,1.020017027854919434e+00,1.019963622093200684e+00,1.019910216331481934e+00,1.019856691360473633e+00,1.019803285598754883e+00,1.019749879837036133e+00,1.019696474075317383e+00,1.019643068313598633e+00,1.019589662551879883e+00,1.019536256790161133e+00,1.019482851028442383e+00,1.019429445266723633e+00,1.019376158714294434e+00,1.019322752952575684e+00,1.019269347190856934e+00,1.019215941429138184e+00,1.019162654876708984e+00,1.019109249114990234e+00,1.019055962562561035e+00,1.019002556800842285e+00,1.018949270248413086e+00,1.018895864486694336e+00,1.018842577934265137e+00,1.018789172172546387e+00,1.018735885620117188e+00,1.018682599067687988e+00,1.018629312515258789e+00,1.018576025962829590e+00,1.018522739410400391e+00,1.018469452857971191e+00,1.018416166305541992e+00,1.018362879753112793e+00,1.018309593200683594e+00,1.018256306648254395e+00,1.018203139305114746e+00,1.018149852752685547e+00,1.018096566200256348e+00,1.018043398857116699e+00,1.017990112304687500e+00,1.017936825752258301e+00,1.017883658409118652e+00,1.017830371856689453e+00,1.017777204513549805e+00,1.017723917961120605e+00,1.017670869827270508e+00,1.017617583274841309e+00,1.017564415931701660e+00,1.017511248588562012e+00,1.017458081245422363e+00,1.017404794692993164e+00,1.017351746559143066e+00,1.017298579216003418e+00,1.017245411872863770e+00,1.017192244529724121e+00,1.017139077186584473e+00,1.017085909843444824e+00,1.017032742500305176e+00,1.016979694366455078e+00,1.016926527023315430e+00,1.016873359680175781e+00,1.016820311546325684e+00,1.016767144203186035e+00
9.624603390693664551e-01,9.624127745628356934e-01,9.623651504516601562e-01,9.623175859451293945e-01,9.622700214385986328e-01,9.622224569320678711e-01,9.621749520301818848e-01,9.621273875236511230e-01,9.620798826217651367e-01,9.620323181152343750e-01,9.619847536087036133e-01,9.619371891021728516e-01,9.618896842002868652e-01,9.618421196937561035e-01,9.617946147918701172e-01,9.617471098899841309e-01,9.616995453834533691e-01,9.616520404815673828e-01,9.616046547889709473e-01,9.615571498870849609e-01,9.615096449851989746e-01,9.614621400833129883e-01,9.614146351814270020e-01,9.613671898841857910e-01,9.613196849822998047e-01,9.612721800804138184e-01,9.612247347831726074e-01,9.611772298812866211e-01,9.611297845840454102e-01,9.610823392868041992e-01,9.610348939895629883e-01,9.609875082969665527e-01,9.609400629997253418e-01,9.608926773071289062e-01,9.608452320098876953e-01,9.607977867126464844e-01,9.607503414154052734e-01,9.607029557228088379e-01,9.606555104255676270e-01,9.606080651283264160e-01,9.605606794357299805e-01,9.605132937431335449e-01,9.604659080505371094e-01,9.604184627532958984e-01,9.603711962699890137e-01,9.603238105773925781e-01,9.602764248847961426e-01,9.602290987968444824e-01,9.601817131042480469e-01,9.601343274116516113e-01,9.600869417190551758e-01,9.600396156311035156e-01,9.599922299385070801e-01,9.599449038505554199e-01,9.598975777626037598e-01,9.598502516746520996e-01,9.598028659820556641e-01,9.597556591033935547e-01,9.597083330154418945e-01,9.596610069274902344e-01,9.596137404441833496e-01,9.595664143562316895e-01,9.595190882682800293e-01,9.594718217849731445e-01,9.594244956970214844e-01,9.593772292137145996e-01,9.593299031257629395e-01,9.592826366424560547e-01,9.592353701591491699e-01,9.591881036758422852e-01,9.591408967971801758e-01,9.590936303138732910e-01,9.590464234352111816e-01,9.589991569519042969e-01,9.589518904685974121e-01,9.589046239852905273e-01,9.588574171066284180e-01,9.588101506233215332e-01,9.587629437446594238e-01,9.587157368659973145e-01
