5.000000000000000000e+00,5.000000000000000000e+00,5.000000000000000000e+00,5.000000000000000000e+00,5.000000000000000000e+00,5.000000000000000000e+00,5.000000000000000000e+00,5.000000000000000000e+00,5.000000000000000000e+00,5.000000000000000000e+00,5.000000000000000000e+00,5.000000000000000000e+00,5.000000000000000000e+00,5.000000000000000000e+00,5.000000000000000000e+00,5.000000000000000000e+00,5.000000000000000000e+00,5.000000000000000000e+00,5.000000000000000000e+00,5.000000000000000000e+00,5.000000000000000000e+00,5.000000000000000000e+00,5.000000000000000000e+00,5.000000000000000000e+00,3.233514308929443359e+00,3.218158006668090820e+00,3.184269666671752930e+00,3.178672552108764648e+00,3.183294534683227539e+00,3.198171138763427734e+00,3.234393358230590820e+00,3.309776782989501953e+00,3.320517539978027344e+00,5.000000000000000000e+00,5.000000000000000000e+00,5.000000000000000000e+00,5.000000000000000000e+00,5.000000000000000000e+00,5.000000000000000000e+00,4.865650177001953125e+00,4.674388408660888672e+00,4.497595310211181641e+00,4.333687782287597656e+00,4.181306838989257812e+00,4.039277553558349609e+00,3.906580924987792969e+00,3.782325029373168945e+00,3.665729999542236328e+00,3.556107997894287109e+00,3.452852249145507812e+00,3.355423688888549805e+00,3.263342618942260742e+00,3.176180362701416016e+00,3.093552827835083008e+00,3.015115499496459961e+00,2.940557718276977539e+00,2.869597911834716797e+00,2.801982164382934570e+00,2.737479686737060547e+00,2.675879955291748047e+00,2.616991519927978516e+00,2.560639142990112305e+00,2.506662607192993164e+00,2.454914808273315430e+00,2.405259847640991211e+00,2.357574224472045898e+00,2.311742544174194336e+00,2.267658710479736328e+00,2.225224971771240234e+00,2.184350013732910156e+00,2.144949674606323242e+00,2.106945514678955078e+00,2.070264577865600586e+00,2.034839153289794922e+00,2.000605344772338867e+00,1.967504739761352539e+00,1.935481429100036621e+00,1.904483914375305176e+00,1.874463558197021484e+00,1.845374941825866699e+00
5.000000000000000000e+00,5.000000000000000000e+00,5.000000000000000000e+00,5.000000000000000000e+00,5.000000000000000000e+00,5.000000000000000000e+00,5.000000000000000000e+00,5.000000000000000000e+00,5.000000000000000000e+00,5.000000000000000000e+00,5.000000000000000000e+00,5.000000000000000000e+00,5.000000000000000000e+00,5.000000000000000000e+00,5.000000000000000000e+00,5.000000000000000000e+00,5.000000000000000000e+00,5.000000000000000000e+00,5.000000000000000000e+00,5.000000000000000000e+00,5.000000000000000000e+00,5.000000000000000000e+00,5.000000000000000000e+00,5.000000000000000000e+00,3.254310369491577148e+00,3.254827260971069336e+00,3.193973541259765625e+00,3.172219753265380859e+00,3.184749126434326172e+00,3.203523397445678711e+00,3.237621545791625977e+00,3.320645809173583984e+00,3.328240394592285156e+00,5.000000000000000000e+00,5.000000000000000000e+00,5.000000000000000000e+00,5.000000000000000000e+00,5.000000000000000000e+00,5.000000000000000000e+00,4.865787982940673828e+00,4.674516201019287109e+00,4.497713565826416016e+00,4.333797454833984375e+00,4.181408882141113281e+00,4.039372920989990234e+00,3.906669616699218750e+00,3.782408237457275391e+00,3.665808200836181641e+00,3.556181907653808594e+00,3.452921867370605469e+00,3.355489492416381836e+00,3.263404846191406250e+00,3.176239252090454102e+00,3.093608856201171875e+00,3.015168666839599609e+00,2.940608024597167969e+00,2.869646072387695312e+00,2.802028179168701172e+00,2.737523317337036133e+00,2.675921916961669922e+00,2.617031574249267578e+00,2.560677289962768555e+00,2.506699323654174805e+00,2.454949617385864258e+00,2.405293703079223633e+00,2.357606649398803711e+00,2.311773777008056641e+00,2.267688751220703125e+00,2.225253820419311523e+00,2.184377908706665039e+00,2.144976615905761719e+00,2.106971502304077148e+00,2.070289611816406250e+00,2.034863233566284180e+00,2.000628709793090820e+00,1.967527389526367188e+00,1.935503363609313965e+00,1.904504895210266113e+00,1.874483942985534668e+00,1.845394730567932129e+00
5.000000000000000000e+00,5.000000000000000000e+00,5.000000000000000000e+00,5.000000000000000000e+00,5.000000000000000000e+00,5.000000000000000000e+00,5.000000000000000000e+00,5.000000000000000000e+00,5.000000000000000000e+00,5.000000000000000000e+00,5.000000000000000000e+00,5.000000000000000000e+00,5.000000000000000000e+00,5.000000000000000000e+00,5.000000000000000000e+00,5.000000000000000000e+00,5.000000000000000000e+00,5.000000000000000000e+00,5.000000000000000000e+00,5.000000000000000000e+00,5.000000000000000000e+00,5.000000000000000000e+00,5.000000000000000000e+00,5.000000000000000000e+00,3.273482799530029297e+00,3.252594232559204102e+00,3.193185091018676758e+00,3.174919366836547852e+00,3.178422451019287109e+00,3.200282812118530273e+00,3.248906373977661133e+00,3.318643569946289062e+00,3.330932855606079102e+00,5.000000000000000000e+00,5.000000000000000000e+00,5.000000000000000000e+00,5.000000000000000000e+00,5.000000000000000000e+00,5.000000000000000000e+00,4.865926265716552734e+00,4.674643993377685547e+00,4.497831344604492188e+00,4.333906650543212891e+00,4.181510925292968750e+00,4.039468288421630859e+00,3.906758785247802734e+00,3.782491922378540039e+00,3.665886640548706055e+00,3.556255817413330078e+00,3.452991485595703125e+00,3.355555295944213867e+00,3.263467073440551758e+00,3.176298141479492188e+00,3.093664646148681641e+00,3.015221834182739258e+00,2.940658569335937500e+00,2.869693994522094727e+00,2.802073717117309570e+00,2.737566947937011719e+00,2.675963401794433594e+00,2.617071390151977539e+00,2.560715675354003906e+00,2.506735801696777344e+00,2.454984903335571289e+00,2.405327558517456055e+00,2.357639312744140625e+00,2.311805009841918945e+00,2.267718791961669922e+00,2.225282907485961914e+00,2.184405803680419922e+00,2.145003318786621094e+00,2.106997251510620117e+00,2.070314645767211914e+00,2.034887313842773438e+00,2.000652074813842773e+00,1.967549800872802734e+00,1.935525059700012207e+00,1.904526114463806152e+00,1.874504446983337402e+00,1.845414519309997559e+00
5.000000000000000000e+00,5.000000000000000000e+00,5.000000000000000000e+00,5.000000000000000000e+00,5.000000000000000000e+00,5.000000000000000000e+00,5.000000000000000000e+00,5.000000000000000000e+00,5.000000000000000000e+00,5.000000000000000000e+00,5.000000000000000000e+00,5.000000000000000000e+00,5.000000000000000000e+00,5.000000000000000000e+00,5.000000000000000000e+00,5.000000000000000000e+00,5.000000000000000000e+00,5.000000000000000000e+00,5.000000000000000000e+00,5.000000000000000000e+00,5.000000000000000000e+00,5.000000000000000000e+00,5.000000000000000000e+00,5.000000000000000000e+00,3.283663272857666016e+00,3.251517295837402344e+00,3.191919565200805664e+00,3.176469087600708008e+00,3.180190563201904297e+00,3.201751708984375000e+00,3.258318901062011719e+00,3.330724954605102539e+00,3.335757017135620117e+00,5.000000000000000000e+00,5.000000000000000000e+00,5.000000000000000000e+00,5.000000000000000000e+00,5.000000000000000000e+00,5.000000000000000000e+00,4.866064071655273438e+00,4.674771308898925781e+00,4.497949600219726562e+00,4.334016323089599609e+00,4.181612968444824219e+00,4.039563655853271484e+00,3.906847953796386719e+00,3.782575368881225586e+00,3.665965080261230469e+00,3.556329488754272461e+00,3.453061342239379883e+00,3.355621099472045898e+00,3.263529062271118164e+00,3.176357030868530273e+00,3.093720674514770508e+00,3.015274763107299805e+00,2.940708875656127930e+00,2.869741916656494141e+00,2.802119493484497070e+00,2.737610578536987305e+00,2.676005363464355469e+00,2.617111444473266602e+00,2.560753822326660156e+00,2.506772518157958984e+00,2.455020189285278320e+00,2.405361413955688477e+00,2.357671737670898438e+00,2.311836242675781250e+00,2.267748832702636719e+00,2.225311756134033203e+00,2.184433698654174805e+00,2.145030260086059570e+00,2.107023239135742188e+00,2.070339441299438477e+00,2.034911394119262695e+00,2.000675439834594727e+00,1.967572450637817383e+00,1.935546875000000000e+00,1.904547333717346191e+00,1.874524950981140137e+00,1.845434427261352539e+00
5.000000000000000000e+00,5.000000000000000000e+00,5.000000000000000000e+00,5.000000000000000000e+00,5.000000000000000000e+00,5.000000000000000000e+00,5.000000000000000000e+00,5.000000000000000000e+00,5.000000000000000000e+00,5.000000000000000000e+00,5.000000000000000000e+00,5.000000000000000000e+00,5.000000000000000000e+00,5.000000000000000000e+00,5.000000000000000000e+00,5.000000000000000000e+00,5.000000000000000000e+00,5.000000000000000000e+00,5.000000000000000000e+00,5.000000000000000000e+00,5.000000000000000000e+00,5.000000000000000000e+00,5.000000000000000000e+00,5.000000000000000000e+00,5.000000000000000000e+00,3.268580675125122070e+00,3.176304340362548828e+00,3.163582324981689453e+00,3.174324512481689453e+00,3.187731504440307617e+00,3.242255449295043945e+00,3.350086212158203125e+00,3.343656063079833984e+00,5.000000000000000000e+00,5.000000000000000000e+00,5.000000000000000000e+00,5.000000000000000000e+00,5.000000000000000000e+00,5.000000000000000000e+00,4.866202354431152344e+00,4.674898624420166016e+00,4.498067855834960938e+00,4.334125995635986328e+00,4.181714534759521484e+00,4.039658546447753906e+00,3.906937122344970703e+00,3.782659053802490234e+00,3.666043519973754883e+00,3.556403398513793945e+00,3.453130960464477539e+00,3.355686426162719727e+00,3.263591051101684570e+00,3.176415681838989258e+00,3.093776226043701172e+00,3.015327692031860352e+00,2.940759420394897461e+00,2.869790077209472656e+00,2.802165508270263672e+00,2.737654447555541992e+00,2.676047086715698242e+00,2.617151498794555664e+00,2.560792207717895508e+00,2.506809234619140625e+00,2.455055236816406250e+00,2.405395030975341797e+00,2.357704162597656250e+00,2.311867237091064453e+00,2.267778873443603516e+00,2.225340604782104492e+00,2.184461355209350586e+00,2.145056962966918945e+00,2.107048988342285156e+00,2.070364475250244141e+00,2.034935712814331055e+00,2.000698804855346680e+00,1.967594981193542480e+00,1.935568809509277344e+00,1.904568433761596680e+00,1.874545454978942871e+00,1.845454335212707520e+00
5.000000000000000000e+00,5.000000000000000000e+00,5.000000000000000000e+00,5.000000000000000000e+00,5.000000000000000000e+00,5.000000000000000000e+00,5.000000000000000000e+00,5.000000000000000000e+00,5.000000000000000000e+00,5.000000000000000000e+00,5.000000000000000000e+00,5.000000000000000000e+00,5.000000000000000000e+00,5.000000000000000000e+00,5.000000000000000000e+00,5.000000000000000000e+00,5.000000000000000000e+00,5.000000000000000000e+00,5.000000000000000000e+00,5.000000000000000000e+00,5.000000000000000000e+00,5.000000000000000000e+00,5.000000000000000000e+00,5.000000000000000000e+00,5.000000000000000000e+00,3.272599697113037109e+00,3.190205335617065430e+00,3.170942306518554688e+00,3.173004150390625000e+00,3.193783760070800781e+00,3.240520715713500977e+00,3.350328922271728516e+00,3.336393117904663086e+00,5.000000000000000000e+00,5.000000000000000000e+00,5.000000000000000000e+00,5.000000000000000000e+00,5.000000000000000000e+00,5.000000000000000000e+00,4.866340637207031250e+00,4.675026416778564453e+00,4.498185634613037109e+00,4.334235668182373047e+00,4.181817054748535156e+00,4.039753913879394531e+00,3.907026290893554688e+00,3.782742500305175781e+00,3.666121721267700195e+00,3.556477069854736328e+00,3.453200101852416992e+00,3.355752229690551758e+00,3.263653278350830078e+00,3.176474571228027344e+00,3.093832254409790039e+00,3.015380859375000000e+00,2.940809965133666992e+00,2.869838237762451172e+00,2.802211284637451172e+00,2.737698316574096680e+00,2.676088809967041016e+00,2.617191314697265625e+00,2.560830593109130859e+00,2.506845951080322266e+00,2.455090284347534180e+00,2.405428647994995117e+00,2.357736587524414062e+00,2.311898469924926758e+00,2.267808914184570312e+00,2.225369453430175781e+00,2.184489250183105469e+00,2.145083904266357422e+00,2.107074975967407227e+00,2.070389509201049805e+00,2.034959793090820312e+00,2.000722169876098633e+00,1.967617630958557129e+00,1.935590624809265137e+00,1.904589653015136719e+00,1.874565958976745605e+00,1.845474243164062500e+00
5.000000000000000000e+00,5.000000000000000000e+00,5.000000000000000000e+00,5.000000000000000000e+00,5.000000000000000000e+00,5.000000000000000000e+00,5.000000000000000000e+00,5.000000000000000000e+00,5.000000000000000000e+00,5.000000000000000000e+00,5.000000000000000000e+00,5.000000000000000000e+00,5.000000000000000000e+00,5.000000000000000000e+00,5.000000000000000000e+00,5.000000000000000000e+00,5.000000000000000000e+00,5.000000000000000000e+00,5.000000000000000000e+00,5.000000000000000000e+00,5.000000000000000000e+00,5.000000000000000000e+00,5.000000000000000000e+00,5.000000000000000000e+00,3.270403146743774414e+00,3.241968631744384766e+00,3.183753728866577148e+00,3.183046102523803711e+00,3.181901454925537109e+00,3.201455593109130859e+00,3.230083703994750977e+00,5.000000000000000000e+00,3.321964502334594727e+00,5.000000000000000000e+00,5.000000000000000000e+00,5.000000000000000000e+00,5.000000000000000000e+00,5.000000000000000000e+00,5.000000000000000000e+00,4.866478919982910156e+00,4.675153732299804688e+00,4.498303890228271484e+00,4.334345340728759766e+00,4.181918621063232422e+00,4.039848804473876953e+00,3.907114982604980469e+00,3.782825708389282227e+00,3.666200160980224609e+00,3.556550741195678711e+00,3.453269720077514648e+00,3.355818033218383789e+00,3.263715505599975586e+00,3.176533460617065430e+00,3.093888044357299805e+00,3.015434026718139648e+00,2.940860509872436523e+00,2.869886398315429688e+00,2.802257299423217773e+00,2.737741947174072266e+00,2.676130533218383789e+00,2.617231130599975586e+00,2.560868740081787109e+00,2.506882667541503906e+00,2.455125570297241211e+00,2.405462503433227539e+00,2.357769012451171875e+00,2.311929702758789062e+00,2.267838954925537109e+00,2.225398302078247070e+00,2.184517145156860352e+00,2.145110845565795898e+00,2.107100963592529297e+00,2.070414543151855469e+00,2.034984111785888672e+00,2.000745534896850586e+00,1.967640280723571777e+00,1.935612559318542480e+00,1.904610872268676758e+00,1.874586582183837891e+00,1.845494151115417480e+00
5.000000000000000000e+00,5.000000000000000000e+00,5.000000000000000000e+00,5.000000000000000000e+00,5.000000000000000000e+00,5.000000000000000000e+00,5.000000000000000000e+00,5.000000000000000000e+00,5.000000000000000000e+00,5.000000000000000000e+00,5.000000000000000000e+00,5.000000000000000000e+00,5.000000000000000000e+00,5.000000000000000000e+00,5.000000000000000000e+00,5.000000000000000000e+00,5.000000000000000000e+00,5.000000000000000000e+00,5.000000000000000000e+00,5.000000000000000000e+00,5.000000000000000000e+00,5.000000000000000000e+00,5.000000000000000000e+00,5.000000000000000000e+00,3.239673852920532227e+00,3.153607606887817383e+00,3.118790626525878906e+00,3.163834333419799805e+00,3.220716953277587891e+00,3.198403596878051758e+00,3.207861185073852539e+00,5.000000000000000000e+00,3.302183866500854492e+00,5.000000000000000000e+00,5.000000000000000000e+00,5.000000000000000000e+00,5.000000000000000000e+00,5.000000000000000000e+00,5.000000000000000000e+00,4.866617202758789062e+00,4.675281047821044922e+00,4.498421669006347656e+00,4.334455013275146484e+00,4.182021141052246094e+00,4.039944171905517578e+00,3.907204151153564453e+00,3.782909393310546875e+00,3.666278839111328125e+00,3.556624650955200195e+00,3.453339576721191406e+00,3.355883836746215820e+00,3.263777732849121094e+00,3.176592588424682617e+00,3.093944072723388672e+00,3.015487194061279297e+00,2.940911054611206055e+00,2.869934082031250000e+00,2.802302837371826172e+00,2.737785577774047852e+00,2.676172256469726562e+00,2.617271184921264648e+00,2.560906887054443359e+00,2.506919384002685547e+00,2.455160856246948242e+00,2.405496358871459961e+00,2.357801437377929688e+00,2.311960935592651367e+00,2.267868995666503906e+00,2.225427389144897461e+00,2.184545040130615234e+00,2.145137548446655273e+00,2.107126951217651367e+00,2.070439577102661133e+00,2.035008192062377930e+00,2.000768899917602539e+00,1.967662811279296875e+00,1.935634493827819824e+00,1.904632091522216797e+00,1.874607086181640625e+00,1.845514059066772461e+00
5.000000000000000000e+00,5.000000000000000000e+00,5.000000000000000000e+00,5.000000000000000000e+00,5.000000000000000000e+00,5.000000000000000000e+00,5.000000000000000000e+00,5.000000000000000000e+00,5.000000000000000000e+00,5.000000000000000000e+00,5.000000000000000000e+00,5.000000000000000000e+00,5.000000000000000000e+00,5.000000000000000000e+00,5.000000000000000000e+00,5.000000000000000000e+00,5.000000000000000000e+00,5.000000000000000000e+00,5.000000000000000000e+00,5.000000000000000000e+00,5.000000000000000000e+00,5.000000000000000000e+00,5.000000000000000000e+00,5.000000000000000000e+00,3.199227094650268555e+00,3.124613761901855469e+00,3.095896959304809570e+00,3.125935792922973633e+00,3.227558612823486328e+00,3.170098066329956055e+00,3.188346147537231445e+00,5.000000000000000000e+00,5.000000000000000000e+00,5.000000000000000000e+00,5.000000000000000000e+00,5.000000000000000000e+00,5.000000000000000000e+00,5.000000000000000000e+00,5.000000000000000000e+00,4.866755008697509766e+00,4.675408840179443359e+00,4.498539924621582031e+00,4.334564685821533203e+00,4.182123184204101562e+00,4.040039539337158203e+00,3.907293319702148438e+00,3.782992839813232422e+00,3.666357278823852539e+00,3.556698560714721680e+00,3.453409194946289062e+00,3.355949640274047852e+00,3.263839960098266602e+00,3.176651239395141602e+00,3.093999624252319336e+00,3.015539884567260742e+00,2.940961122512817383e+00,2.869982242584228516e+00,2.802348613739013672e+00,2.737829446792602539e+00,2.676214218139648438e+00,2.617311239242553711e+00,2.560945272445678711e+00,2.506955862045288086e+00,2.455195903778076172e+00,2.405530214309692383e+00,2.357833862304687500e+00,2.311992168426513672e+00,2.267899036407470703e+00,2.225455999374389648e+00,2.184572696685791016e+00,2.145164489746093750e+00,2.107152700424194336e+00,2.070464611053466797e+00,2.035032272338867188e+00,2.000792264938354492e+00,1.967685461044311523e+00,1.935656309127807617e+00,1.904653191566467285e+00,1.874627590179443359e+00,1.845533967018127441e+00
5.000000000000000000e+00,5.000000000000000000e+00,5.000000000000000000e+00,5.000000000000000000e+00,5.000000000000000000e+00,5.000000000000000000e+00,5.000000000000000000e+00,5.000000000000000000e+00,5.000000000000000000e+00,5.000000000000000000e+00,5.000000000000000000e+00,5.000000000000000000e+00,5.000000000000000000e+00,5.000000000000000000e+00,5.000000000000000000e+00,5.000000000000000000e+00,5.000000000000000000e+00,5.000000000000000000e+00,5.000000000000000000e+00,5.000000000000000000e+00,5.000000000000000000e+00,5.000000000000000000e+00,5.000000000000000000e+00,5.000000000000000000e+00,3.159070491790771484e+00,3.102683067321777344e+00,3.080025196075439453e+00,3.106635093688964844e+00,3.217452287673950195e+00,3.162686109542846680e+00,3.181879758834838867e+00,5.000000000000000000e+00,3.274475574493408203e+00,5.000000000000000000e+00,5.000000000000000000e+00,5.000000000000000000e+00,5.000000000000000000e+00,5.000000000000000000e+00,5.000000000000000000e+00,4.866893291473388672e+00,4.675536632537841797e+00,4.498657703399658203e+00,4.334674358367919922e+00,4.182225227355957031e+00,4.040134906768798828e+00,3.907382488250732422e+00,3.783076524734497070e+00,3.666435718536376953e+00,3.556772470474243164e+00,3.453478574752807617e+00,3.356014966964721680e+00,3.263901948928833008e+00,3.176710128784179688e+00,3.094055652618408203e+00,3.015593051910400391e+00,2.941011667251586914e+00,2.870030403137207031e+00,2.802394628524780273e+00,2.737873077392578125e+00,2.676255941390991211e+00,2.617351293563842773e+00,2.560983657836914062e+00,2.506992578506469727e+00,2.455231189727783203e+00,2.405563831329345703e+00,2.357866287231445312e+00,2.312023162841796875e+00,2.267928838729858398e+00,2.225485086441040039e+00,2.184600591659545898e+00,2.145191192626953125e+00,2.107178688049316406e+00,2.070489645004272461e+00,2.035056591033935547e+00,2.000815629959106445e+00,1.967708110809326172e+00,1.935678243637084961e+00,1.904674410820007324e+00,1.874648094177246094e+00,1.845553874969482422e+00
5.000000000000000000e+00,5.000000000000000000e+00,5.000000000000000000e+00,5.000000000000000000e+00,5.000000000000000000e+00,5.000000000000000000e+00,5.000000000000000000e+00,5.000000000000000000e+00,5.000000000000000000e+00,5.000000000000000000e+00,5.000000000000000000e+00,5.000000000000000000e+00,5.000000000000000000e+00,5.000000000000000000e+00,5.000000000000000000e+00,5.000000000000000000e+00,5.000000000000000000e+00,5.000000000000000000e+00,5.000000000000000000e+00,5.000000000000000000e+00,5.000000000000000000e+00,5.000000000000000000e+00,5.000000000000000000e+00,5.000000000000000000e+00,3.121874570846557617e+00,3.081719160079956055e+00,3.062832117080688477e+00,3.095815420150756836e+00,3.211928844451904297e+00,3.158272504806518555e+00,3.178197145462036133e+00,5.000000000000000000e+00,5.000000000000000000e+00,3.312777042388916016e+00,5.000000000000000000e+00,5.000000000000000000e+00,5.000000000000000000e+00,5.000000000000000000e+00,5.000000000000000000e+00,4.867031574249267578e+00,4.675663948059082031e+00,4.498775959014892578e+00,4.334784030914306641e+00,4.182327270507812500e+00,4.040230274200439453e+00,3.907471179962158203e+00,3.783159732818603516e+00,3.666513919830322266e+00,3.556846141815185547e+00,3.453548192977905273e+00,3.356080770492553711e+00,3.263964176177978516e+00,3.176769018173217773e+00,3.094111442565917969e+00,3.015646219253540039e+00,2.941062211990356445e+00,2.870078563690185547e+00,2.802440404891967773e+00,2.737916946411132812e+00,2.676297903060913086e+00,2.617391347885131836e+00,2.561021804809570312e+00,2.507029294967651367e+00,2.455266237258911133e+00,2.405597686767578125e+00,2.357898712158203125e+00,2.312054395675659180e+00,2.267958879470825195e+00,2.225513935089111328e+00,2.184628486633300781e+00,2.145218133926391602e+00,2.107204675674438477e+00,2.070514678955078125e+00,2.035080671310424805e+00,2.000838994979858398e+00,1.967730641365051270e+00,1.935700058937072754e+00,1.904695391654968262e+00,1.874668478965759277e+00,1.845573544502258301e+00
5.000000000000000000e+00,5.000000000000000000e+00,5.000000000000000000e+00,5.000000000000000000e+00,5.000000000000000000e+00,5.000000000000000000e+00,5.000000000000000000e+00,5.000000000000000000e+00,5.000000000000000000e+00,5.000000000000000000e+00,5.000000000000000000e+00,5.000000000000000000e+00,5.000000000000000000e+00,5.000000000000000000e+00,5.000000000000000000e+00,5.000000000000000000e+00,5.000000000000000000e+00,5.000000000000000000e+00,5.000000000000000000e+00,5.000000000000000000e+00,5.000000000000000000e+00,5.000000000000000000e+00,5.000000000000000000e+00,5.000000000000000000e+00,5.000000000000000000e+00,3.056795597076416016e+00,3.047002792358398438e+00,3.081543684005737305e+00,3.204736471176147461e+00,3.151459693908691406e+00,3.173677682876586914e+00,5.000000000000000000e+00,5.000000000000000000e+00,3.274367570877075195e+00,5.000000000000000000e+00,5.000000000000000000e+00,5.000000000000000000e+00,5.000000000000000000e+00,5.000000000000000000e+00,4.867169857025146484e+00,4.675791740417480469e+00,4.498894214630126953e+00,4.334893226623535156e+00,4.182429313659667969e+00,4.040325164794921875e+00,3.907560348510742188e+00,3.783243179321289062e+00,3.666592359542846680e+00,3.556920051574707031e+00,3.453617811203002930e+00,3.356146574020385742e+00,3.264026403427124023e+00,3.176827907562255859e+00,3.094167470932006836e+00,3.015699386596679688e+00,2.941112756729125977e+00,2.870126724243164062e+00,2.802486419677734375e+00,2.737960577011108398e+00,2.676339387893676758e+00,2.617431163787841797e+00,2.561059951782226562e+00,2.507066011428833008e+00,2.455301523208618164e+00,2.405631303787231445e+00,2.357931137084960938e+00,2.312085628509521484e+00,2.267988920211791992e+00,2.225542783737182617e+00,2.184656381607055664e+00,2.145245075225830078e+00,2.107230424880981445e+00,2.070539712905883789e+00,2.035104990005493164e+00,2.000862360000610352e+00,1.967753052711486816e+00,1.935721755027770996e+00,1.904716610908508301e+00,1.874688982963562012e+00,1.845593452453613281e+00
5.000000000000000000e+00,5.000000000000000000e+00,5.000000000000000000e+00,5.000000000000000000e+00,5.000000000000000000e+00,5.000000000000000000e+00,5.000000000000000000e+00,5.000000000000000000e+00,5.000000000000000000e+00,5.000000000000000000e+00,5.000000000000000000e+00,5.000000000000000000e+00,5.000000000000000000e+00,5.000000000000000000e+00,5.000000000000000000e+00,5.000000000000000000e+00,5.000000000000000000e+00,5.000000000000000000e+00,5.000000000000000000e+00,5.000000000000000000e+00,5.000000000000000000e+00,5.000000000000000000e+00,5.000000000000000000e+00,5.000000000000000000e+00,5.000000000000000000e+00,3.038396835327148438e+00,3.027834415435791016e+00,3.071321964263916016e+00,3.185855865478515625e+00,3.145478725433349609e+00,3.166716098785400391e+00,5.000000000000000000e+00,5.000000000000000000e+00,5.000000000000000000e+00,5.000000000000000000e+00,5.000000000000000000e+00,5.000000000000000000e+00,5.000000000000000000e+00,5.000000000000000000e+00,4.867307662963867188e+00,4.675919055938720703e+00,4.499011993408203125e+00,4.335002899169921875e+00,4.182531356811523438e+00,4.040420532226562500e+00,3.907649517059326172e+00,3.783326864242553711e+00,3.666671037673950195e+00,3.556993961334228516e+00,3.453687429428100586e+00,3.356212377548217773e+00,3.264088630676269531e+00,3.176887035369873047e+00,3.094223260879516602e+00,3.015752077102661133e+00,2.941163063049316406e+00,2.870174407958984375e+00,2.802531957626342773e+00,2.738004446029663086e+00,2.676381349563598633e+00,2.617471218109130859e+00,2.561098337173461914e+00,2.507102727890014648e+00,2.455336570739746094e+00,2.405665159225463867e+00,2.357963562011718750e+00,2.312116861343383789e+00,2.268018960952758789e+00,2.225571870803833008e+00,2.184684276580810547e+00,2.145271778106689453e+00,2.107256412506103516e+00,2.070564508438110352e+00,2.035128831863403320e+00,2.000885725021362305e+00,1.967775702476501465e+00,1.935743689537048340e+00,1.904737830162048340e+00,1.874709486961364746e+00,1.845613360404968262e+00
5.000000000000000000e+00,5.000000000000000000e+00,5.000000000000000000e+00,5.000000000000000000e+00,5.000000000000000000e+00,5.000000000000000000e+00,5.000000000000000000e+00,5.000000000000000000e+00,5.000000000000000000e+00,5.000000000000000000e+00,5.000000000000000000e+00,5.000000000000000000e+00,5.000000000000000000e+00,5.000000000000000000e+00,5.000000000000000000e+00,5.000000000000000000e+00,5.000000000000000000e+00,5.000000000000000000e+00,5.000000000000000000e+00,5.000000000000000000e+00,5.000000000000000000e+00,5.000000000000000000e+00,5.000000000000000000e+00,5.000000000000000000e+00,5.000000000000000000e+00,3.035368919372558594e+00,3.020800590515136719e+00,3.062319040298461914e+00,3.178476572036743164e+00,3.136570453643798828e+00,3.169261217117309570e+00,5.000000000000000000e+00,5.000000000000000000e+00,5.000000000000000000e+00,5.000000000000000000e+00,5.000000000000000000e+00,5.000000000000000000e+00,5.000000000000000000e+00,5.000000000000000000e+00,4.867446422576904297e+00,4.676046848297119141e+00,4.499130249023437500e+00,4.335113048553466797e+00,4.182633399963378906e+00,4.040515422821044922e+00,3.907738685607910156e+00,3.783410549163818359e+00,3.666749477386474609e+00,3.557067871093750000e+00,3.453757047653198242e+00,3.356278181076049805e+00,3.264150381088256836e+00,3.176945686340332031e+00,3.094279050827026367e+00,3.015805244445800781e+00,2.941213607788085938e+00,2.870222568511962891e+00,2.802577733993530273e+00,2.738048076629638672e+00,2.676423072814941406e+00,2.617511034011840820e+00,2.561136722564697266e+00,2.507139444351196289e+00,2.455371856689453125e+00,2.405699014663696289e+00,2.357996225357055664e+00,2.312148094177246094e+00,2.268049001693725586e+00,2.225600481033325195e+00,2.184711933135986328e+00,2.145298719406127930e+00,2.107282161712646484e+00,2.070589542388916016e+00,2.035153150558471680e+00,2.000909090042114258e+00,1.967798352241516113e+00,1.935765504837036133e+00,1.904759049415588379e+00,1.874729990959167480e+00,1.845633268356323242e+00
5.000000000000000000e+00,5.000000000000000000e+00,5.000000000000000000e+00,5.000000000000000000e+00,5.000000000000000000e+00,5.000000000000000000e+00,5.000000000000000000e+00,5.000000000000000000e+00,5.000000000000000000e+00,5.000000000000000000e+00,5.000000000000000000e+00,5.000000000000000000e+00,5.000000000000000000e+00,5.000000000000000000e+00,5.000000000000000000e+00,5.000000000000000000e+00,5.000000000000000000e+00,5.000000000000000000e+00,5.000000000000000000e+00,5.000000000000000000e+00,5.000000000000000000e+00,5.000000000000000000e+00,5.000000000000000000e+00,5.000000000000000000e+00,5.000000000000000000e+00,5.000000000000000000e+00,3.039401769638061523e+00,3.111105680465698242e+00,3.193110704421997070e+00,3.144852399826049805e+00,5.000000000000000000e+00,5.000000000000000000e+00,5.000000000000000000e+00,5.000000000000000000e+00,5.000000000000000000e+00,5.000000000000000000e+00,5.000000000000000000e+00,5.000000000000000000e+00,5.000000000000000000e+00,4.867584228515625000e+00,4.676174163818359375e+00,4.499248027801513672e+00,4.335222244262695312e+00,4.182735443115234375e+00,4.040610790252685547e+00,3.907827854156494141e+00,3.783494234085083008e+00,3.666827678680419922e+00,3.557141304016113281e+00,3.453826427459716797e+00,3.356343746185302734e+00,3.264212608337402344e+00,3.177004575729370117e+00,3.094334840774536133e+00,3.015858411788940430e+00,2.941264152526855469e+00,2.870270729064941406e+00,2.802623748779296875e+00,2.738091945648193359e+00,2.676465034484863281e+00,2.617551088333129883e+00,2.561174869537353516e+00,2.507176160812377930e+00,2.455406904220581055e+00,2.405732631683349609e+00,2.358028411865234375e+00,2.312179088592529297e+00,2.268079042434692383e+00,2.225629568099975586e+00,2.184739828109741211e+00,2.145325660705566406e+00,2.107308149337768555e+00,2.070614576339721680e+00,2.035177230834960938e+00,2.000932455062866211e+00,1.967820882797241211e+00,1.935787439346313477e+00,1.904780149459838867e+00,1.874750494956970215e+00,1.845653176307678223e+00
5.000000000000000000e+00,5.000000000000000000e+00,5.000000000000000000e+00,5.000000000000000000e+00,5.000000000000000000e+00,5.000000000000000000e+00,5.000000000000000000e+00,5.000000000000000000e+00,5.000000000000000000e+00,5.000000000000000000e+00,5.000000000000000000e+00,5.000000000000000000e+00,5.000000000000000000e+00,5.000000000000000000e+00,5.000000000000000000e+00,5.000000000000000000e+00,5.000000000000000000e+00,5.000000000000000000e+00,5.000000000000000000e+00,5.000000000000000000e+00,5.000000000000000000e+00,5.000000000000000000e+00,5.000000000000000000e+00,5.000000000000000000e+00,5.000000000000000000e+00,5.000000000000000000e+00,3.107255220413208008e+00,3.160644054412841797e+00,3.236823797225952148e+00,3.176415681838989258e+00,3.243788480758666992e+00,5.000000000000000000e+00,5.000000000000000000e+00,5.000000000000000000e+00,5.000000000000000000e+00,5.000000000000000000e+00,5.000000000000000000e+00,5.000000000000000000e+00,5.000000000000000000e+00,4.867722034454345703e+00,4.676301956176757812e+00,4.499366283416748047e+00,4.335332393646240234e+00,4.182837486267089844e+00,4.040706157684326172e+00,3.907916784286499023e+00,3.783577442169189453e+00,3.666906118392944336e+00,3.557215213775634766e+00,3.453896045684814453e+00,3.356409549713134766e+00,3.264274835586547852e+00,3.177063465118408203e+00,3.094390869140625000e+00,3.015911579132080078e+00,2.941314697265625000e+00,2.870318889617919922e+00,2.802669525146484375e+00,2.738135814666748047e+00,2.676506757736206055e+00,2.617590904235839844e+00,2.561213016510009766e+00,2.507212638854980469e+00,2.455442190170288086e+00,2.405766487121582031e+00,2.358060836791992188e+00,2.312210321426391602e+00,2.268109083175659180e+00,2.225658416748046875e+00,2.184767723083496094e+00,2.145352363586425781e+00,2.107334136962890625e+00,2.070639610290527344e+00,2.035201549530029297e+00,2.000955820083618164e+00,1.967843532562255859e+00,1.935809373855590820e+00,1.904801368713378906e+00,1.874771118164062500e+00,1.845672965049743652e+00
5.000000000000000000e+00,5.000000000000000000e+00,5.000000000000000000e+00,5.000000000000000000e+00,5.000000000000000000e+00,5.000000000000000000e+00,5.000000000000000000e+00,5.000000000000000000e+00,5.000000000000000000e+00,5.000000000000000000e+00,5.000000000000000000e+00,5.000000000000000000e+00,5.000000000000000000e+00,5.000000000000000000e+00,5.000000000000000000e+00,5.000000000000000000e+00,5.000000000000000000e+00,5.000000000000000000e+00,5.000000000000000000e+00,5.000000000000000000e+00,5.000000000000000000e+00,5.000000000000000000e+00,5.000000000000000000e+00,5.000000000000000000e+00,5.000000000000000000e+00,5.000000000000000000e+00,3.168503761291503906e+00,3.201861143112182617e+00,3.253594398498535156e+00,3.208707809448242188e+00,3.281285285949707031e+00,5.000000000000000000e+00,5.000000000000000000e+00,5.000000000000000000e+00,5.000000000000000000e+00,5.000000000000000000e+00,5.000000000000000000e+00,5.000000000000000000e+00,5.000000000000000000e+00,4.867860794067382812e+00,4.676428318023681641e+00,4.499484539031982422e+00,4.335441589355468750e+00,4.182939529418945312e+00,4.040801525115966797e+00,3.908005952835083008e+00,3.783660888671875000e+00,3.666984796524047852e+00,3.557289123535156250e+00,3.453965902328491211e+00,3.356475353240966797e+00,3.264337062835693359e+00,3.177122354507446289e+00,3.094446659088134766e+00,3.015964746475219727e+00,2.941365242004394531e+00,2.870366811752319336e+00,2.802715301513671875e+00,2.738179445266723633e+00,2.676548480987548828e+00,2.617630958557128906e+00,2.561251401901245117e+00,2.507249355316162109e+00,2.455477476119995117e+00,2.405800342559814453e+00,2.358093500137329102e+00,2.312241554260253906e+00,2.268139123916625977e+00,2.225687265396118164e+00,2.184795618057250977e+00,2.145379304885864258e+00,2.107360124588012695e+00,2.070664644241333008e+00,2.035225629806518555e+00,2.000979185104370117e+00,1.967866182327270508e+00,1.935831189155578613e+00,1.904822587966918945e+00,1.874791622161865234e+00,1.845692873001098633e+00
5.000000000000000000e+00,5.000000000000000000e+00,5.000000000000000000e+00,5.000000000000000000e+00,5.000000000000000000e+00,5.000000000000000000e+00,5.000000000000000000e+00,5.000000000000000000e+00,5.000000000000000000e+00,5.000000000000000000e+00,5.000000000000000000e+00,5.000000000000000000e+00,5.000000000000000000e+00,5.000000000000000000e+00,5.000000000000000000e+00,5.000000000000000000e+00,5.000000000000000000e+00,5.000000000000000000e+00,5.000000000000000000e+00,5.000000000000000000e+00,5.000000000000000000e+00,5.000000000000000000e+00,5.000000000000000000e+00,5.000000000000000000e+00,5.000000000000000000e+00,5.000000000000000000e+00,3.241314411163330078e+00,3.248412847518920898e+00,3.254679441452026367e+00,3.220650672912597656e+00,5.000000000000000000e+00,5.000000000000000000e+00,5.000000000000000000e+00,5.000000000000000000e+00,5.000000000000000000e+00,5.000000000000000000e+00,5.000000000000000000e+00,5.000000000000000000e+00,5.000000000000000000e+00,4.867999076843261719e+00,4.676556587219238281e+00,4.499602794647216797e+00,4.335551261901855469e+00,4.183041572570800781e+00,4.040896892547607422e+00,3.908095121383666992e+00,3.783744573593139648e+00,3.667063236236572266e+00,3.557363033294677734e+00,3.454035520553588867e+00,3.356541156768798828e+00,3.264399290084838867e+00,3.177181482315063477e+00,3.094502449035644531e+00,3.016017436981201172e+00,2.941415548324584961e+00,2.870414972305297852e+00,2.802761077880859375e+00,2.738223075866699219e+00,2.676590442657470703e+00,2.617671012878417969e+00,2.561289787292480469e+00,2.507286071777343750e+00,2.455512523651123047e+00,2.405833959579467773e+00,2.358125925064086914e+00,2.312272787094116211e+00,2.268169164657592773e+00,2.225716352462768555e+00,2.184823513031005859e+00,2.145406007766723633e+00,2.107385873794555664e+00,2.070689678192138672e+00,2.035249710083007812e+00,2.001002550125122070e+00,1.967888832092285156e+00,1.935853123664855957e+00,1.904843807220458984e+00,1.874812126159667969e+00,1.845712780952453613e+00
5.000000000000000000e+00,5.000000000000000000e+00,5.000000000000000000e+00,5.000000000000000000e+00,5.000000000000000000e+00,5.000000000000000000e+00,5.000000000000000000e+00,5.000000000000000000e+00,5.000000000000000000e+00,5.000000000000000000e+00,5.000000000000000000e+00,5.000000000000000000e+00,5.000000000000000000e+00,5.000000000000000000e+00,5.000000000000000000e+00,5.000000000000000000e+00,5.000000000000000000e+00,5.000000000000000000e+00,5.000000000000000000e+00,5.000000000000000000e+00,5.000000000000000000e+00,5.000000000000000000e+00,5.000000000000000000e+00,5.000000000000000000e+00,5.000000000000000000e+00,5.000000000000000000e+00,5.000000000000000000e+00,3.299267053604125977e+00,3.261470794677734375e+00,3.232682704925537109e+00,5.000000000000000000e+00,5.000000000000000000e+00,5.000000000000000000e+00,5.000000000000000000e+00,5.000000000000000000e+00,5.000000000000000000e+00,5.000000000000000000e+00,5.000000000000000000e+00,5.000000000000000000e+00,4.868137836456298828e+00,4.676684379577636719e+00,4.499720573425292969e+00,4.335660934448242188e+00,4.183143615722656250e+00,4.040992259979248047e+00,3.908184289932250977e+00,3.783828258514404297e+00,3.667141914367675781e+00,3.557436943054199219e+00,3.454104900360107422e+00,3.356606721878051758e+00,3.264461278915405273e+00,3.177240133285522461e+00,3.094558238983154297e+00,3.016070604324340820e+00,2.941466093063354492e+00,2.870462894439697266e+00,2.802807092666625977e+00,2.738266944885253906e+00,2.676632165908813477e+00,2.617711067199707031e+00,2.561327934265136719e+00,2.507322788238525391e+00,2.455547809600830078e+00,2.405867815017700195e+00,2.358158111572265625e+00,2.312304019927978516e+00,2.268198966979980469e+00,2.225745201110839844e+00,2.184851408004760742e+00,2.145432949066162109e+00,2.107411861419677734e+00,2.070714712142944336e+00,2.035274028778076172e+00,2.001025915145874023e+00,1.967911481857299805e+00,1.935874938964843750e+00,1.904864907264709473e+00,1.874832630157470703e+00,1.845732688903808594e+00
5.000000000000000000e+00,5.000000000000000000e+00,5.000000000000000000e+00,5.000000000000000000e+00,5.000000000000000000e+00,5.000000000000000000e+00,5.000000000000000000e+00,5.000000000000000000e+00,5.000000000000000000e+00,5.000000000000000000e+00,5.000000000000000000e+00,5.000000000000000000e+00,5.000000000000000000e+00,5.000000000000000000e+00,5.000000000000000000e+00,5.000000000000000000e+00,5.000000000000000000e+00,5.000000000000000000e+00,5.000000000000000000e+00,5.000000000000000000e+00,5.000000000000000000e+00,5.000000000000000000e+00,5.000000000000000000e+00,5.000000000000000000e+00,5.000000000000000000e+00,5.000000000000000000e+00,5.000000000000000000e+00,3.362519979476928711e+00,3.277328729629516602e+00,3.264590501785278320e+00,5.000000000000000000e+00,5.000000000000000000e+00,5.000000000000000000e+00,5.000000000000000000e+00,5.000000000000000000e+00,5.000000000000000000e+00,5.000000000000000000e+00,5.000000000000000000e+00,5.000000000000000000e+00,4.868276119232177734e+00,4.676812171936035156e+00,4.499838829040527344e+00,4.335770130157470703e+00,4.183246135711669922e+00,4.041087627410888672e+00,3.908273458480834961e+00,3.783911466598510742e+00,3.667219877243041992e+00,3.557510375976562500e+00,3.454174518585205078e+00,3.356672525405883789e+00,3.264523506164550781e+00,3.177299022674560547e+00,3.094614267349243164e+00,3.016123771667480469e+00,2.941516637802124023e+00,2.870511054992675781e+00,2.802852869033813477e+00,2.738310813903808594e+00,2.676674127578735352e+00,2.617751121520996094e+00,2.561366319656372070e+00,2.507359266281127930e+00,2.455582857131958008e+00,2.405901432037353516e+00,2.358190774917602539e+00,2.312335252761840820e+00,2.268229007720947266e+00,2.225774049758911133e+00,2.184879302978515625e+00,2.145459890365600586e+00,2.107437849044799805e+00,2.070739746093750000e+00,2.035298109054565430e+00,2.001049280166625977e+00,1.967934012413024902e+00,1.935896873474121094e+00,1.904886126518249512e+00,1.874853014945983887e+00,1.845752358436584473e+00
5.000000000000000000e+00,5.000000000000000000e+00,5.000000000000000000e+00,5.000000000000000000e+00,5.000000000000000000e+00,5.000000000000000000e+00,5.000000000000000000e+00,5.000000000000000000e+00,5.000000000000000000e+00,5.000000000000000000e+00,5.000000000000000000e+00,5.000000000000000000e+00,5.000000000000000000e+00,5.000000000000000000e+00,5.000000000000000000e+00,5.000000000000000000e+00,5.000000000000000000e+00,5.000000000000000000e+00,5.000000000000000000e+00,5.000000000000000000e+00,5.000000000000000000e+00,5.000000000000000000e+00,5.000000000000000000e+00,5.000000000000000000e+00,5.000000000000000000e+00,5.000000000000000000e+00,5.000000000000000000e+00,3.352149248123168945e+00,3.292720794677734375e+00,3.283501148223876953e+00,5.000000000000000000e+00,5.000000000000000000e+00,5.000000000000000000e+00,5.000000000000000000e+00,5.000000000000000000e+00,5.000000000000000000e+00,5.000000000000000000e+00,5.000000000000000000e+00,5.000000000000000000e+00,4.868414878845214844e+00,4.676940441131591797e+00,4.499957084655761719e+00,4.335880279541015625e+00,4.183347225189208984e+00,4.041182518005371094e+00,3.908362388610839844e+00,3.783995151519775391e+00,3.667298555374145508e+00,3.557584524154663086e+00,3.454244136810302734e+00,3.356738328933715820e+00,3.264585733413696289e+00,3.177357912063598633e+00,3.094670295715332031e+00,3.016176939010620117e+00,2.941567182540893555e+00,2.870559215545654297e+00,2.802898883819580078e+00,2.738354206085205078e+00,2.676715612411499023e+00,2.617790937423706055e+00,2.561404466629028320e+00,2.507395982742309570e+00,2.455618143081665039e+00,2.405935287475585938e+00,2.358223199844360352e+00,2.312366485595703125e+00,2.268259048461914062e+00,2.225802898406982422e+00,2.184906959533691406e+00,2.145486831665039062e+00,2.107463598251342773e+00,2.070764780044555664e+00,2.035322427749633789e+00,2.001072406768798828e+00,1.967956423759460449e+00,1.935918569564819336e+00,1.904907107353210449e+00,1.874873518943786621e+00,1.845772266387939453e+00
4.874208927154541016e+00,4.873011112213134766e+00,4.871813774108886719e+00,4.870616912841796875e+00,4.869421005249023438e+00,4.868225097656250000e+00,4.867030620574951172e+00,4.865835666656494141e+00,4.864642143249511719e+00,4.863449096679687500e+00,4.862256526947021484e+00,4.861064434051513672e+00,4.859872817993164062e+00,4.858682155609130859e+00,4.857491970062255859e+00,4.856302261352539062e+00,4.855113029479980469e+00,4.853924274444580078e+00,4.852736949920654297e+00,4.851549148559570312e+00,4.850362777709960938e+00,4.849176406860351562e+00,4.847990512847900391e+00,4.846805572509765625e+00,4.845621109008789062e+00,4.844437122344970703e+00,4.843253612518310547e+00,3.340394020080566406e+00,3.305641651153564453e+00,3.335781097412109375e+00,4.838526248931884766e+00,4.837346076965332031e+00,4.836165904998779297e+00,4.834987163543701172e+00,4.833807945251464844e+00,4.832630157470703125e+00,4.831452369689941406e+00,4.830275535583496094e+00,4.829099178314208984e+00,4.827923297882080078e+00,4.677068233489990234e+00,4.500075340270996094e+00,4.335989952087402344e+00,4.183449745178222656e+00,4.041277885437011719e+00,3.908451557159423828e+00,3.784078598022460938e+00,3.667376995086669922e+00,3.557658433914184570e+00,3.454313993453979492e+00,3.356804132461547852e+00,3.264648199081420898e+00,3.177417039871215820e+00,3.094726085662841797e+00,3.016230106353759766e+00,2.941617488861083984e+00,2.870607137680053711e+00,2.802944421768188477e+00,2.738398075103759766e+00,2.676757574081420898e+00,2.617830991744995117e+00,2.561442852020263672e+00,2.507432699203491211e+00,2.455653190612792969e+00,2.405969142913818359e+00,2.358255624771118164e+00,2.312397718429565430e+00,2.268289089202880859e+00,2.225831985473632812e+00,2.184934854507446289e+00,2.145513534545898438e+00,2.107489585876464844e+00,2.070789813995361328e+00,2.035346508026123047e+00,2.001096010208129883e+00,1.967979073524475098e+00,1.935940504074096680e+00,1.904928326606750488e+00,1.874894022941589355e+00,1.845792174339294434e+00
3.777211904525756836e+00,3.776492595672607422e+00,3.775773286819458008e+00,3.775054454803466797e+00,3.774335861206054688e+00,3.773617744445800781e+00,3.772899389266967773e+00,3.772181749343872070e+00,3.771464347839355469e+00,3.770747184753417969e+00,3.770030021667480469e+00,3.769313335418701172e+00,3.768597126007080078e+00,3.767881155014038086e+00,3.767164945602416992e+00,3.766449451446533203e+00,3.765734195709228516e+00,3.765019416809082031e+00,3.764304161071777344e+00,3.763589859008789062e+00,3.762875556945800781e+00,3.762161731719970703e+00,3.761447906494140625e+00,3.760734558105468750e+00,3.760021448135375977e+00,3.759308338165283203e+00,3.758595705032348633e+00,3.757883548736572266e+00,3.212935447692871094e+00,3.269751787185668945e+00,3.755748033523559570e+00,3.755036830902099609e+00,3.754326105117797852e+00,3.753614902496337891e+00,3.752904653549194336e+00,3.752194643020629883e+00,3.751484870910644531e+00,3.750774860382080078e+00,3.750065565109252930e+00,3.749356508255004883e+00,3.748647928237915039e+00,3.747938871383666992e+00,3.747230768203735352e+00,3.746522903442382812e+00,3.745814800262451172e+00,3.745107412338256836e+00,3.744400262832641602e+00,3.667455673217773438e+00,3.557732343673706055e+00,3.454383611679077148e+00,3.356869935989379883e+00,3.264709949493408203e+00,3.177475690841674805e+00,3.094781875610351562e+00,3.016283035278320312e+00,2.941668033599853516e+00,2.870655298233032227e+00,2.802990436553955078e+00,2.738441944122314453e+00,2.676799297332763672e+00,2.617871046066284180e+00,2.561481237411499023e+00,2.507469415664672852e+00,2.455688476562500000e+00,2.406002998352050781e+00,2.358288049697875977e+00,2.312428951263427734e+00,2.268319129943847656e+00,2.225860595703125000e+00,2.184962749481201172e+00,2.145540475845336914e+00,2.107515573501586914e+00,2.070814847946166992e+00,2.035370588302612305e+00,2.001119375228881836e+00,1.968001723289489746e+00,1.935962319374084473e+00,1.904949545860290527e+00,1.874914646148681641e+00,1.845812082290649414e+00
3.083283424377441406e+00,3.082803964614868164e+00,3.082324981689453125e+00,3.081845521926879883e+00,3.081366777420043945e+00,3.080888032913208008e+00,3.080409526824951172e+00,3.079930782318115234e+00,3.079452514648437500e+00,3.078974485397338867e+00,3.078496456146240234e+00,3.078018426895141602e+00,3.077540636062622070e+00,3.077063083648681641e+00,3.076585769653320312e+00,3.076108217239379883e+00,3.075631141662597656e+00,3.075154304504394531e+00,3.074677467346191406e+00,3.074200630187988281e+00,3.073724031448364258e+00,3.073247671127319336e+00,3.072771310806274414e+00,3.072295188903808594e+00,3.071819305419921875e+00,3.071343660354614258e+00,3.070867776870727539e+00,3.070392370223999023e+00,3.069916963577270508e+00,3.069441795349121094e+00,3.068966627120971680e+00,3.068491697311401367e+00,3.068017005920410156e+00,3.067542314529418945e+00,3.067067623138427734e+00,3.066593408584594727e+00,3.066119194030761719e+00,3.065645456314086914e+00,3.065171241760253906e+00,3.064697504043579102e+00,3.064224004745483398e+00,3.063750743865966797e+00,3.063277006149291992e+00,3.062803983688354492e+00,3.062330961227416992e+00,3.061857938766479492e+00,3.061385393142700195e+00,3.060912847518920898e+00,3.060440301895141602e+00,3.059967994689941406e+00,3.059495687484741211e+00,3.059023857116699219e+00,3.058552026748657227e+00,3.058080196380615234e+00,3.016336202621459961e+00,2.941718578338623047e+00,2.870703458786010742e+00,2.803036212921142578e+00,2.738485813140869141e+00,2.676841259002685547e+00,2.617911100387573242e+00,2.561519384384155273e+00,2.507506132125854492e+00,2.455723762512207031e+00,2.406036615371704102e+00,2.358320474624633789e+00,2.312459945678710938e+00,2.268349170684814453e+00,2.225889682769775391e+00,2.184990644454956055e+00,2.145567178726196289e+00,2.107541322708129883e+00,2.070839881896972656e+00,2.035394906997680664e+00,2.001142740249633789e+00,1.968024253845214844e+00,1.935984253883361816e+00,1.904970765113830566e+00,1.874935150146484375e+00,1.845831990242004395e+00
2.604752540588378906e+00,2.604410409927368164e+00,2.604068517684936523e+00,2.603726625442504883e+00,2.603384494781494141e+00,2.603042840957641602e+00,2.602701187133789062e+00,2.602359533309936523e+00,2.602017879486083984e+00,2.601676702499389648e+00,2.601335287094116211e+00,2.600994110107421875e+00,2.600652933120727539e+00,2.600311756134033203e+00,2.599971055984497070e+00,2.599630117416381836e+00,2.599289178848266602e+00,2.598948478698730469e+00,2.598608016967773438e+00,2.598267555236816406e+00,2.597926855087280273e+00,2.597586631774902344e+00,2.597246408462524414e+00,2.596906185150146484e+00,2.596566200256347656e+00,2.596226215362548828e+00,2.595886230468750000e+00,2.595546245574951172e+00,2.595206737518310547e+00,2.594867229461669922e+00,2.594527721405029297e+00,2.594187974929809570e+00,2.593848705291748047e+00,2.593509435653686523e+00,2.593170404434204102e+00,2.592831134796142578e+00,2.592492103576660156e+00,2.592153310775756836e+00,2.591814517974853516e+00,2.591475725173950195e+00,2.591136932373046875e+00,2.590798616409301758e+00,2.590460062026977539e+00,2.590121507644653320e+00,2.589783191680908203e+00,2.589445114135742188e+00,2.589106798171997070e+00,2.588768959045410156e+00,2.588431119918823242e+00,2.588093280792236328e+00,2.587755203247070312e+00,2.587417602539062500e+00,2.587080240249633789e+00,2.586742639541625977e+00,2.586405038833618164e+00,2.586067914962768555e+00,2.585730552673339844e+00,2.585393667221069336e+00,2.585056304931640625e+00,2.584719419479370117e+00,2.584382534027099609e+00,2.561557531356811523e+00,2.507542848587036133e+00,2.455758810043334961e+00,2.406070470809936523e+00,2.358352899551391602e+00,2.312491178512573242e+00,2.268379211425781250e+00,2.225918531417846680e+00,2.185018539428710938e+00,2.145594120025634766e+00,2.107567310333251953e+00,2.070864915847778320e+00,2.035418987274169922e+00,2.001166105270385742e+00,1.968046903610229492e+00,1.936006069183349609e+00,1.904991984367370605e+00,1.874955654144287109e+00,1.845851898193359375e+00
2.254849195480346680e+00,2.254590749740600586e+00,2.254332542419433594e+00,2.254074096679687500e+00,2.253815889358520508e+00,2.253557682037353516e+00,2.253299474716186523e+00,2.253041267395019531e+00,2.252783298492431641e+00,2.252525329589843750e+00,2.252267599105834961e+00,2.252009630203247070e+00,2.251751899719238281e+00,2.251494169235229492e+00,2.251236438751220703e+00,2.250978708267211914e+00,2.250721216201782227e+00,2.250463724136352539e+00,2.250206232070922852e+00,2.249948978424072266e+00,2.249691486358642578e+00,2.249434232711791992e+00,2.249176979064941406e+00,2.248921394348144531e+00,2.248666286468505859e+00,2.248411178588867188e+00,2.248156309127807617e+00,2.247901439666748047e+00,2.247646570205688477e+00,2.247391939163208008e+00,2.247137308120727539e+00,2.246882677078247070e+00,2.246628046035766602e+00,2.246373414993286133e+00,2.246119022369384766e+00,2.245864629745483398e+00,2.245610237121582031e+00,2.245355844497680664e+00,2.245101690292358398e+00,2.244847536087036133e+00,2.244593381881713867e+00,2.244339227676391602e+00,2.244085311889648438e+00,2.243831396102905273e+00,2.243577480316162109e+00,2.243323564529418945e+00,2.243069887161254883e+00,2.242815971374511719e+00,2.242562532424926758e+00,2.242308855056762695e+00,2.242055416107177734e+00,2.241801738739013672e+00,2.241548299789428711e+00,2.241295099258422852e+00,2.241041660308837891e+00,2.240788459777832031e+00,2.240535259246826172e+00,2.240282058715820312e+00,2.240029096603393555e+00,2.239775896072387695e+00,2.239522933959960938e+00,2.239270210266113281e+00,2.239017248153686523e+00,2.238764286041259766e+00,2.238511562347412109e+00,2.238259077072143555e+00,2.238006353378295898e+00,2.237753629684448242e+00,2.225947618484497070e+00,2.185046434402465820e+00,2.145621061325073242e+00,2.107593297958374023e+00,2.070889949798583984e+00,2.035443067550659180e+00,2.001189470291137695e+00,1.968069553375244141e+00,1.936028003692626953e+00,1.905013084411621094e+00,1.874976158142089844e+00,1.845871806144714355e+00
1.987911224365234375e+00,1.987710356712341309e+00,1.987509727478027344e+00,1.987308979034423828e+00,1.987108111381530762e+00,1.986907362937927246e+00,1.986706733703613281e+00,1.986506104469299316e+00,1.986305475234985352e+00,1.986104846000671387e+00,1.985904335975646973e+00,1.985703825950622559e+00,1.985503435134887695e+00,1.985303044319152832e+00,1.985102653503417969e+00,1.984902381896972656e+00,1.984701991081237793e+00,1.984501838684082031e+00,1.984301805496215820e+00,1.984101653099060059e+00,1.983901500701904297e+00,1.983701348304748535e+00,1.983501315116882324e+00,1.983301401138305664e+00,1.983101367950439453e+00,1.982901453971862793e+00,1.982701539993286133e+00,1.982501745223999023e+00,1.982301950454711914e+00,1.982102155685424805e+00,1.981902480125427246e+00,1.981702685356140137e+00,1.981503129005432129e+00,1.981303453445434570e+00,1.981104135513305664e+00,1.980904579162597656e+00,1.980705142021179199e+00,1.980505704879760742e+00,1.980306267738342285e+00,1.980106949806213379e+00,1.979907631874084473e+00,1.979708313941955566e+00,1.979509115219116211e+00,1.979309916496276855e+00,1.979110717773437500e+00,1.978911519050598145e+00,1.978712439537048340e+00,1.978513479232788086e+00,1.978314399719238281e+00,1.978115439414978027e+00,1.977916717529296875e+00,1.977717876434326172e+00,1.977519035339355469e+00,1.977320194244384766e+00,1.977121472358703613e+00,1.976922750473022461e+00,1.976724028587341309e+00,1.976525425910949707e+00,1.976326823234558105e+00,1.976128220558166504e+00,1.975929737091064453e+00,1.975731253623962402e+00,1.975532770156860352e+00,1.975334286689758301e+00,1.975135922431945801e+00,1.974937677383422852e+00,1.974739551544189453e+00,1.974541306495666504e+00,1.974343180656433105e+00,1.974144935607910156e+00,1.973946809768676758e+00,1.973748683929443359e+00,1.973550677299499512e+00,1.973352670669555664e+00,1.973154664039611816e+00,1.968092203140258789e+00,1.936049938201904297e+00,1.905034303665161133e+00,1.874996781349182129e+00,1.845891714096069336e+00
1.777485609054565430e+00,1.777325034141540527e+00,1.777164459228515625e+00,1.777003884315490723e+00,1.776843309402465820e+00,1.776682853698730469e+00,1.776522397994995117e+00,1.776361942291259766e+00,1.776201486587524414e+00,1.776041150093078613e+00,1.775880932807922363e+00,1.775720596313476562e+00,1.775560379028320312e+00,1.775400042533874512e+00,1.775239825248718262e+00,1.775079607963562012e+00,1.774919390678405762e+00,1.774759292602539062e+00,1.774599075317382812e+00,1.774438977241516113e+00,1.774278998374938965e+00,1.774118900299072266e+00,1.773958921432495117e+00,1.773798942565917969e+00,1.773638963699340820e+00,1.773478984832763672e+00,1.773319363594055176e+00,1.773159384727478027e+00,1.772999644279479980e+00,1.772839784622192383e+00,1.772680044174194336e+00,1.772520303726196289e+00,1.772360563278198242e+00,1.772200822830200195e+00,1.772041201591491699e+00,1.771881461143493652e+00,1.771721959114074707e+00,1.771562337875366211e+00,1.771402716636657715e+00,1.771243214607238770e+00,1.771083712577819824e+00,1.770924329757690430e+00,1.770765066146850586e+00,1.770605564117431641e+00,1.770446181297302246e+00,1.770286917686462402e+00,1.770127534866333008e+00,1.769968271255493164e+00,1.769809007644653320e+00,1.769649744033813477e+00,1.769490480422973633e+00,1.769331336021423340e+00,1.769172191619873047e+00,1.769013047218322754e+00,1.768854022026062012e+00,1.768694877624511719e+00,1.768535852432250977e+00,1.768376827239990234e+00,1.768218040466308594e+00,1.768059134483337402e+00,1.767900228500366211e+00,1.767741322517395020e+00,1.767582416534423828e+00,1.767423629760742188e+00,1.767264842987060547e+00,1.767106056213378906e+00,1.766947269439697266e+00,1.766788601875305176e+00,1.766629815101623535e+00,1.766471147537231445e+00,1.766312599182128906e+00,1.766153931617736816e+00,1.765995383262634277e+00,1.765836834907531738e+00,1.765678524971008301e+00,1.765519976615905762e+00,1.765361547470092773e+00,1.765203118324279785e+00,1.765044689178466797e+00,1.764886379241943359e+00
1.607343912124633789e+00,1.607212543487548828e+00,1.607081413269042969e+00,1.606950044631958008e+00,1.606818795204162598e+00,1.606687545776367188e+00,1.606556296348571777e+00,1.606425166130065918e+00,1.606293916702270508e+00,1.606162786483764648e+00,1.606031537055969238e+00,1.605900406837463379e+00,1.605769395828247070e+00,1.605638265609741211e+00,1.605507254600524902e+00,1.605376124382019043e+00,1.605245113372802734e+00,1.605114102363586426e+00,1.604983329772949219e+00,1.604852318763732910e+00,1.604721426963806152e+00,1.604590535163879395e+00,1.604459643363952637e+00,1.604328751564025879e+00,1.604197859764099121e+00,1.604067087173461914e+00,1.603936195373535156e+00,1.603805422782897949e+00,1.603674650192260742e+00,1.603543877601623535e+00,1.603413224220275879e+00,1.603282451629638672e+00,1.603151798248291016e+00,1.603021144866943359e+00,1.602890729904174805e+00,1.602760076522827148e+00,1.602629423141479492e+00,1.602498888969421387e+00,1.602368354797363281e+00,1.602237820625305176e+00,1.602107286453247070e+00,1.601976752281188965e+00,1.601846337318420410e+00,1.601715922355651855e+00,1.601585507392883301e+00,1.601455092430114746e+00,1.601324677467346191e+00,1.601194262504577637e+00,1.601063966751098633e+00,1.600933670997619629e+00,1.600803494453430176e+00,1.600673198699951172e+00,1.600543022155761719e+00,1.600412726402282715e+00,1.600282549858093262e+00,1.600152373313903809e+00,1.600022196769714355e+00,1.599892020225524902e+00,1.599761843681335449e+00,1.599631786346435547e+00,1.599501609802246094e+00,1.599371552467346191e+00,1.599241495132446289e+00,1.599111557006835938e+00,1.598981499671936035e+00,1.598851561546325684e+00,1.598721742630004883e+00,1.598591804504394531e+00,1.598461866378784180e+00,1.598332047462463379e+00,1.598202109336853027e+00,1.598072290420532227e+00,1.597942471504211426e+00,1.597812652587890625e+00,1.597682833671569824e+00,1.597553014755249023e+00,1.597423315048217773e+00,1.597293615341186523e+00,1.597163915634155273e+00,1.597034215927124023e+00
1.466928958892822266e+00,1.466819524765014648e+00,1.466710090637207031e+00,1.466600775718688965e+00,1.466491460800170898e+00,1.466382145881652832e+00,1.466272830963134766e+00,1.466163516044616699e+00,1.466054201126098633e+00,1.465944886207580566e+00,1.465835809707641602e+00,1.465726494789123535e+00,1.465617299079895020e+00,1.465508103370666504e+00,1.465398907661437988e+00,1.465289711952209473e+00,1.465180635452270508e+00,1.465071439743041992e+00,1.464962363243103027e+00,1.464853286743164062e+00,1.464744091033935547e+00,1.464635014533996582e+00,1.464526057243347168e+00,1.464416980743408203e+00,1.464307904243469238e+00,1.464198946952819824e+00,1.464090108871459961e+00,1.463981032371520996e+00,1.463872075080871582e+00,1.463763236999511719e+00,1.463654279708862305e+00,1.463545322418212891e+00,1.463436484336853027e+00,1.463327527046203613e+00,1.463218688964843750e+00,1.463109850883483887e+00,1.463001012802124023e+00,1.462892174720764160e+00,1.462783455848693848e+00,1.462674617767333984e+00,1.462565898895263672e+00,1.462457180023193359e+00,1.462348461151123047e+00,1.462239861488342285e+00,1.462131142616271973e+00,1.462022423744201660e+00,1.461913704872131348e+00,1.461805105209350586e+00,1.461696505546569824e+00,1.461587905883789062e+00,1.461479306221008301e+00,1.461370706558227539e+00,1.461262106895446777e+00,1.461153507232666016e+00,1.461045026779174805e+00,1.460936427116394043e+00,1.460827946662902832e+00,1.460719466209411621e+00,1.460611104965209961e+00,1.460502624511718750e+00,1.460394263267517090e+00,1.460285782814025879e+00,1.460177421569824219e+00,1.460068941116333008e+00,1.459960579872131348e+00,1.459852218627929688e+00,1.459743857383728027e+00,1.459635615348815918e+00,1.459527254104614258e+00,1.459419012069702148e+00,1.459310650825500488e+00,1.459202408790588379e+00,1.459094166755676270e+00,1.458985924720764160e+00,1.458877801895141602e+00,1.458769679069519043e+00,1.458661437034606934e+00,1.458553314208984375e+00,1.458445191383361816e+00,1.458336949348449707e+00
1.349075675010681152e+00,1.348983168601989746e+00,1.348890781402587891e+00,1.348798274993896484e+00,1.348705768585205078e+00,1.348613262176513672e+00,1.348520874977111816e+00,1.348428368568420410e+00,1.348335981369018555e+00,1.348243474960327148e+00,1.348151087760925293e+00,1.348058700561523438e+00,1.347966313362121582e+00,1.347873926162719727e+00,1.347781538963317871e+00,1.347689270973205566e+00,1.347596883773803711e+00,1.347504615783691406e+00,1.347412347793579102e+00,1.347320079803466797e+00,1.347227811813354492e+00,1.347135543823242188e+00,1.347043275833129883e+00,1.346951007843017578e+00,1.346858739852905273e+00,1.346766591072082520e+00,1.346674323081970215e+00,1.346582174301147461e+00,1.346490025520324707e+00,1.346397757530212402e+00,1.346305608749389648e+00,1.346213459968566895e+00,1.346121311187744141e+00,1.346029281616210938e+00,1.345937252044677734e+00,1.345845103263854980e+00,1.345753073692321777e+00,1.345660924911499023e+00,1.345568895339965820e+00,1.345476865768432617e+00,1.345384836196899414e+00,1.345292806625366211e+00,1.345200777053833008e+00,1.345108747482299805e+00,1.345016837120056152e+00,1.344924807548522949e+00,1.344832897186279297e+00,1.344740986824035645e+00,1.344648957252502441e+00,1.344557046890258789e+00,1.344465255737304688e+00,1.344373345375061035e+00,1.344281435012817383e+00,1.344189643859863281e+00,1.344097733497619629e+00,1.344005942344665527e+00,1.343914031982421875e+00,1.343822240829467773e+00,1.343730449676513672e+00,1.343638658523559570e+00,1.343546867370605469e+00,1.343455076217651367e+00,1.343363285064697266e+00,1.343271613121032715e+00,1.343179821968078613e+00,1.343088150024414062e+00,1.342996478080749512e+00,1.342904806137084961e+00,1.342813134193420410e+00,1.342721462249755859e+00,1.342629790306091309e+00,1.342538118362426758e+00,1.342446565628051758e+00,1.342354893684387207e+00,1.342263340950012207e+00,1.342171669006347656e+00,1.342080116271972656e+00,1.341988563537597656e+00,1.341897010803222656e+00,1.341805458068847656e+00
1.248751044273376465e+00,1.248671770095825195e+00,1.248592495918273926e+00,1.248513221740722656e+00,1.248433947563171387e+00,1.248354792594909668e+00,1.248275518417358398e+00,1.248196244239807129e+00,1.248117089271545410e+00,1.248037934303283691e+00,1.247958779335021973e+00,1.247879624366760254e+00,1.247800469398498535e+00,1.247721314430236816e+00,1.247642159461975098e+00,1.247563004493713379e+00,1.247483849525451660e+00,1.247404813766479492e+00,1.247325658798217773e+00,1.247246503829956055e+00,1.247167468070983887e+00,1.247088432312011719e+00,1.247009277343750000e+00,1.246930241584777832e+00,1.246851205825805664e+00,1.246772170066833496e+00,1.246693253517150879e+00,1.246614217758178711e+00,1.246535181999206543e+00,1.246456265449523926e+00,1.246377229690551758e+00,1.246298313140869141e+00,1.246219277381896973e+00,1.246140360832214355e+00,1.246061444282531738e+00,1.245982408523559570e+00,1.245903491973876953e+00,1.245824575424194336e+00,1.245745658874511719e+00,1.245666742324829102e+00,1.245587944984436035e+00,1.245509028434753418e+00,1.245430231094360352e+00,1.245351433753967285e+00,1.245272517204284668e+00,1.245193719863891602e+00,1.245114922523498535e+00,1.245036125183105469e+00,1.244957208633422852e+00,1.244878411293029785e+00,1.244799733161926270e+00,1.244720935821533203e+00,1.244642138481140137e+00,1.244563341140747070e+00,1.244484663009643555e+00,1.244405865669250488e+00,1.244327187538146973e+00,1.244248509407043457e+00,1.244169831275939941e+00,1.244091153144836426e+00,1.244012475013732910e+00,1.243933796882629395e+00,1.243855118751525879e+00,1.243776440620422363e+00,1.243697762489318848e+00,1.243619203567504883e+00,1.243540525436401367e+00,1.243461966514587402e+00,1.243383288383483887e+00,1.243304729461669922e+00,1.243226170539855957e+00,1.243147611618041992e+00,1.243068933486938477e+00,1.242990374565124512e+00,1.242911934852600098e+00,1.242833495140075684e+00,1.242754936218261719e+00,1.242676377296447754e+00,1.242597937583923340e+00,1.242519378662109375e+00
1.162314891815185547e+00,1.162246227264404297e+00,1.162177562713623047e+00,1.162108898162841797e+00,1.162040233612060547e+00,1.161971569061279297e+00,1.161902904510498047e+00,1.161834359169006348e+00,1.161765694618225098e+00,1.161697030067443848e+00,1.161628484725952148e+00,1.161559820175170898e+00,1.161491274833679199e+00,1.161422729492187500e+00,1.161354064941406250e+00,1.161285519599914551e+00,1.161216974258422852e+00,1.161148428916931152e+00,1.161080002784729004e+00,1.161011457443237305e+00,1.160942912101745605e+00,1.160874366760253906e+00,1.160805821418762207e+00,1.160737395286560059e+00,1.160668849945068359e+00,1.160600304603576660e+00,1.160531878471374512e+00,1.160463452339172363e+00,1.160394906997680664e+00,1.160326480865478516e+00,1.160258054733276367e+00,1.160189628601074219e+00,1.160121202468872070e+00,1.160052776336669922e+00,1.159984350204467773e+00,1.159915924072265625e+00,1.159847617149353027e+00,1.159779191017150879e+00,1.159710764884948730e+00,1.159642457962036133e+00,1.159574031829833984e+00,1.159505724906921387e+00,1.159437298774719238e+00,1.159368991851806641e+00,1.159300684928894043e+00,1.159232378005981445e+00,1.159163951873779297e+00,1.159095644950866699e+00,1.159027338027954102e+00,1.158959031105041504e+00,1.158890843391418457e+00,1.158822536468505859e+00,1.158754348754882812e+00,1.158686041831970215e+00,1.158617854118347168e+00,1.158549547195434570e+00,1.158481359481811523e+00,1.158413052558898926e+00,1.158344864845275879e+00,1.158276677131652832e+00,1.158208489418029785e+00,1.158140301704406738e+00,1.158072113990783691e+00,1.158003926277160645e+00,1.157935738563537598e+00,1.157867550849914551e+00,1.157799482345581055e+00,1.157731294631958008e+00,1.157663226127624512e+00,1.157595038414001465e+00,1.157526969909667969e+00,1.157458782196044922e+00,1.157390713691711426e+00,1.157322645187377930e+00,1.157254457473754883e+00,1.157186388969421387e+00,1.157118320465087891e+00,1.157050251960754395e+00,1.156982183456420898e+00,1.156914114952087402e+00
1.087069988250732422e+00,1.087009906768798828e+00,1.086949825286865234e+00,1.086889743804931641e+00,1.086829662322998047e+00,1.086769580841064453e+00,1.086709618568420410e+00,1.086649537086486816e+00,1.086589574813842773e+00,1.086529493331909180e+00,1.086469531059265137e+00,1.086409568786621094e+00,1.086349487304687500e+00,1.086289525032043457e+00,1.086229562759399414e+00,1.086169600486755371e+00,1.086109638214111328e+00,1.086049556732177734e+00,1.085989594459533691e+00,1.085929632186889648e+00,1.085869789123535156e+00,1.085809826850891113e+00,1.085749864578247070e+00,1.085689902305603027e+00,1.085629940032958984e+00,1.085570096969604492e+00,1.085510253906250000e+00,1.085450291633605957e+00,1.085390448570251465e+00,1.085330486297607422e+00,1.085270643234252930e+00,1.085210800170898438e+00,1.085150957107543945e+00,1.085090994834899902e+00,1.085031151771545410e+00,1.084971308708190918e+00,1.084911465644836426e+00,1.084851622581481934e+00,1.084791779518127441e+00,1.084731936454772949e+00,1.084672093391418457e+00,1.084612369537353516e+00,1.084552645683288574e+00,1.084492802619934082e+00,1.084432959556579590e+00,1.084373235702514648e+00,1.084313392639160156e+00,1.084253668785095215e+00,1.084193944931030273e+00,1.084134101867675781e+00,1.084074378013610840e+00,1.084014654159545898e+00,1.083954930305480957e+00,1.083895206451416016e+00,1.083835482597351074e+00,1.083775758743286133e+00,1.083716034889221191e+00,1.083656311035156250e+00,1.083596706390380859e+00,1.083536982536315918e+00,1.083477258682250977e+00,1.083417534828186035e+00,1.083357930183410645e+00,1.083298206329345703e+00,1.083238601684570312e+00,1.083178877830505371e+00,1.083119273185729980e+00,1.083059668540954590e+00,1.082999944686889648e+00,1.082940340042114258e+00,1.082880735397338867e+00,1.082821130752563477e+00,1.082761526107788086e+00,1.082701921463012695e+00,1.082642436027526855e+00,1.082582831382751465e+00,1.082523226737976074e+00,1.082463622093200684e+00,1.082404017448425293e+00,1.082344532012939453e+00
1.020974993705749512e+00,1.020921945571899414e+00,1.020869016647338867e+00,1.020816087722778320e+00,1.020763039588928223e+00,1.020710110664367676e+00,1.020657181739807129e+00,1.020604133605957031e+00,1.020551204681396484e+00,1.020498275756835938e+00,1.020445346832275391e+00,1.020392417907714844e+00,1.020339488983154297e+00,1.020286560058593750e+00,1.020233631134033203e+00,1.020180702209472656e+00,1.020127773284912109e+00,1.020074844360351562e+00,1.020022034645080566e+00,1.019969105720520020e+00,1.019916176795959473e+00,1.019863367080688477e+00,1.019810438156127930e+00,1.019757628440856934e+00,1.019704699516296387e+00,1.019651889801025391e+00,1.019598960876464844e+00,1.019546151161193848e+00,1.019493341445922852e+00,1.019440412521362305e+00,1.019387602806091309e+00,1.019334793090820312e+00,1.019281983375549316e+00,1.019229173660278320e+00,1.019176363945007324e+00,1.019123554229736328e+00,1.019070744514465332e+00,1.019018054008483887e+00,1.018965244293212891e+00,1.018912434577941895e+00,1.018859624862670898e+00,1.018806815147399902e+00,1.018754124641418457e+00,1.018701314926147461e+00,1.018648624420166016e+00,1.018595814704895020e+00,1.018543124198913574e+00,1.018490314483642578e+00,1.018437623977661133e+00,1.018384814262390137e+00,1.018332242965698242e+00,1.018279433250427246e+00,1.018226742744445801e+00,1.018174052238464355e+00,1.018121361732482910e+00,1.018068671226501465e+00,1.018015980720520020e+00,1.017963290214538574e+00,1.017910599708557129e+00,1.017857909202575684e+00,1.017805218696594238e+00,1.017752528190612793e+00,1.017699956893920898e+00,1.017647266387939453e+00,1.017594575881958008e+00,1.017542004585266113e+00,1.017489314079284668e+00,1.017436742782592773e+00,1.017384052276611328e+00,1.017331480979919434e+00,1.017278909683227539e+00,1.017226219177246094e+00,1.017173647880554199e+00,1.017121076583862305e+00,1.017068505287170410e+00,1.017015814781188965e+00,1.016963243484497070e+00,1.016910672187805176e+00,1.016858100891113281e+00,1.016805529594421387e+00
9.624567031860351562e-01,9.624095559120178223e-01,9.623625278472900391e-01,9.623153805732727051e-01,9.622683525085449219e-01,9.622212052345275879e-01,9.621741771697998047e-01,9.621270895004272461e-01,9.620800614356994629e-01,9.620329737663269043e-01,9.619859457015991211e-01,9.619389772415161133e-01,9.618918895721435547e-01,9.618449211120605469e-01,9.617978334426879883e-01,9.617508053779602051e-01,9.617037773132324219e-01,9.616568088531494141e-01,9.616097211837768555e-01,9.615627527236938477e-01,9.615157246589660645e-01,9.614687561988830566e-01,9.614217281341552734e-01,9.613747596740722656e-01,9.613277316093444824e-01,9.612807631492614746e-01,9.612338542938232422e-01,9.611868262290954590e-01,9.611399173736572266e-01,9.610928893089294434e-01,9.610459804534912109e-01,9.609990119934082031e-01,9.609521031379699707e-01,9.609050750732421875e-01,9.608582258224487305e-01,9.608111977577209473e-01,9.607643485069274902e-01,9.607173204421997070e-01,9.606704711914062500e-01,9.606235027313232422e-01,9.605766534805297852e-01,9.605296850204467773e-01,9.604828357696533203e-01,9.604359865188598633e-01,9.603890180587768555e-01,9.603421688079833984e-01,9.602952599525451660e-01,9.602484107017517090e-01,9.602015018463134766e-01,9.601546525955200195e-01,9.601077437400817871e-01,9.600609540939331055e-01,9.600139856338500977e-01,9.599671959877014160e-01,9.599202871322631836e-01,9.598734974861145020e-01,9.598265886306762695e-01,9.597798585891723633e-01,9.597330689430236816e-01,9.596861600875854492e-01,9.596394300460815430e-01,9.595925211906433105e-01,9.595457911491394043e-01,9.594988822937011719e-01,9.594521522521972656e-01,9.594053030014038086e-01,9.593585729598999023e-01,9.593117237091064453e-01,9.592649936676025391e-01,9.592181444168090820e-01,9.591714143753051758e-01,9.591245651245117188e-01,9.590778350830078125e-01,9.590310454368591309e-01,9.589843153953552246e-01,9.589376449584960938e-01,9.588908553123474121e-01,9.588441252708435059e-01,9.587973356246948242e-01,9.587506651878356934e-01
9.102827906608581543e-01,9.102405905723571777e-01,9.101985096931457520e-01,9.101564288139343262e-01,9.101142883300781250e-01,9.100722074508666992e-01,9.100300669670104980e-01,9.099879860877990723e-01,9.099458456039428711e-01,9.099038243293762207e-01,9.098616838455200195e-01,9.098196029663085938e-01,9.097775220870971680e-01,9.097354412078857422e-01,9.096933603286743164e-01,9.096513390541076660e-01,9.096091985702514648e-01,9.095671772956848145e-01,9.095251560211181641e-01,9.094830751419067383e-01,9.094410538673400879e-01,9.093989729881286621e-01,9.093569517135620117e-01,9.093148708343505859e-01,9.092729091644287109e-01,9.092308282852172852e-01,9.091888070106506348e-01,9.091467261314392090e-01,9.091047644615173340e-01,9.090626835823059082e-01,9.090207219123840332e-01,9.089787006378173828e-01,9.089367389678955078e-01,9.088946580886840820e-01,9.088527560234069824e-01,9.088107943534851074e-01,9.087687730789184570e-01,9.087268114089965820e-01,9.086847901344299316e-01,9.086428284645080566e-01,9.086008071899414062e-01,9.085589051246643066e-01,9.085168838500976562e-01,9.084749817848205566e-01,9.084329605102539062e-01,9.083910584449768066e-01,9.083490371704101562e-01,9.083071351051330566e-01,9.082651734352111816e-01,9.082232713699340820e-01,9.081813693046569824e-01,9.081394076347351074e-01,9.080975055694580078e-01,9.080555438995361328e-01,9.080137014389038086e-01,9.079717397689819336e-01,9.079298377037048340e-01,9.078878760337829590e-01,9.078460335731506348e-01,9.078040719032287598e-01,9.077622294425964355e-01,9.077202677726745605e-01,9.076784253120422363e-01,9.076365232467651367e-01,9.075946807861328125e-01,9.075527787208557129e-01,9.075109362602233887e-01,9.074690937995910645e-01,9.074271917343139648e-01,9.073853492736816406e-01,9.073434472084045410e-01,9.073016643524169922e-01,9.072597622871398926e-01,9.072179794311523438e-01,9.071760773658752441e-01,9.071342945098876953e-01,9.070923924446105957e-01,9.070506095886230469e-01,9.070087075233459473e-01,9.069669842720031738e-01
8.634745478630065918e-01,8.634366989135742188e-01,8.633987903594970703e-01,8.633608818054199219e-01,8.633229732513427734e-01,8.632851243019104004e-01,8.632472157478332520e-01,8.632093667984008789e-01,8.631713986396789551e-01,8.631335496902465820e-01,8.630957603454589844e-01,8.630578517913818359e-01,8.630200028419494629e-01,8.629820942878723145e-01,8.629443049430847168e-01,8.629063963890075684e-01,8.628685474395751953e-01,8.628306388854980469e-01,8.627928495407104492e-01,8.627549409866333008e-01,8.627171516418457031e-01,8.626793026924133301e-01,8.626415133476257324e-01,8.626036047935485840e-01,8.625658154487609863e-01,8.625279664993286133e-01,8.624901771545410156e-01,8.624523878097534180e-01,8.624145388603210449e-01,8.623767495155334473e-01,8.623389005661010742e-01,8.623011708259582520e-01,8.622633218765258789e-01,8.622255325317382812e-01,8.621877431869506836e-01,8.621499538421630859e-01,8.621121048927307129e-01,8.620743751525878906e-01,8.620365858078002930e-01,8.619987964630126953e-01,8.619610071182250977e-01,8.619232773780822754e-01,8.618855476379394531e-01,8.618477582931518555e-01,8.618100285530090332e-01,8.617722392082214355e-01,8.617345094680786133e-01,8.616967201232910156e-01,8.616589903831481934e-01,8.616212010383605957e-01,8.615835309028625488e-01,8.615457415580749512e-01,8.615080118179321289e-01,8.614702820777893066e-01,8.614325523376464844e-01,8.613948225975036621e-01,8.613570928573608398e-01,8.613193631172180176e-01,8.612816929817199707e-01,8.612440228462219238e-01,8.612062335014343262e-01,8.611685633659362793e-01,8.611308336257934570e-01,8.610931634902954102e-01,8.610554337501525879e-01,8.610178232192993164e-01,8.609800338745117188e-01,8.609424233436584473e-01,8.609046936035156250e-01,8.608670234680175781e-01,8.608293533325195312e-01,8.607916831970214844e-01,8.607540130615234375e-01,8.607163429260253906e-01,8.606787323951721191e-01,8.606410622596740723e-01,8.606033921241760254e-01,8.605657219886779785e-01,8.605281114578247070e-01,8.604904413223266602e-01
8.212448358535766602e-01,8.212106227874755859e-01,8.211763501167297363e-01,8.211420178413391113e-01,8.211078047752380371e-01,8.210734724998474121e-01,8.210392594337463379e-01,8.210049271583557129e-01,8.209707140922546387e-01,8.209363818168640137e-01,8.209021687507629395e-01,8.208678960800170898e-01,8.208336830139160156e-01,8.207993507385253906e-01,8.207651376724243164e-01,8.207308650016784668e-01,8.206966519355773926e-01,8.206623792648315430e-01,8.206281661987304688e-01,8.205939531326293945e-01,8.205596804618835449e-01,8.205255270004272461e-01,8.204912543296813965e-01,8.204570412635803223e-01,8.204227685928344727e-01,8.203886151313781738e-01,8.203543424606323242e-01,8.203201889991760254e-01,8.202859163284301758e-01,8.202517628669738770e-01,8.202174901962280273e-01,8.201833367347717285e-01,8.201491236686706543e-01,8.201149702072143555e-01,8.200808167457580566e-01,8.200465440750122070e-01,8.200124502182006836e-01,8.199781775474548340e-01,8.199440240859985352e-01,8.199098110198974609e-01,8.198757171630859375e-01,8.198415040969848633e-01,8.198073506355285645e-01,8.197731375694274902e-01,8.197389841079711914e-01,8.197048306465148926e-01,8.196706771850585938e-01,8.196364641189575195e-01,8.196023702621459961e-01,8.195681571960449219e-01,8.195340633392333984e-01,8.194999694824218750e-01,8.194657564163208008e-01,8.194316625595092773e-01,8.193975090980529785e-01,8.193634152412414551e-01,8.193292617797851562e-01,8.192951679229736328e-01,8.192609548568725586e-01,8.192269206047058105e-01,8.191927075386047363e-01,8.191586732864379883e-01,8.191245198249816895e-01,8.190904259681701660e-01,8.190562725067138672e-01,8.190222382545471191e-01,8.189881443977355957e-01,8.189539909362792969e-01,8.189199566841125488e-01,8.188858032226562500e-01,8.188517689704895020e-01,8.188176155090332031e-01,8.187835812568664551e-01,8.187494874000549316e-01,8.187153935432434082e-01,8.186812996864318848e-01,8.186472654342651367e-01,8.186131715774536133e-01,8.185791373252868652e-01,8.185450434684753418e-01
7.829532623291015625e-01,7.829220294952392578e-01,7.828909158706665039e-01,7.828597426414489746e-01,7.828286290168762207e-01,7.827973961830139160e-01,7.827662825584411621e-01,7.827351093292236328e-01,7.827039957046508789e-01,7.826728224754333496e-01,7.826417088508605957e-01,7.826105952262878418e-01,7.825794219970703125e-01,7.825483083724975586e-01,7.825171351432800293e-01,7.824860811233520508e-01,7.824549078941345215e-01,7.824237942695617676e-01,7.823926210403442383e-01,7.823615670204162598e-01,7.823303937911987305e-01,7.822993397712707520e-01,7.822681665420532227e-01,7.822371125221252441e-01,7.822059392929077148e-01,7.821748852729797363e-01,7.821438312530517578e-01,7.821126580238342285e-01,7.820816040039062500e-01,7.820504903793334961e-01,7.820194363594055176e-01,7.819882631301879883e-01,7.819572091102600098e-01,7.819260954856872559e-01,7.818950414657592773e-01,7.818639278411865234e-01,7.818328738212585449e-01,7.818017601966857910e-01,7.817707657814025879e-01,7.817396521568298340e-01,7.817085981369018555e-01,7.816774845123291016e-01,7.816464900970458984e-01,7.816154360771179199e-01,7.815843224525451660e-01,7.815533280372619629e-01,7.815222144126892090e-01,7.814912199974060059e-01,7.814601063728332520e-01,7.814291119575500488e-01,7.813980579376220703e-01,7.813670039176940918e-01,7.813359498977661133e-01,7.813049554824829102e-01,7.812739014625549316e-01,7.812429070472717285e-01,7.812117934226989746e-01,7.811807990074157715e-01,7.811498045921325684e-01,7.811187505722045898e-01,7.810878157615661621e-01,7.810567617416381836e-01,7.810257673263549805e-01,7.809947133064270020e-01,7.809637188911437988e-01,7.809326648712158203e-01,7.809017300605773926e-01,7.808706760406494141e-01,7.808397412300109863e-01,7.808086872100830078e-01,7.807776927947998047e-01,7.807466983795166016e-01,7.807157039642333984e-01,7.806847095489501953e-01,7.806537747383117676e-01,7.806228399276733398e-01,7.805917859077453613e-01,7.805608510971069336e-01,7.805298566818237305e-01,7.804989218711853027e-01
7.480732798576354980e-01,7.480447888374328613e-01,7.480164170265197754e-01,7.479879856109619141e-01,7.479594945907592773e-01,7.479310631752014160e-01,7.479026317596435547e-01,7.478742003440856934e-01,7.478457689285278320e-01,7.478173375129699707e-01,7.477888464927673340e-01,7.477604746818542480e-01,7.477320432662963867e-01,7.477036118507385254e-01,7.476751804351806641e-01,7.476468086242675781e-01,7.476183176040649414e-01,7.475899457931518555e-01,7.475615739822387695e-01,7.475331425666809082e-01,7.475047707557678223e-01,7.474762797355651855e-01,7.474479079246520996e-01,7.474194765090942383e-01,7.473911046981811523e-01,7.473626732826232910e-01,7.473343014717102051e-01,7.473058700561523438e-01,7.472775578498840332e-01,7.472491264343261719e-01,7.472207546234130859e-01,7.471923232078552246e-01,7.471640110015869141e-01,7.471355795860290527e-01,7.471072077751159668e-01,7.470788955688476562e-01,7.470504641532897949e-01,7.470221519470214844e-01,7.469937205314636230e-01,7.469654083251953125e-01,7.469369769096374512e-01,7.469086647033691406e-01,7.468802332878112793e-01,7.468519210815429688e-01,7.468235492706298828e-01,7.467952370643615723e-01,7.467668056488037109e-01,7.467384934425354004e-01,7.467101216316223145e-01,7.466818094253540039e-01,7.466534972190856934e-01,7.466251254081726074e-01,7.465968132019042969e-01,7.465684413909912109e-01,7.465401291847229004e-01,7.465117573738098145e-01,7.464834451675415039e-01,7.464551329612731934e-01,7.464268207550048828e-01,7.463984489440917969e-01,7.463701367378234863e-01,7.463418245315551758e-01,7.463135123252868652e-01,7.462851405143737793e-01,7.462568879127502441e-01,7.462285161018371582e-01,7.462002635002136230e-01,7.461720108985900879e-01,7.461436390876770020e-01,7.461153864860534668e-01,7.460870146751403809e-01,7.460587620735168457e-01,7.460304498672485352e-01,7.460021972656250000e-01,7.459738254547119141e-01,7.459455728530883789e-01,7.459172606468200684e-01,7.458890080451965332e-01,7.458606958389282227e-01,7.458324432373046875e-01
7.161685228347778320e-01,7.161424756050109863e-01,7.161163687705993652e-01,7.160903215408325195e-01,7.160642147064208984e-01,7.160382270812988281e-01,7.160121202468872070e-01,7.159860730171203613e-01,7.159599661827087402e-01,7.159339189529418945e-01,7.159079313278198242e-01,7.158818244934082031e-01,7.158557772636413574e-01,7.158297300338745117e-01,7.158036828041076660e-01,7.157776355743408203e-01,7.157515883445739746e-01,7.157255411148071289e-01,7.156994938850402832e-01,7.156734466552734375e-01,7.156473994255065918e-01,7.156213521957397461e-01,7.155953645706176758e-01,7.155693173408508301e-01,7.155432701110839844e-01,7.155172228813171387e-01,7.154912352561950684e-01,7.154652476310729980e-01,7.154392004013061523e-01,7.154132127761840820e-01,7.153871059417724609e-01,7.153611183166503906e-01,7.153350710868835449e-01,7.153091430664062500e-01,7.152830958366394043e-01,7.152571082115173340e-01,7.152310609817504883e-01,7.152050733566284180e-01,7.151790261268615723e-01,7.151530385017395020e-01,7.151270508766174316e-01,7.151010632514953613e-01,7.150750756263732910e-01,7.150490880012512207e-01,7.150231003761291504e-01,7.149970531463623047e-01,7.149711251258850098e-01,7.149450778961181641e-01,7.149191498756408691e-01,7.148931026458740234e-01,7.148671746253967285e-01,7.148411870002746582e-01,7.148151993751525879e-01,7.147892117500305176e-01,7.147632837295532227e-01,7.147372364997863770e-01,7.147113084793090820e-01,7.146853208541870117e-01,7.146593928337097168e-01,7.146334648132324219e-01,7.146074771881103516e-01,7.145814895629882812e-01,7.145555019378662109e-01,7.145295739173889160e-01,7.145035862922668457e-01,7.144776582717895508e-01,7.144517302513122559e-01,7.144258022308349609e-01,7.143998146057128906e-01,7.143738865852355957e-01,7.143478989601135254e-01,7.143219709396362305e-01,7.142960429191589355e-01,7.142701148986816406e-01,7.142441868782043457e-01,7.142182588577270508e-01,7.141923308372497559e-01,7.141663432121276855e-01,7.141404747962951660e-01,7.141144871711730957e-01
6.868739128112792969e-01,6.868499517440795898e-01,6.868259906768798828e-01,6.868019700050354004e-01,6.867780089378356934e-01,6.867539882659912109e-01,6.867300271987915039e-01,6.867060661315917969e-01,6.866821050643920898e-01,6.866580843925476074e-01,6.866341829299926758e-01,6.866101622581481934e-01,6.865862011909484863e-01,6.865622401237487793e-01,6.865382790565490723e-01,6.865143179893493652e-01,6.864903569221496582e-01,6.864663958549499512e-01,6.864424347877502441e-01,6.864185333251953125e-01,6.863945126533508301e-01,6.863706111907958984e-01,6.863466501235961914e-01,6.863226890563964844e-01,6.862987279891967773e-01,6.862748265266418457e-01,6.862508654594421387e-01,6.862269043922424316e-01,6.862029433250427246e-01,6.861790418624877930e-01,6.861550807952880859e-01,6.861311793327331543e-01,6.861072182655334473e-01,6.860833168029785156e-01,6.860594153404235840e-01,6.860354542732238770e-01,6.860115528106689453e-01,6.859875917434692383e-01,6.859636902809143066e-01,6.859397292137145996e-01,6.859158277511596680e-01,6.858918666839599609e-01,6.858680248260498047e-01,6.858440637588500977e-01,6.858201622962951660e-01,6.857962608337402344e-01,6.857723593711853027e-01,6.857483983039855957e-01,6.857245564460754395e-01,6.857005953788757324e-01,6.856766939163208008e-01,6.856528520584106445e-01,6.856288909912109375e-01,6.856050491333007812e-01,6.855811476707458496e-01,6.855572462081909180e-01,6.855333447456359863e-01,6.855094432830810547e-01,6.854855418205261230e-01,6.854616999626159668e-01,6.854377388954162598e-01,6.854138970375061035e-01,6.853899955749511719e-01,6.853661537170410156e-01,6.853422522544860840e-01,6.853183507919311523e-01,6.852945089340209961e-01,6.852706074714660645e-01,6.852467656135559082e-01,6.852228641510009766e-01,6.851990222930908203e-01,6.851751208305358887e-01,6.851512789726257324e-01,6.851273775100708008e-01,6.851035952568054199e-01,6.850796937942504883e-01,6.850558519363403320e-01,6.850319504737854004e-01,6.850081086158752441e-01,6.849842667579650879e-01
6.598817110061645508e-01,6.598595380783081055e-01,6.598374247550964355e-01,6.598152518272399902e-01,6.597931385040283203e-01,6.597709655761718750e-01,6.597489118576049805e-01,6.597267389297485352e-01,6.597046256065368652e-01,6.596824526786804199e-01,6.596603989601135254e-01,6.596382856369018555e-01,6.596161127090454102e-01,6.595940589904785156e-01,6.595718860626220703e-01,6.595498323440551758e-01,6.595276594161987305e-01,6.595056056976318359e-01,6.594834327697753906e-01,6.594613790512084961e-01,6.594392061233520508e-01,6.594171524047851562e-01,6.593949794769287109e-01,6.593729257583618164e-01,6.593508124351501465e-01,6.593286991119384766e-01,6.593066453933715820e-01,6.592845320701599121e-01,6.592624187469482422e-01,6.592403054237365723e-01,6.592182517051696777e-01,6.591961383819580078e-01,6.591740846633911133e-01,6.591519713401794434e-01,6.591298580169677734e-01,6.591077446937561035e-01,6.590856909751892090e-01,6.590635776519775391e-01,6.590415239334106445e-01,6.590194106101989746e-01,6.589973568916320801e-01,6.589752435684204102e-01,6.589532494544982910e-01,6.589311957359313965e-01,6.589090824127197266e-01,6.588870286941528320e-01,6.588649153709411621e-01,6.588428616523742676e-01,6.588208079338073730e-01,6.587987542152404785e-01,6.587766408920288086e-01,6.587545871734619141e-01,6.587325334548950195e-01,6.587104797363281250e-01,6.586884260177612305e-01,6.586663722991943359e-01,6.586442589759826660e-01,6.586222648620605469e-01,6.586002111434936523e-01,6.585781574249267578e-01,6.585561037063598633e-01,6.585340499877929688e-01,6.585120558738708496e-01,6.584899425506591797e-01,6.584679484367370605e-01,6.584458947181701660e-01,6.584238409996032715e-01,6.584017872810363770e-01,6.583797931671142578e-01,6.583576798439025879e-01,6.583356857299804688e-01,6.583136320114135742e-01,6.582916378974914551e-01,6.582695841789245605e-01,6.582475900650024414e-01,6.582255363464355469e-01,6.582034826278686523e-01,6.581814885139465332e-01,6.581594347953796387e-01,6.581374406814575195e-01
6.349306702613830566e-01,6.349101066589355469e-01,6.348896622657775879e-01,6.348692178726196289e-01,6.348486542701721191e-01,6.348282098770141602e-01,6.348077058792114258e-01,6.347872614860534668e-01,6.347666978836059570e-01,6.347462534904479980e-01,6.347257494926452637e-01,6.347053050994873047e-01,6.346848011016845703e-01,6.346643567085266113e-01,6.346438527107238770e-01,6.346234083175659180e-01,6.346029043197631836e-01,6.345824003219604492e-01,6.345619559288024902e-01,6.345415115356445312e-01,6.345210075378417969e-01,6.345005631446838379e-01,6.344801187515258789e-01,6.344596147537231445e-01,6.344391703605651855e-01,6.344186663627624512e-01,6.343982219696044922e-01,6.343777775764465332e-01,6.343573331832885742e-01,6.343368291854858398e-01,6.343163847923278809e-01,6.342959403991699219e-01,6.342754960060119629e-01,6.342549920082092285e-01,6.342346072196960449e-01,6.342141628265380859e-01,6.341936588287353516e-01,6.341732740402221680e-01,6.341527700424194336e-01,6.341323852539062500e-01,6.341118812561035156e-01,6.340914964675903320e-01,6.340709924697875977e-01,6.340506076812744141e-01,6.340301632881164551e-01,6.340097188949584961e-01,6.339892745018005371e-01,6.339688301086425781e-01,6.339483857154846191e-01,6.339280009269714355e-01,6.339075565338134766e-01,6.338871121406555176e-01,6.338667273521423340e-01,6.338462829589843750e-01,6.338258981704711914e-01,6.338053941726684570e-01,6.337850093841552734e-01,6.337645649909973145e-01,6.337441802024841309e-01,6.337237358093261719e-01,6.337033510208129883e-01,6.336829066276550293e-01,6.336625218391418457e-01,6.336420774459838867e-01,6.336216926574707031e-01,6.336012482643127441e-01,6.335808634757995605e-01,6.335604786872863770e-01,6.335400342941284180e-01,6.335196495056152344e-01,6.334992051124572754e-01,6.334788203239440918e-01,6.334584355354309082e-01,6.334380507469177246e-01,6.334176063537597656e-01,6.333972215652465820e-01,6.333768367767333984e-01,6.333564519882202148e-01,6.333360075950622559e-01,6.333156824111938477e-01
6.117977499961853027e-01,6.117787361145019531e-01,6.117597222328186035e-01,6.117407083511352539e-01,6.117216348648071289e-01,6.117026805877685547e-01,6.116836071014404297e-01,6.116645932197570801e-01,6.116455793380737305e-01,6.116265654563903809e-01,6.116075515747070312e-01,6.115885376930236816e-01,6.115695238113403320e-01,6.115505099296569824e-01,6.115314960479736328e-01,6.115124821662902832e-01,6.114934682846069336e-01,6.114744544029235840e-01,6.114554405212402344e-01,6.114364266395568848e-01,6.114174723625183105e-01,6.113983988761901855e-01,6.113794445991516113e-01,6.113604307174682617e-01,6.113414168357849121e-01,6.113224029541015625e-01,6.113034486770629883e-01,6.112844347953796387e-01,6.112654209136962891e-01,6.112464666366577148e-01,6.112274527549743652e-01,6.112084388732910156e-01,6.111894249916076660e-01,6.111704707145690918e-01,6.111514568328857422e-01,6.111325025558471680e-01,6.111134886741638184e-01,6.110945343971252441e-01,6.110755205154418945e-01,6.110565662384033203e-01,6.110375523567199707e-01,6.110185980796813965e-01,6.109996438026428223e-01,6.109806299209594727e-01,6.109616756439208984e-01,6.109426617622375488e-01,6.109237074851989746e-01,6.109046936035156250e-01,6.108857393264770508e-01,6.108667850494384766e-01,6.108478307723999023e-01,6.108288168907165527e-01,6.108098626136779785e-01,6.107909083366394043e-01,6.107719540596008301e-01,6.107529401779174805e-01,6.107339859008789062e-01,6.107150316238403320e-01,6.106960773468017578e-01,6.106771230697631836e-01,6.106581687927246094e-01,6.106392145156860352e-01,6.106202602386474609e-01,6.106013059616088867e-01,6.105823516845703125e-01,6.105633974075317383e-01,6.105444431304931641e-01,6.105254888534545898e-01,6.105065345764160156e-01,6.104875802993774414e-01,6.104686260223388672e-01,6.104496717453002930e-01,6.104307174682617188e-01,6.104118227958679199e-01,6.103928685188293457e-01,6.103739142417907715e-01,6.103550195693969727e-01,6.103360652923583984e-01,6.103171110153198242e-01,6.102981567382812500e-01
5.902912020683288574e-01,5.902735590934753418e-01,5.902558565139770508e-01,5.902380943298339844e-01,5.902203917503356934e-01,5.902026891708374023e-01,5.901849865913391113e-01,5.901672840118408203e-01,5.901495814323425293e-01,5.901318788528442383e-01,5.901141762733459473e-01,5.900964140892028809e-01,5.900787711143493652e-01,5.900610089302062988e-01,5.900433659553527832e-01,5.900256037712097168e-01,5.900079607963562012e-01,5.899902582168579102e-01,5.899725556373596191e-01,5.899548530578613281e-01,5.899371504783630371e-01,5.899195075035095215e-01,5.899018049240112305e-01,5.898841023445129395e-01,5.898663997650146484e-01,5.898487567901611328e-01,5.898310542106628418e-01,5.898133516311645508e-01,5.897956490516662598e-01,5.897780060768127441e-01,5.897603034973144531e-01,5.897426009178161621e-01,5.897248983383178711e-01,5.897072553634643555e-01,5.896896123886108398e-01,5.896719098091125488e-01,5.896542668342590332e-01,5.896365642547607422e-01,5.896189212799072266e-01,5.896012187004089355e-01,5.895835757255554199e-01,5.895658731460571289e-01,5.895482301712036133e-01,5.895305275917053223e-01,5.895128846168518066e-01,5.894951820373535156e-01,5.894775390625000000e-01,5.894598364830017090e-01,5.894421935081481934e-01,5.894244909286499023e-01,5.894068479537963867e-01,5.893892049789428711e-01,5.893715620040893555e-01,5.893539190292358398e-01,5.893362164497375488e-01,5.893185734748840332e-01,5.893009305000305176e-01,5.892832875251770020e-01,5.892655849456787109e-01,5.892479419708251953e-01,5.892302989959716797e-01,5.892126560211181641e-01,5.891950130462646484e-01,5.891773700714111328e-01,5.891596674919128418e-01,5.891420841217041016e-01,5.891244411468505859e-01,5.891067981719970703e-01,5.890891551971435547e-01,5.890715122222900391e-01,5.890538692474365234e-01,5.890362262725830078e-01,5.890185832977294922e-01,5.890009403228759766e-01,5.889832973480224609e-01,5.889656543731689453e-01,5.889480113983154297e-01,5.889303684234619141e-01,5.889127850532531738e-01,5.888950824737548828e-01
