5.000000000000000000e+00,5.000000000000000000e+00,5.000000000000000000e+00,5.000000000000000000e+00,5.000000000000000000e+00,5.000000000000000000e+00,5.000000000000000000e+00,5.000000000000000000e+00,5.000000000000000000e+00,5.000000000000000000e+00,5.000000000000000000e+00,5.000000000000000000e+00,5.000000000000000000e+00,5.000000000000000000e+00,5.000000000000000000e+00,5.000000000000000000e+00,5.000000000000000000e+00,5.000000000000000000e+00,5.000000000000000000e+00,5.000000000000000000e+00,5.000000000000000000e+00,5.000000000000000000e+00,5.000000000000000000e+00,5.000000000000000000e+00,5.000000000000000000e+00,5.000000000000000000e+00,5.000000000000000000e+00,5.000000000000000000e+00,5.000000000000000000e+00,5.000000000000000000e+00,5.000000000000000000e+00,5.000000000000000000e+00,5.000000000000000000e+00,5.000000000000000000e+00,5.000000000000000000e+00,5.000000000000000000e+00,5.000000000000000000e+00,5.000000000000000000e+00,5.000000000000000000e+00,4.862356662750244141e+00,4.671363830566406250e+00,4.494808673858642578e+00,4.331112861633300781e+00,4.178921222686767578e+00,4.037062644958496094e+00,3.904518842697143555e+00,3.780401945114135742e+00,3.663932323455810547e+00,3.554425239562988281e+00,3.451273679733276367e+00,3.353940725326538086e+00,3.261946678161621094e+00,3.174864768981933594e+00,3.092311382293701172e+00,3.013942480087280273e+00,2.939447641372680664e+00,2.868546247482299805e+00,2.800984859466552734e+00,2.736532449722290039e+00,2.674979925155639648e+00,2.616135120391845703e+00,2.559823751449584961e+00,2.505885362625122070e+00,2.454173326492309570e+00,2.404552221298217773e+00,2.356898069381713867e+00,2.311095952987670898e+00,2.267040252685546875e+00,2.224632501602172852e+00,2.183782339096069336e+00,2.144405364990234375e+00,2.106423377990722656e+00,2.069763183593750000e+00,2.034357547760009766e+00,2.000142812728881836e+00,1.967059850692749023e+00,1.935053348541259766e+00,1.904071807861328125e+00,1.874066829681396484e+00,1.844992637634277344e+00
5.000000000000000000e+00,5.000000000000000000e+00,5.000000000000000000e+00,5.000000000000000000e+00,5.000000000000000000e+00,5.000000000000000000e+00,5.000000000000000000e+00,5.000000000000000000e+00,5.000000000000000000e+00,5.000000000000000000e+00,5.000000000000000000e+00,5.000000000000000000e+00,5.000000000000000000e+00,5.000000000000000000e+00,5.000000000000000000e+00,5.000000000000000000e+00,5.000000000000000000e+00,5.000000000000000000e+00,5.000000000000000000e+00,5.000000000000000000e+00,5.000000000000000000e+00,5.000000000000000000e+00,5.000000000000000000e+00,5.000000000000000000e+00,5.000000000000000000e+00,5.000000000000000000e+00,5.000000000000000000e+00,5.000000000000000000e+00,5.000000000000000000e+00,5.000000000000000000e+00,5.000000000000000000e+00,5.000000000000000000e+00,5.000000000000000000e+00,5.000000000000000000e+00,5.000000000000000000e+00,5.000000000000000000e+00,5.000000000000000000e+00,5.000000000000000000e+00,5.000000000000000000e+00,4.862495422363281250e+00,4.671492099761962891e+00,4.494926929473876953e+00,4.331223011016845703e+00,4.179023742675781250e+00,4.037158489227294922e+00,3.904608488082885742e+00,3.780485868453979492e+00,3.664011240005493164e+00,3.554499387741088867e+00,3.451343536376953125e+00,3.354006767272949219e+00,3.262009382247924805e+00,3.174924135208129883e+00,3.092367649078369141e+00,3.013995647430419922e+00,2.939498424530029297e+00,2.868594646453857422e+00,2.801030874252319336e+00,2.736576557159423828e+00,2.675021886825561523e+00,2.616175413131713867e+00,2.559862375259399414e+00,2.505922317504882812e+00,2.454208612442016602e+00,2.404586076736450195e+00,2.356930732727050781e+00,2.311127185821533203e+00,2.267070293426513672e+00,2.224661588668823242e+00,2.183810472488403320e+00,2.144432544708251953e+00,2.106449365615844727e+00,2.069788455963134766e+00,2.034381866455078125e+00,2.000166177749633789e+00,1.967082381248474121e+00,1.935075402259826660e+00,1.904093146324157715e+00,1.874087333679199219e+00,1.845012545585632324e+00
5.000000000000000000e+00,5.000000000000000000e+00,5.000000000000000000e+00,5.000000000000000000e+00,5.000000000000000000e+00,5.000000000000000000e+00,5.000000000000000000e+00,5.000000000000000000e+00,5.000000000000000000e+00,5.000000000000000000e+00,5.000000000000000000e+00,5.000000000000000000e+00,5.000000000000000000e+00,5.000000000000000000e+00,5.000000000000000000e+00,5.000000000000000000e+00,5.000000000000000000e+00,5.000000000000000000e+00,5.000000000000000000e+00,5.000000000000000000e+00,5.000000000000000000e+00,5.000000000000000000e+00,5.000000000000000000e+00,5.000000000000000000e+00,5.000000000000000000e+00,5.000000000000000000e+00,5.000000000000000000e+00,5.000000000000000000e+00,5.000000000000000000e+00,5.000000000000000000e+00,5.000000000000000000e+00,5.000000000000000000e+00,5.000000000000000000e+00,5.000000000000000000e+00,5.000000000000000000e+00,5.000000000000000000e+00,5.000000000000000000e+00,5.000000000000000000e+00,5.000000000000000000e+00,4.862634181976318359e+00,4.671619892120361328e+00,4.495045661926269531e+00,4.331333160400390625e+00,4.179126262664794922e+00,4.037253856658935547e+00,3.904697895050048828e+00,3.780569791793823242e+00,3.664089918136596680e+00,3.554573535919189453e+00,3.451413869857788086e+00,3.354072809219360352e+00,3.262072086334228516e+00,3.174983263015747070e+00,3.092423915863037109e+00,3.014049053192138672e+00,2.939549207687377930e+00,2.868642807006835938e+00,2.801077127456665039e+00,2.736620426177978516e+00,2.675064086914062500e+00,2.616215705871582031e+00,2.559900760650634766e+00,2.505959272384643555e+00,2.454244136810302734e+00,2.404620170593261719e+00,2.356963396072387695e+00,2.311158895492553711e+00,2.267100572586059570e+00,2.224690675735473633e+00,2.183838367462158203e+00,2.144459486007690430e+00,2.106475353240966797e+00,2.069813489913940430e+00,2.034406185150146484e+00,2.000189781188964844e+00,1.967105269432067871e+00,1.935097336769104004e+00,1.904114365577697754e+00,1.874108076095581055e+00,1.845032691955566406e+00
5.000000000000000000e+00,5.000000000000000000e+00,5.000000000000000000e+00,5.000000000000000000e+00,5.000000000000000000e+00,5.000000000000000000e+00,5.000000000000000000e+00,5.000000000000000000e+00,5.000000000000000000e+00,5.000000000000000000e+00,5.000000000000000000e+00,5.000000000000000000e+00,5.000000000000000000e+00,5.000000000000000000e+00,5.000000000000000000e+00,5.000000000000000000e+00,5.000000000000000000e+00,5.000000000000000000e+00,5.000000000000000000e+00,5.000000000000000000e+00,5.000000000000000000e+00,5.000000000000000000e+00,5.000000000000000000e+00,5.000000000000000000e+00,5.000000000000000000e+00,5.000000000000000000e+00,5.000000000000000000e+00,5.000000000000000000e+00,5.000000000000000000e+00,5.000000000000000000e+00,5.000000000000000000e+00,5.000000000000000000e+00,5.000000000000000000e+00,5.000000000000000000e+00,5.000000000000000000e+00,5.000000000000000000e+00,5.000000000000000000e+00,5.000000000000000000e+00,5.000000000000000000e+00,4.862772941589355469e+00,4.671748161315917969e+00,4.495164394378662109e+00,4.331443309783935547e+00,4.179228782653808594e+00,4.037349700927734375e+00,3.904788017272949219e+00,3.780653715133666992e+00,3.664169311523437500e+00,3.554647684097290039e+00,3.451483726501464844e+00,3.354138851165771484e+00,3.262134552001953125e+00,3.175042390823364258e+00,3.092479944229125977e+00,3.014102458953857422e+00,2.939599752426147461e+00,2.868691205978393555e+00,2.801123142242431641e+00,2.736664533615112305e+00,2.675106048583984375e+00,2.616255760192871094e+00,2.559939384460449219e+00,2.505996227264404297e+00,2.454279422760009766e+00,2.404654264450073242e+00,2.356996059417724609e+00,2.311190128326416016e+00,2.267130613327026367e+00,2.224719762802124023e+00,2.183866500854492188e+00,2.144486427307128906e+00,2.106501579284667969e+00,2.069838762283325195e+00,2.034430503845214844e+00,2.000213146209716797e+00,1.967127799987792969e+00,1.935119390487670898e+00,1.904135704040527344e+00,1.874128580093383789e+00,1.845052719116210938e+00
5.000000000000000000e+00,5.000000000000000000e+00,5.000000000000000000e+00,5.000000000000000000e+00,5.000000000000000000e+00,5.000000000000000000e+00,5.000000000000000000e+00,5.000000000000000000e+00,5.000000000000000000e+00,5.000000000000000000e+00,5.000000000000000000e+00,5.000000000000000000e+00,5.000000000000000000e+00,5.000000000000000000e+00,5.000000000000000000e+00,5.000000000000000000e+00,5.000000000000000000e+00,5.000000000000000000e+00,5.000000000000000000e+00,5.000000000000000000e+00,5.000000000000000000e+00,5.000000000000000000e+00,5.000000000000000000e+00,5.000000000000000000e+00,5.000000000000000000e+00,5.000000000000000000e+00,3.585776329040527344e+00,5.000000000000000000e+00,5.000000000000000000e+00,5.000000000000000000e+00,5.000000000000000000e+00,5.000000000000000000e+00,5.000000000000000000e+00,5.000000000000000000e+00,5.000000000000000000e+00,5.000000000000000000e+00,5.000000000000000000e+00,5.000000000000000000e+00,5.000000000000000000e+00,4.862911701202392578e+00,4.671876430511474609e+00,4.495283126831054688e+00,4.331553936004638672e+00,4.179331779479980469e+00,4.037445545196533203e+00,3.904877424240112305e+00,3.780737638473510742e+00,3.664247989654541016e+00,3.554722070693969727e+00,3.451553821563720703e+00,3.354204893112182617e+00,3.262197017669677734e+00,3.175101518630981445e+00,3.092536211013793945e+00,3.014155626296997070e+00,2.939650535583496094e+00,2.868739366531372070e+00,2.801169157028198242e+00,2.736708641052246094e+00,2.675148010253906250e+00,2.616296052932739258e+00,2.559977769851684570e+00,2.506033182144165039e+00,2.454314708709716797e+00,2.404688119888305664e+00,2.357028722763061523e+00,2.311221599578857422e+00,2.267160892486572266e+00,2.224748849868774414e+00,2.183894395828247070e+00,2.144513368606567383e+00,2.106527566909790039e+00,2.069863796234130859e+00,2.034454822540283203e+00,2.000236749649047852e+00,1.967150688171386719e+00,1.935141205787658691e+00,1.904157161712646484e+00,1.874149322509765625e+00,1.845072627067565918e+00
5.000000000000000000e+00,5.000000000000000000e+00,5.000000000000000000e+00,5.000000000000000000e+00,5.000000000000000000e+00,5.000000000000000000e+00,5.000000000000000000e+00,5.000000000000000000e+00,5.000000000000000000e+00,5.000000000000000000e+00,5.000000000000000000e+00,5.000000000000000000e+00,5.000000000000000000e+00,5.000000000000000000e+00,5.000000000000000000e+00,5.000000000000000000e+00,5.000000000000000000e+00,5.000000000000000000e+00,5.000000000000000000e+00,5.000000000000000000e+00,5.000000000000000000e+00,5.000000000000000000e+00,5.000000000000000000e+00,5.000000000000000000e+00,5.000000000000000000e+00,5.000000000000000000e+00,3.565656423568725586e+00,3.581632137298583984e+00,5.000000000000000000e+00,5.000000000000000000e+00,5.000000000000000000e+00,5.000000000000000000e+00,5.000000000000000000e+00,5.000000000000000000e+00,5.000000000000000000e+00,5.000000000000000000e+00,5.000000000000000000e+00,5.000000000000000000e+00,5.000000000000000000e+00,4.863050937652587891e+00,4.672004699707031250e+00,4.495401859283447266e+00,4.331664085388183594e+00,4.179434299468994141e+00,4.037541389465332031e+00,3.904967069625854492e+00,3.780821561813354492e+00,3.664326906204223633e+00,3.554796218872070312e+00,3.451623678207397461e+00,3.354270935058593750e+00,3.262259483337402344e+00,3.175160884857177734e+00,3.092592239379882812e+00,3.014209270477294922e+00,2.939701318740844727e+00,2.868788003921508789e+00,2.801215171813964844e+00,2.736752510070800781e+00,2.675189971923828125e+00,2.616336345672607422e+00,2.560016155242919922e+00,2.506069898605346680e+00,2.454350233078002930e+00,2.404722213745117188e+00,2.357061147689819336e+00,2.311252832412719727e+00,2.267190933227539062e+00,2.224777936935424805e+00,2.183922529220581055e+00,2.144540548324584961e+00,2.106553792953491211e+00,2.069889068603515625e+00,2.034479141235351562e+00,2.000260114669799805e+00,1.967173576354980469e+00,1.935163378715515137e+00,1.904178261756896973e+00,1.874169826507568359e+00,1.845092654228210449e+00
5.000000000000000000e+00,5.000000000000000000e+00,5.000000000000000000e+00,5.000000000000000000e+00,5.000000000000000000e+00,5.000000000000000000e+00,5.000000000000000000e+00,5.000000000000000000e+00,5.000000000000000000e+00,5.000000000000000000e+00,5.000000000000000000e+00,5.000000000000000000e+00,5.000000000000000000e+00,5.000000000000000000e+00,5.000000000000000000e+00,5.000000000000000000e+00,5.000000000000000000e+00,5.000000000000000000e+00,5.000000000000000000e+00,5.000000000000000000e+00,5.000000000000000000e+00,5.000000000000000000e+00,5.000000000000000000e+00,5.000000000000000000e+00,5.000000000000000000e+00,5.000000000000000000e+00,3.581834793090820312e+00,3.592533826828002930e+00,5.000000000000000000e+00,5.000000000000000000e+00,5.000000000000000000e+00,5.000000000000000000e+00,5.000000000000000000e+00,5.000000000000000000e+00,5.000000000000000000e+00,5.000000000000000000e+00,5.000000000000000000e+00,5.000000000000000000e+00,5.000000000000000000e+00,4.863189697265625000e+00,4.672132968902587891e+00,4.495520591735839844e+00,4.331774234771728516e+00,4.179536819458007812e+00,4.037637233734130859e+00,3.905056476593017578e+00,3.780905485153198242e+00,3.664405822753906250e+00,3.554870367050170898e+00,3.451693773269653320e+00,3.354336977005004883e+00,3.262321949005126953e+00,3.175220251083374023e+00,3.092648506164550781e+00,3.014262676239013672e+00,2.939752101898193359e+00,2.868836402893066406e+00,2.801261186599731445e+00,2.736796617507934570e+00,2.675232172012329102e+00,2.616376638412475586e+00,2.560054779052734375e+00,2.506106853485107422e+00,2.454385519027709961e+00,2.404756069183349609e+00,2.357093811035156250e+00,2.311284303665161133e+00,2.267221450805664062e+00,2.224807024002075195e+00,2.183950662612915039e+00,2.144567489624023438e+00,2.106579780578613281e+00,2.069914102554321289e+00,2.034503459930419922e+00,2.000283718109130859e+00,1.967196106910705566e+00,1.935185194015502930e+00,1.904199719429016113e+00,1.874190568923950195e+00,1.845112562179565430e+00
5.000000000000000000e+00,5.000000000000000000e+00,5.000000000000000000e+00,5.000000000000000000e+00,5.000000000000000000e+00,5.000000000000000000e+00,5.000000000000000000e+00,5.000000000000000000e+00,5.000000000000000000e+00,5.000000000000000000e+00,5.000000000000000000e+00,5.000000000000000000e+00,5.000000000000000000e+00,5.000000000000000000e+00,5.000000000000000000e+00,5.000000000000000000e+00,5.000000000000000000e+00,5.000000000000000000e+00,5.000000000000000000e+00,5.000000000000000000e+00,5.000000000000000000e+00,5.000000000000000000e+00,5.000000000000000000e+00,5.000000000000000000e+00,5.000000000000000000e+00,5.000000000000000000e+00,3.625013351440429688e+00,3.609104633331298828e+00,5.000000000000000000e+00,5.000000000000000000e+00,5.000000000000000000e+00,5.000000000000000000e+00,5.000000000000000000e+00,5.000000000000000000e+00,5.000000000000000000e+00,5.000000000000000000e+00,5.000000000000000000e+00,5.000000000000000000e+00,5.000000000000000000e+00,4.863328933715820312e+00,4.672261238098144531e+00,4.495639324188232422e+00,4.331884384155273438e+00,4.179639339447021484e+00,4.037732601165771484e+00,3.905146121978759766e+00,3.780989408493041992e+00,3.664484500885009766e+00,3.554944992065429688e+00,3.451763629913330078e+00,3.354403257369995117e+00,3.262384414672851562e+00,3.175279378890991211e+00,3.092704534530639648e+00,3.014316082000732422e+00,2.939802885055541992e+00,2.868884563446044922e+00,2.801307439804077148e+00,2.736840486526489258e+00,2.675274133682250977e+00,2.616416692733764648e+00,2.560093164443969727e+00,2.506143808364868164e+00,2.454420804977416992e+00,2.404789924621582031e+00,2.357126712799072266e+00,2.311315536499023438e+00,2.267251491546630859e+00,2.224836111068725586e+00,2.183978557586669922e+00,2.144594430923461914e+00,2.106605768203735352e+00,2.069939374923706055e+00,2.034527778625488281e+00,2.000307083129882812e+00,1.967218995094299316e+00,1.935207366943359375e+00,1.904220938682556152e+00,1.874211072921752930e+00,1.845132708549499512e+00
5.000000000000000000e+00,5.000000000000000000e+00,5.000000000000000000e+00,5.000000000000000000e+00,5.000000000000000000e+00,5.000000000000000000e+00,5.000000000000000000e+00,5.000000000000000000e+00,5.000000000000000000e+00,5.000000000000000000e+00,5.000000000000000000e+00,5.000000000000000000e+00,5.000000000000000000e+00,5.000000000000000000e+00,5.000000000000000000e+00,5.000000000000000000e+00,5.000000000000000000e+00,5.000000000000000000e+00,5.000000000000000000e+00,5.000000000000000000e+00,5.000000000000000000e+00,5.000000000000000000e+00,5.000000000000000000e+00,5.000000000000000000e+00,3.587492942810058594e+00,3.584162235260009766e+00,3.659352540969848633e+00,3.689030170440673828e+00,3.706193923950195312e+00,5.000000000000000000e+00,5.000000000000000000e+00,5.000000000000000000e+00,5.000000000000000000e+00,5.000000000000000000e+00,5.000000000000000000e+00,5.000000000000000000e+00,5.000000000000000000e+00,5.000000000000000000e+00,5.000000000000000000e+00,4.863467693328857422e+00,4.672389507293701172e+00,4.495758056640625000e+00,4.331994533538818359e+00,4.179742336273193359e+00,4.037828445434570312e+00,3.905235528945922852e+00,3.781073808670043945e+00,3.664563417434692383e+00,3.555019140243530273e+00,3.451833486557006836e+00,3.354469299316406250e+00,3.262446880340576172e+00,3.175338745117187500e+00,3.092760801315307617e+00,3.014369487762451172e+00,2.939853429794311523e+00,2.868932962417602539e+00,2.801353454589843750e+00,2.736884593963623047e+00,2.675316095352172852e+00,2.616456985473632812e+00,2.560131788253784180e+00,2.506180524826049805e+00,2.454456329345703125e+00,2.404824018478393555e+00,2.357159376144409180e+00,2.311347007751464844e+00,2.267281770706176758e+00,2.224865198135375977e+00,2.184006690979003906e+00,2.144621372222900391e+00,2.106631994247436523e+00,2.069964408874511719e+00,2.034552097320556641e+00,2.000330686569213867e+00,1.967241525650024414e+00,1.935229182243347168e+00,1.904242277145385742e+00,1.874231815338134766e+00,1.845152497291564941e+00
5.000000000000000000e+00,5.000000000000000000e+00,5.000000000000000000e+00,5.000000000000000000e+00,5.000000000000000000e+00,5.000000000000000000e+00,5.000000000000000000e+00,5.000000000000000000e+00,5.000000000000000000e+00,5.000000000000000000e+00,5.000000000000000000e+00,5.000000000000000000e+00,5.000000000000000000e+00,5.000000000000000000e+00,5.000000000000000000e+00,5.000000000000000000e+00,5.000000000000000000e+00,5.000000000000000000e+00,5.000000000000000000e+00,5.000000000000000000e+00,5.000000000000000000e+00,5.000000000000000000e+00,5.000000000000000000e+00,3.528566122055053711e+00,3.544137954711914062e+00,3.552909374237060547e+00,3.573175907135009766e+00,3.599900722503662109e+00,3.639728546142578125e+00,3.696626901626586914e+00,3.746265411376953125e+00,5.000000000000000000e+00,5.000000000000000000e+00,5.000000000000000000e+00,5.000000000000000000e+00,5.000000000000000000e+00,5.000000000000000000e+00,5.000000000000000000e+00,5.000000000000000000e+00,4.863606452941894531e+00,4.672517299652099609e+00,4.495876789093017578e+00,4.332104682922363281e+00,4.179844856262207031e+00,4.037924289703369141e+00,3.905325174331665039e+00,3.781157732009887695e+00,3.664642333984375000e+00,3.555093288421630859e+00,3.451903581619262695e+00,3.354535341262817383e+00,3.262509346008300781e+00,3.175397872924804688e+00,3.092817068099975586e+00,3.014422655105590820e+00,2.939904212951660156e+00,2.868981361389160156e+00,2.801399469375610352e+00,2.736928462982177734e+00,2.675358295440673828e+00,2.616497039794921875e+00,2.560170412063598633e+00,2.506217479705810547e+00,2.454491853713989258e+00,2.404857873916625977e+00,2.357191801071166992e+00,2.311378240585327148e+00,2.267311811447143555e+00,2.224894046783447266e+00,2.184034585952758789e+00,2.144648551940917969e+00,2.106657981872558594e+00,2.069989681243896484e+00,2.034576416015625000e+00,2.000354290008544922e+00,1.967264413833618164e+00,1.935251355171203613e+00,1.904263496398925781e+00,1.874252557754516602e+00,1.845172643661499023e+00
5.000000000000000000e+00,5.000000000000000000e+00,5.000000000000000000e+00,5.000000000000000000e+00,5.000000000000000000e+00,5.000000000000000000e+00,5.000000000000000000e+00,5.000000000000000000e+00,5.000000000000000000e+00,5.000000000000000000e+00,5.000000000000000000e+00,5.000000000000000000e+00,5.000000000000000000e+00,5.000000000000000000e+00,5.000000000000000000e+00,5.000000000000000000e+00,5.000000000000000000e+00,5.000000000000000000e+00,5.000000000000000000e+00,5.000000000000000000e+00,5.000000000000000000e+00,5.000000000000000000e+00,5.000000000000000000e+00,3.555486440658569336e+00,3.555887222290039062e+00,3.533844709396362305e+00,3.539912939071655273e+00,3.569871425628662109e+00,3.602654218673706055e+00,3.697778224945068359e+00,3.758822679519653320e+00,5.000000000000000000e+00,5.000000000000000000e+00,5.000000000000000000e+00,5.000000000000000000e+00,5.000000000000000000e+00,5.000000000000000000e+00,5.000000000000000000e+00,5.000000000000000000e+00,4.863745689392089844e+00,4.672646045684814453e+00,4.495995521545410156e+00,4.332214832305908203e+00,4.179947376251220703e+00,4.038020133972167969e+00,3.905414581298828125e+00,3.781241655349731445e+00,3.664721012115478516e+00,3.555167436599731445e+00,3.451973438262939453e+00,3.354601621627807617e+00,3.262571811676025391e+00,3.175457000732421875e+00,3.092873096466064453e+00,3.014476060867309570e+00,2.939955234527587891e+00,2.869029760360717773e+00,2.801445722579956055e+00,2.736972570419311523e+00,2.675400257110595703e+00,2.616537332534790039e+00,2.560208797454833984e+00,2.506254434585571289e+00,2.454527139663696289e+00,2.404891967773437500e+00,2.357224464416503906e+00,2.311409711837768555e+00,2.267342090606689453e+00,2.224923133850097656e+00,2.184062480926513672e+00,2.144675493240356445e+00,2.106683969497680664e+00,2.070014953613281250e+00,2.034600734710693359e+00,2.000377893447875977e+00,1.967287063598632812e+00,1.935273408889770508e+00,1.904284834861755371e+00,1.874273061752319336e+00,1.845192551612854004e+00
5.000000000000000000e+00,5.000000000000000000e+00,5.000000000000000000e+00,5.000000000000000000e+00,5.000000000000000000e+00,5.000000000000000000e+00,5.000000000000000000e+00,5.000000000000000000e+00,5.000000000000000000e+00,5.000000000000000000e+00,5.000000000000000000e+00,5.000000000000000000e+00,5.000000000000000000e+00,5.000000000000000000e+00,5.000000000000000000e+00,5.000000000000000000e+00,5.000000000000000000e+00,5.000000000000000000e+00,5.000000000000000000e+00,5.000000000000000000e+00,5.000000000000000000e+00,5.000000000000000000e+00,5.000000000000000000e+00,3.581647396087646484e+00,3.591625213623046875e+00,3.548483371734619141e+00,3.545295000076293945e+00,3.565141916275024414e+00,3.610623121261596680e+00,3.749048233032226562e+00,3.760221481323242188e+00,5.000000000000000000e+00,5.000000000000000000e+00,5.000000000000000000e+00,5.000000000000000000e+00,5.000000000000000000e+00,5.000000000000000000e+00,5.000000000000000000e+00,5.000000000000000000e+00,4.863884449005126953e+00,4.672774314880371094e+00,4.496114253997802734e+00,4.332325458526611328e+00,4.180049896240234375e+00,4.038115978240966797e+00,3.905504226684570312e+00,3.781325578689575195e+00,3.664799928665161133e+00,3.555241823196411133e+00,3.452043533325195312e+00,3.354667663574218750e+00,3.262634277343750000e+00,3.175516128540039062e+00,3.092929601669311523e+00,3.014529466629028320e+00,2.940006017684936523e+00,2.869077920913696289e+00,2.801491975784301758e+00,2.737016439437866211e+00,2.675442457199096680e+00,2.616577625274658203e+00,2.560247182846069336e+00,2.506291151046752930e+00,2.454562425613403320e+00,2.404925823211669922e+00,2.357257127761840820e+00,2.311441183090209961e+00,2.267372369766235352e+00,2.224952459335327148e+00,2.184090614318847656e+00,2.144702672958374023e+00,2.106710195541381836e+00,2.070039987564086914e+00,2.034625053405761719e+00,2.000401258468627930e+00,1.967309832572937012e+00,1.935295343399047852e+00,1.904306054115295410e+00,1.874293804168701172e+00,1.845212578773498535e+00
5.000000000000000000e+00,5.000000000000000000e+00,5.000000000000000000e+00,5.000000000000000000e+00,5.000000000000000000e+00,5.000000000000000000e+00,5.000000000000000000e+00,5.000000000000000000e+00,5.000000000000000000e+00,5.000000000000000000e+00,5.000000000000000000e+00,5.000000000000000000e+00,5.000000000000000000e+00,5.000000000000000000e+00,5.000000000000000000e+00,5.000000000000000000e+00,5.000000000000000000e+00,5.000000000000000000e+00,5.000000000000000000e+00,5.000000000000000000e+00,5.000000000000000000e+00,5.000000000000000000e+00,5.000000000000000000e+00,3.595844030380249023e+00,3.590811491012573242e+00,3.552590608596801758e+00,3.540405511856079102e+00,3.561485528945922852e+00,3.604848146438598633e+00,3.746892929077148438e+00,3.762172460556030273e+00,5.000000000000000000e+00,5.000000000000000000e+00,5.000000000000000000e+00,5.000000000000000000e+00,5.000000000000000000e+00,5.000000000000000000e+00,5.000000000000000000e+00,5.000000000000000000e+00,4.864023685455322266e+00,4.672902584075927734e+00,4.496232986450195312e+00,4.332435607910156250e+00,4.180152893066406250e+00,4.038211822509765625e+00,3.905593633651733398e+00,3.781409502029418945e+00,3.664878845214843750e+00,3.555315971374511719e+00,3.452113866806030273e+00,3.354733705520629883e+00,3.262697219848632812e+00,3.175575494766235352e+00,3.092985630035400391e+00,3.014582872390747070e+00,2.940056800842285156e+00,2.869126319885253906e+00,2.801537990570068359e+00,2.737060546875000000e+00,2.675484418869018555e+00,2.616617679595947266e+00,2.560285806655883789e+00,2.506328105926513672e+00,2.454597949981689453e+00,2.404959917068481445e+00,2.357289791107177734e+00,2.311472654342651367e+00,2.267402410507202148e+00,2.224981546401977539e+00,2.184118509292602539e+00,2.144729614257812500e+00,2.106736183166503906e+00,2.070065259933471680e+00,2.034649372100830078e+00,2.000424861907958984e+00,1.967332482337951660e+00,1.935317397117614746e+00,1.904327392578125000e+00,1.874314308166503906e+00,1.845232486724853516e+00
5.000000000000000000e+00,5.000000000000000000e+00,5.000000000000000000e+00,5.000000000000000000e+00,5.000000000000000000e+00,5.000000000000000000e+00,5.000000000000000000e+00,5.000000000000000000e+00,5.000000000000000000e+00,5.000000000000000000e+00,5.000000000000000000e+00,5.000000000000000000e+00,5.000000000000000000e+00,5.000000000000000000e+00,5.000000000000000000e+00,5.000000000000000000e+00,5.000000000000000000e+00,5.000000000000000000e+00,5.000000000000000000e+00,5.000000000000000000e+00,5.000000000000000000e+00,5.000000000000000000e+00,5.000000000000000000e+00,3.612911462783813477e+00,3.604940176010131836e+00,3.538988351821899414e+00,3.530154705047607422e+00,3.567923069000244141e+00,3.607849836349487305e+00,3.784770488739013672e+00,3.765588760375976562e+00,5.000000000000000000e+00,5.000000000000000000e+00,5.000000000000000000e+00,5.000000000000000000e+00,5.000000000000000000e+00,5.000000000000000000e+00,5.000000000000000000e+00,5.000000000000000000e+00,4.864162445068359375e+00,4.673030853271484375e+00,4.496351718902587891e+00,4.332545757293701172e+00,4.180255413055419922e+00,4.038307189941406250e+00,3.905683755874633789e+00,3.781493425369262695e+00,3.664958000183105469e+00,3.555390119552612305e+00,3.452183723449707031e+00,3.354799747467041016e+00,3.262759685516357422e+00,3.175634622573852539e+00,3.093041896820068359e+00,3.014636039733886719e+00,2.940107583999633789e+00,2.869174718856811523e+00,2.801584005355834961e+00,2.737104415893554688e+00,2.675526380538940430e+00,2.616657972335815430e+00,2.560324192047119141e+00,2.506365060806274414e+00,2.454633235931396484e+00,2.404994010925292969e+00,2.357322454452514648e+00,2.311503887176513672e+00,2.267432689666748047e+00,2.225010633468627930e+00,2.184146642684936523e+00,2.144756555557250977e+00,2.106762170791625977e+00,2.070090293884277344e+00,2.034673690795898438e+00,2.000448226928710938e+00,1.967355251312255859e+00,1.935339212417602539e+00,1.904348850250244141e+00,1.874335050582885742e+00,1.845252633094787598e+00
5.000000000000000000e+00,5.000000000000000000e+00,5.000000000000000000e+00,5.000000000000000000e+00,5.000000000000000000e+00,5.000000000000000000e+00,5.000000000000000000e+00,5.000000000000000000e+00,5.000000000000000000e+00,5.000000000000000000e+00,5.000000000000000000e+00,5.000000000000000000e+00,5.000000000000000000e+00,5.000000000000000000e+00,5.000000000000000000e+00,5.000000000000000000e+00,5.000000000000000000e+00,5.000000000000000000e+00,5.000000000000000000e+00,5.000000000000000000e+00,5.000000000000000000e+00,5.000000000000000000e+00,5.000000000000000000e+00,3.630484342575073242e+00,3.582459688186645508e+00,3.540239095687866211e+00,3.542386293411254883e+00,3.551821708679199219e+00,3.594627618789672852e+00,5.000000000000000000e+00,3.765026569366455078e+00,5.000000000000000000e+00,5.000000000000000000e+00,5.000000000000000000e+00,5.000000000000000000e+00,5.000000000000000000e+00,5.000000000000000000e+00,5.000000000000000000e+00,5.000000000000000000e+00,4.864301204681396484e+00,4.673158645629882812e+00,4.496470451354980469e+00,4.332655906677246094e+00,4.180357933044433594e+00,4.038403511047363281e+00,3.905773401260375977e+00,3.781577348709106445e+00,3.665036916732788086e+00,3.555464267730712891e+00,3.452253818511962891e+00,3.354865789413452148e+00,3.262822151184082031e+00,3.175693988800048828e+00,3.093098163604736328e+00,3.014689445495605469e+00,2.940158367156982422e+00,2.869222879409790039e+00,2.801630258560180664e+00,2.737148523330688477e+00,2.675568580627441406e+00,2.616698265075683594e+00,2.560362815856933594e+00,2.506402015686035156e+00,2.454668760299682617e+00,2.405027866363525391e+00,2.357355117797851562e+00,2.311535358428955078e+00,2.267462730407714844e+00,2.225039720535278320e+00,2.184174537658691406e+00,2.144783735275268555e+00,2.106788158416748047e+00,2.070115566253662109e+00,2.034697771072387695e+00,2.000471830368041992e+00,1.967378139495849609e+00,1.935361385345458984e+00,1.904370069503784180e+00,1.874355554580688477e+00,1.845272660255432129e+00
5.000000000000000000e+00,5.000000000000000000e+00,5.000000000000000000e+00,5.000000000000000000e+00,5.000000000000000000e+00,5.000000000000000000e+00,5.000000000000000000e+00,5.000000000000000000e+00,5.000000000000000000e+00,5.000000000000000000e+00,5.000000000000000000e+00,5.000000000000000000e+00,5.000000000000000000e+00,5.000000000000000000e+00,5.000000000000000000e+00,5.000000000000000000e+00,5.000000000000000000e+00,5.000000000000000000e+00,5.000000000000000000e+00,5.000000000000000000e+00,5.000000000000000000e+00,5.000000000000000000e+00,5.000000000000000000e+00,3.614267110824584961e+00,3.577173709869384766e+00,3.535352945327758789e+00,3.542103290557861328e+00,3.561506509780883789e+00,3.610922813415527344e+00,5.000000000000000000e+00,3.734812736511230469e+00,5.000000000000000000e+00,5.000000000000000000e+00,5.000000000000000000e+00,5.000000000000000000e+00,5.000000000000000000e+00,5.000000000000000000e+00,5.000000000000000000e+00,5.000000000000000000e+00,4.864440441131591797e+00,4.673287391662597656e+00,4.496589183807373047e+00,4.332766532897949219e+00,4.180460929870605469e+00,4.038499355316162109e+00,3.905862808227539062e+00,3.781661510467529297e+00,3.665115833282470703e+00,3.555538654327392578e+00,3.452323675155639648e+00,3.354931831359863281e+00,3.262884616851806641e+00,3.175753116607666016e+00,3.093154191970825195e+00,3.014742851257324219e+00,2.940208911895751953e+00,2.869271516799926758e+00,2.801676273345947266e+00,2.737192630767822266e+00,2.675610542297363281e+00,2.616738557815551758e+00,2.560401201248168945e+00,2.506438970565795898e+00,2.454704046249389648e+00,2.405061960220336914e+00,2.357387542724609375e+00,2.311566829681396484e+00,2.267493009567260742e+00,2.225068807601928711e+00,2.184202671051025391e+00,2.144810676574707031e+00,2.106814384460449219e+00,2.070140838623046875e+00,2.034722328186035156e+00,2.000495195388793945e+00,1.967400789260864258e+00,1.935383200645446777e+00,1.904391407966613770e+00,1.874376296997070312e+00,1.845292568206787109e+00
5.000000000000000000e+00,5.000000000000000000e+00,5.000000000000000000e+00,5.000000000000000000e+00,5.000000000000000000e+00,5.000000000000000000e+00,5.000000000000000000e+00,5.000000000000000000e+00,5.000000000000000000e+00,5.000000000000000000e+00,5.000000000000000000e+00,5.000000000000000000e+00,5.000000000000000000e+00,5.000000000000000000e+00,5.000000000000000000e+00,5.000000000000000000e+00,5.000000000000000000e+00,5.000000000000000000e+00,5.000000000000000000e+00,5.000000000000000000e+00,5.000000000000000000e+00,5.000000000000000000e+00,5.000000000000000000e+00,3.606263637542724609e+00,3.575004339218139648e+00,3.501612663269042969e+00,3.515550851821899414e+00,3.590737819671630859e+00,3.626654148101806641e+00,5.000000000000000000e+00,3.729641199111938477e+00,3.721535682678222656e+00,5.000000000000000000e+00,5.000000000000000000e+00,5.000000000000000000e+00,5.000000000000000000e+00,5.000000000000000000e+00,5.000000000000000000e+00,5.000000000000000000e+00,4.864579677581787109e+00,4.673415660858154297e+00,4.496707916259765625e+00,4.332876682281494141e+00,4.180563449859619141e+00,4.038594722747802734e+00,3.905952453613281250e+00,3.781745433807373047e+00,3.665194749832153320e+00,3.555612802505493164e+00,3.452393770217895508e+00,3.354997873306274414e+00,3.262947082519531250e+00,3.175812482833862305e+00,3.093210458755493164e+00,3.014796495437622070e+00,2.940259695053100586e+00,2.869319915771484375e+00,2.801722288131713867e+00,2.737236499786376953e+00,2.675652503967285156e+00,2.616778612136840820e+00,2.560439825057983398e+00,2.506475925445556641e+00,2.454739332199096680e+00,2.405095815658569336e+00,2.357420206069946289e+00,2.311598062515258789e+00,2.267523288726806641e+00,2.225097656250000000e+00,2.184230804443359375e+00,2.144837617874145508e+00,2.106840610504150391e+00,2.070165872573852539e+00,2.034746646881103516e+00,2.000518798828125000e+00,1.967423558235168457e+00,1.935405373573303223e+00,1.904412627220153809e+00,1.874396800994873047e+00,1.845312714576721191e+00
5.000000000000000000e+00,5.000000000000000000e+00,5.000000000000000000e+00,5.000000000000000000e+00,5.000000000000000000e+00,5.000000000000000000e+00,5.000000000000000000e+00,5.000000000000000000e+00,5.000000000000000000e+00,5.000000000000000000e+00,5.000000000000000000e+00,5.000000000000000000e+00,5.000000000000000000e+00,5.000000000000000000e+00,5.000000000000000000e+00,5.000000000000000000e+00,5.000000000000000000e+00,5.000000000000000000e+00,5.000000000000000000e+00,5.000000000000000000e+00,5.000000000000000000e+00,5.000000000000000000e+00,5.000000000000000000e+00,3.592891216278076172e+00,3.589534997940063477e+00,3.481961011886596680e+00,3.485643863677978516e+00,3.616158962249755859e+00,3.618139982223510742e+00,3.677761554718017578e+00,5.000000000000000000e+00,3.681399822235107422e+00,5.000000000000000000e+00,5.000000000000000000e+00,5.000000000000000000e+00,5.000000000000000000e+00,5.000000000000000000e+00,5.000000000000000000e+00,5.000000000000000000e+00,4.864718437194824219e+00,4.673543930053710938e+00,4.496826648712158203e+00,4.332986831665039062e+00,4.180665969848632812e+00,4.038690567016601562e+00,3.906042098999023438e+00,3.781829357147216797e+00,3.665273427963256836e+00,3.555687189102172852e+00,3.452463626861572266e+00,3.355064392089843750e+00,3.263009548187255859e+00,3.175871849060058594e+00,3.093266487121582031e+00,3.014849901199340820e+00,2.940310478210449219e+00,2.869368314743041992e+00,2.801768302917480469e+00,2.737280607223510742e+00,2.675694465637207031e+00,2.616818904876708984e+00,2.560478210449218750e+00,2.506512641906738281e+00,2.454774856567382812e+00,2.405129671096801758e+00,2.357453107833862305e+00,2.311629533767700195e+00,2.267553567886352539e+00,2.225126743316650391e+00,2.184258699417114258e+00,2.144864559173583984e+00,2.106866598129272461e+00,2.070191144943237305e+00,2.034770965576171875e+00,2.000542163848876953e+00,1.967446208000183105e+00,1.935427188873291016e+00,1.904433965682983398e+00,1.874417543411254883e+00,1.845332622528076172e+00
5.000000000000000000e+00,5.000000000000000000e+00,5.000000000000000000e+00,5.000000000000000000e+00,5.000000000000000000e+00,5.000000000000000000e+00,5.000000000000000000e+00,5.000000000000000000e+00,5.000000000000000000e+00,5.000000000000000000e+00,5.000000000000000000e+00,5.000000000000000000e+00,5.000000000000000000e+00,5.000000000000000000e+00,5.000000000000000000e+00,5.000000000000000000e+00,5.000000000000000000e+00,5.000000000000000000e+00,5.000000000000000000e+00,5.000000000000000000e+00,5.000000000000000000e+00,5.000000000000000000e+00,5.000000000000000000e+00,3.592132806777954102e+00,5.000000000000000000e+00,3.472803354263305664e+00,3.474777936935424805e+00,3.528685331344604492e+00,3.613370656967163086e+00,3.677359342575073242e+00,5.000000000000000000e+00,5.000000000000000000e+00,5.000000000000000000e+00,5.000000000000000000e+00,5.000000000000000000e+00,5.000000000000000000e+00,5.000000000000000000e+00,5.000000000000000000e+00,5.000000000000000000e+00,4.864857196807861328e+00,4.673672199249267578e+00,4.496945381164550781e+00,4.333096981048583984e+00,4.180768489837646484e+00,4.038786411285400391e+00,3.906131505966186523e+00,3.781913757324218750e+00,3.665352344512939453e+00,3.555761575698852539e+00,3.452533721923828125e+00,3.355130434036254883e+00,3.263072252273559570e+00,3.175930976867675781e+00,3.093322753906250000e+00,3.014903306961059570e+00,2.940361261367797852e+00,2.869416475296020508e+00,2.801814556121826172e+00,2.737324476242065430e+00,2.675736665725708008e+00,2.616859197616577148e+00,2.560516595840454102e+00,2.506549596786499023e+00,2.454810380935668945e+00,2.405163764953613281e+00,2.357485771179199219e+00,2.311660766601562500e+00,2.267583847045898438e+00,2.225155830383300781e+00,2.184286832809448242e+00,2.144891738891601562e+00,2.106892585754394531e+00,2.070216178894042969e+00,2.034795284271240234e+00,2.000565767288208008e+00,1.967468976974487305e+00,1.935449361801147461e+00,1.904455184936523438e+00,1.874438285827636719e+00,1.845352649688720703e+00
5.000000000000000000e+00,5.000000000000000000e+00,5.000000000000000000e+00,5.000000000000000000e+00,5.000000000000000000e+00,5.000000000000000000e+00,5.000000000000000000e+00,5.000000000000000000e+00,5.000000000000000000e+00,5.000000000000000000e+00,5.000000000000000000e+00,5.000000000000000000e+00,5.000000000000000000e+00,5.000000000000000000e+00,5.000000000000000000e+00,5.000000000000000000e+00,5.000000000000000000e+00,5.000000000000000000e+00,5.000000000000000000e+00,5.000000000000000000e+00,5.000000000000000000e+00,5.000000000000000000e+00,5.000000000000000000e+00,3.568840265274047852e+00,3.560123443603515625e+00,3.488707304000854492e+00,3.465165138244628906e+00,3.506461143493652344e+00,3.621363162994384766e+00,3.689571142196655273e+00,5.000000000000000000e+00,5.000000000000000000e+00,5.000000000000000000e+00,5.000000000000000000e+00,5.000000000000000000e+00,5.000000000000000000e+00,5.000000000000000000e+00,5.000000000000000000e+00,5.000000000000000000e+00,4.864996433258056641e+00,4.673800468444824219e+00,4.497064113616943359e+00,4.333207130432128906e+00,4.180871486663818359e+00,4.038882255554199219e+00,3.906221151351928711e+00,3.781997680664062500e+00,3.665431261062622070e+00,3.555835962295532227e+00,3.452603578567504883e+00,3.355196475982666016e+00,3.263134717941284180e+00,3.175990343093872070e+00,3.093379020690917969e+00,3.014956474304199219e+00,2.940412044525146484e+00,2.869464874267578125e+00,2.801860570907592773e+00,2.737368583679199219e+00,2.675778865814208984e+00,2.616899251937866211e+00,2.560555458068847656e+00,2.506586551666259766e+00,2.454845666885375977e+00,2.405197620391845703e+00,2.357518196105957031e+00,2.311692237854003906e+00,2.267613887786865234e+00,2.225184917449951172e+00,2.184314727783203125e+00,2.144918680191040039e+00,2.106918573379516602e+00,2.070241451263427734e+00,2.034819602966308594e+00,2.000589132308959961e+00,1.967491626739501953e+00,1.935471415519714355e+00,1.904476642608642578e+00,1.874458789825439453e+00,1.845372557640075684e+00
5.000000000000000000e+00,5.000000000000000000e+00,5.000000000000000000e+00,5.000000000000000000e+00,5.000000000000000000e+00,5.000000000000000000e+00,5.000000000000000000e+00,5.000000000000000000e+00,5.000000000000000000e+00,5.000000000000000000e+00,5.000000000000000000e+00,5.000000000000000000e+00,5.000000000000000000e+00,5.000000000000000000e+00,5.000000000000000000e+00,5.000000000000000000e+00,5.000000000000000000e+00,5.000000000000000000e+00,5.000000000000000000e+00,5.000000000000000000e+00,5.000000000000000000e+00,5.000000000000000000e+00,5.000000000000000000e+00,3.559439182281494141e+00,5.000000000000000000e+00,3.518877983093261719e+00,3.449856996536254883e+00,3.484216213226318359e+00,3.629847526550292969e+00,5.000000000000000000e+00,5.000000000000000000e+00,5.000000000000000000e+00,5.000000000000000000e+00,5.000000000000000000e+00,5.000000000000000000e+00,5.000000000000000000e+00,5.000000000000000000e+00,5.000000000000000000e+00,5.000000000000000000e+00,4.865135669708251953e+00,4.673928737640380859e+00,4.497183322906494141e+00,4.333317756652832031e+00,4.180974006652832031e+00,4.038978099822998047e+00,3.906310796737670898e+00,3.782081604003906250e+00,3.665510177612304688e+00,3.555910110473632812e+00,3.452673673629760742e+00,3.355262756347656250e+00,3.263197183609008789e+00,3.176049470901489258e+00,3.093435049057006836e+00,3.015009880065917969e+00,2.940463066101074219e+00,2.869513273239135742e+00,2.801906824111938477e+00,2.737412691116333008e+00,2.675820827484130859e+00,2.616939544677734375e+00,2.560593843460083008e+00,2.506623268127441406e+00,2.454881191253662109e+00,2.405231714248657227e+00,2.357550859451293945e+00,2.311723709106445312e+00,2.267644166946411133e+00,2.225214004516601562e+00,2.184342861175537109e+00,2.144945621490478516e+00,2.106944799423217773e+00,2.070266723632812500e+00,2.034843921661376953e+00,2.000612735748291016e+00,1.967514514923095703e+00,1.935493350028991699e+00,1.904497742652893066e+00,1.874479532241821289e+00,1.845392704010009766e+00
5.000000000000000000e+00,5.000000000000000000e+00,5.000000000000000000e+00,5.000000000000000000e+00,5.000000000000000000e+00,5.000000000000000000e+00,5.000000000000000000e+00,5.000000000000000000e+00,5.000000000000000000e+00,5.000000000000000000e+00,5.000000000000000000e+00,5.000000000000000000e+00,5.000000000000000000e+00,5.000000000000000000e+00,5.000000000000000000e+00,5.000000000000000000e+00,5.000000000000000000e+00,5.000000000000000000e+00,5.000000000000000000e+00,5.000000000000000000e+00,5.000000000000000000e+00,5.000000000000000000e+00,5.000000000000000000e+00,5.000000000000000000e+00,5.000000000000000000e+00,5.000000000000000000e+00,3.445180416107177734e+00,3.458714723587036133e+00,3.638085842132568359e+00,5.000000000000000000e+00,5.000000000000000000e+00,5.000000000000000000e+00,5.000000000000000000e+00,5.000000000000000000e+00,5.000000000000000000e+00,5.000000000000000000e+00,5.000000000000000000e+00,5.000000000000000000e+00,5.000000000000000000e+00,4.865274429321289062e+00,4.674057006835937500e+00,4.497302055358886719e+00,4.333427906036376953e+00,4.181076526641845703e+00,4.039073944091796875e+00,3.906400442123413086e+00,3.782165765762329102e+00,3.665589094161987305e+00,3.555984258651733398e+00,3.452743530273437500e+00,3.355328798294067383e+00,3.263259649276733398e+00,3.176108598709106445e+00,3.093491554260253906e+00,3.015063285827636719e+00,2.940513849258422852e+00,2.869561672210693359e+00,2.801953077316284180e+00,2.737456560134887695e+00,2.675863027572631836e+00,2.616979837417602539e+00,2.560632467269897461e+00,2.506660223007202148e+00,2.454916477203369141e+00,2.405265569686889648e+00,2.357583522796630859e+00,2.311754941940307617e+00,2.267674207687377930e+00,2.225243330001831055e+00,2.184370756149291992e+00,2.144972801208496094e+00,2.106970787048339844e+00,2.070291757583618164e+00,2.034868240356445312e+00,2.000636339187622070e+00,1.967537045478820801e+00,1.935515403747558594e+00,1.904519200325012207e+00,1.874500036239624023e+00,1.845412492752075195e+00
5.000000000000000000e+00,5.000000000000000000e+00,5.000000000000000000e+00,5.000000000000000000e+00,5.000000000000000000e+00,5.000000000000000000e+00,5.000000000000000000e+00,5.000000000000000000e+00,5.000000000000000000e+00,5.000000000000000000e+00,5.000000000000000000e+00,5.000000000000000000e+00,5.000000000000000000e+00,5.000000000000000000e+00,5.000000000000000000e+00,5.000000000000000000e+00,5.000000000000000000e+00,5.000000000000000000e+00,5.000000000000000000e+00,5.000000000000000000e+00,5.000000000000000000e+00,5.000000000000000000e+00,5.000000000000000000e+00,5.000000000000000000e+00,5.000000000000000000e+00,5.000000000000000000e+00,3.456179857254028320e+00,3.458723783493041992e+00,3.645060300827026367e+00,5.000000000000000000e+00,5.000000000000000000e+00,5.000000000000000000e+00,5.000000000000000000e+00,5.000000000000000000e+00,5.000000000000000000e+00,5.000000000000000000e+00,5.000000000000000000e+00,5.000000000000000000e+00,5.000000000000000000e+00,4.865413665771484375e+00,4.674185276031494141e+00,4.497420787811279297e+00,4.333538055419921875e+00,4.181179523468017578e+00,4.039169788360595703e+00,3.906489849090576172e+00,3.782249689102172852e+00,3.665668010711669922e+00,3.556058645248413086e+00,3.452813863754272461e+00,3.355394840240478516e+00,3.263322591781616211e+00,3.176167964935302734e+00,3.093547821044921875e+00,3.015116691589355469e+00,2.940564632415771484e+00,2.869609832763671875e+00,2.801999092102050781e+00,2.737500667572021484e+00,2.675904989242553711e+00,2.617019891738891602e+00,2.560670852661132812e+00,2.506697177886962891e+00,2.454951763153076172e+00,2.405299663543701172e+00,2.357616186141967773e+00,2.311786413192749023e+00,2.267704486846923828e+00,2.225272417068481445e+00,2.184398889541625977e+00,2.144999742507934570e+00,2.106996774673461914e+00,2.070317029953002930e+00,2.034892559051513672e+00,2.000659942626953125e+00,1.967559933662414551e+00,1.935537338256835938e+00,1.904540419578552246e+00,1.874520778656005859e+00,1.845432639122009277e+00
5.000000000000000000e+00,5.000000000000000000e+00,5.000000000000000000e+00,5.000000000000000000e+00,5.000000000000000000e+00,5.000000000000000000e+00,5.000000000000000000e+00,5.000000000000000000e+00,5.000000000000000000e+00,5.000000000000000000e+00,5.000000000000000000e+00,5.000000000000000000e+00,5.000000000000000000e+00,5.000000000000000000e+00,5.000000000000000000e+00,5.000000000000000000e+00,5.000000000000000000e+00,5.000000000000000000e+00,5.000000000000000000e+00,5.000000000000000000e+00,5.000000000000000000e+00,5.000000000000000000e+00,5.000000000000000000e+00,5.000000000000000000e+00,5.000000000000000000e+00,5.000000000000000000e+00,3.470929622650146484e+00,3.484462022781372070e+00,3.661958694458007812e+00,5.000000000000000000e+00,5.000000000000000000e+00,5.000000000000000000e+00,5.000000000000000000e+00,5.000000000000000000e+00,5.000000000000000000e+00,5.000000000000000000e+00,5.000000000000000000e+00,5.000000000000000000e+00,5.000000000000000000e+00,4.865550994873046875e+00,4.674313545227050781e+00,4.497539520263671875e+00,4.333648681640625000e+00,4.181282043457031250e+00,4.039265632629394531e+00,3.906579494476318359e+00,3.782333612442016602e+00,3.665747165679931641e+00,3.556132793426513672e+00,3.452883958816528320e+00,3.355460882186889648e+00,3.263385057449340820e+00,3.176227092742919922e+00,3.093604087829589844e+00,3.015170097351074219e+00,2.940615415573120117e+00,2.869658231735229492e+00,2.802045106887817383e+00,2.737544536590576172e+00,2.675946950912475586e+00,2.617060184478759766e+00,2.560709476470947266e+00,2.506734132766723633e+00,2.454987287521362305e+00,2.405333757400512695e+00,2.357648849487304688e+00,2.311817884445190430e+00,2.267734766006469727e+00,2.225301504135131836e+00,2.184426784515380859e+00,2.145026922225952148e+00,2.107023000717163086e+00,2.070342063903808594e+00,2.034916877746582031e+00,2.000683307647705078e+00,1.967582583427429199e+00,1.935559391975402832e+00,1.904561758041381836e+00,1.874541282653808594e+00,1.845452785491943359e+00
5.000000000000000000e+00,5.000000000000000000e+00,5.000000000000000000e+00,5.000000000000000000e+00,5.000000000000000000e+00,5.000000000000000000e+00,5.000000000000000000e+00,5.000000000000000000e+00,5.000000000000000000e+00,5.000000000000000000e+00,5.000000000000000000e+00,5.000000000000000000e+00,5.000000000000000000e+00,5.000000000000000000e+00,5.000000000000000000e+00,5.000000000000000000e+00,5.000000000000000000e+00,5.000000000000000000e+00,5.000000000000000000e+00,5.000000000000000000e+00,5.000000000000000000e+00,5.000000000000000000e+00,5.000000000000000000e+00,5.000000000000000000e+00,5.000000000000000000e+00,5.000000000000000000e+00,3.486850500106811523e+00,3.515853881835937500e+00,5.000000000000000000e+00,5.000000000000000000e+00,5.000000000000000000e+00,5.000000000000000000e+00,5.000000000000000000e+00,5.000000000000000000e+00,5.000000000000000000e+00,5.000000000000000000e+00,5.000000000000000000e+00,5.000000000000000000e+00,5.000000000000000000e+00,4.865689277648925781e+00,4.674440860748291016e+00,4.497658252716064453e+00,4.333758831024169922e+00,4.181385040283203125e+00,4.039361476898193359e+00,3.906669616699218750e+00,3.782417535781860352e+00,3.665826082229614258e+00,3.556207180023193359e+00,3.452953815460205078e+00,3.355527162551879883e+00,3.263447523117065430e+00,3.176286458969116211e+00,3.093660116195678711e+00,3.015223503112792969e+00,2.940666198730468750e+00,2.869706630706787109e+00,2.802091360092163086e+00,2.737588644027709961e+00,2.675989151000976562e+00,2.617100477218627930e+00,2.560747861862182617e+00,2.506771087646484375e+00,2.455022573471069336e+00,2.405367612838745117e+00,2.357681512832641602e+00,2.311849355697631836e+00,2.267764806747436523e+00,2.225330352783203125e+00,2.184454917907714844e+00,2.145053863525390625e+00,2.107048988342285156e+00,2.070367336273193359e+00,2.034941196441650391e+00,2.000706911087036133e+00,1.967605352401733398e+00,1.935581326484680176e+00,1.904583215713500977e+00,1.874562025070190430e+00,1.845472574234008789e+00
5.000000000000000000e+00,5.000000000000000000e+00,5.000000000000000000e+00,5.000000000000000000e+00,5.000000000000000000e+00,5.000000000000000000e+00,5.000000000000000000e+00,5.000000000000000000e+00,5.000000000000000000e+00,5.000000000000000000e+00,5.000000000000000000e+00,5.000000000000000000e+00,5.000000000000000000e+00,5.000000000000000000e+00,5.000000000000000000e+00,5.000000000000000000e+00,5.000000000000000000e+00,5.000000000000000000e+00,5.000000000000000000e+00,5.000000000000000000e+00,5.000000000000000000e+00,5.000000000000000000e+00,5.000000000000000000e+00,5.000000000000000000e+00,5.000000000000000000e+00,5.000000000000000000e+00,3.498178243637084961e+00,3.515470504760742188e+00,5.000000000000000000e+00,5.000000000000000000e+00,5.000000000000000000e+00,5.000000000000000000e+00,5.000000000000000000e+00,5.000000000000000000e+00,5.000000000000000000e+00,5.000000000000000000e+00,5.000000000000000000e+00,5.000000000000000000e+00,5.000000000000000000e+00,4.865827083587646484e+00,4.674568176269531250e+00,4.497777462005615234e+00,4.333869457244873047e+00,4.181487560272216797e+00,4.039457321166992188e+00,3.906759262084960938e+00,3.782501697540283203e+00,3.665904998779296875e+00,3.556281328201293945e+00,3.453023910522460938e+00,3.355593204498291016e+00,3.263510227203369141e+00,3.176345586776733398e+00,3.093716382980346680e+00,3.015276908874511719e+00,2.940716981887817383e+00,2.869755268096923828e+00,2.802137374877929688e+00,2.737632751464843750e+00,2.676031112670898438e+00,2.617140769958496094e+00,2.560786485671997070e+00,2.506808042526245117e+00,2.455058097839355469e+00,2.405401706695556641e+00,2.357714176177978516e+00,2.311880588531494141e+00,2.267795085906982422e+00,2.225359439849853516e+00,2.184482812881469727e+00,2.145080804824829102e+00,2.107074975967407227e+00,2.070392370223999023e+00,2.034965515136718750e+00,2.000730276107788086e+00,1.967628240585327148e+00,1.935603380203247070e+00,1.904604434967041016e+00,1.874582529067993164e+00,1.845492720603942871e+00
5.000000000000000000e+00,5.000000000000000000e+00,5.000000000000000000e+00,5.000000000000000000e+00,5.000000000000000000e+00,5.000000000000000000e+00,5.000000000000000000e+00,5.000000000000000000e+00,5.000000000000000000e+00,5.000000000000000000e+00,5.000000000000000000e+00,5.000000000000000000e+00,5.000000000000000000e+00,5.000000000000000000e+00,5.000000000000000000e+00,5.000000000000000000e+00,5.000000000000000000e+00,5.000000000000000000e+00,5.000000000000000000e+00,5.000000000000000000e+00,5.000000000000000000e+00,5.000000000000000000e+00,5.000000000000000000e+00,5.000000000000000000e+00,5.000000000000000000e+00,5.000000000000000000e+00,3.511592149734497070e+00,3.514355421066284180e+00,5.000000000000000000e+00,5.000000000000000000e+00,5.000000000000000000e+00,5.000000000000000000e+00,5.000000000000000000e+00,5.000000000000000000e+00,5.000000000000000000e+00,5.000000000000000000e+00,5.000000000000000000e+00,5.000000000000000000e+00,5.000000000000000000e+00,4.865964889526367188e+00,4.674695491790771484e+00,4.497894287109375000e+00,4.333979606628417969e+00,4.181590080261230469e+00,4.039553165435791016e+00,3.906848907470703125e+00,3.782585620880126953e+00,3.665983915328979492e+00,3.556355476379394531e+00,3.453094005584716797e+00,3.355659246444702148e+00,3.263572692871093750e+00,3.176404953002929688e+00,3.093772649765014648e+00,3.015330553054809570e+00,2.940767765045166016e+00,2.869803667068481445e+00,2.802183389663696289e+00,2.737676858901977539e+00,2.676073074340820312e+00,2.617181062698364258e+00,2.560824871063232422e+00,2.506844997406005859e+00,2.455093383789062500e+00,2.405435562133789062e+00,2.357746839523315430e+00,2.311912059783935547e+00,2.267825365066528320e+00,2.225388526916503906e+00,2.184510946273803711e+00,2.145107984542846680e+00,2.107101202011108398e+00,2.070417642593383789e+00,2.034989833831787109e+00,2.000753879547119141e+00,1.967650890350341797e+00,1.935625314712524414e+00,1.904625773429870605e+00,1.874603271484375000e+00,1.845512628555297852e+00
5.000000000000000000e+00,5.000000000000000000e+00,5.000000000000000000e+00,5.000000000000000000e+00,5.000000000000000000e+00,5.000000000000000000e+00,5.000000000000000000e+00,5.000000000000000000e+00,5.000000000000000000e+00,5.000000000000000000e+00,5.000000000000000000e+00,5.000000000000000000e+00,5.000000000000000000e+00,5.000000000000000000e+00,5.000000000000000000e+00,5.000000000000000000e+00,5.000000000000000000e+00,5.000000000000000000e+00,5.000000000000000000e+00,5.000000000000000000e+00,5.000000000000000000e+00,5.000000000000000000e+00,5.000000000000000000e+00,5.000000000000000000e+00,5.000000000000000000e+00,5.000000000000000000e+00,3.527421951293945312e+00,3.516139268875122070e+00,5.000000000000000000e+00,5.000000000000000000e+00,5.000000000000000000e+00,5.000000000000000000e+00,5.000000000000000000e+00,5.000000000000000000e+00,5.000000000000000000e+00,5.000000000000000000e+00,5.000000000000000000e+00,5.000000000000000000e+00,5.000000000000000000e+00,4.866103172302246094e+00,4.674822807312011719e+00,4.498012065887451172e+00,4.334088802337646484e+00,4.181693077087402344e+00,4.039649009704589844e+00,3.906938314437866211e+00,3.782669544219970703e+00,3.666062831878662109e+00,3.556429862976074219e+00,3.453163862228393555e+00,3.355725765228271484e+00,3.263635158538818359e+00,3.176464319229125977e+00,3.093828678131103516e+00,3.015383958816528320e+00,2.940818548202514648e+00,2.869851827621459961e+00,2.802229642868041992e+00,2.737720727920532227e+00,2.676115274429321289e+00,2.617221117019653320e+00,2.560863256454467773e+00,2.506881713867187500e+00,2.455128908157348633e+00,2.405469655990600586e+00,2.357779502868652344e+00,2.311943292617797852e+00,2.267855644226074219e+00,2.225417613983154297e+00,2.184539079666137695e+00,2.145134925842285156e+00,2.107127189636230469e+00,2.070442914962768555e+00,2.035014152526855469e+00,2.000777244567871094e+00,1.967673659324645996e+00,1.935647368431091309e+00,1.904646992683410645e+00,1.874623775482177734e+00,1.845532774925231934e+00
5.000000000000000000e+00,5.000000000000000000e+00,5.000000000000000000e+00,5.000000000000000000e+00,5.000000000000000000e+00,5.000000000000000000e+00,5.000000000000000000e+00,5.000000000000000000e+00,5.000000000000000000e+00,5.000000000000000000e+00,5.000000000000000000e+00,5.000000000000000000e+00,5.000000000000000000e+00,5.000000000000000000e+00,5.000000000000000000e+00,5.000000000000000000e+00,5.000000000000000000e+00,5.000000000000000000e+00,5.000000000000000000e+00,5.000000000000000000e+00,5.000000000000000000e+00,5.000000000000000000e+00,5.000000000000000000e+00,5.000000000000000000e+00,5.000000000000000000e+00,3.967684745788574219e+00,3.543611526489257812e+00,3.525792598724365234e+00,5.000000000000000000e+00,5.000000000000000000e+00,5.000000000000000000e+00,5.000000000000000000e+00,5.000000000000000000e+00,5.000000000000000000e+00,5.000000000000000000e+00,5.000000000000000000e+00,5.000000000000000000e+00,5.000000000000000000e+00,5.000000000000000000e+00,4.866240978240966797e+00,4.674950122833251953e+00,4.498129844665527344e+00,4.334197998046875000e+00,4.181794643402099609e+00,4.039744853973388672e+00,3.907027959823608398e+00,3.782754182815551758e+00,3.666141748428344727e+00,3.556504487991333008e+00,3.453233957290649414e+00,3.355791807174682617e+00,3.263697624206542969e+00,3.176523685455322266e+00,3.093884944915771484e+00,3.015437126159667969e+00,2.940869092941284180e+00,2.869900226593017578e+00,2.802275657653808594e+00,2.737764835357666016e+00,2.676157236099243164e+00,2.617261409759521484e+00,2.560901880264282227e+00,2.506918668746948242e+00,2.455164432525634766e+00,2.405503511428833008e+00,2.357812166213989258e+00,2.311974763870239258e+00,2.267885923385620117e+00,2.225446701049804688e+00,2.184567213058471680e+00,2.145161867141723633e+00,2.107153415679931641e+00,2.070467948913574219e+00,2.035038471221923828e+00,2.000800848007202148e+00,1.967696309089660645e+00,1.935669302940368652e+00,1.904668331146240234e+00,1.874644517898559570e+00,1.845552563667297363e+00
4.875762462615966797e+00,4.874551773071289062e+00,4.873341083526611328e+00,4.872130870819091797e+00,4.870921611785888672e+00,4.869712829589843750e+00,4.868504524230957031e+00,4.867297172546386719e+00,4.866090297698974609e+00,4.864883899688720703e+00,4.863677978515625000e+00,4.862473011016845703e+00,4.861268043518066406e+00,4.860064506530761719e+00,4.858860969543457031e+00,4.857658386230468750e+00,4.856455802917480469e+00,4.855254173278808594e+00,4.854053497314453125e+00,4.852853298187255859e+00,4.851653575897216797e+00,4.850454330444335938e+00,4.849255561828613281e+00,4.848057270050048828e+00,4.846859931945800781e+00,3.946521520614624023e+00,4.844467163085937500e+00,3.522031068801879883e+00,4.842076301574707031e+00,4.840881824493408203e+00,4.839687824249267578e+00,4.838494777679443359e+00,4.837301731109619141e+00,4.836109638214111328e+00,4.834918022155761719e+00,4.833726882934570312e+00,4.832536697387695312e+00,4.831346988677978516e+00,4.830157756805419922e+00,4.828969001770019531e+00,4.675077438354492188e+00,4.498248100280761719e+00,4.334307670593261719e+00,4.181896686553955078e+00,4.039840698242187500e+00,3.907117605209350586e+00,3.782838106155395508e+00,3.666220664978027344e+00,3.556578636169433594e+00,3.453304052352905273e+00,3.355858087539672852e+00,3.263760328292846680e+00,3.176582813262939453e+00,3.093941211700439453e+00,3.015490531921386719e+00,2.940919876098632812e+00,2.869948625564575195e+00,2.802321672439575195e+00,2.737808704376220703e+00,2.676199436187744141e+00,2.617301702499389648e+00,2.560940504074096680e+00,2.506955623626708984e+00,2.455199718475341797e+00,2.405537605285644531e+00,2.357844829559326172e+00,2.312006235122680664e+00,2.267915964126586914e+00,2.225475788116455078e+00,2.184595108032226562e+00,2.145189046859741211e+00,2.107179403305053711e+00,2.070493221282958984e+00,2.035062789916992188e+00,2.000824451446533203e+00,1.967719197273254395e+00,1.935691356658935547e+00,1.904689550399780273e+00,1.874665260314941406e+00,1.845572710037231445e+00
3.778574466705322266e+00,3.777846813201904297e+00,3.777119636535644531e+00,3.776392698287963867e+00,3.775665998458862305e+00,3.774939775466918945e+00,3.774213790893554688e+00,3.773487806320190430e+00,3.772762298583984375e+00,3.772037506103515625e+00,3.771312475204467773e+00,3.770587921142578125e+00,3.769863367080688477e+00,3.769139289855957031e+00,3.768415451049804688e+00,3.767691850662231445e+00,3.766968727111816406e+00,3.766245603561401367e+00,3.765522956848144531e+00,3.764800548553466797e+00,3.764078140258789062e+00,3.763356685638427734e+00,3.762635231018066406e+00,3.761913776397705078e+00,3.761192798614501953e+00,3.760472059249877930e+00,3.759751319885253906e+00,3.454023838043212891e+00,3.450154304504394531e+00,3.757591485977172852e+00,3.756872177124023438e+00,3.756152868270874023e+00,3.755434036254882812e+00,3.754715919494628906e+00,3.753997564315795898e+00,3.753279447555541992e+00,3.752561807632446289e+00,3.751844167709350586e+00,3.751127004623413086e+00,3.750410079956054688e+00,3.749693393707275391e+00,3.748976945877075195e+00,3.748260974884033203e+00,3.747545003890991211e+00,3.746829509735107422e+00,3.746114492416381836e+00,3.745399475097656250e+00,3.666299581527709961e+00,3.556653022766113281e+00,3.453373908996582031e+00,3.355924129486083984e+00,3.263822793960571289e+00,3.176642179489135742e+00,3.093997240066528320e+00,3.015543937683105469e+00,2.940970659255981445e+00,2.869997024536132812e+00,2.802368164062500000e+00,2.737852811813354492e+00,2.676241636276245117e+00,2.617341756820678711e+00,2.560979127883911133e+00,2.506992578506469727e+00,2.455235242843627930e+00,2.405571460723876953e+00,2.357877492904663086e+00,2.312037467956542969e+00,2.267946243286132812e+00,2.225504875183105469e+00,2.184623241424560547e+00,2.145215988159179688e+00,2.107205390930175781e+00,2.070518493652343750e+00,2.035087108612060547e+00,2.000848054885864258e+00,1.967741727828979492e+00,1.935713529586791992e+00,1.904711008071899414e+00,1.874685764312744141e+00,1.845592617988586426e+00
3.084477186203002930e+00,3.083992481231689453e+00,3.083507776260375977e+00,3.083023309707641602e+00,3.082539319992065430e+00,3.082055091857910156e+00,3.081571102142333984e+00,3.081087112426757812e+00,3.080603599548339844e+00,3.080119848251342773e+00,3.079636573791503906e+00,3.079153299331665039e+00,3.078670263290405273e+00,3.078187227249145508e+00,3.077704429626464844e+00,3.077221870422363281e+00,3.076739549636840820e+00,3.076257228851318359e+00,3.075774908065795898e+00,3.075293064117431641e+00,3.074810981750488281e+00,3.074329376220703125e+00,3.073847770690917969e+00,3.073366165161132812e+00,3.072885036468505859e+00,3.072403907775878906e+00,3.071922779083251953e+00,3.071441888809204102e+00,3.070961475372314453e+00,3.070481061935424805e+00,3.070000648498535156e+00,3.069520473480224609e+00,3.069040298461914062e+00,3.068560361862182617e+00,3.068080663681030273e+00,3.067600965499877930e+00,3.067121505737304688e+00,3.066642045974731445e+00,3.066163063049316406e+00,3.065684080123901367e+00,3.065205335617065430e+00,3.064726591110229492e+00,3.064248085021972656e+00,3.063769578933715820e+00,3.063291311264038086e+00,3.062813282012939453e+00,3.062335252761840820e+00,3.061857461929321289e+00,3.061379671096801758e+00,3.060902118682861328e+00,3.060424804687500000e+00,3.059947490692138672e+00,3.059470653533935547e+00,3.058993816375732422e+00,3.015597343444824219e+00,2.941021919250488281e+00,2.870045423507690430e+00,2.802414178848266602e+00,2.737896919250488281e+00,2.676283597946166992e+00,2.617382049560546875e+00,2.561017513275146484e+00,2.507029294967651367e+00,2.455270528793334961e+00,2.405605554580688477e+00,2.357910156250000000e+00,2.312068939208984375e+00,2.267976522445678711e+00,2.225533962249755859e+00,2.184651136398315430e+00,2.145243167877197266e+00,2.107231616973876953e+00,2.070543527603149414e+00,2.035111427307128906e+00,2.000871419906616211e+00,1.967764616012573242e+00,1.935735344886779785e+00,1.904732227325439453e+00,1.874706506729125977e+00,1.845612764358520508e+00
2.605808734893798828e+00,2.605462789535522461e+00,2.605116844177246094e+00,2.604771137237548828e+00,2.604425430297851562e+00,2.604079723358154297e+00,2.603734254837036133e+00,2.603388786315917969e+00,2.603043317794799805e+00,2.602698087692260742e+00,2.602352857589721680e+00,2.602007865905761719e+00,2.601663112640380859e+00,2.601318120956420898e+00,2.600973367691040039e+00,2.600628614425659180e+00,2.600284099578857422e+00,2.599939584732055664e+00,2.599595069885253906e+00,2.599250793457031250e+00,2.598906517028808594e+00,2.598562240600585938e+00,2.598218202590942383e+00,2.597874164581298828e+00,2.597530603408813477e+00,2.597186803817749023e+00,2.596843004226684570e+00,2.596499443054199219e+00,2.596155881881713867e+00,2.595812320709228516e+00,2.595468997955322266e+00,2.595125913619995117e+00,2.594782590866088867e+00,2.594439506530761719e+00,2.594096660614013672e+00,2.593753576278686523e+00,2.593410968780517578e+00,2.593068361282348633e+00,2.592725753784179688e+00,2.592383146286010742e+00,2.592040777206420898e+00,2.591698408126831055e+00,2.591356039047241211e+00,2.591013908386230469e+00,2.590671777725219727e+00,2.590329885482788086e+00,2.589987993240356445e+00,2.589646100997924805e+00,2.589304685592651367e+00,2.588963031768798828e+00,2.588621616363525391e+00,2.588279962539672852e+00,2.587938785552978516e+00,2.587597370147705078e+00,2.587256193161010742e+00,2.586915254592895508e+00,2.586574077606201172e+00,2.586233377456665039e+00,2.585892438888549805e+00,2.585551738739013672e+00,2.585211277008056641e+00,2.561056137084960938e+00,2.507066249847412109e+00,2.455306053161621094e+00,2.405639410018920898e+00,2.357942819595336914e+00,2.312100410461425781e+00,2.268006563186645508e+00,2.225563287734985352e+00,2.184679269790649414e+00,2.145270109176635742e+00,2.107257604598999023e+00,2.070568799972534180e+00,2.035135746002197266e+00,2.000895023345947266e+00,1.967787265777587891e+00,1.935757517814636230e+00,1.904753565788269043e+00,1.874727129936218262e+00,1.845632553100585938e+00
2.255749464035034180e+00,2.255490064620971680e+00,2.255230903625488281e+00,2.254971504211425781e+00,2.254712343215942383e+00,2.254453420639038086e+00,2.254194259643554688e+00,2.253935337066650391e+00,2.253676414489746094e+00,2.253417491912841797e+00,2.253158569335937500e+00,2.252899885177612305e+00,2.252641201019287109e+00,2.252382516860961914e+00,2.252124071121215820e+00,2.251865386962890625e+00,2.251607179641723633e+00,2.251348495483398438e+00,2.251090288162231445e+00,2.250832080841064453e+00,2.250573873519897461e+00,2.250315666198730469e+00,2.250057458877563477e+00,2.249799489974975586e+00,2.249541521072387695e+00,2.249283790588378906e+00,2.249026060104370117e+00,2.248768329620361328e+00,2.248510599136352539e+00,2.248252868652343750e+00,2.247995376586914062e+00,2.247738122940063477e+00,2.247480630874633789e+00,2.247223138809204102e+00,2.246965885162353516e+00,2.246708631515502930e+00,2.246451377868652344e+00,2.246194124221801758e+00,2.245937108993530273e+00,2.245680093765258789e+00,2.245423078536987305e+00,2.245166063308715820e+00,2.244909286499023438e+00,2.244652748107910156e+00,2.244395971298217773e+00,2.244139194488525391e+00,2.243882656097412109e+00,2.243626117706298828e+00,2.243369579315185547e+00,2.243113040924072266e+00,2.242856740951538086e+00,2.242600440979003906e+00,2.242344141006469727e+00,2.242087841033935547e+00,2.241831779479980469e+00,2.241575717926025391e+00,2.241319656372070312e+00,2.241063833236694336e+00,2.240807771682739258e+00,2.240551948547363281e+00,2.240296125411987305e+00,2.240040540695190430e+00,2.239784717559814453e+00,2.239529132843017578e+00,2.239273548126220703e+00,2.239017963409423828e+00,2.238762617111206055e+00,2.238507270812988281e+00,2.225592374801635742e+00,2.184707164764404297e+00,2.145297050476074219e+00,2.107283592224121094e+00,2.070594072341918945e+00,2.035160064697265625e+00,2.000918388366699219e+00,1.967810153961181641e+00,1.935779333114624023e+00,1.904774785041809082e+00,1.874747872352600098e+00,1.845652699470520020e+00
1.988607764244079590e+00,1.988406300544738770e+00,1.988204836845397949e+00,1.988003373146057129e+00,1.987801790237426758e+00,1.987600445747375488e+00,1.987399101257324219e+00,1.987197875976562500e+00,1.986996412277221680e+00,1.986795186996459961e+00,1.986594080924987793e+00,1.986392974853515625e+00,1.986191868782043457e+00,1.985990643501281738e+00,1.985789656639099121e+00,1.985588669776916504e+00,1.985387802124023438e+00,1.985186696052551270e+00,1.984985947608947754e+00,1.984785199165344238e+00,1.984584450721740723e+00,1.984383702278137207e+00,1.984182834625244141e+00,1.983982205390930176e+00,1.983781576156616211e+00,1.983581066131591797e+00,1.983380317687988281e+00,1.983179926872253418e+00,1.982979536056518555e+00,1.982779145240783691e+00,1.982578754425048828e+00,1.982378244400024414e+00,1.982177972793579102e+00,1.981977820396423340e+00,1.981777667999267578e+00,1.981577277183532715e+00,1.981377243995666504e+00,1.981177091598510742e+00,1.980977177619934082e+00,1.980777144432067871e+00,1.980576992034912109e+00,1.980377078056335449e+00,1.980177283287048340e+00,1.979977488517761230e+00,1.979777455329895020e+00,1.979577779769897461e+00,1.979377985000610352e+00,1.979178428649902344e+00,1.978978753089904785e+00,1.978778958320617676e+00,1.978579521179199219e+00,1.978379964828491211e+00,1.978180527687072754e+00,1.977980852127075195e+00,1.977781534194946289e+00,1.977582216262817383e+00,1.977382898330688477e+00,1.977183699607849121e+00,1.976984262466430664e+00,1.976785063743591309e+00,1.976585984230041504e+00,1.976386904716491699e+00,1.976187586784362793e+00,1.975988507270812988e+00,1.975789546966552734e+00,1.975590705871582031e+00,1.975391745567321777e+00,1.975192666053771973e+00,1.974993944168090820e+00,1.974795103073120117e+00,1.974596381187438965e+00,1.974397540092468262e+00,1.974198818206787109e+00,1.974000215530395508e+00,1.973801732063293457e+00,1.967832684516906738e+00,1.935801506042480469e+00,1.904796242713928223e+00,1.874768376350402832e+00,1.845672845840454102e+00
1.778039813041687012e+00,1.777878761291503906e+00,1.777717709541320801e+00,1.777556657791137695e+00,1.777395486831665039e+00,1.777234435081481934e+00,1.777073502540588379e+00,1.776912569999694824e+00,1.776751518249511719e+00,1.776590704917907715e+00,1.776429772377014160e+00,1.776269078254699707e+00,1.776108264923095703e+00,1.775947332382202148e+00,1.775786638259887695e+00,1.775625944137573242e+00,1.775465250015258789e+00,1.775304436683654785e+00,1.775143861770629883e+00,1.774983286857604980e+00,1.774822711944580078e+00,1.774662137031555176e+00,1.774501562118530273e+00,1.774341106414794922e+00,1.774180650711059570e+00,1.774020195007324219e+00,1.773859620094299316e+00,1.773699283599853516e+00,1.773539066314697266e+00,1.773378729820251465e+00,1.773218512535095215e+00,1.773058056831359863e+00,1.772897839546203613e+00,1.772737741470336914e+00,1.772577524185180664e+00,1.772417187690734863e+00,1.772257208824157715e+00,1.772097110748291016e+00,1.771937131881713867e+00,1.771777153015136719e+00,1.771616935729980469e+00,1.771456956863403320e+00,1.771297097206115723e+00,1.771137237548828125e+00,1.770977139472961426e+00,1.770817399024963379e+00,1.770657539367675781e+00,1.770497798919677734e+00,1.770338058471679688e+00,1.770178198814392090e+00,1.770018458366394043e+00,1.769858837127685547e+00,1.769699215888977051e+00,1.769539475440979004e+00,1.769379854202270508e+00,1.769220352172851562e+00,1.769060850143432617e+00,1.768901348114013672e+00,1.768741726875305176e+00,1.768582344055175781e+00,1.768422961235046387e+00,1.768263578414916992e+00,1.768104076385498047e+00,1.767944693565368652e+00,1.767785429954528809e+00,1.767626166343688965e+00,1.767467021942138672e+00,1.767307639122009277e+00,1.767148494720458984e+00,1.766989350318908691e+00,1.766830205917358398e+00,1.766670942306518555e+00,1.766511917114257812e+00,1.766352891921997070e+00,1.766193866729736328e+00,1.766034960746765137e+00,1.765875816345214844e+00,1.765716910362243652e+00,1.765558123588562012e+00,1.765399217605590820e+00
1.607795119285583496e+00,1.607663393020629883e+00,1.607531666755676270e+00,1.607399940490722656e+00,1.607268095016479492e+00,1.607136487960815430e+00,1.607004880905151367e+00,1.606873273849487305e+00,1.606741666793823242e+00,1.606610059738159180e+00,1.606478452682495117e+00,1.606346964836120605e+00,1.606215476989746094e+00,1.606083869934082031e+00,1.605952382087707520e+00,1.605821013450622559e+00,1.605689644813537598e+00,1.605558156967163086e+00,1.605426669120788574e+00,1.605295300483703613e+00,1.605164051055908203e+00,1.605032682418823242e+00,1.604901313781738281e+00,1.604770064353942871e+00,1.604638814926147461e+00,1.604507565498352051e+00,1.604376435279846191e+00,1.604245066642761230e+00,1.604113936424255371e+00,1.603982806205749512e+00,1.603851795196533203e+00,1.603720545768737793e+00,1.603589415550231934e+00,1.603458404541015625e+00,1.603327393531799316e+00,1.603196382522583008e+00,1.603065252304077148e+00,1.602934360504150391e+00,1.602803349494934082e+00,1.602672457695007324e+00,1.602541446685791016e+00,1.602410554885864258e+00,1.602279782295227051e+00,1.602148890495300293e+00,1.602018117904663086e+00,1.601887106895446777e+00,1.601756453514099121e+00,1.601625680923461914e+00,1.601494908332824707e+00,1.601364135742187500e+00,1.601233482360839844e+00,1.601102828979492188e+00,1.600972175598144531e+00,1.600841522216796875e+00,1.600710749626159668e+00,1.600580215454101562e+00,1.600449681282043457e+00,1.600319147109985352e+00,1.600188493728637695e+00,1.600058078765869141e+00,1.599927544593811035e+00,1.599797129631042480e+00,1.599666714668273926e+00,1.599536180496215820e+00,1.599405765533447266e+00,1.599275350570678711e+00,1.599145054817199707e+00,1.599014639854431152e+00,1.598884344100952148e+00,1.598754048347473145e+00,1.598623752593994141e+00,1.598493576049804688e+00,1.598363161087036133e+00,1.598232984542846680e+00,1.598102807998657227e+00,1.597972750663757324e+00,1.597842454910278320e+00,1.597712397575378418e+00,1.597582221031188965e+00,1.597452163696289062e+00
1.467302918434143066e+00,1.467193245887756348e+00,1.467083454132080078e+00,1.466973781585693359e+00,1.466863989830017090e+00,1.466754436492919922e+00,1.466644763946533203e+00,1.466535091400146484e+00,1.466425538063049316e+00,1.466315865516662598e+00,1.466206312179565430e+00,1.466096758842468262e+00,1.465987205505371094e+00,1.465877532958984375e+00,1.465768098831176758e+00,1.465658545494079590e+00,1.465549111366271973e+00,1.465439677238464355e+00,1.465330123901367188e+00,1.465220689773559570e+00,1.465111255645751953e+00,1.465001821517944336e+00,1.464892387390136719e+00,1.464783072471618652e+00,1.464673638343811035e+00,1.464564323425292969e+00,1.464455008506774902e+00,1.464345693588256836e+00,1.464236378669738770e+00,1.464127063751220703e+00,1.464017868041992188e+00,1.463908553123474121e+00,1.463799357414245605e+00,1.463690161705017090e+00,1.463580965995788574e+00,1.463471770286560059e+00,1.463362574577331543e+00,1.463253378868103027e+00,1.463144302368164062e+00,1.463035225868225098e+00,1.462926030158996582e+00,1.462816953659057617e+00,1.462707877159118652e+00,1.462598919868469238e+00,1.462489843368530273e+00,1.462380766868591309e+00,1.462271809577941895e+00,1.462162852287292480e+00,1.462053894996643066e+00,1.461944937705993652e+00,1.461835980415344238e+00,1.461727023124694824e+00,1.461618185043334961e+00,1.461509346961975098e+00,1.461400270462036133e+00,1.461291551589965820e+00,1.461182713508605957e+00,1.461073875427246094e+00,1.460965156555175781e+00,1.460856199264526367e+00,1.460747480392456055e+00,1.460638761520385742e+00,1.460530042648315430e+00,1.460421204566955566e+00,1.460312485694885254e+00,1.460203886032104492e+00,1.460095167160034180e+00,1.459986567497253418e+00,1.459877729415893555e+00,1.459769129753112793e+00,1.459660649299621582e+00,1.459552049636840820e+00,1.459443330764770508e+00,1.459334850311279297e+00,1.459226250648498535e+00,1.459117770195007324e+00,1.459009289741516113e+00,1.458900690078735352e+00,1.458792209625244141e+00,1.458683729171752930e+00
1.349390625953674316e+00,1.349297761917114258e+00,1.349205017089843750e+00,1.349112272262573242e+00,1.349019527435302734e+00,1.348926663398742676e+00,1.348833918571472168e+00,1.348741173744201660e+00,1.348648548126220703e+00,1.348555684089660645e+00,1.348463058471679688e+00,1.348370432853698730e+00,1.348277688026428223e+00,1.348185062408447266e+00,1.348092436790466309e+00,1.347999811172485352e+00,1.347907185554504395e+00,1.347814559936523438e+00,1.347721934318542480e+00,1.347629308700561523e+00,1.347536802291870117e+00,1.347444295883178711e+00,1.347351789474487305e+00,1.347259163856506348e+00,1.347166657447814941e+00,1.347074151039123535e+00,1.346981763839721680e+00,1.346889138221740723e+00,1.346796751022338867e+00,1.346704244613647461e+00,1.346611857414245605e+00,1.346519470214843750e+00,1.346426963806152344e+00,1.346334576606750488e+00,1.346242189407348633e+00,1.346149921417236328e+00,1.346057415008544922e+00,1.345965027809143066e+00,1.345872759819030762e+00,1.345780491828918457e+00,1.345688223838806152e+00,1.345595836639404297e+00,1.345503568649291992e+00,1.345411300659179688e+00,1.345319032669067383e+00,1.345226645469665527e+00,1.345134496688842773e+00,1.345042228698730469e+00,1.344950079917907715e+00,1.344857931137084961e+00,1.344765663146972656e+00,1.344673514366149902e+00,1.344581365585327148e+00,1.344489216804504395e+00,1.344396948814392090e+00,1.344304919242858887e+00,1.344212770462036133e+00,1.344120740890502930e+00,1.344028592109680176e+00,1.343936443328857422e+00,1.343844413757324219e+00,1.343752384185791016e+00,1.343660354614257812e+00,1.343568325042724609e+00,1.343476295471191406e+00,1.343384265899658203e+00,1.343292355537414551e+00,1.343200445175170898e+00,1.343108296394348145e+00,1.343016386032104492e+00,1.342924475669860840e+00,1.342832565307617188e+00,1.342740654945373535e+00,1.342648744583129883e+00,1.342556834220886230e+00,1.342465043067932129e+00,1.342373132705688477e+00,1.342281222343444824e+00,1.342189431190490723e+00,1.342097640037536621e+00
1.249019503593444824e+00,1.248939990997314453e+00,1.248860478401184082e+00,1.248780965805053711e+00,1.248701572418212891e+00,1.248622059822082520e+00,1.248542547225952148e+00,1.248463153839111328e+00,1.248383760452270508e+00,1.248304247856140137e+00,1.248224854469299316e+00,1.248145461082458496e+00,1.248066067695617676e+00,1.247986674308776855e+00,1.247907161712646484e+00,1.247827887535095215e+00,1.247748494148254395e+00,1.247669100761413574e+00,1.247589707374572754e+00,1.247510433197021484e+00,1.247431159019470215e+00,1.247351765632629395e+00,1.247272491455078125e+00,1.247193098068237305e+00,1.247113823890686035e+00,1.247034668922424316e+00,1.246955394744873047e+00,1.246876120567321777e+00,1.246796846389770508e+00,1.246717572212219238e+00,1.246638417243957520e+00,1.246559262275695801e+00,1.246479988098144531e+00,1.246400713920593262e+00,1.246321558952331543e+00,1.246242403984069824e+00,1.246163249015808105e+00,1.246084094047546387e+00,1.246004939079284668e+00,1.245925784111022949e+00,1.245846748352050781e+00,1.245767474174499512e+00,1.245688438415527344e+00,1.245609402656555176e+00,1.245530247688293457e+00,1.245451211929321289e+00,1.245372056961059570e+00,1.245293021202087402e+00,1.245214104652404785e+00,1.245135068893432617e+00,1.245055913925170898e+00,1.244976997375488281e+00,1.244897961616516113e+00,1.244818925857543945e+00,1.244740009307861328e+00,1.244660973548889160e+00,1.244582056999206543e+00,1.244503140449523926e+00,1.244424223899841309e+00,1.244345188140869141e+00,1.244266271591186523e+00,1.244187355041503906e+00,1.244108438491821289e+00,1.244029641151428223e+00,1.243950605392456055e+00,1.243871808052062988e+00,1.243793010711669922e+00,1.243714094161987305e+00,1.243635177612304688e+00,1.243556380271911621e+00,1.243477582931518555e+00,1.243398785591125488e+00,1.243319988250732422e+00,1.243241190910339355e+00,1.243162393569946289e+00,1.243083596229553223e+00,1.243004918098449707e+00,1.242926120758056641e+00,1.242847323417663574e+00,1.242768645286560059e+00
1.162546515464782715e+00,1.162477493286132812e+00,1.162408709526062012e+00,1.162339806556701660e+00,1.162271022796630859e+00,1.162202000617980957e+00,1.162133216857910156e+00,1.162064433097839355e+00,1.161995530128479004e+00,1.161926746368408203e+00,1.161857843399047852e+00,1.161789059638977051e+00,1.161720275878906250e+00,1.161651492118835449e+00,1.161582708358764648e+00,1.161513924598693848e+00,1.161445140838623047e+00,1.161376476287841797e+00,1.161307692527770996e+00,1.161238908767700195e+00,1.161170244216918945e+00,1.161101460456848145e+00,1.161032795906066895e+00,1.160964012145996094e+00,1.160895347595214844e+00,1.160826683044433594e+00,1.160758018493652344e+00,1.160689353942871094e+00,1.160620570182800293e+00,1.160551905632019043e+00,1.160483360290527344e+00,1.160414695739746094e+00,1.160346031188964844e+00,1.160277366638183594e+00,1.160208702087402344e+00,1.160140156745910645e+00,1.160071611404418945e+00,1.160002946853637695e+00,1.159934282302856445e+00,1.159865736961364746e+00,1.159797191619873047e+00,1.159728646278381348e+00,1.159660100936889648e+00,1.159591555595397949e+00,1.159523010253906250e+00,1.159454464912414551e+00,1.159385919570922852e+00,1.159317374229431152e+00,1.159248948097229004e+00,1.159180402755737305e+00,1.159111857414245605e+00,1.159043431282043457e+00,1.158974885940551758e+00,1.158906459808349609e+00,1.158838033676147461e+00,1.158769488334655762e+00,1.158701062202453613e+00,1.158632636070251465e+00,1.158564329147338867e+00,1.158495783805847168e+00,1.158427357673645020e+00,1.158359050750732422e+00,1.158290624618530273e+00,1.158222317695617676e+00,1.158153891563415527e+00,1.158085465431213379e+00,1.158017158508300781e+00,1.157948851585388184e+00,1.157880425453186035e+00,1.157812118530273438e+00,1.157743811607360840e+00,1.157675504684448242e+00,1.157607197761535645e+00,1.157538771629333496e+00,1.157470583915710449e+00,1.157402276992797852e+00,1.157333970069885254e+00,1.157265663146972656e+00,1.157197475433349609e+00,1.157129168510437012e+00
1.087271571159362793e+00,1.087211251258850098e+00,1.087151050567626953e+00,1.087090849876403809e+00,1.087030649185180664e+00,1.086970329284667969e+00,1.086910128593444824e+00,1.086849927902221680e+00,1.086789727210998535e+00,1.086729526519775391e+00,1.086669206619262695e+00,1.086609125137329102e+00,1.086548924446105957e+00,1.086488723754882812e+00,1.086428642272949219e+00,1.086368441581726074e+00,1.086308240890502930e+00,1.086248159408569336e+00,1.086187958717346191e+00,1.086127758026123047e+00,1.086067676544189453e+00,1.086007595062255859e+00,1.085947513580322266e+00,1.085887432098388672e+00,1.085827231407165527e+00,1.085767149925231934e+00,1.085707068443298340e+00,1.085646986961364746e+00,1.085586905479431152e+00,1.085526823997497559e+00,1.085466742515563965e+00,1.085406661033630371e+00,1.085346698760986328e+00,1.085286617279052734e+00,1.085226535797119141e+00,1.085166573524475098e+00,1.085106492042541504e+00,1.085046529769897461e+00,1.084986448287963867e+00,1.084926486015319824e+00,1.084866523742675781e+00,1.084806561470031738e+00,1.084746479988098145e+00,1.084686517715454102e+00,1.084626555442810059e+00,1.084566593170166016e+00,1.084506630897521973e+00,1.084446668624877930e+00,1.084386706352233887e+00,1.084326863288879395e+00,1.084266901016235352e+00,1.084206938743591309e+00,1.084146976470947266e+00,1.084087133407592773e+00,1.084027290344238281e+00,1.083967328071594238e+00,1.083907365798950195e+00,1.083847522735595703e+00,1.083787679672241211e+00,1.083727836608886719e+00,1.083667874336242676e+00,1.083608031272888184e+00,1.083548188209533691e+00,1.083488345146179199e+00,1.083428502082824707e+00,1.083368659019470215e+00,1.083308815956115723e+00,1.083249092102050781e+00,1.083189249038696289e+00,1.083129405975341797e+00,1.083069682121276855e+00,1.083009839057922363e+00,1.082950115203857422e+00,1.082890272140502930e+00,1.082830429077148438e+00,1.082770705223083496e+00,1.082710981369018555e+00,1.082651257514953613e+00,1.082591414451599121e+00,1.082531690597534180e+00
1.021152019500732422e+00,1.021098852157592773e+00,1.021045684814453125e+00,1.020992517471313477e+00,1.020939469337463379e+00,1.020886301994323730e+00,1.020833134651184082e+00,1.020780086517333984e+00,1.020726919174194336e+00,1.020673871040344238e+00,1.020620703697204590e+00,1.020567655563354492e+00,1.020514488220214844e+00,1.020461440086364746e+00,1.020408391952514648e+00,1.020355224609375000e+00,1.020302176475524902e+00,1.020249128341674805e+00,1.020196080207824707e+00,1.020143032073974609e+00,1.020089983940124512e+00,1.020036935806274414e+00,1.019983887672424316e+00,1.019930958747863770e+00,1.019877910614013672e+00,1.019824862480163574e+00,1.019771814346313477e+00,1.019718885421752930e+00,1.019665837287902832e+00,1.019612789154052734e+00,1.019559860229492188e+00,1.019506931304931641e+00,1.019453883171081543e+00,1.019400835037231445e+00,1.019347906112670898e+00,1.019294977188110352e+00,1.019242048263549805e+00,1.019189000129699707e+00,1.019136071205139160e+00,1.019083142280578613e+00,1.019030213356018066e+00,1.018977284431457520e+00,1.018924355506896973e+00,1.018871426582336426e+00,1.018818497657775879e+00,1.018765687942504883e+00,1.018712759017944336e+00,1.018659830093383789e+00,1.018606901168823242e+00,1.018554091453552246e+00,1.018501162528991699e+00,1.018448233604431152e+00,1.018395423889160156e+00,1.018342614173889160e+00,1.018289685249328613e+00,1.018236875534057617e+00,1.018183946609497070e+00,1.018131136894226074e+00,1.018078327178955078e+00,1.018025517463684082e+00,1.017972588539123535e+00,1.017919898033142090e+00,1.017867088317871094e+00,1.017814278602600098e+00,1.017761349678039551e+00,1.017708659172058105e+00,1.017655849456787109e+00,1.017603039741516113e+00,1.017550230026245117e+00,1.017497420310974121e+00,1.017444729804992676e+00,1.017391920089721680e+00,1.017339229583740234e+00,1.017286419868469238e+00,1.017233610153198242e+00,1.017180919647216797e+00,1.017128229141235352e+00,1.017075538635253906e+00,1.017022728919982910e+00,1.016970038414001465e+00
9.626132249832153320e-01,9.625660777091979980e-01,9.625188112258911133e-01,9.624714851379394531e-01,9.624243378639221191e-01,9.623770713806152344e-01,9.623298048973083496e-01,9.622827172279357910e-01,9.622354507446289062e-01,9.621883034706115723e-01,9.621410965919494629e-01,9.620938897132873535e-01,9.620467424392700195e-01,9.619995355606079102e-01,9.619524478912353516e-01,9.619052410125732422e-01,9.618580341339111328e-01,9.618109464645385742e-01,9.617637395858764648e-01,9.617166519165039062e-01,9.616694450378417969e-01,9.616222977638244629e-01,9.615752100944519043e-01,9.615280628204345703e-01,9.614808559417724609e-01,9.614338278770446777e-01,9.613866806030273438e-01,9.613395929336547852e-01,9.612924456596374512e-01,9.612452983856201172e-01,9.611982703208923340e-01,9.611511826515197754e-01,9.611041545867919922e-01,9.610570073127746582e-01,9.610098600387573242e-01,9.609628915786743164e-01,9.609157443046569824e-01,9.608687758445739746e-01,9.608216881752014160e-01,9.607745409011840820e-01,9.607275724411010742e-01,9.606804847717285156e-01,9.606333971023559570e-01,9.605864286422729492e-01,9.605393409729003906e-01,9.604923725128173828e-01,9.604453444480895996e-01,9.603982567787170410e-01,9.603512883186340332e-01,9.603042602539062500e-01,9.602572917938232422e-01,9.602102637290954590e-01,9.601632356643676758e-01,9.601163268089294434e-01,9.600692987442016602e-01,9.600223898887634277e-01,9.599753618240356445e-01,9.599283337593078613e-01,9.598814249038696289e-01,9.598343968391418457e-01,9.597874283790588379e-01,9.597405195236206055e-01,9.596935510635375977e-01,9.596466422080993652e-01,9.595996737480163574e-01,9.595527052879333496e-01,9.595057964324951172e-01,9.594588279724121094e-01,9.594119787216186523e-01,9.593650102615356445e-01,9.593180418014526367e-01,9.592712521553039551e-01,9.592242836952209473e-01,9.591774344444274902e-01,9.591305255889892578e-01,9.590835571289062500e-01,9.590367674827575684e-01,9.589897990226745605e-01,9.589428901672363281e-01,9.588961005210876465e-01
9.104221463203430176e-01,9.103798866271972656e-01,9.103375673294067383e-01,9.102954268455505371e-01,9.102531671524047852e-01,9.102109670639038086e-01,9.101687073707580566e-01,9.101264476776123047e-01,9.100842475891113281e-01,9.100419878959655762e-01,9.099998474121093750e-01,9.099575877189636230e-01,9.099153876304626465e-01,9.098732471466064453e-01,9.098309874534606934e-01,9.097887277603149414e-01,9.097466468811035156e-01,9.097043871879577637e-01,9.096622467041015625e-01,9.096200466156005859e-01,9.095778465270996094e-01,9.095357060432434082e-01,9.094935059547424316e-01,9.094514250755310059e-01,9.094092249870300293e-01,9.093670248985290527e-01,9.093249440193176270e-01,9.092827439308166504e-01,9.092406630516052246e-01,9.091984629631042480e-01,9.091563224792480469e-01,9.091142416000366211e-01,9.090721011161804199e-01,9.090299010276794434e-01,9.089878201484680176e-01,9.089456796646118164e-01,9.089036583900451660e-01,9.088615179061889648e-01,9.088193774223327637e-01,9.087772965431213379e-01,9.087351560592651367e-01,9.086931347846984863e-01,9.086509943008422852e-01,9.086089134216308594e-01,9.085668921470642090e-01,9.085247516632080078e-01,9.084827303886413574e-01,9.084406495094299316e-01,9.083985090255737305e-01,9.083565473556518555e-01,9.083144068717956543e-01,9.082723259925842285e-01,9.082303643226623535e-01,9.081882834434509277e-01,9.081462621688842773e-01,9.081041812896728516e-01,9.080621600151062012e-01,9.080201387405395508e-01,9.079781174659729004e-01,9.079361557960510254e-01,9.078940749168395996e-01,9.078520536422729492e-01,9.078100919723510742e-01,9.077680110931396484e-01,9.077260494232177734e-01,9.076840281486511230e-01,9.076420068740844727e-01,9.076001048088073730e-01,9.075580239295959473e-01,9.075161218643188477e-01,9.074741005897521973e-01,9.074320793151855469e-01,9.073901772499084473e-01,9.073481559753417969e-01,9.073061943054199219e-01,9.072642922401428223e-01,9.072222709655761719e-01,9.071803689002990723e-01,9.071384072303771973e-01,9.070964455604553223e-01
8.635993599891662598e-01,8.635613918304443359e-01,8.635233640670776367e-01,8.634853363037109375e-01,8.634473681449890137e-01,8.634093403816223145e-01,8.633713722229003906e-01,8.633333444595336914e-01,8.632953166961669922e-01,8.632574081420898438e-01,8.632193803787231445e-01,8.631813526153564453e-01,8.631434440612792969e-01,8.631054162979125977e-01,8.630675077438354492e-01,8.630294799804687500e-01,8.629915118217468262e-01,8.629536032676696777e-01,8.629156351089477539e-01,8.628777265548706055e-01,8.628396987915039062e-01,8.628017306327819824e-01,8.627638220787048340e-01,8.627258539199829102e-01,8.626880049705505371e-01,8.626500368118286133e-01,8.626120686531066895e-01,8.625741600990295410e-01,8.625361919403076172e-01,8.624982237815856934e-01,8.624603748321533203e-01,8.624224066734313965e-01,8.623845577239990234e-01,8.623466491699218750e-01,8.623086810111999512e-01,8.622708320617675781e-01,8.622329235076904297e-01,8.621950745582580566e-01,8.621571660041809082e-01,8.621191978454589844e-01,8.620814085006713867e-01,8.620434999465942383e-01,8.620056509971618652e-01,8.619677424430847168e-01,8.619298338890075684e-01,8.618920445442199707e-01,8.618541359901428223e-01,8.618162274360656738e-01,8.617784380912780762e-01,8.617405295372009277e-01,8.617027401924133301e-01,8.616648316383361816e-01,8.616269826889038086e-01,8.615891933441162109e-01,8.615512847900390625e-01,8.615134954452514648e-01,8.614756464958190918e-01,8.614377975463867188e-01,8.614000082015991211e-01,8.613621592521667480e-01,8.613243699073791504e-01,8.612865209579467773e-01,8.612486720085144043e-01,8.612109422683715820e-01,8.611730933189392090e-01,8.611352443695068359e-01,8.610975146293640137e-01,8.610596656799316406e-01,8.610219359397888184e-01,8.609841465950012207e-01,8.609462976455688477e-01,8.609085679054260254e-01,8.608707785606384277e-01,8.608330488204956055e-01,8.607952594757080078e-01,8.607574105262756348e-01,8.607197403907775879e-01,8.606819510459899902e-01,8.606442213058471680e-01,8.606064319610595703e-01
8.213572502136230469e-01,8.213228583335876465e-01,8.212884068489074707e-01,8.212540745735168457e-01,8.212196826934814453e-01,8.211853504180908203e-01,8.211509585380554199e-01,8.211165666580200195e-01,8.210822343826293945e-01,8.210478425025939941e-01,8.210135102272033691e-01,8.209791183471679688e-01,8.209447264671325684e-01,8.209104537963867188e-01,8.208760619163513184e-01,8.208417892456054688e-01,8.208073973655700684e-01,8.207730054855346680e-01,8.207387328147888184e-01,8.207043409347534180e-01,8.206700086593627930e-01,8.206357359886169434e-01,8.206013441085815430e-01,8.205670714378356934e-01,8.205327391624450684e-01,8.204984068870544434e-01,8.204641342163085938e-01,8.204298019409179688e-01,8.203955292701721191e-01,8.203611969947814941e-01,8.203268647193908691e-01,8.202925920486450195e-01,8.202582597732543945e-01,8.202239871025085449e-01,8.201897144317626953e-01,8.201553821563720703e-01,8.201211094856262207e-01,8.200868368148803711e-01,8.200525045394897461e-01,8.200182914733886719e-01,8.199839591979980469e-01,8.199497461318969727e-01,8.199154138565063477e-01,8.198811411857604980e-01,8.198469281196594238e-01,8.198126554489135742e-01,8.197784423828125000e-01,8.197441101074218750e-01,8.197098374366760254e-01,8.196756243705749512e-01,8.196413516998291016e-01,8.196071982383728027e-01,8.195729255676269531e-01,8.195386528968811035e-01,8.195044398307800293e-01,8.194701671600341797e-01,8.194360136985778809e-01,8.194017410278320312e-01,8.193674683570861816e-01,8.193333148956298828e-01,8.192990422248840332e-01,8.192648291587829590e-01,8.192306756973266602e-01,8.191964030265808105e-01,8.191622495651245117e-01,8.191280364990234375e-01,8.190937638282775879e-01,8.190596103668212891e-01,8.190253973007202148e-01,8.189912438392639160e-01,8.189570307731628418e-01,8.189228177070617676e-01,8.188886642456054688e-01,8.188544511795043945e-01,8.188203573226928711e-01,8.187861442565917969e-01,8.187519311904907227e-01,8.187178373336791992e-01,8.186836242675781250e-01,8.186494112014770508e-01
