5.000000000000000000e+00,5.000000000000000000e+00,5.000000000000000000e+00,5.000000000000000000e+00,5.000000000000000000e+00,5.000000000000000000e+00,5.000000000000000000e+00,5.000000000000000000e+00,5.000000000000000000e+00,5.000000000000000000e+00,5.000000000000000000e+00,5.000000000000000000e+00,5.000000000000000000e+00,5.000000000000000000e+00,5.000000000000000000e+00,5.000000000000000000e+00,5.000000000000000000e+00,5.000000000000000000e+00,5.000000000000000000e+00,5.000000000000000000e+00,5.000000000000000000e+00,5.000000000000000000e+00,5.000000000000000000e+00,5.000000000000000000e+00,5.000000000000000000e+00,5.000000000000000000e+00,5.000000000000000000e+00,5.000000000000000000e+00,5.000000000000000000e+00,5.000000000000000000e+00,5.000000000000000000e+00,5.000000000000000000e+00,1.921439886093139648e+00,1.840233564376831055e+00,1.819000482559204102e+00,1.798251748085021973e+00,1.805247187614440918e+00,1.828025102615356445e+00,1.962710857391357422e+00,1.912292480468750000e+00,1.901088595390319824e+00,1.894847750663757324e+00,1.928038120269775391e+00,4.180859565734863281e+00,2.011742353439331055e+00,1.989852428436279297e+00,3.781965732574462891e+00,3.665394544601440430e+00,3.555794477462768555e+00,3.452558517456054688e+00,3.355147838592529297e+00,3.263083219528198242e+00,3.175936222076416016e+00,3.093322753906250000e+00,3.014898300170898438e+00,2.940352201461791992e+00,2.869403600692749023e+00,2.801798105239868164e+00,2.737304925918579102e+00,2.675714254379272461e+00,2.616833925247192383e+00,2.560489416122436523e+00,2.506520032882690430e+00,2.454778671264648438e+00,2.405130386352539062e+00,2.357450723648071289e+00,2.311624526977539062e+00,2.267545938491821289e+00,2.225116968154907227e+00,2.184246778488159180e+00,2.144850730895996094e+00,2.106850862503051758e+00,2.070173740386962891e+00,2.034751892089843750e+00,2.000521898269653320e+00,1.967424511909484863e+00,1.935404062271118164e+00,1.904409646987915039e+00,1.874392032623291016e+00,1.845306277275085449e+00
5.000000000000000000e+00,5.000000000000000000e+00,5.000000000000000000e+00,5.000000000000000000e+00,4.952402591705322266e+00,5.000000000000000000e+00,5.000000000000000000e+00,5.000000000000000000e+00,5.000000000000000000e+00,5.000000000000000000e+00,5.000000000000000000e+00,5.000000000000000000e+00,5.000000000000000000e+00,5.000000000000000000e+00,5.000000000000000000e+00,5.000000000000000000e+00,5.000000000000000000e+00,5.000000000000000000e+00,5.000000000000000000e+00,5.000000000000000000e+00,5.000000000000000000e+00,5.000000000000000000e+00,5.000000000000000000e+00,5.000000000000000000e+00,5.000000000000000000e+00,5.000000000000000000e+00,5.000000000000000000e+00,5.000000000000000000e+00,5.000000000000000000e+00,5.000000000000000000e+00,5.000000000000000000e+00,5.000000000000000000e+00,1.921718835830688477e+00,1.832231402397155762e+00,1.803174853324890137e+00,1.782783746719360352e+00,1.791052222251892090e+00,1.811747431755065918e+00,1.914647579193115234e+00,1.898970484733581543e+00,1.890907883644104004e+00,1.887732982635498047e+00,1.921586751937866211e+00,4.180963993072509766e+00,4.038960456848144531e+00,1.997411131858825684e+00,3.782051086425781250e+00,3.665474414825439453e+00,3.555869817733764648e+00,3.452629566192626953e+00,3.355215072631835938e+00,3.263146638870239258e+00,3.175996303558349609e+00,3.093379735946655273e+00,3.014952421188354492e+00,2.940403699874877930e+00,2.869452714920043945e+00,2.801844835281372070e+00,2.737349510192871094e+00,2.675756931304931641e+00,2.616874933242797852e+00,2.560528516769409180e+00,2.506557464599609375e+00,2.454814672470092773e+00,2.405164957046508789e+00,2.357483863830566406e+00,2.311656475067138672e+00,2.267576694488525391e+00,2.225146532058715820e+00,2.184275388717651367e+00,2.144878149032592773e+00,2.106877326965332031e+00,2.070199251174926758e+00,2.034776687622070312e+00,2.000545740127563477e+00,1.967447519302368164e+00,1.935426473617553711e+00,1.904431343078613281e+00,1.874413013458251953e+00,1.845326542854309082e+00
5.000000000000000000e+00,5.000000000000000000e+00,5.000000000000000000e+00,4.978534221649169922e+00,4.939033031463623047e+00,5.000000000000000000e+00,5.000000000000000000e+00,5.000000000000000000e+00,5.000000000000000000e+00,5.000000000000000000e+00,5.000000000000000000e+00,5.000000000000000000e+00,5.000000000000000000e+00,5.000000000000000000e+00,5.000000000000000000e+00,5.000000000000000000e+00,5.000000000000000000e+00,5.000000000000000000e+00,5.000000000000000000e+00,5.000000000000000000e+00,5.000000000000000000e+00,5.000000000000000000e+00,5.000000000000000000e+00,5.000000000000000000e+00,5.000000000000000000e+00,5.000000000000000000e+00,5.000000000000000000e+00,5.000000000000000000e+00,5.000000000000000000e+00,5.000000000000000000e+00,5.000000000000000000e+00,5.000000000000000000e+00,1.902088522911071777e+00,1.853645563125610352e+00,1.789113402366638184e+00,1.767579317092895508e+00,1.776619315147399902e+00,1.794917345046997070e+00,1.944384574890136719e+00,1.895338058471679688e+00,1.887422204017639160e+00,1.884067177772521973e+00,1.917764902114868164e+00,4.181067943572998047e+00,1.989203095436096191e+00,1.970171928405761719e+00,3.782136201858520508e+00,3.665554523468017578e+00,3.555945158004760742e+00,3.452700614929199219e+00,3.355282068252563477e+00,3.263210296630859375e+00,3.176056385040283203e+00,3.093436717987060547e+00,3.015006780624389648e+00,2.940455436706542969e+00,2.869501590728759766e+00,2.801891803741455078e+00,2.737394332885742188e+00,2.675799608230590820e+00,2.616915702819824219e+00,2.560567617416381836e+00,2.506594896316528320e+00,2.454850673675537109e+00,2.405199527740478516e+00,2.357517004013061523e+00,2.311688184738159180e+00,2.267607450485229492e+00,2.225176095962524414e+00,2.184303760528564453e+00,2.144905567169189453e+00,2.106903791427612305e+00,2.070224761962890625e+00,2.034801244735717773e+00,2.000569581985473633e+00,1.967470645904541016e+00,1.935448765754699707e+00,1.904452919960021973e+00,1.874433994293212891e+00,1.845346808433532715e+00
5.000000000000000000e+00,5.000000000000000000e+00,5.000000000000000000e+00,5.000000000000000000e+00,4.954862117767333984e+00,5.000000000000000000e+00,5.000000000000000000e+00,5.000000000000000000e+00,5.000000000000000000e+00,5.000000000000000000e+00,5.000000000000000000e+00,5.000000000000000000e+00,5.000000000000000000e+00,5.000000000000000000e+00,5.000000000000000000e+00,5.000000000000000000e+00,5.000000000000000000e+00,5.000000000000000000e+00,5.000000000000000000e+00,5.000000000000000000e+00,5.000000000000000000e+00,5.000000000000000000e+00,5.000000000000000000e+00,5.000000000000000000e+00,5.000000000000000000e+00,5.000000000000000000e+00,5.000000000000000000e+00,5.000000000000000000e+00,5.000000000000000000e+00,5.000000000000000000e+00,5.000000000000000000e+00,5.000000000000000000e+00,1.873134851455688477e+00,1.869137525558471680e+00,1.775521993637084961e+00,1.752702951431274414e+00,1.760715007781982422e+00,1.778397202491760254e+00,1.944754838943481445e+00,1.892593502998352051e+00,1.886229991912841797e+00,1.882363080978393555e+00,1.915999293327331543e+00,4.181172370910644531e+00,4.039154529571533203e+00,1.976571083068847656e+00,1.968930125236511230e+00,3.665634632110595703e+00,3.556020498275756836e+00,3.452771663665771484e+00,3.355349302291870117e+00,3.263273715972900391e+00,3.176116466522216797e+00,3.093493938446044922e+00,3.015060901641845703e+00,2.940506935119628906e+00,2.869550704956054688e+00,2.801938533782958984e+00,2.737438917160034180e+00,2.675842285156250000e+00,2.616956472396850586e+00,2.560606479644775391e+00,2.506632328033447266e+00,2.454886436462402344e+00,2.405233860015869141e+00,2.357550144195556641e+00,2.311720132827758789e+00,2.267637968063354492e+00,2.225205659866333008e+00,2.184332132339477539e+00,2.144932985305786133e+00,2.106930255889892578e+00,2.070250272750854492e+00,2.034826040267944336e+00,2.000593423843383789e+00,1.967493772506713867e+00,1.935471057891845703e+00,1.904474496841430664e+00,1.874454855918884277e+00,1.845367193222045898e+00
5.000000000000000000e+00,4.897352695465087891e+00,4.927399635314941406e+00,4.930861949920654297e+00,5.000000000000000000e+00,5.000000000000000000e+00,5.000000000000000000e+00,5.000000000000000000e+00,5.000000000000000000e+00,5.000000000000000000e+00,5.000000000000000000e+00,5.000000000000000000e+00,5.000000000000000000e+00,5.000000000000000000e+00,5.000000000000000000e+00,5.000000000000000000e+00,5.000000000000000000e+00,5.000000000000000000e+00,5.000000000000000000e+00,5.000000000000000000e+00,5.000000000000000000e+00,5.000000000000000000e+00,5.000000000000000000e+00,5.000000000000000000e+00,5.000000000000000000e+00,5.000000000000000000e+00,5.000000000000000000e+00,5.000000000000000000e+00,5.000000000000000000e+00,5.000000000000000000e+00,5.000000000000000000e+00,5.000000000000000000e+00,1.854288220405578613e+00,1.855660080909729004e+00,1.758701682090759277e+00,1.736310482025146484e+00,1.746807813644409180e+00,1.762530207633972168e+00,1.943144202232360840e+00,1.889375805854797363e+00,1.884615182876586914e+00,1.880661964416503906e+00,1.916017293930053711e+00,4.181276321411132812e+00,4.039251804351806641e+00,3.906558990478515625e+00,1.941689372062683105e+00,3.665714740753173828e+00,3.556095838546752930e+00,3.452842712402343750e+00,3.355416297912597656e+00,3.263337135314941406e+00,3.176176548004150391e+00,3.093550920486450195e+00,3.015115022659301758e+00,2.940558433532714844e+00,2.869599819183349609e+00,2.801985263824462891e+00,2.737483501434326172e+00,2.675884962081909180e+00,2.616997241973876953e+00,2.560645580291748047e+00,2.506669759750366211e+00,2.454922437667846680e+00,2.405268430709838867e+00,2.357583284378051758e+00,2.311751842498779297e+00,2.267668724060058594e+00,2.225235223770141602e+00,2.184360504150390625e+00,2.144960403442382812e+00,2.106956720352172852e+00,2.070275783538818359e+00,2.034850597381591797e+00,2.000617265701293945e+00,1.967516779899597168e+00,1.935493469238281250e+00,1.904496192932128906e+00,1.874475836753845215e+00,1.845387458801269531e+00
5.000000000000000000e+00,4.880836009979248047e+00,4.894320487976074219e+00,4.896106243133544922e+00,4.939671039581298828e+00,4.983207225799560547e+00,5.000000000000000000e+00,5.000000000000000000e+00,5.000000000000000000e+00,5.000000000000000000e+00,5.000000000000000000e+00,5.000000000000000000e+00,5.000000000000000000e+00,5.000000000000000000e+00,5.000000000000000000e+00,5.000000000000000000e+00,5.000000000000000000e+00,5.000000000000000000e+00,5.000000000000000000e+00,5.000000000000000000e+00,5.000000000000000000e+00,5.000000000000000000e+00,5.000000000000000000e+00,5.000000000000000000e+00,5.000000000000000000e+00,5.000000000000000000e+00,5.000000000000000000e+00,5.000000000000000000e+00,5.000000000000000000e+00,5.000000000000000000e+00,5.000000000000000000e+00,5.000000000000000000e+00,1.833455443382263184e+00,5.000000000000000000e+00,1.744577765464782715e+00,1.720221519470214844e+00,1.733118653297424316e+00,1.745185256004333496e+00,1.941536188125610352e+00,1.886168718338012695e+00,1.881424307823181152e+00,1.878963828086853027e+00,1.916624546051025391e+00,4.181380748748779297e+00,4.039349079132080078e+00,3.906650066375732422e+00,1.929546952247619629e+00,3.665794849395751953e+00,3.556171178817749023e+00,3.452913761138916016e+00,3.355483531951904297e+00,3.263400554656982422e+00,3.176236867904663086e+00,3.093607902526855469e+00,3.015169143676757812e+00,2.940609931945800781e+00,2.869648933410644531e+00,2.802031993865966797e+00,2.737528324127197266e+00,2.675927639007568359e+00,2.617038011550903320e+00,2.560684680938720703e+00,2.506707191467285156e+00,2.454958438873291016e+00,2.405302762985229492e+00,2.357616424560546875e+00,2.311783790588378906e+00,2.267699241638183594e+00,2.225264549255371094e+00,2.184389114379882812e+00,2.144987821578979492e+00,2.106983184814453125e+00,2.070301294326782227e+00,2.034875392913818359e+00,2.000641107559204102e+00,1.967539906501770020e+00,1.935515761375427246e+00,1.904517769813537598e+00,1.874496817588806152e+00,1.845407724380493164e+00
5.000000000000000000e+00,4.916110515594482422e+00,4.917190074920654297e+00,4.902339458465576172e+00,4.928980350494384766e+00,4.981853961944580078e+00,5.000000000000000000e+00,5.000000000000000000e+00,5.000000000000000000e+00,5.000000000000000000e+00,5.000000000000000000e+00,5.000000000000000000e+00,5.000000000000000000e+00,5.000000000000000000e+00,5.000000000000000000e+00,5.000000000000000000e+00,5.000000000000000000e+00,5.000000000000000000e+00,5.000000000000000000e+00,5.000000000000000000e+00,5.000000000000000000e+00,5.000000000000000000e+00,5.000000000000000000e+00,5.000000000000000000e+00,5.000000000000000000e+00,5.000000000000000000e+00,5.000000000000000000e+00,5.000000000000000000e+00,5.000000000000000000e+00,5.000000000000000000e+00,5.000000000000000000e+00,5.000000000000000000e+00,5.000000000000000000e+00,5.000000000000000000e+00,1.733278155326843262e+00,1.704428315162658691e+00,1.716785192489624023e+00,1.728829026222229004e+00,1.939164996147155762e+00,1.882526516914367676e+00,1.879055023193359375e+00,1.874605178833007812e+00,1.913280129432678223e+00,4.181484699249267578e+00,4.039446353912353516e+00,3.906740903854370117e+00,3.782477378845214844e+00,3.665874958038330078e+00,3.556246757507324219e+00,3.452984809875488281e+00,3.355550527572631836e+00,3.263464212417602539e+00,3.176296949386596680e+00,3.093664884567260742e+00,3.015223503112792969e+00,2.940661430358886719e+00,2.869698047637939453e+00,2.802078962326049805e+00,2.737572908401489258e+00,2.675970315933227539e+00,2.617079019546508789e+00,2.560723781585693359e+00,2.506744623184204102e+00,2.454994201660156250e+00,2.405337333679199219e+00,2.357649564743041992e+00,2.311815738677978516e+00,2.267729997634887695e+00,2.225294113159179688e+00,2.184417486190795898e+00,2.145015239715576172e+00,2.107009410858154297e+00,2.070327043533325195e+00,2.034899950027465820e+00,2.000664949417114258e+00,1.967562913894653320e+00,1.935538053512573242e+00,1.904539346694946289e+00,1.874517679214477539e+00,1.845428109169006348e+00
5.000000000000000000e+00,4.930271148681640625e+00,4.939238071441650391e+00,4.898592472076416016e+00,4.924845695495605469e+00,4.977924346923828125e+00,5.000000000000000000e+00,5.000000000000000000e+00,5.000000000000000000e+00,5.000000000000000000e+00,5.000000000000000000e+00,5.000000000000000000e+00,5.000000000000000000e+00,5.000000000000000000e+00,5.000000000000000000e+00,5.000000000000000000e+00,5.000000000000000000e+00,5.000000000000000000e+00,5.000000000000000000e+00,5.000000000000000000e+00,5.000000000000000000e+00,5.000000000000000000e+00,5.000000000000000000e+00,5.000000000000000000e+00,5.000000000000000000e+00,5.000000000000000000e+00,5.000000000000000000e+00,5.000000000000000000e+00,5.000000000000000000e+00,5.000000000000000000e+00,5.000000000000000000e+00,5.000000000000000000e+00,5.000000000000000000e+00,5.000000000000000000e+00,1.722123742103576660e+00,1.693810224533081055e+00,1.703395605087280273e+00,1.716859102249145508e+00,1.932826042175292969e+00,1.881573915481567383e+00,1.876999735832214355e+00,1.872439146041870117e+00,1.913097143173217773e+00,4.181589126586914062e+00,4.039543628692626953e+00,3.906831979751586914e+00,3.782562732696533203e+00,3.665955066680908203e+00,3.556322097778320312e+00,3.453055858612060547e+00,3.355617761611938477e+00,3.263527631759643555e+00,3.176357030868530273e+00,3.093722105026245117e+00,3.015277624130249023e+00,2.940712928771972656e+00,2.869747161865234375e+00,2.802125692367553711e+00,2.737617492675781250e+00,2.676012992858886719e+00,2.617119789123535156e+00,2.560762882232666016e+00,2.506782054901123047e+00,2.455030202865600586e+00,2.405371904373168945e+00,2.357682704925537109e+00,2.311847448348999023e+00,2.267760515213012695e+00,2.225323677062988281e+00,2.184445858001708984e+00,2.145042657852172852e+00,2.107035875320434570e+00,2.070352554321289062e+00,2.034924745559692383e+00,2.000688791275024414e+00,1.967586040496826172e+00,1.935560464859008789e+00,1.904561042785644531e+00,1.874538660049438477e+00,1.845448374748229980e+00
5.000000000000000000e+00,5.000000000000000000e+00,4.915860652923583984e+00,4.883241653442382812e+00,4.919944286346435547e+00,4.968153953552246094e+00,5.000000000000000000e+00,5.000000000000000000e+00,5.000000000000000000e+00,5.000000000000000000e+00,5.000000000000000000e+00,5.000000000000000000e+00,5.000000000000000000e+00,5.000000000000000000e+00,5.000000000000000000e+00,5.000000000000000000e+00,5.000000000000000000e+00,5.000000000000000000e+00,5.000000000000000000e+00,5.000000000000000000e+00,5.000000000000000000e+00,5.000000000000000000e+00,5.000000000000000000e+00,5.000000000000000000e+00,5.000000000000000000e+00,5.000000000000000000e+00,5.000000000000000000e+00,5.000000000000000000e+00,5.000000000000000000e+00,5.000000000000000000e+00,5.000000000000000000e+00,5.000000000000000000e+00,5.000000000000000000e+00,5.000000000000000000e+00,1.806899905204772949e+00,1.690745234489440918e+00,1.699412822723388672e+00,1.712844848632812500e+00,1.926528573036193848e+00,1.880622148513793945e+00,1.872285127639770508e+00,1.870398640632629395e+00,4.334100246429443359e+00,4.181693553924560547e+00,4.039640903472900391e+00,3.906923055648803711e+00,3.782647848129272461e+00,3.666035175323486328e+00,3.556397438049316406e+00,3.453126907348632812e+00,3.355684757232666016e+00,3.263591051101684570e+00,3.176417112350463867e+00,3.093779087066650391e+00,3.015331745147705078e+00,2.940764665603637695e+00,2.869796276092529297e+00,2.802172422409057617e+00,2.737662315368652344e+00,2.676055669784545898e+00,2.617160558700561523e+00,2.560801982879638672e+00,2.506819725036621094e+00,2.455066204071044922e+00,2.405406236648559570e+00,2.357715845108032227e+00,2.311879396438598633e+00,2.267791271209716797e+00,2.225353240966796875e+00,2.184474468231201172e+00,2.145070314407348633e+00,2.107062339782714844e+00,2.070378065109252930e+00,2.034949302673339844e+00,2.000712633132934570e+00,1.967609047889709473e+00,1.935582756996154785e+00,1.904582619667053223e+00,1.874559640884399414e+00,1.845468640327453613e+00
5.000000000000000000e+00,4.929569721221923828e+00,4.933236122131347656e+00,4.898497104644775391e+00,4.923943042755126953e+00,4.976238250732421875e+00,5.000000000000000000e+00,5.000000000000000000e+00,5.000000000000000000e+00,5.000000000000000000e+00,5.000000000000000000e+00,5.000000000000000000e+00,5.000000000000000000e+00,5.000000000000000000e+00,5.000000000000000000e+00,5.000000000000000000e+00,5.000000000000000000e+00,5.000000000000000000e+00,5.000000000000000000e+00,5.000000000000000000e+00,5.000000000000000000e+00,5.000000000000000000e+00,5.000000000000000000e+00,5.000000000000000000e+00,5.000000000000000000e+00,5.000000000000000000e+00,5.000000000000000000e+00,5.000000000000000000e+00,5.000000000000000000e+00,5.000000000000000000e+00,5.000000000000000000e+00,5.000000000000000000e+00,5.000000000000000000e+00,5.000000000000000000e+00,5.000000000000000000e+00,1.695644378662109375e+00,1.703883647918701172e+00,1.717471241950988770e+00,1.920271754264831543e+00,1.879671216011047363e+00,1.867367506027221680e+00,1.867415785789489746e+00,4.334212303161621094e+00,4.181797504425048828e+00,4.039738178253173828e+00,3.907013893127441406e+00,3.782733201980590820e+00,3.666115283966064453e+00,3.556472778320312500e+00,3.453197956085205078e+00,3.355751991271972656e+00,3.263654470443725586e+00,3.176477432250976562e+00,3.093836069107055664e+00,3.015386104583740234e+00,2.940816164016723633e+00,2.869845390319824219e+00,2.802219390869140625e+00,2.737706899642944336e+00,2.676098346710205078e+00,2.617201328277587891e+00,2.560841083526611328e+00,2.506857156753540039e+00,2.455101966857910156e+00,2.405440807342529297e+00,2.357748985290527344e+00,2.311911106109619141e+00,2.267821788787841797e+00,2.225382804870605469e+00,2.184502840042114258e+00,2.145097732543945312e+00,2.107088804244995117e+00,2.070403575897216797e+00,2.034974098205566406e+00,2.000736474990844727e+00,1.967632174491882324e+00,1.935605049133300781e+00,1.904604315757751465e+00,1.874580502510070801e+00,1.845488905906677246e+00
5.000000000000000000e+00,4.898404598236083984e+00,4.825171947479248047e+00,4.834543228149414062e+00,4.958662033081054688e+00,4.976378440856933594e+00,5.000000000000000000e+00,5.000000000000000000e+00,5.000000000000000000e+00,5.000000000000000000e+00,5.000000000000000000e+00,5.000000000000000000e+00,5.000000000000000000e+00,5.000000000000000000e+00,5.000000000000000000e+00,5.000000000000000000e+00,5.000000000000000000e+00,5.000000000000000000e+00,5.000000000000000000e+00,5.000000000000000000e+00,5.000000000000000000e+00,5.000000000000000000e+00,5.000000000000000000e+00,5.000000000000000000e+00,5.000000000000000000e+00,5.000000000000000000e+00,5.000000000000000000e+00,5.000000000000000000e+00,5.000000000000000000e+00,5.000000000000000000e+00,5.000000000000000000e+00,5.000000000000000000e+00,5.000000000000000000e+00,5.000000000000000000e+00,1.773352384567260742e+00,1.708984017372131348e+00,1.719940781593322754e+00,1.742333173751831055e+00,5.000000000000000000e+00,1.879531025886535645e+00,1.867388963699340820e+00,1.868472695350646973e+00,4.334324359893798828e+00,4.181901931762695312e+00,4.039835453033447266e+00,3.907104969024658203e+00,3.782818555831909180e+00,3.666195392608642578e+00,3.556548118591308594e+00,3.453269004821777344e+00,3.355818986892700195e+00,3.263718128204345703e+00,3.176537513732910156e+00,3.093893289566040039e+00,3.015440225601196289e+00,2.940867662429809570e+00,2.869894504547119141e+00,2.802266120910644531e+00,2.737751722335815430e+00,2.676141023635864258e+00,2.617242336273193359e+00,2.560880184173583984e+00,2.506894588470458984e+00,2.455137968063354492e+00,2.405475378036499023e+00,2.357782125473022461e+00,2.311943054199218750e+00,2.267852544784545898e+00,2.225412130355834961e+00,2.184531211853027344e+00,2.145125150680541992e+00,2.107115268707275391e+00,2.070429086685180664e+00,2.034998655319213867e+00,2.000760316848754883e+00,1.967655301094055176e+00,1.935627460479736328e+00,1.904625892639160156e+00,1.874601483345031738e+00,1.845509290695190430e+00
5.000000000000000000e+00,5.000000000000000000e+00,4.789183616638183594e+00,4.801841735839843750e+00,5.000000000000000000e+00,4.955230236053466797e+00,5.000000000000000000e+00,5.000000000000000000e+00,5.000000000000000000e+00,5.000000000000000000e+00,5.000000000000000000e+00,5.000000000000000000e+00,5.000000000000000000e+00,5.000000000000000000e+00,5.000000000000000000e+00,5.000000000000000000e+00,5.000000000000000000e+00,5.000000000000000000e+00,5.000000000000000000e+00,5.000000000000000000e+00,5.000000000000000000e+00,5.000000000000000000e+00,5.000000000000000000e+00,5.000000000000000000e+00,5.000000000000000000e+00,5.000000000000000000e+00,5.000000000000000000e+00,5.000000000000000000e+00,5.000000000000000000e+00,5.000000000000000000e+00,5.000000000000000000e+00,5.000000000000000000e+00,5.000000000000000000e+00,5.000000000000000000e+00,1.796809196472167969e+00,1.747223854064941406e+00,1.749495506286621094e+00,1.779821157455444336e+00,1.934176445007324219e+00,1.888170480728149414e+00,1.878774285316467285e+00,1.878099560737609863e+00,4.334435939788818359e+00,4.182005882263183594e+00,4.039932727813720703e+00,3.907195806503295898e+00,3.782903909683227539e+00,3.666275501251220703e+00,3.556623697280883789e+00,3.453340291976928711e+00,3.355886220932006836e+00,3.263781547546386719e+00,3.176597595214843750e+00,3.093950271606445312e+00,3.015494346618652344e+00,2.940919160842895508e+00,2.869943380355834961e+00,2.802312850952148438e+00,2.737796306610107422e+00,2.676183700561523438e+00,2.617283105850219727e+00,2.560919284820556641e+00,2.506932020187377930e+00,2.455173969268798828e+00,2.405509710311889648e+00,2.357815265655517578e+00,2.311975002288818359e+00,2.267883300781250000e+00,2.225441694259643555e+00,2.184559583663940430e+00,2.145152568817138672e+00,2.107141733169555664e+00,2.070454597473144531e+00,2.035023450851440430e+00,2.000784158706665039e+00,1.967678308486938477e+00,1.935649752616882324e+00,1.904647469520568848e+00,1.874622464179992676e+00,1.845529556274414062e+00
5.000000000000000000e+00,4.833688735961914062e+00,4.755186557769775391e+00,4.768790721893310547e+00,5.000000000000000000e+00,4.953040122985839844e+00,5.000000000000000000e+00,5.000000000000000000e+00,5.000000000000000000e+00,5.000000000000000000e+00,5.000000000000000000e+00,5.000000000000000000e+00,5.000000000000000000e+00,5.000000000000000000e+00,5.000000000000000000e+00,5.000000000000000000e+00,5.000000000000000000e+00,5.000000000000000000e+00,5.000000000000000000e+00,5.000000000000000000e+00,5.000000000000000000e+00,5.000000000000000000e+00,5.000000000000000000e+00,5.000000000000000000e+00,5.000000000000000000e+00,5.000000000000000000e+00,5.000000000000000000e+00,5.000000000000000000e+00,5.000000000000000000e+00,5.000000000000000000e+00,5.000000000000000000e+00,5.000000000000000000e+00,5.000000000000000000e+00,5.000000000000000000e+00,1.828153491020202637e+00,1.784403920173645020e+00,1.785347700119018555e+00,1.818826913833618164e+00,1.953865885734558105e+00,1.907410621643066406e+00,1.899118423461914062e+00,1.930209994316101074e+00,4.334547996520996094e+00,4.182110309600830078e+00,4.040030002593994141e+00,3.907286882400512695e+00,3.782989025115966797e+00,3.666355609893798828e+00,3.556699037551879883e+00,3.453411340713500977e+00,3.355953216552734375e+00,3.263844966888427734e+00,3.176657676696777344e+00,3.094007253646850586e+00,3.015548706054687500e+00,2.940970659255981445e+00,2.869992494583129883e+00,2.802359819412231445e+00,2.737840890884399414e+00,2.676226377487182617e+00,2.617323875427246094e+00,2.560958385467529297e+00,2.506969451904296875e+00,2.455209732055664062e+00,2.405544281005859375e+00,2.357848405838012695e+00,2.312006711959838867e+00,2.267913818359375000e+00,2.225471258163452148e+00,2.184588193893432617e+00,2.145179986953735352e+00,2.107168197631835938e+00,2.070480346679687500e+00,2.035048007965087891e+00,2.000808000564575195e+00,1.967701435089111328e+00,1.935672044754028320e+00,1.904669165611267090e+00,1.874643325805664062e+00,1.845549821853637695e+00
5.000000000000000000e+00,5.000000000000000000e+00,5.000000000000000000e+00,4.733355045318603516e+00,5.000000000000000000e+00,4.948577404022216797e+00,5.000000000000000000e+00,5.000000000000000000e+00,5.000000000000000000e+00,5.000000000000000000e+00,5.000000000000000000e+00,5.000000000000000000e+00,5.000000000000000000e+00,5.000000000000000000e+00,5.000000000000000000e+00,5.000000000000000000e+00,5.000000000000000000e+00,5.000000000000000000e+00,5.000000000000000000e+00,5.000000000000000000e+00,5.000000000000000000e+00,5.000000000000000000e+00,5.000000000000000000e+00,5.000000000000000000e+00,5.000000000000000000e+00,5.000000000000000000e+00,5.000000000000000000e+00,5.000000000000000000e+00,5.000000000000000000e+00,5.000000000000000000e+00,5.000000000000000000e+00,5.000000000000000000e+00,5.000000000000000000e+00,5.000000000000000000e+00,1.860915899276733398e+00,1.810852050781250000e+00,1.815686583518981934e+00,1.842369318008422852e+00,1.970457315444946289e+00,1.932317852973937988e+00,1.920409917831420898e+00,1.972514986991882324e+00,4.334660053253173828e+00,4.182214736938476562e+00,4.040127277374267578e+00,3.907377958297729492e+00,3.783074378967285156e+00,3.666435718536376953e+00,3.556774377822875977e+00,3.453482389450073242e+00,3.356020450592041016e+00,3.263908386230468750e+00,3.176717996597290039e+00,3.094064474105834961e+00,3.015602827072143555e+00,2.941022396087646484e+00,2.870041608810424805e+00,2.802406549453735352e+00,2.737885713577270508e+00,2.676269054412841797e+00,2.617364645004272461e+00,2.560997486114501953e+00,2.507006883621215820e+00,2.455245733261108398e+00,2.405578851699829102e+00,2.357881546020507812e+00,2.312038660049438477e+00,2.267944574356079102e+00,2.225500822067260742e+00,2.184616565704345703e+00,2.145207405090332031e+00,2.107194662094116211e+00,2.070505857467651367e+00,2.035072803497314453e+00,2.000832080841064453e+00,1.967724442481994629e+00,1.935694456100463867e+00,1.904690742492675781e+00,1.874664306640625000e+00,1.845570206642150879e+00
5.000000000000000000e+00,5.000000000000000000e+00,5.000000000000000000e+00,4.736904144287109375e+00,5.000000000000000000e+00,4.942933559417724609e+00,5.000000000000000000e+00,5.000000000000000000e+00,5.000000000000000000e+00,5.000000000000000000e+00,5.000000000000000000e+00,5.000000000000000000e+00,5.000000000000000000e+00,5.000000000000000000e+00,5.000000000000000000e+00,5.000000000000000000e+00,5.000000000000000000e+00,5.000000000000000000e+00,5.000000000000000000e+00,5.000000000000000000e+00,5.000000000000000000e+00,5.000000000000000000e+00,5.000000000000000000e+00,5.000000000000000000e+00,5.000000000000000000e+00,5.000000000000000000e+00,5.000000000000000000e+00,5.000000000000000000e+00,5.000000000000000000e+00,5.000000000000000000e+00,5.000000000000000000e+00,5.000000000000000000e+00,5.000000000000000000e+00,5.000000000000000000e+00,1.894895553588867188e+00,1.831807732582092285e+00,1.837311983108520508e+00,1.866528987884521484e+00,1.974774956703186035e+00,1.953422069549560547e+00,1.946008920669555664e+00,4.498760223388671875e+00,4.334772109985351562e+00,4.182318687438964844e+00,4.040224552154541016e+00,3.907468795776367188e+00,3.783159732818603516e+00,3.666515827178955078e+00,3.556849718093872070e+00,3.453553438186645508e+00,3.356087684631347656e+00,3.263972043991088867e+00,3.176778078079223633e+00,3.094121456146240234e+00,3.015656948089599609e+00,2.941073894500732422e+00,2.870090723037719727e+00,2.802453279495239258e+00,2.737930297851562500e+00,2.676311731338500977e+00,2.617405652999877930e+00,2.561036586761474609e+00,2.507044315338134766e+00,2.455281734466552734e+00,2.405613183975219727e+00,2.357914686203002930e+00,2.312070608139038086e+00,2.267975091934204102e+00,2.225530385971069336e+00,2.184644937515258789e+00,2.145234823226928711e+00,2.107221126556396484e+00,2.070531368255615234e+00,2.035097360610961914e+00,2.000855922698974609e+00,1.967747569084167480e+00,1.935716748237609863e+00,1.904712319374084473e+00,1.874685287475585938e+00,1.845590472221374512e+00
5.000000000000000000e+00,5.000000000000000000e+00,5.000000000000000000e+00,4.804942607879638672e+00,5.000000000000000000e+00,4.977138042449951172e+00,5.000000000000000000e+00,5.000000000000000000e+00,5.000000000000000000e+00,5.000000000000000000e+00,5.000000000000000000e+00,5.000000000000000000e+00,5.000000000000000000e+00,5.000000000000000000e+00,5.000000000000000000e+00,5.000000000000000000e+00,5.000000000000000000e+00,5.000000000000000000e+00,5.000000000000000000e+00,5.000000000000000000e+00,5.000000000000000000e+00,5.000000000000000000e+00,5.000000000000000000e+00,5.000000000000000000e+00,5.000000000000000000e+00,5.000000000000000000e+00,5.000000000000000000e+00,5.000000000000000000e+00,5.000000000000000000e+00,5.000000000000000000e+00,5.000000000000000000e+00,5.000000000000000000e+00,5.000000000000000000e+00,5.000000000000000000e+00,5.000000000000000000e+00,1.853538036346435547e+00,1.858987569808959961e+00,1.891330838203430176e+00,1.976815104484558105e+00,1.961971879005432129e+00,1.961163640022277832e+00,4.498880863189697266e+00,4.334884166717529297e+00,4.182423114776611328e+00,4.040321826934814453e+00,3.907559871673583984e+00,3.783245086669921875e+00,3.666595935821533203e+00,3.556925296783447266e+00,3.453624486923217773e+00,3.356154680252075195e+00,3.264035463333129883e+00,3.176838159561157227e+00,3.094178438186645508e+00,3.015711307525634766e+00,2.941125392913818359e+00,2.870139837265014648e+00,2.802500247955322266e+00,2.737975120544433594e+00,2.676354408264160156e+00,2.617446422576904297e+00,2.561075687408447266e+00,2.507081747055053711e+00,2.455317735671997070e+00,2.405647754669189453e+00,2.357947826385498047e+00,2.312102317810058594e+00,2.268005847930908203e+00,2.225559949874877930e+00,2.184673547744750977e+00,2.145262241363525391e+00,2.107247591018676758e+00,2.070556879043579102e+00,2.035122156143188477e+00,2.000879764556884766e+00,1.967770576477050781e+00,1.935739040374755859e+00,1.904734015464782715e+00,1.874706268310546875e+00,1.845610737800598145e+00
5.000000000000000000e+00,5.000000000000000000e+00,5.000000000000000000e+00,4.844556808471679688e+00,5.000000000000000000e+00,5.000000000000000000e+00,5.000000000000000000e+00,5.000000000000000000e+00,5.000000000000000000e+00,5.000000000000000000e+00,5.000000000000000000e+00,5.000000000000000000e+00,5.000000000000000000e+00,5.000000000000000000e+00,5.000000000000000000e+00,5.000000000000000000e+00,5.000000000000000000e+00,5.000000000000000000e+00,5.000000000000000000e+00,5.000000000000000000e+00,5.000000000000000000e+00,5.000000000000000000e+00,5.000000000000000000e+00,5.000000000000000000e+00,5.000000000000000000e+00,5.000000000000000000e+00,5.000000000000000000e+00,5.000000000000000000e+00,5.000000000000000000e+00,5.000000000000000000e+00,5.000000000000000000e+00,5.000000000000000000e+00,5.000000000000000000e+00,5.000000000000000000e+00,5.000000000000000000e+00,1.879689574241638184e+00,1.880710363388061523e+00,1.925438523292541504e+00,1.979690790176391602e+00,1.970596790313720703e+00,1.975710988044738770e+00,4.499001502990722656e+00,4.334996223449707031e+00,4.182527542114257812e+00,4.040419101715087891e+00,3.907650947570800781e+00,3.783330440521240234e+00,3.666676044464111328e+00,3.557000637054443359e+00,3.453695535659790039e+00,3.356221914291381836e+00,3.264099121093750000e+00,3.176898479461669922e+00,3.094235658645629883e+00,3.015765428543090820e+00,2.941176891326904297e+00,2.870188951492309570e+00,2.802546977996826172e+00,2.738019704818725586e+00,2.676397085189819336e+00,2.617487192153930664e+00,2.561114788055419922e+00,2.507119417190551758e+00,2.455353498458862305e+00,2.405682325363159180e+00,2.357980966567993164e+00,2.312134265899658203e+00,2.268036603927612305e+00,2.225589275360107422e+00,2.184701919555664062e+00,2.145289659500122070e+00,2.107274055480957031e+00,2.070582389831542969e+00,2.035146951675415039e+00,2.000903606414794922e+00,1.967793703079223633e+00,1.935761451721191406e+00,1.904755592346191406e+00,1.874727129936218262e+00,1.845631122589111328e+00
5.000000000000000000e+00,5.000000000000000000e+00,5.000000000000000000e+00,4.890287399291992188e+00,5.000000000000000000e+00,5.000000000000000000e+00,5.000000000000000000e+00,5.000000000000000000e+00,5.000000000000000000e+00,5.000000000000000000e+00,5.000000000000000000e+00,5.000000000000000000e+00,5.000000000000000000e+00,5.000000000000000000e+00,5.000000000000000000e+00,5.000000000000000000e+00,5.000000000000000000e+00,5.000000000000000000e+00,5.000000000000000000e+00,5.000000000000000000e+00,5.000000000000000000e+00,5.000000000000000000e+00,5.000000000000000000e+00,5.000000000000000000e+00,5.000000000000000000e+00,5.000000000000000000e+00,5.000000000000000000e+00,5.000000000000000000e+00,5.000000000000000000e+00,5.000000000000000000e+00,5.000000000000000000e+00,5.000000000000000000e+00,5.000000000000000000e+00,5.000000000000000000e+00,5.000000000000000000e+00,1.913445591926574707e+00,1.904700636863708496e+00,1.964963555335998535e+00,1.987690329551696777e+00,1.978610038757324219e+00,1.998157978057861328e+00,4.499119758605957031e+00,4.335108280181884766e+00,4.182631492614746094e+00,4.040516376495361328e+00,3.907742023468017578e+00,3.783415555953979492e+00,3.666756391525268555e+00,3.557075977325439453e+00,3.453766822814941406e+00,3.356288909912109375e+00,3.264162540435791016e+00,3.176958560943603516e+00,3.094292640686035156e+00,3.015819549560546875e+00,2.941228628158569336e+00,2.870238065719604492e+00,2.802593708038330078e+00,2.738064527511596680e+00,2.676439762115478516e+00,2.617527961730957031e+00,2.561153888702392578e+00,2.507156848907470703e+00,2.455389499664306641e+00,2.405716657638549805e+00,2.358014106750488281e+00,2.312166213989257812e+00,2.268067121505737305e+00,2.225618839263916016e+00,2.184730291366577148e+00,2.145317077636718750e+00,2.107300519943237305e+00,2.070608139038085938e+00,2.035171508789062500e+00,2.000927448272705078e+00,1.967816829681396484e+00,1.935783743858337402e+00,1.904777288436889648e+00,1.874748110771179199e+00,1.845651388168334961e+00
5.000000000000000000e+00,5.000000000000000000e+00,5.000000000000000000e+00,4.965251445770263672e+00,5.000000000000000000e+00,5.000000000000000000e+00,5.000000000000000000e+00,5.000000000000000000e+00,5.000000000000000000e+00,5.000000000000000000e+00,5.000000000000000000e+00,5.000000000000000000e+00,5.000000000000000000e+00,5.000000000000000000e+00,5.000000000000000000e+00,5.000000000000000000e+00,5.000000000000000000e+00,5.000000000000000000e+00,5.000000000000000000e+00,5.000000000000000000e+00,5.000000000000000000e+00,5.000000000000000000e+00,5.000000000000000000e+00,5.000000000000000000e+00,5.000000000000000000e+00,5.000000000000000000e+00,5.000000000000000000e+00,5.000000000000000000e+00,5.000000000000000000e+00,5.000000000000000000e+00,5.000000000000000000e+00,5.000000000000000000e+00,5.000000000000000000e+00,5.000000000000000000e+00,5.000000000000000000e+00,1.947469234466552734e+00,1.929310441017150879e+00,2.006144762039184570e+00,1.996648550033569336e+00,1.987073659896850586e+00,2.067301988601684570e+00,4.499238491058349609e+00,4.335218429565429688e+00,4.182735919952392578e+00,4.040614128112792969e+00,3.907832860946655273e+00,3.783500909805297852e+00,3.666836500167846680e+00,3.557151556015014648e+00,3.453837871551513672e+00,3.356356143951416016e+00,3.264225959777832031e+00,3.177018642425537109e+00,3.094349622726440430e+00,3.015873908996582031e+00,2.941280126571655273e+00,2.870287179946899414e+00,2.802640676498413086e+00,2.738109111785888672e+00,2.676482439041137695e+00,2.617568969726562500e+00,2.561192989349365234e+00,2.507194280624389648e+00,2.455425500869750977e+00,2.405751228332519531e+00,2.358047246932983398e+00,2.312197923660278320e+00,2.268097877502441406e+00,2.225648403167724609e+00,2.184758901596069336e+00,2.145344495773315430e+00,2.107327222824096680e+00,2.070633649826049805e+00,2.035196304321289062e+00,2.000951290130615234e+00,1.967839837074279785e+00,1.935806035995483398e+00,1.904798865318298340e+00,1.874769091606140137e+00,1.845671653747558594e+00
5.000000000000000000e+00,5.000000000000000000e+00,5.000000000000000000e+00,4.908052444458007812e+00,5.000000000000000000e+00,5.000000000000000000e+00,5.000000000000000000e+00,5.000000000000000000e+00,5.000000000000000000e+00,5.000000000000000000e+00,5.000000000000000000e+00,5.000000000000000000e+00,5.000000000000000000e+00,5.000000000000000000e+00,5.000000000000000000e+00,5.000000000000000000e+00,5.000000000000000000e+00,5.000000000000000000e+00,5.000000000000000000e+00,5.000000000000000000e+00,5.000000000000000000e+00,5.000000000000000000e+00,5.000000000000000000e+00,5.000000000000000000e+00,5.000000000000000000e+00,5.000000000000000000e+00,5.000000000000000000e+00,5.000000000000000000e+00,5.000000000000000000e+00,5.000000000000000000e+00,5.000000000000000000e+00,5.000000000000000000e+00,5.000000000000000000e+00,5.000000000000000000e+00,5.000000000000000000e+00,2.030179023742675781e+00,1.955495834350585938e+00,5.000000000000000000e+00,2.005971908569335938e+00,1.996308088302612305e+00,4.676286220550537109e+00,4.499357223510742188e+00,4.335329055786132812e+00,4.182839393615722656e+00,4.040711402893066406e+00,3.907923936843872070e+00,3.783586263656616211e+00,3.666916608810424805e+00,3.557226896286010742e+00,3.453908920288085938e+00,3.356423377990722656e+00,3.264289617538452148e+00,3.177078962326049805e+00,3.094406843185424805e+00,3.015928030014038086e+00,2.941331624984741211e+00,2.870336294174194336e+00,2.802687406539916992e+00,2.738153934478759766e+00,2.676525354385375977e+00,2.617609739303588867e+00,2.561232089996337891e+00,2.507231712341308594e+00,2.455461263656616211e+00,2.405785799026489258e+00,2.358080387115478516e+00,2.312229871749877930e+00,2.268128395080566406e+00,2.225677967071533203e+00,2.184787273406982422e+00,2.145371913909912109e+00,2.107353687286376953e+00,2.070659160614013672e+00,2.035220861434936523e+00,2.000975131988525391e+00,1.967862963676452637e+00,1.935828447341918945e+00,1.904820561408996582e+00,1.874790072441101074e+00,1.845692038536071777e+00
4.874617576599121094e+00,4.873406410217285156e+00,4.872195243835449219e+00,4.870985507965087891e+00,4.869776248931884766e+00,4.868566989898681641e+00,4.867358684539794922e+00,4.866150856018066406e+00,4.864943981170654297e+00,4.863737583160400391e+00,4.862531661987304688e+00,4.861326217651367188e+00,4.860121726989746094e+00,4.858917713165283203e+00,4.857714176177978516e+00,4.856511116027832031e+00,4.855309009552001953e+00,4.854106903076171875e+00,4.852905750274658203e+00,4.851705551147460938e+00,4.850505828857421875e+00,4.849306106567382812e+00,4.848107337951660156e+00,4.846909523010253906e+00,4.845712184906005859e+00,4.844514846801757812e+00,4.843318462371826172e+00,4.842122554779052734e+00,4.840927600860595703e+00,4.839733123779296875e+00,4.838539123535156250e+00,4.837345600128173828e+00,4.836152553558349609e+00,4.834960460662841797e+00,4.833768844604492188e+00,2.025118589401245117e+00,1.989887118339538574e+00,4.830196857452392578e+00,2.016009807586669922e+00,2.022686004638671875e+00,4.676414012908935547e+00,4.499475955963134766e+00,4.335439205169677734e+00,4.182941913604736328e+00,4.040808677673339844e+00,3.908015012741088867e+00,3.783671617507934570e+00,3.666996717453002930e+00,3.557302236557006836e+00,3.453979969024658203e+00,3.356490373611450195e+00,3.264353036880493164e+00,3.177139043807983398e+00,3.094463825225830078e+00,3.015982389450073242e+00,2.941383361816406250e+00,2.870385408401489258e+00,2.802734136581420898e+00,2.738198518753051758e+00,2.676568031311035156e+00,2.617650508880615234e+00,2.561271190643310547e+00,2.507269144058227539e+00,2.455497264862060547e+00,2.405820131301879883e+00,2.358113527297973633e+00,2.312261819839477539e+00,2.268159151077270508e+00,2.225707530975341797e+00,2.184815645217895508e+00,2.145399332046508789e+00,2.107380151748657227e+00,2.070684671401977539e+00,2.035245656967163086e+00,2.000998973846435547e+00,1.967885971069335938e+00,1.935850739479064941e+00,1.904842138290405273e+00,1.874810934066772461e+00,1.845712304115295410e+00
3.777372360229492188e+00,3.776644706726074219e+00,3.775917530059814453e+00,3.775190830230712891e+00,3.774464130401611328e+00,3.773737907409667969e+00,3.773011684417724609e+00,3.772285938262939453e+00,3.771560668945312500e+00,3.770835399627685547e+00,3.770110845565795898e+00,3.769386291503906250e+00,3.768661737442016602e+00,3.767937660217285156e+00,3.767214059829711914e+00,3.766490459442138672e+00,3.765767097473144531e+00,3.765044212341308594e+00,3.764321565628051758e+00,3.763599157333374023e+00,3.762877464294433594e+00,3.762155532836914062e+00,3.761433839797973633e+00,3.760712623596191406e+00,3.759991645812988281e+00,3.759270906448364258e+00,3.758550405502319336e+00,3.757830142974853516e+00,3.757110118865966797e+00,3.756390571594238281e+00,3.755671501159667969e+00,3.754952430725097656e+00,3.754233598709106445e+00,3.753515005111694336e+00,3.752796888351440430e+00,1.996466279029846191e+00,1.972919583320617676e+00,3.750643491744995117e+00,2.026163578033447266e+00,2.040170669555664062e+00,3.748493194580078125e+00,3.747776985168457031e+00,3.747060775756835938e+00,3.746345043182373047e+00,3.745629549026489258e+00,3.744914293289184570e+00,3.744199275970458984e+00,3.667076826095581055e+00,3.557377815246582031e+00,3.454051256179809570e+00,3.356557607650756836e+00,3.264416456222534180e+00,3.177199125289916992e+00,3.094521045684814453e+00,3.016036510467529297e+00,2.941434860229492188e+00,2.870434522628784180e+00,2.802781105041503906e+00,2.738243341445922852e+00,2.676610708236694336e+00,2.617691516876220703e+00,2.561310291290283203e+00,2.507306575775146484e+00,2.455533266067504883e+00,2.405854701995849609e+00,2.358146667480468750e+00,2.312293529510498047e+00,2.268189907073974609e+00,2.225737094879150391e+00,2.184844255447387695e+00,2.145426750183105469e+00,2.107406616210937500e+00,2.070710182189941406e+00,2.035270214080810547e+00,2.001022815704345703e+00,1.967909097671508789e+00,1.935873031616210938e+00,1.904863715171813965e+00,1.874831914901733398e+00,1.845732569694519043e+00
3.083333253860473633e+00,3.082848787307739258e+00,3.082364320755004883e+00,3.081879854202270508e+00,3.081395626068115234e+00,3.080911636352539062e+00,3.080427646636962891e+00,3.079943895339965820e+00,3.079460144042968750e+00,3.078976631164550781e+00,3.078493356704711914e+00,3.078010559082031250e+00,3.077527523040771484e+00,3.077044486999511719e+00,3.076561927795410156e+00,3.076079368591308594e+00,3.075596809387207031e+00,3.075114488601684570e+00,3.074632406234741211e+00,3.074150562286376953e+00,3.073668718338012695e+00,3.073187351226806641e+00,3.072705745697021484e+00,3.072224378585815430e+00,3.071743249893188477e+00,3.071262121200561523e+00,3.070781230926513672e+00,3.070300340652465820e+00,3.069819688796997070e+00,3.069339275360107422e+00,3.068859100341796875e+00,3.068379163742065430e+00,3.067899227142333984e+00,3.067419290542602539e+00,3.066939592361450195e+00,1.970347762107849121e+00,1.955790042877197266e+00,3.065501451492309570e+00,2.043712139129638672e+00,3.064543247222900391e+00,3.064064502716064453e+00,3.063586235046386719e+00,3.063107728958129883e+00,3.062629222869873047e+00,3.062150955200195312e+00,3.061672925949096680e+00,3.061195135116577148e+00,3.060717344284057617e+00,3.060239791870117188e+00,3.059762239456176758e+00,3.059284925460815430e+00,3.058808088302612305e+00,3.058331012725830078e+00,3.057854175567626953e+00,3.016090631484985352e+00,2.941486358642578125e+00,2.870483636856079102e+00,2.802827835083007812e+00,2.738287925720214844e+00,2.676653385162353516e+00,2.617732286453247070e+00,2.561349391937255859e+00,2.507344245910644531e+00,2.455569267272949219e+00,2.405889272689819336e+00,2.358179807662963867e+00,2.312325477600097656e+00,2.268220424652099609e+00,2.225766420364379883e+00,2.184872627258300781e+00,2.145454168319702148e+00,2.107433080673217773e+00,2.070735692977905273e+00,2.035295009613037109e+00,2.001046657562255859e+00,1.967932224273681641e+00,1.935895442962646484e+00,1.904885411262512207e+00,1.874852895736694336e+00,1.845752954483032227e+00
2.604747772216796875e+00,2.604401826858520508e+00,2.604056119918823242e+00,2.603710412979125977e+00,2.603364706039428711e+00,2.603019237518310547e+00,2.602673768997192383e+00,2.602328300476074219e+00,2.601983070373535156e+00,2.601637840270996094e+00,2.601292848587036133e+00,2.600947856903076172e+00,2.600603103637695312e+00,2.600258350372314453e+00,2.599913597106933594e+00,2.599568843841552734e+00,2.599224328994750977e+00,2.598879814147949219e+00,2.598535537719726562e+00,2.598191261291503906e+00,2.597846984863281250e+00,2.597502946853637695e+00,2.597159147262573242e+00,2.596815347671508789e+00,2.596471548080444336e+00,2.596127748489379883e+00,2.595784187316894531e+00,2.595440626144409180e+00,2.595097064971923828e+00,2.594753742218017578e+00,2.594410419464111328e+00,2.594067335128784180e+00,2.593724489212036133e+00,2.593381404876708984e+00,2.593038558959960938e+00,1.938436985015869141e+00,1.932258963584899902e+00,1.968953132629394531e+00,2.005737066268920898e+00,2.591325283050537109e+00,2.590982913970947266e+00,2.590640783309936523e+00,2.590298652648925781e+00,2.589956521987915039e+00,2.589614629745483398e+00,2.589272737503051758e+00,2.588930845260620117e+00,2.588589191436767578e+00,2.588247537612915039e+00,2.587905883789062500e+00,2.587564468383789062e+00,2.587223052978515625e+00,2.586882114410400391e+00,2.586540937423706055e+00,2.586199760437011719e+00,2.585858821868896484e+00,2.585517883300781250e+00,2.585176944732666016e+00,2.584836244583129883e+00,2.584495782852172852e+00,2.584155082702636719e+00,2.561388492584228516e+00,2.507381677627563477e+00,2.455605030059814453e+00,2.405923843383789062e+00,2.358212947845458984e+00,2.312357425689697266e+00,2.268251180648803711e+00,2.225795984268188477e+00,2.184900999069213867e+00,2.145481586456298828e+00,2.107459545135498047e+00,2.070761442184448242e+00,2.035319566726684570e+00,2.001070499420166016e+00,1.967955231666564941e+00,1.935917735099792480e+00,1.904906988143920898e+00,1.874873876571655273e+00,1.845773220062255859e+00
2.254823446273803711e+00,2.254561662673950195e+00,2.254300117492675781e+00,2.254038572311401367e+00,2.253777027130126953e+00,2.253515958786010742e+00,2.253254652023315430e+00,2.252993345260620117e+00,2.252732038497924805e+00,2.252470970153808594e+00,2.252209901809692383e+00,2.251948833465576172e+00,2.251687765121459961e+00,2.251426935195922852e+00,2.251166105270385742e+00,2.250905275344848633e+00,2.250644683837890625e+00,2.250383853912353516e+00,2.250123262405395508e+00,2.249862670898437500e+00,2.249602317810058594e+00,2.249341726303100586e+00,2.249081373214721680e+00,2.248822927474975586e+00,2.248565196990966797e+00,2.248307228088378906e+00,2.248049497604370117e+00,2.247792005538940430e+00,2.247534275054931641e+00,2.247276782989501953e+00,2.247019290924072266e+00,2.246761798858642578e+00,2.246504545211791992e+00,2.246247291564941406e+00,2.245990037918090820e+00,2.245732784271240234e+00,2.245475769042968750e+00,1.960149526596069336e+00,1.950591921806335449e+00,1.991845965385437012e+00,2.244447708129882812e+00,2.244190931320190430e+00,2.243934154510498047e+00,2.243677616119384766e+00,2.243420839309692383e+00,2.243164300918579102e+00,2.242907762527465820e+00,2.242651224136352539e+00,2.242394685745239258e+00,2.242138385772705078e+00,2.241882085800170898e+00,2.241625785827636719e+00,2.241369485855102539e+00,2.241113662719726562e+00,2.240857601165771484e+00,2.240601539611816406e+00,2.240345478057861328e+00,2.240089654922485352e+00,2.239833831787109375e+00,2.239578008651733398e+00,2.239322185516357422e+00,2.239066600799560547e+00,2.238811016082763672e+00,2.238555669784545898e+00,2.238300085067749023e+00,2.238044738769531250e+00,2.237789154052734375e+00,2.237534046173095703e+00,2.225825548171997070e+00,2.184929609298706055e+00,2.145509004592895508e+00,2.107486009597778320e+00,2.070786952972412109e+00,2.035344362258911133e+00,2.001094579696655273e+00,1.967978358268737793e+00,1.935940146446228027e+00,1.904928684234619141e+00,1.874894738197326660e+00,1.845793485641479492e+00
1.987890124320983887e+00,1.987686634063720703e+00,1.987483382225036621e+00,1.987280011177062988e+00,1.987076878547668457e+00,1.986873745918273926e+00,1.986670494079589844e+00,1.986467480659484863e+00,1.986264348030090332e+00,1.986061453819274902e+00,1.985858321189880371e+00,1.985655426979064941e+00,1.985452413558959961e+00,1.985249638557434082e+00,1.985046744346618652e+00,1.984844088554382324e+00,1.984641432762145996e+00,1.984438657760620117e+00,1.984236121177673340e+00,1.984033346176147461e+00,1.983830928802490234e+00,1.983628273010253906e+00,1.983425855636596680e+00,1.983223319053649902e+00,1.983021020889282227e+00,1.982818484306335449e+00,1.982616305351257324e+00,1.982414126396179199e+00,1.982211709022521973e+00,1.982009649276733398e+00,1.981807351112365723e+00,1.981605410575866699e+00,1.981403112411499023e+00,1.981201291084289551e+00,1.980999112129211426e+00,1.980797290802001953e+00,1.980595231056213379e+00,1.980393528938293457e+00,1.923191428184509277e+00,1.964729070663452148e+00,1.979788184165954590e+00,1.979586362838745117e+00,1.979384779930114746e+00,1.979183077812194824e+00,1.978981614112854004e+00,1.978779911994934082e+00,1.978578567504882812e+00,1.978376984596252441e+00,1.978175640106201172e+00,1.977974414825439453e+00,1.977772951126098633e+00,1.977571725845336914e+00,1.977370381355285645e+00,1.977169275283813477e+00,1.976967930793762207e+00,1.976766943931579590e+00,1.976565718650817871e+00,1.976364731788635254e+00,1.976163625717163086e+00,1.975962758064270020e+00,1.975761890411376953e+00,1.975560903549194336e+00,1.975360155105590820e+00,1.975159168243408203e+00,1.974958539009094238e+00,1.974757671356201172e+00,1.974557161331176758e+00,1.974356412887573242e+00,1.974155902862548828e+00,1.973955392837524414e+00,1.973754763603210449e+00,1.973554372787475586e+00,1.973353862762451172e+00,1.973153591156005859e+00,1.972953081130981445e+00,1.968001484870910645e+00,1.935962438583374023e+00,1.904950261116027832e+00,1.874915719032287598e+00,1.845813870429992676e+00
1.777467608451843262e+00,1.777305126190185547e+00,1.777142405509948730e+00,1.776979923248291016e+00,1.776817321777343750e+00,1.776654958724975586e+00,1.776492595672607422e+00,1.776330113410949707e+00,1.776167869567871094e+00,1.776005387306213379e+00,1.775843143463134766e+00,1.775680780410766602e+00,1.775518655776977539e+00,1.775356292724609375e+00,1.775194168090820312e+00,1.775031924247741699e+00,1.774869799613952637e+00,1.774707794189453125e+00,1.774545669555664062e+00,1.774383664131164551e+00,1.774221539497375488e+00,1.774059653282165527e+00,1.773897528648376465e+00,1.773735761642456055e+00,1.773573756217956543e+00,1.773411870002746582e+00,1.773249983787536621e+00,1.773088216781616211e+00,1.772926568984985352e+00,1.772764682769775391e+00,1.772603034973144531e+00,1.772441267967224121e+00,1.772279620170593262e+00,1.772117853164672852e+00,1.771956324577331543e+00,1.771794676780700684e+00,1.771633267402648926e+00,1.771471738815307617e+00,1.771310210227966309e+00,1.771148800849914551e+00,1.770987272262573242e+00,1.770825982093811035e+00,1.770664453506469727e+00,1.770503163337707520e+00,1.770341753959655762e+00,1.770180583000183105e+00,1.770019173622131348e+00,1.769858121871948242e+00,1.769696950912475586e+00,1.769535660743713379e+00,1.769374608993530273e+00,1.769213438034057617e+00,1.769052386283874512e+00,1.768891334533691406e+00,1.768730401992797852e+00,1.768569231033325195e+00,1.768408417701721191e+00,1.768247365951538086e+00,1.768086552619934082e+00,1.767925739288330078e+00,1.767764806747436523e+00,1.767603993415832520e+00,1.767443180084228516e+00,1.767282485961914062e+00,1.767121672630310059e+00,1.766960978507995605e+00,1.766800284385681152e+00,1.766639709472656250e+00,1.766479015350341797e+00,1.766318559646606445e+00,1.766157984733581543e+00,1.765997409820556641e+00,1.765836954116821289e+00,1.765676379203796387e+00,1.765516161918640137e+00,1.765355587005615234e+00,1.765195369720458984e+00,1.765034914016723633e+00,1.764874696731567383e+00,1.764714479446411133e+00
1.607328534126281738e+00,1.607195496559143066e+00,1.607062578201293945e+00,1.606929659843444824e+00,1.606796860694885254e+00,1.606664061546325684e+00,1.606531143188476562e+00,1.606398344039916992e+00,1.606265425682067871e+00,1.606132745742797852e+00,1.605999946594238281e+00,1.605867266654968262e+00,1.605734467506408691e+00,1.605601787567138672e+00,1.605469107627868652e+00,1.605336546897888184e+00,1.605203986167907715e+00,1.605071306228637695e+00,1.604938745498657227e+00,1.604806184768676758e+00,1.604673624038696289e+00,1.604541063308715820e+00,1.604408621788024902e+00,1.604276061058044434e+00,1.604143738746643066e+00,1.604011178016662598e+00,1.603878855705261230e+00,1.603746533393859863e+00,1.603614091873168945e+00,1.603481888771057129e+00,1.603349447250366211e+00,1.603217244148254395e+00,1.603084921836853027e+00,1.602952718734741211e+00,1.602820396423339844e+00,1.602688193321228027e+00,1.602555990219116211e+00,1.602423906326293945e+00,1.602291822433471680e+00,1.602159619331359863e+00,1.602027535438537598e+00,1.601895451545715332e+00,1.601763486862182617e+00,1.601631283760070801e+00,1.601499438285827637e+00,1.601367354393005371e+00,1.601235389709472656e+00,1.601103425025939941e+00,1.600971579551696777e+00,1.600839734077453613e+00,1.600707769393920898e+00,1.600575923919677734e+00,1.600444078445434570e+00,1.600312352180480957e+00,1.600180387496948242e+00,1.600048780441284180e+00,1.599916815757751465e+00,1.599785208702087402e+00,1.599653363227844238e+00,1.599521756172180176e+00,1.599390149116516113e+00,1.599258422851562500e+00,1.599126935005187988e+00,1.598995208740234375e+00,1.598863720893859863e+00,1.598732113838195801e+00,1.598600625991821289e+00,1.598469018936157227e+00,1.598337650299072266e+00,1.598206281661987305e+00,1.598074674606323242e+00,1.597943305969238281e+00,1.597811818122863770e+00,1.597680568695068359e+00,1.597549080848693848e+00,1.597417831420898438e+00,1.597286462783813477e+00,1.597155213356018066e+00,1.597023844718933105e+00,1.596892714500427246e+00
1.466915369033813477e+00,1.466804623603820801e+00,1.466693878173828125e+00,1.466583251953125000e+00,1.466472506523132324e+00,1.466361880302429199e+00,1.466251254081726074e+00,1.466140508651733398e+00,1.466030001640319824e+00,1.465919256210327148e+00,1.465808749198913574e+00,1.465698122978210449e+00,1.465587615966796875e+00,1.465476989746093750e+00,1.465366601943969727e+00,1.465255975723266602e+00,1.465145587921142578e+00,1.465035080909729004e+00,1.464924573898315430e+00,1.464814186096191406e+00,1.464703679084777832e+00,1.464593410491943359e+00,1.464482903480529785e+00,1.464372634887695312e+00,1.464262127876281738e+00,1.464151859283447266e+00,1.464041471481323242e+00,1.463931322097778320e+00,1.463821053504943848e+00,1.463710665702819824e+00,1.463600516319274902e+00,1.463490128517150879e+00,1.463379979133605957e+00,1.463269710540771484e+00,1.463159561157226562e+00,1.463049411773681641e+00,1.462939262390136719e+00,1.462829232215881348e+00,1.462718963623046875e+00,1.462608933448791504e+00,1.462498784065246582e+00,1.462388753890991211e+00,1.462278723716735840e+00,1.462168693542480469e+00,1.462058663368225098e+00,1.461948633193969727e+00,1.461838603019714355e+00,1.461728692054748535e+00,1.461618781089782715e+00,1.461508750915527344e+00,1.461398959159851074e+00,1.461288928985595703e+00,1.461179137229919434e+00,1.461069226264953613e+00,1.460959434509277344e+00,1.460849523544311523e+00,1.460739731788635254e+00,1.460629820823669434e+00,1.460520148277282715e+00,1.460410356521606445e+00,1.460300564765930176e+00,1.460190892219543457e+00,1.460081100463867188e+00,1.459971427917480469e+00,1.459861636161804199e+00,1.459752082824707031e+00,1.459642291069030762e+00,1.459532737731933594e+00,1.459423065185546875e+00,1.459313511848449707e+00,1.459203958511352539e+00,1.459094285964965820e+00,1.458984851837158203e+00,1.458875179290771484e+00,1.458765745162963867e+00,1.458656191825866699e+00,1.458546638488769531e+00,1.458437204360961914e+00,1.458327770233154297e+00,1.458218336105346680e+00
1.349063754081726074e+00,1.348970055580139160e+00,1.348876476287841797e+00,1.348782777786254883e+00,1.348689198493957520e+00,1.348595619201660156e+00,1.348501920700073242e+00,1.348408460617065430e+00,1.348314762115478516e+00,1.348221302032470703e+00,1.348127722740173340e+00,1.348034262657165527e+00,1.347940683364868164e+00,1.347847223281860352e+00,1.347753643989562988e+00,1.347660183906555176e+00,1.347566843032836914e+00,1.347473263740539551e+00,1.347379922866821289e+00,1.347286462783813477e+00,1.347193121910095215e+00,1.347099661827087402e+00,1.347006320953369141e+00,1.346912860870361328e+00,1.346819519996643066e+00,1.346726179122924805e+00,1.346632838249206543e+00,1.346539616584777832e+00,1.346446156501770020e+00,1.346352934837341309e+00,1.346259593963623047e+00,1.346166372299194336e+00,1.346073031425476074e+00,1.345979928970336914e+00,1.345886588096618652e+00,1.345793366432189941e+00,1.345700144767761230e+00,1.345607042312622070e+00,1.345513820648193359e+00,1.345420598983764648e+00,1.345327496528625488e+00,1.345234394073486328e+00,1.345141291618347168e+00,1.345048069953918457e+00,1.344955086708068848e+00,1.344861865043640137e+00,1.344768881797790527e+00,1.344675779342651367e+00,1.344582676887512207e+00,1.344489693641662598e+00,1.344396591186523438e+00,1.344303727149963379e+00,1.344210624694824219e+00,1.344117641448974609e+00,1.344024658203125000e+00,1.343931674957275391e+00,1.343838691711425781e+00,1.343745827674865723e+00,1.343652844429016113e+00,1.343559980392456055e+00,1.343467116355895996e+00,1.343374252319335938e+00,1.343281388282775879e+00,1.343188405036926270e+00,1.343095660209655762e+00,1.343002796173095703e+00,1.342909932136535645e+00,1.342817068099975586e+00,1.342724323272705078e+00,1.342631697654724121e+00,1.342538833618164062e+00,1.342446088790893555e+00,1.342353343963623047e+00,1.342260599136352539e+00,1.342167854309082031e+00,1.342075228691101074e+00,1.341982483863830566e+00,1.341889739036560059e+00,1.341797113418579102e+00,1.341704487800598145e+00
1.248740196228027344e+00,1.248660087585449219e+00,1.248579740524291992e+00,1.248499512672424316e+00,1.248419284820556641e+00,1.248339176177978516e+00,1.248258948326110840e+00,1.248178720474243164e+00,1.248098611831665039e+00,1.248018383979797363e+00,1.247938275337219238e+00,1.247858047485351562e+00,1.247777938842773438e+00,1.247697830200195312e+00,1.247617721557617188e+00,1.247537612915039062e+00,1.247457504272460938e+00,1.247377514839172363e+00,1.247297406196594238e+00,1.247217297554016113e+00,1.247137188911437988e+00,1.247057199478149414e+00,1.246977210044860840e+00,1.246897220611572266e+00,1.246817111968994141e+00,1.246737122535705566e+00,1.246657133102416992e+00,1.246577143669128418e+00,1.246497273445129395e+00,1.246417284011840820e+00,1.246337294578552246e+00,1.246257305145263672e+00,1.246177434921264648e+00,1.246097445487976074e+00,1.246017575263977051e+00,1.245937705039978027e+00,1.245857834815979004e+00,1.245777964591979980e+00,1.245698094367980957e+00,1.245618224143981934e+00,1.245538353919982910e+00,1.245458602905273438e+00,1.245378613471984863e+00,1.245298862457275391e+00,1.245218992233276367e+00,1.245139241218566895e+00,1.245059490203857422e+00,1.244979739189147949e+00,1.244899988174438477e+00,1.244820237159729004e+00,1.244740486145019531e+00,1.244660735130310059e+00,1.244580984115600586e+00,1.244501233100891113e+00,1.244421601295471191e+00,1.244341850280761719e+00,1.244262218475341797e+00,1.244182467460632324e+00,1.244102835655212402e+00,1.244023203849792480e+00,1.243943572044372559e+00,1.243863940238952637e+00,1.243784308433532715e+00,1.243704676628112793e+00,1.243625044822692871e+00,1.243545532226562500e+00,1.243465900421142578e+00,1.243386387825012207e+00,1.243306756019592285e+00,1.243227243423461914e+00,1.243147730827331543e+00,1.243068218231201172e+00,1.242988705635070801e+00,1.242909073829650879e+00,1.242829680442810059e+00,1.242750167846679688e+00,1.242670655250549316e+00,1.242591142654418945e+00,1.242511749267578125e+00,1.242432355880737305e+00
1.162305235862731934e+00,1.162235617637634277e+00,1.162166118621826172e+00,1.162096619606018066e+00,1.162027120590209961e+00,1.161957621574401855e+00,1.161888122558593750e+00,1.161818742752075195e+00,1.161749243736267090e+00,1.161679744720458984e+00,1.161610245704650879e+00,1.161540865898132324e+00,1.161471366882324219e+00,1.161401987075805664e+00,1.161332607269287109e+00,1.161263227462768555e+00,1.161193847656250000e+00,1.161124348640441895e+00,1.161055088043212891e+00,1.160985589027404785e+00,1.160916328430175781e+00,1.160846948623657227e+00,1.160777568817138672e+00,1.160708189010620117e+00,1.160638928413391113e+00,1.160569548606872559e+00,1.160500288009643555e+00,1.160431027412414551e+00,1.160361647605895996e+00,1.160292387008666992e+00,1.160223007202148438e+00,1.160153746604919434e+00,1.160084486007690430e+00,1.160015225410461426e+00,1.159945964813232422e+00,1.159876704216003418e+00,1.159807443618774414e+00,1.159738302230834961e+00,1.159669160842895508e+00,1.159599900245666504e+00,1.159530639648437500e+00,1.159461498260498047e+00,1.159392356872558594e+00,1.159323096275329590e+00,1.159253954887390137e+00,1.159184694290161133e+00,1.159115672111511230e+00,1.159046411514282227e+00,1.158977389335632324e+00,1.158908247947692871e+00,1.158839106559753418e+00,1.158769965171813965e+00,1.158700823783874512e+00,1.158631801605224609e+00,1.158562660217285156e+00,1.158493638038635254e+00,1.158424496650695801e+00,1.158355474472045898e+00,1.158286452293395996e+00,1.158217430114746094e+00,1.158148407936096191e+00,1.158079385757446289e+00,1.158010363578796387e+00,1.157941341400146484e+00,1.157872319221496582e+00,1.157803297042846680e+00,1.157734394073486328e+00,1.157665371894836426e+00,1.157596468925476074e+00,1.157527446746826172e+00,1.157458543777465820e+00,1.157389521598815918e+00,1.157320618629455566e+00,1.157251715660095215e+00,1.157182693481445312e+00,1.157113909721374512e+00,1.157044887542724609e+00,1.156976103782653809e+00,1.156907081604003906e+00,1.156838297843933105e+00
1.087061047554016113e+00,1.087000250816345215e+00,1.086939454078674316e+00,1.086878657341003418e+00,1.086817860603332520e+00,1.086757063865661621e+00,1.086696386337280273e+00,1.086635589599609375e+00,1.086574792861938477e+00,1.086513996124267578e+00,1.086453318595886230e+00,1.086392521858215332e+00,1.086331844329833984e+00,1.086271047592163086e+00,1.086210370063781738e+00,1.086149573326110840e+00,1.086088895797729492e+00,1.086028218269348145e+00,1.085967540740966797e+00,1.085906863212585449e+00,1.085846066474914551e+00,1.085785508155822754e+00,1.085724711418151855e+00,1.085664153099060059e+00,1.085603475570678711e+00,1.085542798042297363e+00,1.085482120513916016e+00,1.085421562194824219e+00,1.085360884666442871e+00,1.085300326347351074e+00,1.085239648818969727e+00,1.085179090499877930e+00,1.085118532180786133e+00,1.085057854652404785e+00,1.084997296333312988e+00,1.084936618804931641e+00,1.084876179695129395e+00,1.084815621376037598e+00,1.084754943847656250e+00,1.084694385528564453e+00,1.084633827209472656e+00,1.084573388099670410e+00,1.084512710571289062e+00,1.084452271461486816e+00,1.084391713142395020e+00,1.084331274032592773e+00,1.084270715713500977e+00,1.084210157394409180e+00,1.084149718284606934e+00,1.084089279174804688e+00,1.084028720855712891e+00,1.083968281745910645e+00,1.083907842636108398e+00,1.083847284317016602e+00,1.083786964416503906e+00,1.083726406097412109e+00,1.083665966987609863e+00,1.083605527877807617e+00,1.083545088768005371e+00,1.083484768867492676e+00,1.083424329757690430e+00,1.083363890647888184e+00,1.083303451538085938e+00,1.083243131637573242e+00,1.083182692527770996e+00,1.083122372627258301e+00,1.083061933517456055e+00,1.083001613616943359e+00,1.082941174507141113e+00,1.082880854606628418e+00,1.082820534706115723e+00,1.082760214805603027e+00,1.082699894905090332e+00,1.082639575004577637e+00,1.082579255104064941e+00,1.082518815994262695e+00,1.082458615303039551e+00,1.082398295402526855e+00,1.082337975502014160e+00,1.082277774810791016e+00
1.020966887474060059e+00,1.020913243293762207e+00,1.020859599113464355e+00,1.020805954933166504e+00,1.020752310752868652e+00,1.020698785781860352e+00,1.020645141601562500e+00,1.020591497421264648e+00,1.020537853240966797e+00,1.020484328269958496e+00,1.020430684089660645e+00,1.020377159118652344e+00,1.020323514938354492e+00,1.020269989967346191e+00,1.020216345787048340e+00,1.020162820816040039e+00,1.020109295845031738e+00,1.020055651664733887e+00,1.020002126693725586e+00,1.019948601722717285e+00,1.019895076751708984e+00,1.019841551780700684e+00,1.019788026809692383e+00,1.019734501838684082e+00,1.019680976867675781e+00,1.019627451896667480e+00,1.019573926925659180e+00,1.019520521163940430e+00,1.019466996192932129e+00,1.019413471221923828e+00,1.019360065460205078e+00,1.019306540489196777e+00,1.019253015518188477e+00,1.019199609756469727e+00,1.019146084785461426e+00,1.019092679023742676e+00,1.019039273262023926e+00,1.018985867500305176e+00,1.018932461738586426e+00,1.018878936767578125e+00,1.018825531005859375e+00,1.018772125244140625e+00,1.018718719482421875e+00,1.018665313720703125e+00,1.018611907958984375e+00,1.018558502197265625e+00,1.018505096435546875e+00,1.018451690673828125e+00,1.018398284912109375e+00,1.018344998359680176e+00,1.018291592597961426e+00,1.018238306045532227e+00,1.018184900283813477e+00,1.018131494522094727e+00,1.018078207969665527e+00,1.018024802207946777e+00,1.017971515655517578e+00,1.017918229103088379e+00,1.017864823341369629e+00,1.017811536788940430e+00,1.017758250236511230e+00,1.017704844474792480e+00,1.017651677131652832e+00,1.017598271369934082e+00,1.017544984817504883e+00,1.017491698265075684e+00,1.017438411712646484e+00,1.017385125160217285e+00,1.017331957817077637e+00,1.017278671264648438e+00,1.017225384712219238e+00,1.017172217369079590e+00,1.017118930816650391e+00,1.017065644264221191e+00,1.017012357711791992e+00,1.016959190368652344e+00,1.016905903816223145e+00,1.016852736473083496e+00,1.016799569129943848e+00,1.016746282577514648e+00
9.624491930007934570e-01,9.624015092849731445e-01,9.623537659645080566e-01,9.623062014579772949e-01,9.622585177421569824e-01,9.622108340263366699e-01,9.621632695198059082e-01,9.621155858039855957e-01,9.620679616928100586e-01,9.620202779769897461e-01,9.619727134704589844e-01,9.619250893592834473e-01,9.618774056434631348e-01,9.618297815322875977e-01,9.617822766304016113e-01,9.617345929145812988e-01,9.616869688034057617e-01,9.616394639015197754e-01,9.615918397903442383e-01,9.615442752838134766e-01,9.614966511726379395e-01,9.614491462707519531e-01,9.614015221595764160e-01,9.613539576530456543e-01,9.613063335418701172e-01,9.612588882446289062e-01,9.612112641334533691e-01,9.611636996269226074e-01,9.611162543296813965e-01,9.610686898231506348e-01,9.610211253166198730e-01,9.609735608100891113e-01,9.609261155128479004e-01,9.608785510063171387e-01,9.608309864997863770e-01,9.607834815979003906e-01,9.607360363006591797e-01,9.606885313987731934e-01,9.606409668922424316e-01,9.605935811996459961e-01,9.605460762977600098e-01,9.604985713958740234e-01,9.604510664939880371e-01,9.604036211967468262e-01,9.603561758995056152e-01,9.603086709976196289e-01,9.602611660957336426e-01,9.602137804031372070e-01,9.601663351058959961e-01,9.601188302040100098e-01,9.600715041160583496e-01,9.600239992141723633e-01,9.599765539169311523e-01,9.599291086196899414e-01,9.598817229270935059e-01,9.598342776298522949e-01,9.597868323326110840e-01,9.597394466400146484e-01,9.596921205520629883e-01,9.596446752548217773e-01,9.595972299575805664e-01,9.595499634742736816e-01,9.595025181770324707e-01,9.594551324844360352e-01,9.594076871871948242e-01,9.593604207038879395e-01,9.593130350112915039e-01,9.592656493186950684e-01,9.592182636260986328e-01,9.591709971427917480e-01,9.591236114501953125e-01,9.590762257575988770e-01,9.590289592742919922e-01,9.589815735816955566e-01,9.589342474937438965e-01,9.588868618011474609e-01,9.588396549224853516e-01,9.587923288345336914e-01,9.587449431419372559e-01,9.586977362632751465e-01
9.102758765220642090e-01,9.102331995964050293e-01,9.101905226707458496e-01,9.101478457450866699e-01,9.101052880287170410e-01,9.100626707077026367e-01,9.100199937820434570e-01,9.099774360656738281e-01,9.099348187446594238e-01,9.098921418190002441e-01,9.098495244979858398e-01,9.098070263862609863e-01,9.097643494606018066e-01,9.097217321395874023e-01,9.096791148185729980e-01,9.096366167068481445e-01,9.095939993858337402e-01,9.095513820648193359e-01,9.095088839530944824e-01,9.094663262367248535e-01,9.094237089157104492e-01,9.093811511993408203e-01,9.093386530876159668e-01,9.092960357666015625e-01,9.092534780502319336e-01,9.092109203338623047e-01,9.091684222221374512e-01,9.091258645057678223e-01,9.090833067893981934e-01,9.090408682823181152e-01,9.089983105659484863e-01,9.089557528495788574e-01,9.089131951332092285e-01,9.088707566261291504e-01,9.088281989097595215e-01,9.087857007980346680e-01,9.087431430816650391e-01,9.087007045745849609e-01,9.086582064628601074e-01,9.086157083511352539e-01,9.085732698440551758e-01,9.085307717323303223e-01,9.084882736206054688e-01,9.084457755088806152e-01,9.084033370018005371e-01,9.083608388900756836e-01,9.083183407783508301e-01,9.082759022712707520e-01,9.082335233688354492e-01,9.081910252571105957e-01,9.081485271453857422e-01,9.081061482429504395e-01,9.080637097358703613e-01,9.080212712287902832e-01,9.079787731170654297e-01,9.079364538192749023e-01,9.078939557075500488e-01,9.078515172004699707e-01,9.078090786933898926e-01,9.077667593955993652e-01,9.077243208885192871e-01,9.076818823814392090e-01,9.076395630836486816e-01,9.075971245765686035e-01,9.075546860694885254e-01,9.075123071670532227e-01,9.074699878692626953e-01,9.074276089668273926e-01,9.073851704597473145e-01,9.073428511619567871e-01,9.073004722595214844e-01,9.072580933570861816e-01,9.072157144546508789e-01,9.071733951568603516e-01,9.071310162544250488e-01,9.070886969566345215e-01,9.070463180541992188e-01,9.070039987564086914e-01,9.069616794586181641e-01,9.069193005561828613e-01
8.634681105613708496e-01,8.634297847747802734e-01,8.633913993835449219e-01,8.633530139923095703e-01,8.633146286010742188e-01,8.632763028144836426e-01,8.632379174232482910e-01,8.631995916366577148e-01,8.631612658500671387e-01,8.631229400634765625e-01,8.630845546722412109e-01,8.630461692810058594e-01,8.630079627037048340e-01,8.629695773124694824e-01,8.629312515258789062e-01,8.628928661346435547e-01,8.628546595573425293e-01,8.628162741661071777e-01,8.627779483795166016e-01,8.627396821975708008e-01,8.627013564109802246e-01,8.626630306243896484e-01,8.626247048377990723e-01,8.625864982604980469e-01,8.625481724739074707e-01,8.625098466873168945e-01,8.624715805053710938e-01,8.624333143234252930e-01,8.623950481414794922e-01,8.623567223548889160e-01,8.623185157775878906e-01,8.622802495956420898e-01,8.622419238090515137e-01,8.622036576271057129e-01,8.621654510498046875e-01,8.621271848678588867e-01,8.620889186859130859e-01,8.620507121086120605e-01,8.620124459266662598e-01,8.619741797447204590e-01,8.619359135627746582e-01,8.618977665901184082e-01,8.618595004081726074e-01,8.618212938308715820e-01,8.617830276489257812e-01,8.617448806762695312e-01,8.617066144943237305e-01,8.616684079170227051e-01,8.616302609443664551e-01,8.615919947624206543e-01,8.615537881851196289e-01,8.615155220031738281e-01,8.614774346351623535e-01,8.614392280578613281e-01,8.614009618759155273e-01,8.613627552986145020e-01,8.613246679306030273e-01,8.612864613533020020e-01,8.612482547760009766e-01,8.612101674079895020e-01,8.611719608306884766e-01,8.611337542533874512e-01,8.610955476760864258e-01,8.610574603080749512e-01,8.610193133354187012e-01,8.609811067581176758e-01,8.609429597854614258e-01,8.609048724174499512e-01,8.608666658401489258e-01,8.608285188674926758e-01,8.607904911041259766e-01,8.607522845268249512e-01,8.607141375541687012e-01,8.606759905815124512e-01,8.606379628181457520e-01,8.605998158454895020e-01,8.605616688728332520e-01,8.605235219001770020e-01,8.604854941368103027e-01,8.604473471641540527e-01
8.212388157844543457e-01,8.212040662765502930e-01,8.211694359779357910e-01,8.211346864700317383e-01,8.210999965667724609e-01,8.210653662681579590e-01,8.210306167602539062e-01,8.209959268569946289e-01,8.209612369537353516e-01,8.209266066551208496e-01,8.208918571472167969e-01,8.208571672439575195e-01,8.208224773406982422e-01,8.207878470420837402e-01,8.207531571388244629e-01,8.207184672355651855e-01,8.206838965415954590e-01,8.206492066383361816e-01,8.206145167350769043e-01,8.205798268318176270e-01,8.205452561378479004e-01,8.205105662345886230e-01,8.204759359359741211e-01,8.204412460327148438e-01,8.204066753387451172e-01,8.203719854354858398e-01,8.203373551368713379e-01,8.203027844429016113e-01,8.202681541442871094e-01,8.202334642410278320e-01,8.201988339424133301e-01,8.201642632484436035e-01,8.201296329498291016e-01,8.200950026512145996e-01,8.200603723526000977e-01,8.200258016586303711e-01,8.199911713600158691e-01,8.199565410614013672e-01,8.199220299720764160e-01,8.198873996734619141e-01,8.198527693748474121e-01,8.198181390762329102e-01,8.197836279869079590e-01,8.197489976882934570e-01,8.197144269943237305e-01,8.196797966957092285e-01,8.196452856063842773e-01,8.196107149124145508e-01,8.195760846138000488e-01,8.195415735244750977e-01,8.195070028305053711e-01,8.194724321365356445e-01,8.194378614425659180e-01,8.194033503532409668e-01,8.193687796592712402e-01,8.193342089653015137e-01,8.192996382713317871e-01,8.192651271820068359e-01,8.192305564880371094e-01,8.191960453987121582e-01,8.191615343093872070e-01,8.191269636154174805e-01,8.190924525260925293e-01,8.190578818321228027e-01,8.190234303474426270e-01,8.189888596534729004e-01,8.189543485641479492e-01,8.189197778701782227e-01,8.188853263854980469e-01,8.188508152961730957e-01,8.188162446022033691e-01,8.187818527221679688e-01,8.187472820281982422e-01,8.187127709388732910e-01,8.186782598495483398e-01,8.186438083648681641e-01,8.186092972755432129e-01,8.185747861862182617e-01,8.185402750968933105e-01,8.185058832168579102e-01
7.829475402832031250e-01,7.829160094261169434e-01,7.828844189643859863e-01,7.828529477119445801e-01,7.828213572502136230e-01,7.827898263931274414e-01,7.827583551406860352e-01,7.827267646789550781e-01,7.826952338218688965e-01,7.826637029647827148e-01,7.826322317123413086e-01,7.826006412506103516e-01,7.825691103935241699e-01,7.825375795364379883e-01,7.825061082839965820e-01,7.824745774269104004e-01,7.824430465698242188e-01,7.824116349220275879e-01,7.823801040649414062e-01,7.823485732078552246e-01,7.823170423507690430e-01,7.822855710983276367e-01,7.822540998458862305e-01,7.822225689888000488e-01,7.821910381317138672e-01,7.821596264839172363e-01,7.821280956268310547e-01,7.820966243743896484e-01,7.820652127265930176e-01,7.820336818695068359e-01,7.820022106170654297e-01,7.819707393646240234e-01,7.819392681121826172e-01,7.819077968597412109e-01,7.818763256072998047e-01,7.818448543548583984e-01,7.818134427070617676e-01,7.817819714546203613e-01,7.817505002021789551e-01,7.817190885543823242e-01,7.816876173019409180e-01,7.816561460494995117e-01,7.816246747970581055e-01,7.815933227539062500e-01,7.815618515014648438e-01,7.815303802490234375e-01,7.814989089965820312e-01,7.814675569534301758e-01,7.814360857009887695e-01,7.814046740531921387e-01,7.813732624053955078e-01,7.813418507575988770e-01,7.813103795051574707e-01,7.812789678573608398e-01,7.812476158142089844e-01,7.812162041664123535e-01,7.811847329139709473e-01,7.811533212661743164e-01,7.811219692230224609e-01,7.810905575752258301e-01,7.810591459274291992e-01,7.810277938842773438e-01,7.809963822364807129e-01,7.809649705886840820e-01,7.809335589408874512e-01,7.809022068977355957e-01,7.808707952499389648e-01,7.808394432067871094e-01,7.808080315589904785e-01,7.807766795158386230e-01,7.807453274726867676e-01,7.807139158248901367e-01,7.806826233863830566e-01,7.806512117385864258e-01,7.806198596954345703e-01,7.805884480476379395e-01,7.805571556091308594e-01,7.805257439613342285e-01,7.804943919181823730e-01,7.804630994796752930e-01
7.480679750442504883e-01,7.480391263961791992e-01,7.480103373527526855e-01,7.479814887046813965e-01,7.479527592658996582e-01,7.479239702224731445e-01,7.478951215744018555e-01,7.478663921356201172e-01,7.478376030921936035e-01,7.478088140487670898e-01,7.477800250053405762e-01,7.477512955665588379e-01,7.477225065231323242e-01,7.476937174797058105e-01,7.476649284362792969e-01,7.476361989974975586e-01,7.476074099540710449e-01,7.475786209106445312e-01,7.475498914718627930e-01,7.475211024284362793e-01,7.474923729896545410e-01,7.474635839462280273e-01,7.474348545074462891e-01,7.474061250686645508e-01,7.473773360252380371e-01,7.473485469818115234e-01,7.473198771476745605e-01,7.472911477088928223e-01,7.472623586654663086e-01,7.472336888313293457e-01,7.472048997879028320e-01,7.471761703491210938e-01,7.471474409103393555e-01,7.471187114715576172e-01,7.470899820327758789e-01,7.470612525939941406e-01,7.470325231552124023e-01,7.470038533210754395e-01,7.469751238822937012e-01,7.469463944435119629e-01,7.469177246093750000e-01,7.468889951705932617e-01,7.468602657318115234e-01,7.468315362930297852e-01,7.468028664588928223e-01,7.467741370201110840e-01,7.467454075813293457e-01,7.467167377471923828e-01,7.466880679130554199e-01,7.466593384742736816e-01,7.466306090354919434e-01,7.466019988059997559e-01,7.465732693672180176e-01,7.465445995330810547e-01,7.465158700942993164e-01,7.464872598648071289e-01,7.464585304260253906e-01,7.464298605918884277e-01,7.464011907577514648e-01,7.463725805282592773e-01,7.463438510894775391e-01,7.463151812553405762e-01,7.462865710258483887e-01,7.462579011917114258e-01,7.462292313575744629e-01,7.462005019187927246e-01,7.461718916893005371e-01,7.461432218551635742e-01,7.461145520210266113e-01,7.460860013961791992e-01,7.460573315620422363e-01,7.460286617279052734e-01,7.459999918937683105e-01,7.459713816642761230e-01,7.459427118301391602e-01,7.459141016006469727e-01,7.458854317665100098e-01,7.458568215370178223e-01,7.458282113075256348e-01,7.457995414733886719e-01
7.161634564399719238e-01,7.161371111869812012e-01,7.161107063293457031e-01,7.160843014717102051e-01,7.160578966140747070e-01,7.160315513610839844e-01,7.160051465034484863e-01,7.159787416458129883e-01,7.159523963928222656e-01,7.159259915351867676e-01,7.158995866775512695e-01,7.158732414245605469e-01,7.158468961715698242e-01,7.158204913139343262e-01,7.157940864562988281e-01,7.157677412033081055e-01,7.157413959503173828e-01,7.157150506973266602e-01,7.156886458396911621e-01,7.156623005867004395e-01,7.156359553337097168e-01,7.156095504760742188e-01,7.155832052230834961e-01,7.155569195747375488e-01,7.155305147171020508e-01,7.155041694641113281e-01,7.154778242111206055e-01,7.154514789581298828e-01,7.154251337051391602e-01,7.153987884521484375e-01,7.153725028038024902e-01,7.153461575508117676e-01,7.153198122978210449e-01,7.152934670448303223e-01,7.152671813964843750e-01,7.152407765388488770e-01,7.152144908905029297e-01,7.151882052421569824e-01,7.151618599891662598e-01,7.151355147361755371e-01,7.151091694831848145e-01,7.150828838348388672e-01,7.150565385818481445e-01,7.150302529335021973e-01,7.150039076805114746e-01,7.149776220321655273e-01,7.149513363838195801e-01,7.149249911308288574e-01,7.148987054824829102e-01,7.148724198341369629e-01,7.148460745811462402e-01,7.148197889328002930e-01,7.147935032844543457e-01,7.147672176361083984e-01,7.147409319877624512e-01,7.147145867347717285e-01,7.146883606910705566e-01,7.146620750427246094e-01,7.146357297897338867e-01,7.146095037460327148e-01,7.145832180976867676e-01,7.145569324493408203e-01,7.145306468009948730e-01,7.145044207572937012e-01,7.144781351089477539e-01,7.144518494606018066e-01,7.144255638122558594e-01,7.143993377685546875e-01,7.143730521202087402e-01,7.143467664718627930e-01,7.143205404281616211e-01,7.142942547798156738e-01,7.142679691314697266e-01,7.142416834831237793e-01,7.142155170440673828e-01,7.141892313957214355e-01,7.141629457473754883e-01,7.141367197036743164e-01,7.141104936599731445e-01,7.140842676162719727e-01
6.868690848350524902e-01,6.868448257446289062e-01,6.868205666542053223e-01,6.867963075637817383e-01,6.867719888687133789e-01,6.867477893829345703e-01,6.867234706878662109e-01,6.866992115974426270e-01,6.866748929023742676e-01,6.866506934165954590e-01,6.866263747215270996e-01,6.866021156311035156e-01,6.865778565406799316e-01,6.865535974502563477e-01,6.865293383598327637e-01,6.865050792694091797e-01,6.864808797836303711e-01,6.864566206932067871e-01,6.864323616027832031e-01,6.864080429077148438e-01,6.863838434219360352e-01,6.863595843315124512e-01,6.863353252410888672e-01,6.863110661506652832e-01,6.862868666648864746e-01,6.862626075744628906e-01,6.862383484840393066e-01,6.862142086029052734e-01,6.861899495124816895e-01,6.861656904220581055e-01,6.861414313316345215e-01,6.861172318458557129e-01,6.860930323600769043e-01,6.860687732696533203e-01,6.860445141792297363e-01,6.860203742980957031e-01,6.859961152076721191e-01,6.859718561172485352e-01,6.859477162361145020e-01,6.859234571456909180e-01,6.858992576599121094e-01,6.858749985694885254e-01,6.858508586883544922e-01,6.858265995979309082e-01,6.858024001121520996e-01,6.857782006263732910e-01,6.857540011405944824e-01,6.857298016548156738e-01,6.857056021690368652e-01,6.856814026832580566e-01,6.856572031974792480e-01,6.856330037117004395e-01,6.856088042259216309e-01,6.855846643447875977e-01,6.855604648590087891e-01,6.855362653732299805e-01,6.855120658874511719e-01,6.854879260063171387e-01,6.854637265205383301e-01,6.854395270347595215e-01,6.854153871536254883e-01,6.853911876678466797e-01,6.853669881820678711e-01,6.853427886962890625e-01,6.853186488151550293e-01,6.852944493293762207e-01,6.852703094482421875e-01,6.852461099624633789e-01,6.852219700813293457e-01,6.851978302001953125e-01,6.851736307144165039e-01,6.851494908332824707e-01,6.851253509521484375e-01,6.851011514663696289e-01,6.850770115852355957e-01,6.850528717041015625e-01,6.850287318229675293e-01,6.850045323371887207e-01,6.849803924560546875e-01,6.849562525749206543e-01
6.598771214485168457e-01,6.598547101020812988e-01,6.598322987556457520e-01,6.598098874092102051e-01,6.597874760627746582e-01,6.597650647163391113e-01,6.597427129745483398e-01,6.597203016281127930e-01,6.596978902816772461e-01,6.596754789352416992e-01,6.596531271934509277e-01,6.596307158470153809e-01,6.596083045005798340e-01,6.595858931541442871e-01,6.595635414123535156e-01,6.595411300659179688e-01,6.595187187194824219e-01,6.594964265823364258e-01,6.594740152359008789e-01,6.594516038894653320e-01,6.594291925430297852e-01,6.594069004058837891e-01,6.593844890594482422e-01,6.593620777130126953e-01,6.593397259712219238e-01,6.593173742294311523e-01,6.592949628829956055e-01,6.592726111412048340e-01,6.592502593994140625e-01,6.592279076576232910e-01,6.592054963111877441e-01,6.591831445693969727e-01,6.591607928276062012e-01,6.591384410858154297e-01,6.591160297393798828e-01,6.590936779975891113e-01,6.590713858604431152e-01,6.590489745140075684e-01,6.590266227722167969e-01,6.590043306350708008e-01,6.589819788932800293e-01,6.589595675468444824e-01,6.589372158050537109e-01,6.589149236679077148e-01,6.588925719261169434e-01,6.588702201843261719e-01,6.588478684425354004e-01,6.588255167007446289e-01,6.588031649589538574e-01,6.587808728218078613e-01,6.587585210800170898e-01,6.587361693382263184e-01,6.587138772010803223e-01,6.586915254592895508e-01,6.586692333221435547e-01,6.586468815803527832e-01,6.586245298385620117e-01,6.586021780967712402e-01,6.585798859596252441e-01,6.585575938224792480e-01,6.585352420806884766e-01,6.585129499435424805e-01,6.584906578063964844e-01,6.584683060646057129e-01,6.584459543228149414e-01,6.584237217903137207e-01,6.584013700485229492e-01,6.583790183067321777e-01,6.583567261695861816e-01,6.583344340324401855e-01,6.583121418952941895e-01,6.582897901535034180e-01,6.582675576210021973e-01,6.582452654838562012e-01,6.582229137420654297e-01,6.582006216049194336e-01,6.581783294677734375e-01,6.581560373306274414e-01,6.581337451934814453e-01,6.581115126609802246e-01
6.349263191223144531e-01,6.349055767059326172e-01,6.348848342895507812e-01,6.348640322685241699e-01,6.348433494567871094e-01,6.348226070404052734e-01,6.348018646240234375e-01,6.347811222076416016e-01,6.347603797912597656e-01,6.347396373748779297e-01,6.347188949584960938e-01,6.346982121467590332e-01,6.346774697303771973e-01,6.346567273139953613e-01,6.346359848976135254e-01,6.346152424812316895e-01,6.345945000648498535e-01,6.345737576484680176e-01,6.345530748367309570e-01,6.345323920249938965e-01,6.345116496086120605e-01,6.344909071922302246e-01,6.344702243804931641e-01,6.344494819641113281e-01,6.344287395477294922e-01,6.344080567359924316e-01,6.343873739242553711e-01,6.343666315078735352e-01,6.343458890914916992e-01,6.343252062797546387e-01,6.343045234680175781e-01,6.342837810516357422e-01,6.342630982398986816e-01,6.342424154281616211e-01,6.342216730117797852e-01,6.342009902000427246e-01,6.341802477836608887e-01,6.341596245765686035e-01,6.341388821601867676e-01,6.341181993484497070e-01,6.340975165367126465e-01,6.340768337249755859e-01,6.340560913085937500e-01,6.340354084968566895e-01,6.340147256851196289e-01,6.339940428733825684e-01,6.339733600616455078e-01,6.339526772499084473e-01,6.339319944381713867e-01,6.339113116264343262e-01,6.338906288146972656e-01,6.338700056076049805e-01,6.338492631912231445e-01,6.338285803794860840e-01,6.338078975677490234e-01,6.337872743606567383e-01,6.337665915489196777e-01,6.337459087371826172e-01,6.337252259254455566e-01,6.337046027183532715e-01,6.336839199066162109e-01,6.336632370948791504e-01,6.336426138877868652e-01,6.336219310760498047e-01,6.336012482643127441e-01,6.335805654525756836e-01,6.335599422454833984e-01,6.335392594337463379e-01,6.335185766220092773e-01,6.334979534149169922e-01,6.334773302078247070e-01,6.334566473960876465e-01,6.334359645843505859e-01,6.334154009819030762e-01,6.333947181701660156e-01,6.333740353584289551e-01,6.333534121513366699e-01,6.333327889442443848e-01,6.333121061325073242e-01,6.332914829254150391e-01
6.117936372756958008e-01,6.117743849754333496e-01,6.117551326751708984e-01,6.117358207702636719e-01,6.117165684700012207e-01,6.116973757743835449e-01,6.116780638694763184e-01,6.116588115692138672e-01,6.116396188735961914e-01,6.116203069686889648e-01,6.116010546684265137e-01,6.115818023681640625e-01,6.115626096725463867e-01,6.115432977676391602e-01,6.115240454673767090e-01,6.115047931671142578e-01,6.114856004714965820e-01,6.114663481712341309e-01,6.114470958709716797e-01,6.114278435707092285e-01,6.114085912704467773e-01,6.113893985748291016e-01,6.113701462745666504e-01,6.113508939743041992e-01,6.113316416740417480e-01,6.113124489784240723e-01,6.112931966781616211e-01,6.112740039825439453e-01,6.112547516822814941e-01,6.112354993820190430e-01,6.112163066864013672e-01,6.111970543861389160e-01,6.111778020858764648e-01,6.111586093902587891e-01,6.111394166946411133e-01,6.111201643943786621e-01,6.111009120941162109e-01,6.110817193984985352e-01,6.110625267028808594e-01,6.110432744026184082e-01,6.110240817070007324e-01,6.110048890113830566e-01,6.109856367111206055e-01,6.109664440155029297e-01,6.109471917152404785e-01,6.109279990196228027e-01,6.109088063240051270e-01,6.108896136283874512e-01,6.108704209327697754e-01,6.108511686325073242e-01,6.108319759368896484e-01,6.108127832412719727e-01,6.107935905456542969e-01,6.107743978500366211e-01,6.107551455497741699e-01,6.107359528541564941e-01,6.107168197631835938e-01,6.106975674629211426e-01,6.106783747673034668e-01,6.106592416763305664e-01,6.106400489807128906e-01,6.106207966804504395e-01,6.106016039848327637e-01,6.105824708938598633e-01,6.105632781982421875e-01,6.105440855026245117e-01,6.105248928070068359e-01,6.105057001113891602e-01,6.104865074157714844e-01,6.104673147201538086e-01,6.104481816291809082e-01,6.104289889335632324e-01,6.104097962379455566e-01,6.103906035423278809e-01,6.103714704513549805e-01,6.103522777557373047e-01,6.103330850601196289e-01,6.103139519691467285e-01,6.102947592735290527e-01,6.102756261825561523e-01
5.902872681617736816e-01,5.902693271636962891e-01,5.902514457702636719e-01,5.902335047721862793e-01,5.902155637741088867e-01,5.901976823806762695e-01,5.901797413825988770e-01,5.901618003845214844e-01,5.901438593864440918e-01,5.901259779930114746e-01,5.901080369949340820e-01,5.900900959968566895e-01,5.900721549987792969e-01,5.900542736053466797e-01,5.900363326072692871e-01,5.900183916091918945e-01,5.900005102157592773e-01,5.899826288223266602e-01,5.899646878242492676e-01,5.899467468261718750e-01,5.899288654327392578e-01,5.899109244346618652e-01,5.898930430412292480e-01,5.898751020431518555e-01,5.898572206497192383e-01,5.898393392562866211e-01,5.898213982582092285e-01,5.898035168647766113e-01,5.897856354713439941e-01,5.897676944732666016e-01,5.897498130798339844e-01,5.897319316864013672e-01,5.897140502929687500e-01,5.896961092948913574e-01,5.896782279014587402e-01,5.896603465080261230e-01,5.896424651145935059e-01,5.896245241165161133e-01,5.896067023277282715e-01,5.895887613296508789e-01,5.895708799362182617e-01,5.895529985427856445e-01,5.895351171493530273e-01,5.895172357559204102e-01,5.894992947578430176e-01,5.894814133644104004e-01,5.894635915756225586e-01,5.894456505775451660e-01,5.894277691841125488e-01,5.894099473953247070e-01,5.893920660018920898e-01,5.893741250038146973e-01,5.893562436103820801e-01,5.893384218215942383e-01,5.893205404281616211e-01,5.893026590347290039e-01,5.892847776412963867e-01,5.892668962478637695e-01,5.892490148544311523e-01,5.892311334609985352e-01,5.892133116722106934e-01,5.891954302787780762e-01,5.891775488853454590e-01,5.891596674919128418e-01,5.891418457031250000e-01,5.891239643096923828e-01,5.891061425209045410e-01,5.890882611274719238e-01,5.890704393386840820e-01,5.890525579452514648e-01,5.890346765518188477e-01,5.890168547630310059e-01,5.889989733695983887e-01,5.889810919761657715e-01,5.889632701873779297e-01,5.889454483985900879e-01,5.889275670051574707e-01,5.889096856117248535e-01,5.888918638229370117e-01,5.888740420341491699e-01
5.702416300773620605e-01,5.702248811721801758e-01,5.702081322669982910e-01,5.701914429664611816e-01,5.701746940612792969e-01,5.701579451560974121e-01,5.701412558555603027e-01,5.701245069503784180e-01,5.701077580451965332e-01,5.700910687446594238e-01,5.700743198394775391e-01,5.700576305389404297e-01,5.700408816337585449e-01,5.700241327285766602e-01,5.700074434280395508e-01,5.699906945228576660e-01,5.699740052223205566e-01,5.699573159217834473e-01,5.699405670166015625e-01,5.699238181114196777e-01,5.699071288108825684e-01,5.698904395103454590e-01,5.698736906051635742e-01,5.698569416999816895e-01,5.698402523994445801e-01,5.698235630989074707e-01,5.698068141937255859e-01,5.697901248931884766e-01,5.697734355926513672e-01,5.697567462921142578e-01,5.697399973869323730e-01,5.697233080863952637e-01,5.697066187858581543e-01,5.696898698806762695e-01,5.696731805801391602e-01,5.696564912796020508e-01,5.696398019790649414e-01,5.696231126785278320e-01,5.696063637733459473e-01,5.695897340774536133e-01,5.695729851722717285e-01,5.695562958717346191e-01,5.695396065711975098e-01,5.695229172706604004e-01,5.695062279701232910e-01,5.694895386695861816e-01,5.694727897644042969e-01,5.694561600685119629e-01,5.694394707679748535e-01,5.694227814674377441e-01,5.694060921669006348e-01,5.693894028663635254e-01,5.693727135658264160e-01,5.693560242652893066e-01,5.693393349647521973e-01,5.693226456642150879e-01,5.693059563636779785e-01,5.692892670631408691e-01,5.692726373672485352e-01,5.692559480667114258e-01,5.692392587661743164e-01,5.692226290702819824e-01,5.692059397697448730e-01,5.691892504692077637e-01,5.691725611686706543e-01,5.691559314727783203e-01,5.691392421722412109e-01,5.691225528717041016e-01,5.691058635711669922e-01,5.690892338752746582e-01,5.690725445747375488e-01,5.690558552742004395e-01,5.690392255783081055e-01,5.690225362777709961e-01,5.690059065818786621e-01,5.689892172813415527e-01,5.689725875854492188e-01,5.689558982849121094e-01,5.689392089843750000e-01,5.689225792884826660e-01
