5.000000000000000000e+00,5.000000000000000000e+00,5.000000000000000000e+00,5.000000000000000000e+00,5.000000000000000000e+00,5.000000000000000000e+00,5.000000000000000000e+00,5.000000000000000000e+00,5.000000000000000000e+00,5.000000000000000000e+00,5.000000000000000000e+00,5.000000000000000000e+00,5.000000000000000000e+00,5.000000000000000000e+00,5.000000000000000000e+00,5.000000000000000000e+00,5.000000000000000000e+00,5.000000000000000000e+00,5.000000000000000000e+00,5.000000000000000000e+00,5.000000000000000000e+00,5.000000000000000000e+00,5.000000000000000000e+00,5.000000000000000000e+00,5.000000000000000000e+00,5.000000000000000000e+00,5.000000000000000000e+00,5.000000000000000000e+00,5.000000000000000000e+00,5.000000000000000000e+00,5.000000000000000000e+00,5.000000000000000000e+00,5.000000000000000000e+00,5.000000000000000000e+00,5.000000000000000000e+00,5.000000000000000000e+00,5.000000000000000000e+00,5.000000000000000000e+00,5.000000000000000000e+00,1.544559597969055176e+00,1.540646195411682129e+00,1.516267538070678711e+00,1.468464612960815430e+00,1.433115363121032715e+00,1.425610065460205078e+00,1.424298405647277832e+00,1.454269886016845703e+00,1.455005288124084473e+00,1.450563430786132812e+00,1.464202642440795898e+00,1.470060467720031738e+00,1.483605980873107910e+00,1.518461585044860840e+00,3.088227033615112305e+00,3.010095357894897461e+00,1.556954979896545410e+00,1.512719631195068359e+00,1.489671707153320312e+00,1.467315673828125000e+00,1.495655775070190430e+00,2.613385915756225586e+00,2.557215452194213867e+00,2.503408670425415039e+00,2.451819419860839844e+00,2.402313709259033203e+00,2.354767799377441406e+00,2.309067010879516602e+00,2.265106678009033203e+00,2.222788572311401367e+00,2.182023048400878906e+00,2.142725467681884766e+00,2.104818582534790039e+00,2.068229436874389648e+00,2.032891035079956055e+00,1.998739480972290039e+00,1.965716838836669922e+00,1.933767318725585938e+00,1.902839899063110352e+00,1.872886061668395996e+00,1.843860864639282227e+00
5.000000000000000000e+00,5.000000000000000000e+00,5.000000000000000000e+00,5.000000000000000000e+00,5.000000000000000000e+00,5.000000000000000000e+00,5.000000000000000000e+00,5.000000000000000000e+00,5.000000000000000000e+00,5.000000000000000000e+00,5.000000000000000000e+00,5.000000000000000000e+00,5.000000000000000000e+00,5.000000000000000000e+00,5.000000000000000000e+00,5.000000000000000000e+00,5.000000000000000000e+00,5.000000000000000000e+00,5.000000000000000000e+00,5.000000000000000000e+00,5.000000000000000000e+00,5.000000000000000000e+00,5.000000000000000000e+00,5.000000000000000000e+00,5.000000000000000000e+00,5.000000000000000000e+00,5.000000000000000000e+00,5.000000000000000000e+00,5.000000000000000000e+00,5.000000000000000000e+00,5.000000000000000000e+00,5.000000000000000000e+00,5.000000000000000000e+00,5.000000000000000000e+00,5.000000000000000000e+00,5.000000000000000000e+00,5.000000000000000000e+00,5.000000000000000000e+00,5.000000000000000000e+00,1.542417645454406738e+00,1.536329269409179688e+00,1.517119765281677246e+00,1.449547886848449707e+00,1.398737788200378418e+00,1.389460325241088867e+00,1.380434393882751465e+00,1.371525049209594727e+00,1.467969417572021484e+00,1.462298512458801270e+00,1.480308890342712402e+00,1.486296534538269043e+00,1.487067341804504395e+00,1.519678354263305664e+00,3.088283300399780273e+00,3.010148763656616211e+00,2.935870409011840820e+00,1.530984044075012207e+00,1.493801474571228027e+00,1.477419018745422363e+00,1.465167522430419922e+00,2.613425970077514648e+00,2.557254076004028320e+00,2.503445625305175781e+00,2.451854944229125977e+00,2.402347803115844727e+00,2.354800224304199219e+00,2.309098243713378906e+00,2.265136718750000000e+00,2.222817659378051758e+00,2.182050943374633789e+00,2.142752647399902344e+00,2.104844808578491211e+00,2.068254709243774414e+00,2.032915353775024414e+00,1.998763084411621094e+00,1.965739369392395020e+00,1.933789372444152832e+00,1.902861356735229492e+00,1.872906684875488281e+00,1.843880891799926758e+00
5.000000000000000000e+00,5.000000000000000000e+00,5.000000000000000000e+00,5.000000000000000000e+00,5.000000000000000000e+00,5.000000000000000000e+00,5.000000000000000000e+00,5.000000000000000000e+00,5.000000000000000000e+00,5.000000000000000000e+00,5.000000000000000000e+00,5.000000000000000000e+00,5.000000000000000000e+00,5.000000000000000000e+00,5.000000000000000000e+00,5.000000000000000000e+00,5.000000000000000000e+00,5.000000000000000000e+00,5.000000000000000000e+00,5.000000000000000000e+00,5.000000000000000000e+00,5.000000000000000000e+00,5.000000000000000000e+00,5.000000000000000000e+00,5.000000000000000000e+00,5.000000000000000000e+00,5.000000000000000000e+00,5.000000000000000000e+00,5.000000000000000000e+00,5.000000000000000000e+00,5.000000000000000000e+00,5.000000000000000000e+00,5.000000000000000000e+00,5.000000000000000000e+00,5.000000000000000000e+00,5.000000000000000000e+00,5.000000000000000000e+00,5.000000000000000000e+00,5.000000000000000000e+00,1.540281653404235840e+00,1.531255960464477539e+00,1.519546985626220703e+00,1.426761627197265625e+00,1.385728597640991211e+00,1.376527905464172363e+00,1.367448568344116211e+00,1.358705759048461914e+00,1.379480838775634766e+00,1.488217473030090332e+00,1.496773481369018555e+00,1.492769122123718262e+00,1.490947961807250977e+00,1.522384047508239746e+00,3.088339090347290039e+00,3.010201930999755859e+00,2.935920953750610352e+00,2.865217685699462891e+00,1.535180926322937012e+00,1.431575298309326172e+00,1.414199590682983398e+00,1.417443037033081055e+00,2.557292461395263672e+00,2.503482341766357422e+00,2.451890230178833008e+00,2.402381658554077148e+00,2.354833126068115234e+00,2.309129714965820312e+00,2.265166997909545898e+00,2.222846746444702148e+00,2.182079076766967773e+00,2.142779588699340820e+00,2.104870796203613281e+00,2.068279743194580078e+00,2.032939672470092773e+00,1.998786687850952148e+00,1.965762257575988770e+00,1.933811426162719727e+00,1.902882456779479980e+00,1.872927427291870117e+00,1.843900680541992188e+00
5.000000000000000000e+00,5.000000000000000000e+00,5.000000000000000000e+00,5.000000000000000000e+00,5.000000000000000000e+00,5.000000000000000000e+00,5.000000000000000000e+00,5.000000000000000000e+00,5.000000000000000000e+00,5.000000000000000000e+00,5.000000000000000000e+00,5.000000000000000000e+00,5.000000000000000000e+00,5.000000000000000000e+00,5.000000000000000000e+00,5.000000000000000000e+00,5.000000000000000000e+00,5.000000000000000000e+00,5.000000000000000000e+00,5.000000000000000000e+00,5.000000000000000000e+00,5.000000000000000000e+00,5.000000000000000000e+00,5.000000000000000000e+00,5.000000000000000000e+00,5.000000000000000000e+00,5.000000000000000000e+00,5.000000000000000000e+00,5.000000000000000000e+00,5.000000000000000000e+00,5.000000000000000000e+00,5.000000000000000000e+00,5.000000000000000000e+00,5.000000000000000000e+00,5.000000000000000000e+00,5.000000000000000000e+00,5.000000000000000000e+00,5.000000000000000000e+00,5.000000000000000000e+00,1.538151502609252930e+00,1.524010181427001953e+00,1.513691544532775879e+00,1.417023301124572754e+00,1.374605298042297363e+00,1.365987300872802734e+00,1.357499122619628906e+00,1.349115848541259766e+00,1.361607909202575684e+00,1.394372105598449707e+00,1.498515009880065918e+00,1.494430422782897949e+00,1.495521783828735352e+00,1.526184201240539551e+00,3.088395595550537109e+00,3.010255336761474609e+00,2.935971975326538086e+00,2.865266084671020508e+00,2.797885894775390625e+00,1.447316050529479980e+00,1.391656398773193359e+00,1.410311579704284668e+00,1.388077974319458008e+00,2.503519296646118164e+00,2.451925754547119141e+00,2.402415752410888672e+00,2.354865550994873047e+00,2.309161186218261719e+00,2.265197038650512695e+00,2.222875833511352539e+00,2.182106971740722656e+00,2.142806768417358398e+00,2.104896783828735352e+00,2.068305015563964844e+00,2.032963991165161133e+00,1.998810052871704102e+00,1.965785026550292969e+00,1.933833241462707520e+00,1.902903795242309570e+00,1.872948169708251953e+00,1.843920826911926270e+00
5.000000000000000000e+00,5.000000000000000000e+00,5.000000000000000000e+00,5.000000000000000000e+00,5.000000000000000000e+00,5.000000000000000000e+00,5.000000000000000000e+00,5.000000000000000000e+00,5.000000000000000000e+00,5.000000000000000000e+00,5.000000000000000000e+00,5.000000000000000000e+00,5.000000000000000000e+00,5.000000000000000000e+00,5.000000000000000000e+00,5.000000000000000000e+00,5.000000000000000000e+00,5.000000000000000000e+00,5.000000000000000000e+00,5.000000000000000000e+00,5.000000000000000000e+00,5.000000000000000000e+00,5.000000000000000000e+00,5.000000000000000000e+00,5.000000000000000000e+00,5.000000000000000000e+00,5.000000000000000000e+00,5.000000000000000000e+00,5.000000000000000000e+00,5.000000000000000000e+00,5.000000000000000000e+00,5.000000000000000000e+00,5.000000000000000000e+00,5.000000000000000000e+00,5.000000000000000000e+00,5.000000000000000000e+00,5.000000000000000000e+00,5.000000000000000000e+00,5.000000000000000000e+00,1.527753591537475586e+00,1.515529870986938477e+00,1.519907593727111816e+00,1.409813523292541504e+00,1.366226911544799805e+00,1.356593728065490723e+00,1.347926259040832520e+00,1.339660286903381348e+00,1.346542119979858398e+00,1.376945614814758301e+00,1.499255657196044922e+00,1.494802117347717285e+00,1.500657200813293457e+00,1.527169704437255859e+00,3.088451385498046875e+00,3.010308742523193359e+00,2.936022520065307617e+00,2.865314245223999023e+00,2.797932147979736328e+00,2.733645915985107422e+00,1.491674542427062988e+00,1.441382050514221191e+00,1.377257704734802246e+00,2.503556251525878906e+00,2.451961040496826172e+00,2.402449607849121094e+00,2.354898452758789062e+00,2.309192657470703125e+00,2.265227317810058594e+00,2.222904920578002930e+00,2.182135105133056641e+00,2.142833709716796875e+00,2.104923009872436523e+00,2.068330049514770508e+00,2.032988309860229492e+00,1.998833537101745605e+00,1.965807795524597168e+00,1.933855295181274414e+00,1.902925133705139160e+00,1.872968673706054688e+00,1.843940854072570801e+00
5.000000000000000000e+00,4.129951000213623047e+00,4.215435028076171875e+00,5.000000000000000000e+00,5.000000000000000000e+00,5.000000000000000000e+00,5.000000000000000000e+00,5.000000000000000000e+00,5.000000000000000000e+00,5.000000000000000000e+00,5.000000000000000000e+00,5.000000000000000000e+00,5.000000000000000000e+00,5.000000000000000000e+00,5.000000000000000000e+00,5.000000000000000000e+00,5.000000000000000000e+00,5.000000000000000000e+00,5.000000000000000000e+00,5.000000000000000000e+00,5.000000000000000000e+00,5.000000000000000000e+00,5.000000000000000000e+00,5.000000000000000000e+00,5.000000000000000000e+00,5.000000000000000000e+00,5.000000000000000000e+00,5.000000000000000000e+00,5.000000000000000000e+00,5.000000000000000000e+00,5.000000000000000000e+00,5.000000000000000000e+00,5.000000000000000000e+00,5.000000000000000000e+00,5.000000000000000000e+00,5.000000000000000000e+00,5.000000000000000000e+00,5.000000000000000000e+00,5.000000000000000000e+00,1.521931171417236328e+00,1.511595606803894043e+00,1.534187078475952148e+00,1.414545893669128418e+00,1.369024276733398438e+00,1.348432779312133789e+00,1.339048147201538086e+00,1.330336570739746094e+00,1.331806063652038574e+00,1.359782338142395020e+00,1.500771403312683105e+00,1.494996547698974609e+00,1.503750562667846680e+00,1.529059886932373047e+00,3.088507652282714844e+00,3.010362148284912109e+00,2.936073303222656250e+00,2.865362644195556641e+00,2.797977924346923828e+00,2.733689785003662109e+00,2.672289609909057617e+00,1.476071000099182129e+00,1.436516165733337402e+00,1.384269952774047852e+00,2.451996564865112305e+00,2.402483701705932617e+00,2.354930877685546875e+00,2.309223890304565430e+00,2.265257596969604492e+00,2.222934007644653320e+00,2.182163238525390625e+00,2.142860651016235352e+00,2.104948997497558594e+00,2.068355321884155273e+00,2.033012628555297852e+00,1.998857140541076660e+00,1.965830445289611816e+00,1.933877348899841309e+00,1.902946591377258301e+00,1.872989296913146973e+00,1.843960881233215332e+00
4.185729503631591797e+00,4.130942821502685547e+00,4.174953460693359375e+00,5.000000000000000000e+00,5.000000000000000000e+00,5.000000000000000000e+00,5.000000000000000000e+00,5.000000000000000000e+00,5.000000000000000000e+00,5.000000000000000000e+00,5.000000000000000000e+00,5.000000000000000000e+00,5.000000000000000000e+00,5.000000000000000000e+00,5.000000000000000000e+00,5.000000000000000000e+00,5.000000000000000000e+00,5.000000000000000000e+00,5.000000000000000000e+00,5.000000000000000000e+00,5.000000000000000000e+00,5.000000000000000000e+00,5.000000000000000000e+00,5.000000000000000000e+00,5.000000000000000000e+00,5.000000000000000000e+00,5.000000000000000000e+00,5.000000000000000000e+00,5.000000000000000000e+00,5.000000000000000000e+00,5.000000000000000000e+00,5.000000000000000000e+00,5.000000000000000000e+00,5.000000000000000000e+00,5.000000000000000000e+00,5.000000000000000000e+00,5.000000000000000000e+00,5.000000000000000000e+00,5.000000000000000000e+00,1.532827138900756836e+00,1.526433110237121582e+00,4.486012458801269531e+00,1.426689386367797852e+00,1.374075889587402344e+00,1.340369224548339844e+00,1.331096053123474121e+00,1.321950316429138184e+00,1.317291855812072754e+00,1.342696189880371094e+00,1.503808021545410156e+00,1.498330831527709961e+00,1.510911703109741211e+00,1.539065122604370117e+00,3.088563680648803711e+00,3.010415315628051758e+00,2.936123847961425781e+00,2.865411043167114258e+00,2.798024177551269531e+00,2.733733892440795898e+00,2.672331571578979492e+00,2.613627195358276367e+00,1.454429268836975098e+00,1.408347249031066895e+00,2.452031850814819336e+00,2.402517557144165039e+00,2.354963541030883789e+00,2.309255361557006836e+00,2.265287876129150391e+00,2.222963094711303711e+00,2.182191133499145508e+00,2.142887592315673828e+00,2.104974985122680664e+00,2.068380594253540039e+00,2.033036947250366211e+00,1.998880743980407715e+00,1.965853214263916016e+00,1.933899521827697754e+00,1.902967691421508789e+00,1.873010039329528809e+00,1.843980789184570312e+00
5.000000000000000000e+00,4.140836238861083984e+00,4.192121982574462891e+00,5.000000000000000000e+00,5.000000000000000000e+00,5.000000000000000000e+00,5.000000000000000000e+00,5.000000000000000000e+00,5.000000000000000000e+00,5.000000000000000000e+00,5.000000000000000000e+00,5.000000000000000000e+00,5.000000000000000000e+00,5.000000000000000000e+00,5.000000000000000000e+00,5.000000000000000000e+00,5.000000000000000000e+00,5.000000000000000000e+00,5.000000000000000000e+00,5.000000000000000000e+00,5.000000000000000000e+00,5.000000000000000000e+00,5.000000000000000000e+00,5.000000000000000000e+00,5.000000000000000000e+00,5.000000000000000000e+00,5.000000000000000000e+00,5.000000000000000000e+00,5.000000000000000000e+00,5.000000000000000000e+00,5.000000000000000000e+00,5.000000000000000000e+00,5.000000000000000000e+00,5.000000000000000000e+00,5.000000000000000000e+00,5.000000000000000000e+00,5.000000000000000000e+00,5.000000000000000000e+00,5.000000000000000000e+00,1.523876905441284180e+00,1.511592030525207520e+00,4.486130714416503906e+00,1.445542216300964355e+00,1.379164934158325195e+00,1.332440733909606934e+00,1.321522116661071777e+00,1.311691403388977051e+00,1.302005887031555176e+00,1.326143860816955566e+00,1.508904099464416504e+00,1.502765893936157227e+00,1.520513892173767090e+00,1.549529552459716797e+00,3.088619947433471680e+00,3.010468721389770508e+00,2.936174869537353516e+00,2.865459442138671875e+00,2.798070192337036133e+00,2.733777761459350586e+00,2.672373533248901367e+00,2.613667249679565430e+00,2.557484865188598633e+00,2.503666877746582031e+00,2.452067375183105469e+00,2.402551651000976562e+00,2.354996204376220703e+00,2.309286594390869141e+00,2.265317916870117188e+00,2.222992181777954102e+00,2.182219266891479492e+00,2.142914772033691406e+00,2.105001211166381836e+00,2.068405628204345703e+00,2.033061265945434570e+00,1.998904109001159668e+00,1.965875983238220215e+00,1.933921337127685547e+00,1.902989029884338379e+00,1.873030781745910645e+00,1.844000816345214844e+00
4.231340408325195312e+00,4.208479404449462891e+00,4.245172023773193359e+00,5.000000000000000000e+00,5.000000000000000000e+00,5.000000000000000000e+00,5.000000000000000000e+00,5.000000000000000000e+00,5.000000000000000000e+00,5.000000000000000000e+00,5.000000000000000000e+00,5.000000000000000000e+00,5.000000000000000000e+00,5.000000000000000000e+00,5.000000000000000000e+00,5.000000000000000000e+00,5.000000000000000000e+00,5.000000000000000000e+00,5.000000000000000000e+00,5.000000000000000000e+00,5.000000000000000000e+00,5.000000000000000000e+00,5.000000000000000000e+00,5.000000000000000000e+00,5.000000000000000000e+00,5.000000000000000000e+00,5.000000000000000000e+00,5.000000000000000000e+00,5.000000000000000000e+00,5.000000000000000000e+00,5.000000000000000000e+00,5.000000000000000000e+00,5.000000000000000000e+00,5.000000000000000000e+00,5.000000000000000000e+00,5.000000000000000000e+00,5.000000000000000000e+00,5.000000000000000000e+00,5.000000000000000000e+00,1.508578181266784668e+00,1.498982191085815430e+00,1.494901418685913086e+00,1.462267756462097168e+00,1.384173870086669922e+00,1.338419198989868164e+00,1.310453653335571289e+00,1.300411581993103027e+00,1.290891408920288086e+00,1.310254693031311035e+00,1.333190441131591797e+00,1.509695410728454590e+00,1.532990336418151855e+00,1.563794016838073730e+00,3.088675975799560547e+00,3.010521888732910156e+00,2.936225414276123047e+00,2.865507602691650391e+00,2.798116445541381836e+00,2.733821868896484375e+00,2.672415733337402344e+00,2.613707542419433594e+00,2.557523250579833984e+00,2.503703832626342773e+00,2.452102661132812500e+00,2.402585506439208984e+00,2.355028867721557617e+00,2.309318065643310547e+00,2.265348196029663086e+00,2.223021268844604492e+00,2.182247161865234375e+00,2.142941713333129883e+00,2.105027198791503906e+00,2.068430900573730469e+00,2.033085584640502930e+00,1.998927712440490723e+00,1.965898871421813965e+00,1.933943390846252441e+00,1.903010487556457520e+00,1.873051166534423828e+00,1.844020962715148926e+00
4.115128993988037109e+00,4.141715526580810547e+00,4.179324150085449219e+00,4.218982696533203125e+00,4.272989749908447266e+00,4.324962615966796875e+00,5.000000000000000000e+00,5.000000000000000000e+00,5.000000000000000000e+00,5.000000000000000000e+00,5.000000000000000000e+00,5.000000000000000000e+00,5.000000000000000000e+00,5.000000000000000000e+00,5.000000000000000000e+00,5.000000000000000000e+00,5.000000000000000000e+00,5.000000000000000000e+00,5.000000000000000000e+00,5.000000000000000000e+00,5.000000000000000000e+00,5.000000000000000000e+00,5.000000000000000000e+00,5.000000000000000000e+00,5.000000000000000000e+00,5.000000000000000000e+00,5.000000000000000000e+00,5.000000000000000000e+00,5.000000000000000000e+00,5.000000000000000000e+00,5.000000000000000000e+00,5.000000000000000000e+00,5.000000000000000000e+00,5.000000000000000000e+00,5.000000000000000000e+00,5.000000000000000000e+00,5.000000000000000000e+00,5.000000000000000000e+00,5.000000000000000000e+00,1.498142361640930176e+00,1.502867341041564941e+00,1.485244870185852051e+00,4.323343276977539062e+00,1.397321105003356934e+00,1.344183564186096191e+00,1.305114746093750000e+00,1.289324283599853516e+00,1.279965043067932129e+00,1.294741749763488770e+00,1.314546942710876465e+00,1.517553210258483887e+00,1.546197295188903809e+00,3.171055316925048828e+00,3.088732481002807617e+00,3.010575532913208008e+00,2.936276435852050781e+00,2.865556001663208008e+00,2.798162460327148438e+00,2.733865737915039062e+00,2.672457695007324219e+00,2.613747596740722656e+00,2.557561874389648438e+00,2.503740787506103516e+00,2.452138185501098633e+00,2.402619600296020508e+00,2.355061531066894531e+00,2.309349536895751953e+00,2.265378236770629883e+00,2.223050355911254883e+00,2.182275295257568359e+00,2.142968893051147461e+00,2.105053424835205078e+00,2.068456172943115234e+00,2.033109903335571289e+00,1.998951196670532227e+00,1.965921401977539062e+00,1.933965444564819336e+00,1.903031826019287109e+00,1.873071908950805664e+00,1.844040989875793457e+00
4.087330341339111328e+00,4.112920284271240234e+00,4.146685123443603516e+00,4.195261955261230469e+00,4.276479244232177734e+00,4.323492527008056641e+00,5.000000000000000000e+00,5.000000000000000000e+00,5.000000000000000000e+00,5.000000000000000000e+00,5.000000000000000000e+00,5.000000000000000000e+00,5.000000000000000000e+00,5.000000000000000000e+00,5.000000000000000000e+00,5.000000000000000000e+00,5.000000000000000000e+00,5.000000000000000000e+00,5.000000000000000000e+00,5.000000000000000000e+00,5.000000000000000000e+00,5.000000000000000000e+00,5.000000000000000000e+00,5.000000000000000000e+00,5.000000000000000000e+00,5.000000000000000000e+00,5.000000000000000000e+00,5.000000000000000000e+00,5.000000000000000000e+00,5.000000000000000000e+00,5.000000000000000000e+00,5.000000000000000000e+00,5.000000000000000000e+00,5.000000000000000000e+00,5.000000000000000000e+00,5.000000000000000000e+00,5.000000000000000000e+00,5.000000000000000000e+00,5.000000000000000000e+00,1.510043263435363770e+00,4.662296295166015625e+00,1.482382535934448242e+00,4.323453426361083984e+00,1.413845896720886230e+00,1.349997878074645996e+00,1.303597331047058105e+00,1.284108996391296387e+00,1.269222021102905273e+00,1.278190374374389648e+00,1.296417713165283203e+00,1.529780864715576172e+00,1.561128497123718262e+00,3.171114444732666016e+00,3.088788270950317383e+00,3.010628700256347656e+00,2.936326980590820312e+00,2.865604400634765625e+00,2.798208475112915039e+00,2.733909845352172852e+00,2.672499895095825195e+00,2.613787889480590820e+00,2.557600259780883789e+00,2.503777503967285156e+00,2.452173471450805664e+00,2.402653694152832031e+00,2.355094194412231445e+00,2.309381008148193359e+00,2.265408515930175781e+00,2.223079442977905273e+00,2.182303190231323242e+00,2.142995834350585938e+00,2.105079412460327148e+00,2.068481445312500000e+00,2.033134222030639648e+00,1.998974800109863281e+00,1.965944170951843262e+00,1.933987498283386230e+00,1.903052926063537598e+00,1.873092651367187500e+00,1.844060778617858887e+00
4.092805862426757812e+00,4.108276367187500000e+00,4.143207550048828125e+00,4.207139492034912109e+00,4.306234359741210938e+00,4.332021713256835938e+00,5.000000000000000000e+00,5.000000000000000000e+00,5.000000000000000000e+00,5.000000000000000000e+00,5.000000000000000000e+00,5.000000000000000000e+00,5.000000000000000000e+00,5.000000000000000000e+00,5.000000000000000000e+00,5.000000000000000000e+00,5.000000000000000000e+00,5.000000000000000000e+00,5.000000000000000000e+00,5.000000000000000000e+00,5.000000000000000000e+00,5.000000000000000000e+00,5.000000000000000000e+00,5.000000000000000000e+00,5.000000000000000000e+00,5.000000000000000000e+00,5.000000000000000000e+00,5.000000000000000000e+00,5.000000000000000000e+00,5.000000000000000000e+00,5.000000000000000000e+00,5.000000000000000000e+00,5.000000000000000000e+00,5.000000000000000000e+00,5.000000000000000000e+00,5.000000000000000000e+00,5.000000000000000000e+00,5.000000000000000000e+00,5.000000000000000000e+00,1.504512310028076172e+00,4.662424087524414062e+00,4.486604690551757812e+00,4.323563098907470703e+00,4.171956539154052734e+00,1.361257910728454590e+00,1.310453772544860840e+00,1.278982281684875488e+00,1.263388037681579590e+00,1.263064384460449219e+00,1.278927922248840332e+00,1.542932033538818359e+00,1.577936410903930664e+00,3.171173810958862305e+00,3.088844776153564453e+00,3.010682106018066406e+00,2.936377763748168945e+00,2.865652799606323242e+00,2.798254489898681641e+00,2.733953714370727539e+00,2.672541856765747070e+00,2.613828420639038086e+00,2.557638883590698242e+00,2.503814458847045898e+00,2.452208757400512695e+00,2.402687549591064453e+00,2.355126857757568359e+00,2.309412240982055664e+00,2.265438795089721680e+00,2.223108530044555664e+00,2.182331323623657227e+00,2.143023014068603516e+00,2.105105638504028320e+00,2.068506479263305664e+00,2.033158540725708008e+00,1.998998165130615234e+00,1.965967059135437012e+00,1.934009552001953125e+00,1.903074383735656738e+00,1.873113274574279785e+00,1.844080924987792969e+00
4.091281414031982422e+00,4.109088420867919922e+00,4.144348144531250000e+00,4.201212882995605469e+00,4.310523033142089844e+00,4.334988594055175781e+00,5.000000000000000000e+00,5.000000000000000000e+00,5.000000000000000000e+00,5.000000000000000000e+00,5.000000000000000000e+00,5.000000000000000000e+00,5.000000000000000000e+00,5.000000000000000000e+00,5.000000000000000000e+00,5.000000000000000000e+00,5.000000000000000000e+00,5.000000000000000000e+00,5.000000000000000000e+00,5.000000000000000000e+00,5.000000000000000000e+00,5.000000000000000000e+00,5.000000000000000000e+00,5.000000000000000000e+00,5.000000000000000000e+00,5.000000000000000000e+00,5.000000000000000000e+00,5.000000000000000000e+00,5.000000000000000000e+00,5.000000000000000000e+00,5.000000000000000000e+00,5.000000000000000000e+00,5.000000000000000000e+00,5.000000000000000000e+00,5.000000000000000000e+00,5.000000000000000000e+00,5.000000000000000000e+00,5.000000000000000000e+00,5.000000000000000000e+00,1.500100731849670410e+00,4.662552356719970703e+00,4.486722946166992188e+00,4.323673248291015625e+00,4.172059059143066406e+00,1.372632503509521484e+00,1.317382693290710449e+00,1.275744318962097168e+00,1.257914543151855469e+00,1.252860069274902344e+00,1.267192602157592773e+00,1.558085083961486816e+00,3.258074283599853516e+00,3.171232938766479492e+00,3.088900804519653320e+00,3.010735511779785156e+00,2.936428546905517578e+00,2.865701198577880859e+00,2.798300743103027344e+00,2.733997821807861328e+00,2.672583818435668945e+00,2.613868474960327148e+00,2.557677268981933594e+00,2.503851413726806641e+00,2.452244281768798828e+00,2.402721643447875977e+00,2.355159521102905273e+00,2.309443712234497070e+00,2.265469074249267578e+00,2.223137617111206055e+00,2.182359218597412109e+00,2.143049955368041992e+00,2.105131626129150391e+00,2.068531751632690430e+00,2.033182859420776367e+00,1.999021768569946289e+00,1.965989828109741211e+00,1.934031486511230469e+00,1.903095722198486328e+00,1.873133778572082520e+00,1.844100952148437500e+00
4.075585365295410156e+00,4.105288505554199219e+00,4.139080047607421875e+00,4.197623252868652344e+00,5.000000000000000000e+00,4.342886924743652344e+00,5.000000000000000000e+00,5.000000000000000000e+00,5.000000000000000000e+00,5.000000000000000000e+00,5.000000000000000000e+00,5.000000000000000000e+00,5.000000000000000000e+00,5.000000000000000000e+00,5.000000000000000000e+00,5.000000000000000000e+00,5.000000000000000000e+00,5.000000000000000000e+00,5.000000000000000000e+00,5.000000000000000000e+00,5.000000000000000000e+00,5.000000000000000000e+00,5.000000000000000000e+00,5.000000000000000000e+00,5.000000000000000000e+00,5.000000000000000000e+00,5.000000000000000000e+00,5.000000000000000000e+00,5.000000000000000000e+00,5.000000000000000000e+00,5.000000000000000000e+00,5.000000000000000000e+00,5.000000000000000000e+00,5.000000000000000000e+00,5.000000000000000000e+00,5.000000000000000000e+00,5.000000000000000000e+00,5.000000000000000000e+00,5.000000000000000000e+00,4.852862834930419922e+00,4.662680149078369141e+00,4.486841678619384766e+00,4.323783397674560547e+00,4.172161102294921875e+00,1.380095243453979492e+00,1.324761390686035156e+00,1.277608394622802734e+00,1.257960796356201172e+00,1.252945303916931152e+00,1.265685200691223145e+00,1.569019198417663574e+00,3.258136749267578125e+00,3.171292304992675781e+00,3.088957071304321289e+00,3.010788917541503906e+00,2.936479330062866211e+00,2.865749359130859375e+00,2.798346757888793945e+00,2.734041690826416016e+00,2.672625780105590820e+00,2.613908767700195312e+00,2.557715892791748047e+00,2.503888368606567383e+00,2.452279567718505859e+00,2.402755498886108398e+00,2.355191946029663086e+00,2.309474945068359375e+00,2.265499114990234375e+00,2.223166704177856445e+00,2.182387351989746094e+00,2.143076896667480469e+00,2.105157613754272461e+00,2.068556785583496094e+00,2.033207178115844727e+00,1.999045372009277344e+00,1.966012358665466309e+00,1.934053540229797363e+00,1.903117060661315918e+00,1.873154520988464355e+00,1.844120979309082031e+00
4.085184097290039062e+00,4.106265068054199219e+00,4.146227836608886719e+00,4.208429336547851562e+00,5.000000000000000000e+00,4.327146530151367188e+00,5.000000000000000000e+00,5.000000000000000000e+00,5.000000000000000000e+00,5.000000000000000000e+00,5.000000000000000000e+00,5.000000000000000000e+00,5.000000000000000000e+00,5.000000000000000000e+00,5.000000000000000000e+00,5.000000000000000000e+00,5.000000000000000000e+00,5.000000000000000000e+00,5.000000000000000000e+00,5.000000000000000000e+00,5.000000000000000000e+00,5.000000000000000000e+00,5.000000000000000000e+00,5.000000000000000000e+00,5.000000000000000000e+00,5.000000000000000000e+00,5.000000000000000000e+00,5.000000000000000000e+00,5.000000000000000000e+00,5.000000000000000000e+00,5.000000000000000000e+00,5.000000000000000000e+00,5.000000000000000000e+00,5.000000000000000000e+00,5.000000000000000000e+00,5.000000000000000000e+00,5.000000000000000000e+00,5.000000000000000000e+00,5.000000000000000000e+00,4.853001117706298828e+00,4.662807941436767578e+00,4.486959934234619141e+00,4.323893547058105469e+00,4.172263622283935547e+00,4.030908584594726562e+00,1.333765983581542969e+00,1.280823826789855957e+00,1.261397242546081543e+00,1.255720376968383789e+00,1.268658757209777832e+00,1.580108165740966797e+00,3.258199453353881836e+00,3.171351432800292969e+00,3.089013099670410156e+00,3.010842084884643555e+00,2.936529874801635742e+00,2.865797758102416992e+00,2.798393011093139648e+00,2.734085798263549805e+00,2.672667980194091797e+00,2.613948822021484375e+00,2.557754278182983398e+00,2.503925085067749023e+00,2.452314853668212891e+00,2.402789592742919922e+00,2.355224847793579102e+00,2.309506416320800781e+00,2.265529394149780273e+00,2.223195791244506836e+00,2.182415246963500977e+00,2.143103837966918945e+00,2.105183839797973633e+00,2.068582057952880859e+00,2.033231496810913086e+00,1.999068856239318848e+00,1.966035246849060059e+00,1.934075593948364258e+00,1.903138279914855957e+00,1.873175263404846191e+00,1.844140887260437012e+00
4.089063644409179688e+00,4.122437477111816406e+00,4.166058063507080078e+00,4.200649738311767578e+00,5.000000000000000000e+00,4.300999641418457031e+00,5.000000000000000000e+00,5.000000000000000000e+00,5.000000000000000000e+00,5.000000000000000000e+00,5.000000000000000000e+00,5.000000000000000000e+00,5.000000000000000000e+00,5.000000000000000000e+00,5.000000000000000000e+00,5.000000000000000000e+00,5.000000000000000000e+00,5.000000000000000000e+00,5.000000000000000000e+00,5.000000000000000000e+00,5.000000000000000000e+00,5.000000000000000000e+00,5.000000000000000000e+00,5.000000000000000000e+00,5.000000000000000000e+00,5.000000000000000000e+00,5.000000000000000000e+00,5.000000000000000000e+00,5.000000000000000000e+00,5.000000000000000000e+00,5.000000000000000000e+00,5.000000000000000000e+00,5.000000000000000000e+00,5.000000000000000000e+00,5.000000000000000000e+00,5.000000000000000000e+00,5.000000000000000000e+00,5.000000000000000000e+00,5.000000000000000000e+00,4.853139877319335938e+00,4.662936210632324219e+00,4.487078666687011719e+00,4.324003696441650391e+00,4.172366142272949219e+00,4.031003952026367188e+00,1.329241991043090820e+00,1.281442284584045410e+00,1.267491817474365234e+00,1.259668827056884766e+00,1.272689223289489746e+00,1.600326538085937500e+00,3.258261680603027344e+00,3.171410560607910156e+00,3.089069366455078125e+00,3.010895490646362305e+00,2.936580896377563477e+00,2.865846157073974609e+00,2.798438787460327148e+00,2.734129667282104492e+00,2.672709941864013672e+00,2.613989114761352539e+00,2.557792901992797852e+00,2.503962039947509766e+00,2.452350378036499023e+00,2.402823448181152344e+00,2.355257272720336914e+00,2.309537887573242188e+00,2.265559434890747070e+00,2.223225116729736328e+00,2.182443380355834961e+00,2.143131017684936523e+00,2.105209827423095703e+00,2.068607330322265625e+00,2.033255815505981445e+00,1.999092221260070801e+00,1.966058015823364258e+00,1.934097647666931152e+00,1.903159618377685547e+00,1.873195886611938477e+00,1.844160914421081543e+00
4.062448024749755859e+00,4.125250339508056641e+00,4.128595829010009766e+00,4.158027648925781250e+00,5.000000000000000000e+00,4.289840221405029297e+00,5.000000000000000000e+00,5.000000000000000000e+00,5.000000000000000000e+00,5.000000000000000000e+00,5.000000000000000000e+00,5.000000000000000000e+00,5.000000000000000000e+00,5.000000000000000000e+00,5.000000000000000000e+00,5.000000000000000000e+00,5.000000000000000000e+00,5.000000000000000000e+00,5.000000000000000000e+00,5.000000000000000000e+00,5.000000000000000000e+00,5.000000000000000000e+00,5.000000000000000000e+00,5.000000000000000000e+00,5.000000000000000000e+00,5.000000000000000000e+00,5.000000000000000000e+00,5.000000000000000000e+00,5.000000000000000000e+00,5.000000000000000000e+00,5.000000000000000000e+00,5.000000000000000000e+00,5.000000000000000000e+00,5.000000000000000000e+00,5.000000000000000000e+00,5.000000000000000000e+00,5.000000000000000000e+00,5.000000000000000000e+00,5.000000000000000000e+00,4.853278636932373047e+00,4.663064002990722656e+00,4.487197399139404297e+00,4.324113368988037109e+00,4.172468662261962891e+00,4.031099796295166016e+00,1.319766283035278320e+00,1.283302068710327148e+00,1.273645520210266113e+00,1.263642430305480957e+00,1.277948975563049316e+00,3.350069999694824219e+00,3.258324384689331055e+00,3.171469688415527344e+00,3.089125394821166992e+00,3.010948896408081055e+00,2.936631441116333008e+00,2.865894556045532227e+00,2.798485040664672852e+00,2.734173774719238281e+00,2.672752141952514648e+00,2.614029169082641602e+00,2.557831287384033203e+00,2.503998994827270508e+00,2.452385663986206055e+00,2.402857542037963867e+00,2.355290174484252930e+00,2.309569358825683594e+00,2.265589714050292969e+00,2.223253965377807617e+00,2.182471513748168945e+00,2.143157958984375000e+00,2.105235815048217773e+00,2.068632364273071289e+00,2.033280134201049805e+00,1.999115824699401855e+00,1.966080784797668457e+00,1.934119462966918945e+00,1.903180956840515137e+00,1.873216390609741211e+00,1.844181060791015625e+00
4.058718204498291016e+00,4.115214347839355469e+00,4.115054607391357422e+00,4.139377593994140625e+00,5.000000000000000000e+00,4.261893272399902344e+00,5.000000000000000000e+00,5.000000000000000000e+00,5.000000000000000000e+00,5.000000000000000000e+00,5.000000000000000000e+00,5.000000000000000000e+00,5.000000000000000000e+00,5.000000000000000000e+00,5.000000000000000000e+00,5.000000000000000000e+00,5.000000000000000000e+00,5.000000000000000000e+00,5.000000000000000000e+00,5.000000000000000000e+00,5.000000000000000000e+00,5.000000000000000000e+00,5.000000000000000000e+00,5.000000000000000000e+00,5.000000000000000000e+00,5.000000000000000000e+00,5.000000000000000000e+00,5.000000000000000000e+00,5.000000000000000000e+00,5.000000000000000000e+00,5.000000000000000000e+00,5.000000000000000000e+00,5.000000000000000000e+00,5.000000000000000000e+00,5.000000000000000000e+00,5.000000000000000000e+00,5.000000000000000000e+00,5.000000000000000000e+00,5.000000000000000000e+00,4.853417396545410156e+00,4.663191795349121094e+00,4.487315654754638672e+00,4.324223518371582031e+00,4.172571182250976562e+00,4.031195640563964844e+00,1.314006447792053223e+00,1.285167336463928223e+00,1.276777029037475586e+00,1.267641067504882812e+00,1.287540435791015625e+00,3.350135803222656250e+00,3.258386611938476562e+00,3.171529054641723633e+00,3.089181661605834961e+00,3.011002302169799805e+00,2.936682462692260742e+00,2.865942716598510742e+00,2.798531055450439453e+00,2.734217643737792969e+00,2.672794103622436523e+00,2.614069700241088867e+00,2.557869911193847656e+00,2.504035949707031250e+00,2.452421188354492188e+00,2.402891397476196289e+00,2.355322599411010742e+00,2.309600591659545898e+00,2.265619993209838867e+00,2.223283290863037109e+00,2.182499408721923828e+00,2.143185138702392578e+00,2.105262041091918945e+00,2.068657636642456055e+00,2.033304452896118164e+00,1.999139428138732910e+00,1.966103434562683105e+00,1.934141635894775391e+00,1.903202414512634277e+00,1.873237133026123047e+00,1.844201087951660156e+00
4.058681011199951172e+00,4.110002517700195312e+00,4.101720333099365234e+00,4.123721599578857422e+00,5.000000000000000000e+00,5.000000000000000000e+00,5.000000000000000000e+00,5.000000000000000000e+00,5.000000000000000000e+00,5.000000000000000000e+00,5.000000000000000000e+00,5.000000000000000000e+00,5.000000000000000000e+00,5.000000000000000000e+00,5.000000000000000000e+00,5.000000000000000000e+00,5.000000000000000000e+00,5.000000000000000000e+00,5.000000000000000000e+00,5.000000000000000000e+00,5.000000000000000000e+00,5.000000000000000000e+00,5.000000000000000000e+00,5.000000000000000000e+00,5.000000000000000000e+00,5.000000000000000000e+00,5.000000000000000000e+00,5.000000000000000000e+00,5.000000000000000000e+00,5.000000000000000000e+00,5.000000000000000000e+00,5.000000000000000000e+00,5.000000000000000000e+00,5.000000000000000000e+00,5.000000000000000000e+00,5.000000000000000000e+00,5.000000000000000000e+00,5.000000000000000000e+00,5.000000000000000000e+00,4.853555679321289062e+00,4.663320064544677734e+00,4.487434387207031250e+00,4.324333667755126953e+00,4.172673702239990234e+00,4.031291007995605469e+00,1.311799049377441406e+00,1.287037968635559082e+00,1.279127120971679688e+00,1.271665096282958984e+00,1.297277092933654785e+00,3.350202083587646484e+00,3.258449316024780273e+00,3.171588182449340820e+00,3.089237689971923828e+00,3.011055469512939453e+00,2.936733007431030273e+00,2.865991353988647461e+00,2.798577308654785156e+00,2.734261751174926758e+00,2.672836065292358398e+00,2.614109754562377930e+00,2.557908296585083008e+00,2.504072666168212891e+00,2.452456474304199219e+00,2.402925491333007812e+00,2.355355501174926758e+00,2.309632062911987305e+00,2.265650272369384766e+00,2.223312139511108398e+00,2.182527542114257812e+00,2.143212080001831055e+00,2.105288028717041016e+00,2.068682909011840820e+00,2.033329010009765625e+00,1.999163031578063965e+00,1.966126203536987305e+00,1.934163689613342285e+00,1.903223514556884766e+00,1.873257875442504883e+00,1.844220995903015137e+00
4.055084705352783203e+00,4.103184700012207031e+00,4.088167667388916016e+00,4.105967521667480469e+00,5.000000000000000000e+00,5.000000000000000000e+00,5.000000000000000000e+00,5.000000000000000000e+00,5.000000000000000000e+00,5.000000000000000000e+00,5.000000000000000000e+00,5.000000000000000000e+00,5.000000000000000000e+00,5.000000000000000000e+00,5.000000000000000000e+00,5.000000000000000000e+00,5.000000000000000000e+00,5.000000000000000000e+00,5.000000000000000000e+00,5.000000000000000000e+00,5.000000000000000000e+00,5.000000000000000000e+00,5.000000000000000000e+00,5.000000000000000000e+00,5.000000000000000000e+00,5.000000000000000000e+00,5.000000000000000000e+00,5.000000000000000000e+00,5.000000000000000000e+00,5.000000000000000000e+00,5.000000000000000000e+00,5.000000000000000000e+00,5.000000000000000000e+00,5.000000000000000000e+00,5.000000000000000000e+00,5.000000000000000000e+00,5.000000000000000000e+00,5.000000000000000000e+00,5.000000000000000000e+00,4.853694438934326172e+00,4.663447856903076172e+00,4.487552642822265625e+00,4.324443817138671875e+00,4.172776222229003906e+00,4.031386852264404297e+00,1.313748121261596680e+00,1.288967728614807129e+00,1.280081272125244141e+00,1.271986961364746094e+00,1.299385309219360352e+00,3.350267887115478516e+00,3.258511781692504883e+00,3.171647548675537109e+00,3.089293956756591797e+00,3.011109113693237305e+00,2.936783790588378906e+00,2.866039514541625977e+00,2.798623323440551758e+00,2.734305620193481445e+00,2.672878026962280273e+00,2.614150047302246094e+00,2.557946920394897461e+00,2.504109859466552734e+00,2.452491998672485352e+00,2.402959346771240234e+00,2.355387926101684570e+00,2.309663295745849609e+00,2.265680313110351562e+00,2.223341464996337891e+00,2.182555675506591797e+00,2.143239259719848633e+00,2.105314254760742188e+00,2.068707942962646484e+00,2.033353090286254883e+00,1.999186277389526367e+00,1.966148972511291504e+00,1.934185743331909180e+00,1.903244853019714355e+00,1.873278498649597168e+00,1.844241023063659668e+00
4.052459239959716797e+00,4.094370365142822266e+00,4.084881782531738281e+00,4.095845699310302734e+00,5.000000000000000000e+00,5.000000000000000000e+00,5.000000000000000000e+00,5.000000000000000000e+00,5.000000000000000000e+00,5.000000000000000000e+00,5.000000000000000000e+00,5.000000000000000000e+00,5.000000000000000000e+00,5.000000000000000000e+00,5.000000000000000000e+00,5.000000000000000000e+00,5.000000000000000000e+00,5.000000000000000000e+00,5.000000000000000000e+00,5.000000000000000000e+00,5.000000000000000000e+00,5.000000000000000000e+00,5.000000000000000000e+00,5.000000000000000000e+00,5.000000000000000000e+00,5.000000000000000000e+00,5.000000000000000000e+00,5.000000000000000000e+00,5.000000000000000000e+00,5.000000000000000000e+00,5.000000000000000000e+00,5.000000000000000000e+00,5.000000000000000000e+00,5.000000000000000000e+00,5.000000000000000000e+00,5.000000000000000000e+00,5.000000000000000000e+00,5.000000000000000000e+00,5.000000000000000000e+00,4.853833198547363281e+00,4.663576126098632812e+00,4.487671375274658203e+00,4.324553966522216797e+00,4.172878742218017578e+00,4.031482219696044922e+00,1.315267920494079590e+00,1.290124535560607910e+00,1.277123093605041504e+00,1.268432497978210449e+00,1.292949676513671875e+00,3.350334167480468750e+00,3.258574247360229492e+00,3.171706438064575195e+00,3.089349985122680664e+00,3.011162281036376953e+00,2.936834573745727539e+00,2.866087913513183594e+00,2.798669576644897461e+00,2.734349727630615234e+00,2.672920227050781250e+00,2.614190101623535156e+00,2.557985305786132812e+00,2.504146575927734375e+00,2.452527284622192383e+00,2.402993440628051758e+00,2.355420827865600586e+00,2.309694766998291016e+00,2.265710592269897461e+00,2.223370313644409180e+00,2.182583570480346680e+00,2.143266201019287109e+00,2.105340242385864258e+00,2.068733215332031250e+00,2.033377647399902344e+00,1.999209880828857422e+00,1.966171860694885254e+00,1.934207558631896973e+00,1.903266310691833496e+00,1.873299002647399902e+00,1.844261169433593750e+00
4.074373245239257812e+00,4.108829021453857422e+00,4.116247653961181641e+00,4.110768318176269531e+00,5.000000000000000000e+00,5.000000000000000000e+00,5.000000000000000000e+00,5.000000000000000000e+00,5.000000000000000000e+00,5.000000000000000000e+00,5.000000000000000000e+00,5.000000000000000000e+00,5.000000000000000000e+00,5.000000000000000000e+00,5.000000000000000000e+00,5.000000000000000000e+00,5.000000000000000000e+00,5.000000000000000000e+00,5.000000000000000000e+00,5.000000000000000000e+00,5.000000000000000000e+00,5.000000000000000000e+00,5.000000000000000000e+00,5.000000000000000000e+00,5.000000000000000000e+00,5.000000000000000000e+00,5.000000000000000000e+00,5.000000000000000000e+00,5.000000000000000000e+00,5.000000000000000000e+00,5.000000000000000000e+00,5.000000000000000000e+00,5.000000000000000000e+00,5.000000000000000000e+00,5.000000000000000000e+00,5.000000000000000000e+00,5.000000000000000000e+00,5.000000000000000000e+00,5.000000000000000000e+00,4.853971481323242188e+00,4.663703918457031250e+00,4.487789630889892578e+00,4.324664115905761719e+00,4.172981262207031250e+00,1.750554919242858887e+00,1.316492080688476562e+00,1.291370034217834473e+00,1.274178504943847656e+00,1.265527963638305664e+00,1.286577582359313965e+00,3.350400209426879883e+00,3.258636951446533203e+00,3.171765804290771484e+00,3.089406251907348633e+00,3.011215686798095703e+00,2.936885356903076172e+00,2.866136074066162109e+00,2.798715591430664062e+00,2.734393835067749023e+00,2.672962427139282227e+00,2.614230394363403320e+00,2.558023929595947266e+00,2.504183530807495117e+00,2.452562808990478516e+00,2.403027296066284180e+00,2.355453252792358398e+00,2.309726238250732422e+00,2.265740871429443359e+00,2.223399639129638672e+00,2.182611703872680664e+00,2.143293380737304688e+00,2.105366468429565430e+00,2.068758249282836914e+00,2.033401966094970703e+00,1.999233484268188477e+00,1.966194629669189453e+00,1.934229612350463867e+00,1.903287649154663086e+00,1.873319745063781738e+00,1.844281196594238281e+00
4.112725257873535156e+00,4.149163722991943359e+00,4.218791007995605469e+00,4.192429542541503906e+00,5.000000000000000000e+00,5.000000000000000000e+00,5.000000000000000000e+00,5.000000000000000000e+00,5.000000000000000000e+00,5.000000000000000000e+00,5.000000000000000000e+00,5.000000000000000000e+00,5.000000000000000000e+00,5.000000000000000000e+00,5.000000000000000000e+00,5.000000000000000000e+00,5.000000000000000000e+00,5.000000000000000000e+00,5.000000000000000000e+00,5.000000000000000000e+00,5.000000000000000000e+00,5.000000000000000000e+00,5.000000000000000000e+00,5.000000000000000000e+00,5.000000000000000000e+00,5.000000000000000000e+00,5.000000000000000000e+00,5.000000000000000000e+00,5.000000000000000000e+00,5.000000000000000000e+00,5.000000000000000000e+00,5.000000000000000000e+00,5.000000000000000000e+00,5.000000000000000000e+00,5.000000000000000000e+00,5.000000000000000000e+00,5.000000000000000000e+00,5.000000000000000000e+00,5.000000000000000000e+00,4.854108810424804688e+00,4.663832187652587891e+00,4.487908363342285156e+00,4.324773788452148438e+00,4.173083782196044922e+00,1.754033923149108887e+00,1.317718625068664551e+00,1.292617797851562500e+00,1.272732734680175781e+00,1.262636542320251465e+00,1.279936194419860840e+00,3.350466489791870117e+00,3.258699417114257812e+00,3.171824932098388672e+00,3.089462280273437500e+00,3.011269092559814453e+00,2.936936378479003906e+00,2.866184711456298828e+00,2.798761606216430664e+00,2.734437942504882812e+00,2.673004388809204102e+00,2.614270687103271484e+00,2.558062553405761719e+00,2.504220485687255859e+00,2.452598333358764648e+00,2.403061389923095703e+00,2.355485916137695312e+00,2.309757709503173828e+00,2.265771150588989258e+00,2.223428487777709961e+00,2.182639598846435547e+00,2.143320322036743164e+00,2.105392456054687500e+00,2.068783521652221680e+00,2.033426284790039062e+00,1.999257087707519531e+00,1.966217279434204102e+00,1.934251785278320312e+00,1.903308868408203125e+00,1.873340487480163574e+00,1.844301223754882812e+00
4.134385585784912109e+00,4.158943176269531250e+00,4.286111831665039062e+00,4.257878303527832031e+00,5.000000000000000000e+00,5.000000000000000000e+00,5.000000000000000000e+00,5.000000000000000000e+00,5.000000000000000000e+00,5.000000000000000000e+00,5.000000000000000000e+00,5.000000000000000000e+00,5.000000000000000000e+00,5.000000000000000000e+00,5.000000000000000000e+00,5.000000000000000000e+00,5.000000000000000000e+00,5.000000000000000000e+00,5.000000000000000000e+00,5.000000000000000000e+00,5.000000000000000000e+00,5.000000000000000000e+00,5.000000000000000000e+00,5.000000000000000000e+00,5.000000000000000000e+00,5.000000000000000000e+00,5.000000000000000000e+00,5.000000000000000000e+00,5.000000000000000000e+00,5.000000000000000000e+00,5.000000000000000000e+00,5.000000000000000000e+00,5.000000000000000000e+00,5.000000000000000000e+00,5.000000000000000000e+00,5.000000000000000000e+00,5.000000000000000000e+00,5.000000000000000000e+00,5.000000000000000000e+00,4.854246139526367188e+00,4.663959026336669922e+00,4.488027095794677734e+00,4.324883937835693359e+00,4.173186302185058594e+00,1.758767724037170410e+00,1.346155405044555664e+00,1.293868064880371094e+00,1.271624207496643066e+00,1.259758353233337402e+00,1.273202657699584961e+00,3.350532293319702148e+00,3.258761882781982422e+00,3.171884298324584961e+00,3.089518785476684570e+00,3.011322498321533203e+00,2.936986923217773438e+00,2.866232872009277344e+00,2.798807621002197266e+00,2.734481811523437500e+00,2.673046588897705078e+00,2.614310979843139648e+00,2.558101177215576172e+00,2.504257440567016602e+00,2.452633619308471680e+00,2.403095245361328125e+00,2.355518579483032227e+00,2.309788942337036133e+00,2.265801429748535156e+00,2.223457813262939453e+00,2.182667732238769531e+00,2.143347263336181641e+00,2.105418682098388672e+00,2.068808794021606445e+00,2.033450603485107422e+00,1.999280452728271484e+00,1.966240048408508301e+00,1.934273838996887207e+00,1.903330206871032715e+00,1.873361229896545410e+00,1.844321131706237793e+00
4.167085170745849609e+00,4.164717197418212891e+00,5.000000000000000000e+00,4.341698169708251953e+00,5.000000000000000000e+00,5.000000000000000000e+00,5.000000000000000000e+00,5.000000000000000000e+00,5.000000000000000000e+00,5.000000000000000000e+00,5.000000000000000000e+00,5.000000000000000000e+00,5.000000000000000000e+00,5.000000000000000000e+00,5.000000000000000000e+00,5.000000000000000000e+00,5.000000000000000000e+00,5.000000000000000000e+00,5.000000000000000000e+00,5.000000000000000000e+00,5.000000000000000000e+00,5.000000000000000000e+00,5.000000000000000000e+00,5.000000000000000000e+00,5.000000000000000000e+00,5.000000000000000000e+00,5.000000000000000000e+00,5.000000000000000000e+00,5.000000000000000000e+00,5.000000000000000000e+00,5.000000000000000000e+00,5.000000000000000000e+00,5.000000000000000000e+00,5.000000000000000000e+00,5.000000000000000000e+00,5.000000000000000000e+00,5.000000000000000000e+00,5.000000000000000000e+00,5.000000000000000000e+00,4.854383945465087891e+00,4.664085388183593750e+00,4.488144397735595703e+00,4.324994087219238281e+00,4.173288822174072266e+00,1.764281272888183594e+00,1.747813820838928223e+00,1.295120716094970703e+00,1.271486997604370117e+00,1.257984519004821777e+00,1.266539454460144043e+00,1.290651202201843262e+00,3.258824348449707031e+00,3.171943426132202148e+00,3.089574813842773438e+00,3.011375665664672852e+00,2.937037944793701172e+00,2.866281270980834961e+00,2.798853874206542969e+00,2.734525918960571289e+00,2.673088550567626953e+00,2.614351034164428711e+00,2.558139562606811523e+00,2.504294157028198242e+00,2.452669143676757812e+00,2.403129339218139648e+00,2.355551242828369141e+00,2.309820413589477539e+00,2.265831470489501953e+00,2.223486900329589844e+00,2.182695627212524414e+00,2.143374204635620117e+00,2.105444669723510742e+00,2.068834066390991211e+00,2.033474922180175781e+00,1.999304056167602539e+00,1.966262817382812500e+00,1.934295654296875000e+00,1.903351545333862305e+00,1.873381733894348145e+00,1.844341158866882324e+00
5.000000000000000000e+00,4.172834873199462891e+00,5.000000000000000000e+00,4.408436775207519531e+00,5.000000000000000000e+00,5.000000000000000000e+00,5.000000000000000000e+00,5.000000000000000000e+00,5.000000000000000000e+00,5.000000000000000000e+00,5.000000000000000000e+00,5.000000000000000000e+00,5.000000000000000000e+00,5.000000000000000000e+00,5.000000000000000000e+00,5.000000000000000000e+00,5.000000000000000000e+00,5.000000000000000000e+00,5.000000000000000000e+00,5.000000000000000000e+00,5.000000000000000000e+00,5.000000000000000000e+00,5.000000000000000000e+00,5.000000000000000000e+00,5.000000000000000000e+00,5.000000000000000000e+00,5.000000000000000000e+00,5.000000000000000000e+00,5.000000000000000000e+00,5.000000000000000000e+00,5.000000000000000000e+00,5.000000000000000000e+00,5.000000000000000000e+00,5.000000000000000000e+00,5.000000000000000000e+00,5.000000000000000000e+00,5.000000000000000000e+00,5.000000000000000000e+00,5.000000000000000000e+00,4.854520797729492188e+00,4.664212226867675781e+00,4.488262176513671875e+00,4.325104236602783203e+00,4.173391342163085938e+00,1.772582411766052246e+00,1.761388778686523438e+00,1.296375870704650879e+00,1.272865653038024902e+00,1.258528232574462891e+00,1.260749340057373047e+00,1.284889698028564453e+00,3.258887052536010742e+00,3.172002792358398438e+00,3.089631080627441406e+00,3.011429309844970703e+00,2.937088489532470703e+00,2.866329669952392578e+00,2.798899888992309570e+00,2.734569787979125977e+00,2.673130750656127930e+00,2.614391326904296875e+00,2.558178186416625977e+00,2.504331111907958984e+00,2.452704429626464844e+00,2.403163194656372070e+00,2.355583906173706055e+00,2.309851884841918945e+00,2.265861749649047852e+00,2.223515987396240234e+00,2.182723760604858398e+00,2.143401384353637695e+00,2.105470657348632812e+00,2.068859100341796875e+00,2.033499240875244141e+00,1.999327659606933594e+00,1.966285705566406250e+00,1.934317708015441895e+00,1.903372883796691895e+00,1.873402357101440430e+00,1.844361305236816406e+00
5.000000000000000000e+00,4.202608108520507812e+00,5.000000000000000000e+00,4.387997150421142578e+00,5.000000000000000000e+00,5.000000000000000000e+00,5.000000000000000000e+00,5.000000000000000000e+00,5.000000000000000000e+00,5.000000000000000000e+00,5.000000000000000000e+00,5.000000000000000000e+00,5.000000000000000000e+00,5.000000000000000000e+00,5.000000000000000000e+00,5.000000000000000000e+00,5.000000000000000000e+00,5.000000000000000000e+00,5.000000000000000000e+00,5.000000000000000000e+00,5.000000000000000000e+00,5.000000000000000000e+00,5.000000000000000000e+00,5.000000000000000000e+00,5.000000000000000000e+00,5.000000000000000000e+00,5.000000000000000000e+00,5.000000000000000000e+00,5.000000000000000000e+00,5.000000000000000000e+00,5.000000000000000000e+00,5.000000000000000000e+00,5.000000000000000000e+00,5.000000000000000000e+00,5.000000000000000000e+00,5.000000000000000000e+00,5.000000000000000000e+00,5.000000000000000000e+00,5.000000000000000000e+00,4.854658126831054688e+00,4.664339065551757812e+00,4.488379478454589844e+00,4.325212955474853516e+00,1.830291986465454102e+00,1.786205649375915527e+00,1.775913476943969727e+00,1.298202037811279297e+00,1.274888992309570312e+00,1.260951638221740723e+00,1.255447387695312500e+00,1.279383063316345215e+00,3.258949279785156250e+00,3.172061920166015625e+00,3.089687108993530273e+00,3.011482477188110352e+00,2.937139511108398438e+00,2.866378068923950195e+00,2.798946142196655273e+00,2.734613895416259766e+00,2.673172712326049805e+00,2.614431619644165039e+00,2.558216571807861328e+00,2.504368066787719727e+00,2.452739953994750977e+00,2.403197288513183594e+00,2.355616569519042969e+00,2.309883356094360352e+00,2.265892028808593750e+00,2.223545074462890625e+00,2.182751893997192383e+00,2.143428325653076172e+00,2.105496883392333984e+00,2.068884372711181641e+00,2.033523559570312500e+00,1.999351143836975098e+00,1.966308236122131348e+00,1.934339880943298340e+00,1.903394103050231934e+00,1.873423099517822266e+00,1.844381332397460938e+00
4.875349044799804688e+00,4.160067081451416016e+00,4.872928619384765625e+00,4.871718883514404297e+00,4.870510101318359375e+00,4.869301795959472656e+00,4.868093967437744141e+00,4.866887092590332031e+00,4.865680694580078125e+00,4.864475250244140625e+00,4.863269805908203125e+00,4.862065315246582031e+00,4.860861301422119141e+00,4.859657764434814453e+00,4.858454704284667969e+00,4.857252597808837891e+00,4.856050968170166016e+00,4.854849815368652344e+00,4.853649139404296875e+00,4.852449417114257812e+00,4.851250171661376953e+00,4.850051403045654297e+00,4.848853588104248047e+00,4.847656250000000000e+00,4.846458911895751953e+00,4.845263004302978516e+00,4.844067096710205078e+00,4.842871665954589844e+00,4.841677188873291016e+00,4.840483188629150391e+00,4.839289665222167969e+00,4.838097095489501953e+00,4.836904525756835938e+00,4.835712909698486328e+00,4.834521770477294922e+00,4.833331584930419922e+00,4.832141876220703125e+00,4.830952644348144531e+00,4.829763889312744141e+00,4.828575611114501953e+00,4.664465904235839844e+00,4.488496780395507812e+00,4.325322151184082031e+00,1.839900970458984375e+00,1.800945639610290527e+00,1.800225019454956055e+00,1.300306677818298340e+00,1.276918649673461914e+00,1.260765194892883301e+00,1.251577138900756836e+00,1.274076461791992188e+00,3.259011983871459961e+00,3.172121286392211914e+00,3.089743375778198242e+00,3.011536121368408203e+00,2.937190055847167969e+00,2.866426229476928711e+00,2.798992156982421875e+00,2.734657764434814453e+00,2.673214673995971680e+00,2.614471912384033203e+00,2.558255195617675781e+00,2.504405021667480469e+00,2.452775239944458008e+00,2.403231382369995117e+00,2.355649232864379883e+00,2.309914588928222656e+00,2.265922307968139648e+00,2.223574161529541016e+00,2.182780027389526367e+00,2.143455505371093750e+00,2.105522871017456055e+00,2.068909406661987305e+00,2.033547878265380859e+00,1.999374508857727051e+00,1.966331124305725098e+00,1.934361934661865234e+00,1.903415441513061523e+00,1.873443841934204102e+00,1.844401240348815918e+00
3.778167724609375000e+00,3.777440309524536133e+00,3.776713609695434570e+00,3.775986909866333008e+00,3.775260925292968750e+00,3.774534702301025391e+00,3.773809194564819336e+00,3.773083448410034180e+00,3.772358655929565430e+00,3.771633386611938477e+00,3.770909070968627930e+00,3.770184516906738281e+00,3.769460678100585938e+00,3.768737077713012695e+00,3.768013477325439453e+00,3.767290592193603516e+00,3.766567468643188477e+00,3.765845060348510742e+00,3.765122413635253906e+00,3.764400482177734375e+00,3.763678312301635742e+00,3.762957096099853516e+00,3.762235641479492188e+00,3.761514902114868164e+00,3.760793924331665039e+00,3.760073661804199219e+00,3.759353876113891602e+00,3.758633613586425781e+00,3.757914304733276367e+00,3.757194757461547852e+00,3.756475925445556641e+00,3.755756855010986328e+00,3.755038738250732422e+00,3.754320144653320312e+00,3.753602504730224609e+00,3.752884626388549805e+00,3.752167224884033203e+00,3.751450061798095703e+00,3.750733375549316406e+00,3.750016927719116211e+00,3.749300479888916016e+00,3.748584508895874023e+00,3.747868537902832031e+00,1.864803552627563477e+00,1.815930724143981934e+00,1.829296469688415527e+00,1.302418231964111328e+00,1.279020547866821289e+00,1.258326649665832520e+00,1.253973841667175293e+00,1.269034624099731445e+00,3.259074449539184570e+00,3.172180414199829102e+00,3.089799404144287109e+00,3.011589288711547852e+00,2.937241077423095703e+00,2.866474866867065430e+00,2.799038410186767578e+00,2.734701871871948242e+00,2.673256635665893555e+00,2.614511966705322266e+00,2.558293581008911133e+00,2.504441976547241211e+00,2.452810764312744141e+00,2.403265476226806641e+00,2.355681896209716797e+00,2.309946060180664062e+00,2.265952348709106445e+00,2.223603248596191406e+00,2.182807922363281250e+00,2.143482446670532227e+00,2.105549097061157227e+00,2.068934679031372070e+00,2.033572196960449219e+00,1.999398112297058105e+00,1.966353893280029297e+00,1.934383749961853027e+00,1.903436899185180664e+00,1.873464345932006836e+00,1.844421267509460449e+00
3.084100484848022461e+00,3.083616018295288086e+00,3.083131790161132812e+00,3.082647323608398438e+00,3.082163572311401367e+00,3.081679582595825195e+00,3.081195831298828125e+00,3.080712080001831055e+00,3.080228805541992188e+00,3.079745292663574219e+00,3.079262256622314453e+00,3.078779220581054688e+00,3.078296422958374023e+00,3.077813625335693359e+00,3.077331304550170898e+00,3.076848983764648438e+00,3.076366662979125977e+00,3.075884580612182617e+00,3.075402498245239258e+00,3.074920892715454102e+00,3.074439287185668945e+00,3.073957920074462891e+00,3.073476314544677734e+00,3.072995185852050781e+00,3.072514057159423828e+00,3.072033405303955078e+00,3.071552515029907227e+00,3.071072101593017578e+00,3.070591449737548828e+00,3.070111274719238281e+00,3.069631338119506836e+00,3.069151163101196289e+00,3.068671464920043945e+00,3.068191766738891602e+00,3.067712306976318359e+00,3.067232847213745117e+00,3.066753625869750977e+00,3.066274404525756836e+00,3.065795898437500000e+00,3.065316915512084961e+00,3.064838409423828125e+00,3.064359664916992188e+00,3.063881635665893555e+00,1.861015319824218750e+00,1.849502921104431152e+00,3.062447547912597656e+00,1.331968307495117188e+00,1.281139731407165527e+00,1.259194254875183105e+00,1.255536437034606934e+00,1.264032363891601562e+00,3.059583425521850586e+00,3.059106349945068359e+00,3.058629751205444336e+00,3.011642694473266602e+00,2.937291622161865234e+00,2.866523027420043945e+00,2.799084424972534180e+00,2.734745740890502930e+00,2.673298835754394531e+00,2.614552259445190430e+00,2.558332204818725586e+00,2.504478931427001953e+00,2.452846050262451172e+00,2.403299331665039062e+00,2.355714559555053711e+00,2.309977531433105469e+00,2.265982627868652344e+00,2.223632335662841797e+00,2.182836055755615234e+00,2.143509626388549805e+00,2.105575084686279297e+00,2.068959951400756836e+00,2.033596515655517578e+00,1.999421715736389160e+00,1.966376662254333496e+00,1.934405803680419922e+00,1.903458237648010254e+00,1.873484969139099121e+00,1.844441413879394531e+00
2.605464458465576172e+00,2.605118751525878906e+00,2.604772806167602539e+00,2.604427337646484375e+00,2.604081869125366211e+00,2.603736400604248047e+00,2.603391170501708984e+00,2.603045940399169922e+00,2.602700710296630859e+00,2.602355480194091797e+00,2.602010726928710938e+00,2.601665735244750977e+00,2.601320981979370117e+00,2.600976228713989258e+00,2.600631713867187500e+00,2.600286960601806641e+00,2.599942684173583984e+00,2.599598407745361328e+00,2.599254131317138672e+00,2.598910093307495117e+00,2.598565816879272461e+00,2.598222017288208008e+00,2.597877979278564453e+00,2.597534418106079102e+00,2.597190618515014648e+00,2.596847057342529297e+00,2.596503496170043945e+00,2.596160173416137695e+00,2.595816612243652344e+00,2.595473527908325195e+00,2.595130205154418945e+00,2.594787359237670898e+00,2.594444274902343750e+00,2.594101428985595703e+00,2.593758583068847656e+00,2.593415975570678711e+00,2.593073368072509766e+00,2.592730760574340820e+00,2.592388391494750977e+00,2.592046022415161133e+00,2.591703891754150391e+00,2.591361522674560547e+00,2.591019630432128906e+00,1.832665443420410156e+00,1.825580120086669922e+00,2.589993953704833984e+00,2.589652299880981445e+00,1.283265948295593262e+00,1.261248230934143066e+00,1.253118038177490234e+00,1.259069442749023438e+00,2.587944984436035156e+00,2.587603807449340820e+00,2.587262868881225586e+00,2.586921691894531250e+00,2.586580991744995117e+00,2.586240053176879883e+00,2.585899353027343750e+00,2.585558652877807617e+00,2.585218191146850586e+00,2.584877967834472656e+00,2.558370590209960938e+00,2.504515647888183594e+00,2.452881574630737305e+00,2.403333425521850586e+00,2.355747222900390625e+00,2.310009002685546875e+00,2.266012907028198242e+00,2.223661422729492188e+00,2.182863950729370117e+00,2.143536567687988281e+00,2.105601310729980469e+00,2.068985223770141602e+00,2.033621072769165039e+00,1.999445319175720215e+00,1.966399312019348145e+00,1.934427976608276367e+00,1.903479456901550293e+00,1.873505711555480957e+00,1.844461441040039062e+00
2.255450487136840820e+00,2.255190610885620117e+00,2.254930734634399414e+00,2.254671096801757812e+00,2.254411458969116211e+00,2.254151821136474609e+00,2.253892183303833008e+00,2.253632783889770508e+00,2.253373146057128906e+00,2.253113746643066406e+00,2.252854347229003906e+00,2.252595186233520508e+00,2.252336025238037109e+00,2.252076864242553711e+00,2.251817703247070312e+00,2.251558780670166016e+00,2.251299619674682617e+00,2.251040697097778320e+00,2.250782012939453125e+00,2.250523090362548828e+00,2.250264406204223633e+00,2.250005722045898438e+00,2.249747037887573242e+00,2.249488592147827148e+00,2.249230623245239258e+00,2.248972892761230469e+00,2.248715162277221680e+00,2.248457670211791992e+00,2.248199939727783203e+00,2.247942686080932617e+00,2.247685194015502930e+00,2.247427940368652344e+00,2.247170448303222656e+00,2.246913433074951172e+00,2.246656179428100586e+00,2.246398925781250000e+00,2.246142148971557617e+00,2.245884895324707031e+00,2.245628118515014648e+00,2.245371103286743164e+00,2.245114326477050781e+00,2.244857549667358398e+00,2.244600772857666016e+00,1.798916101455688477e+00,1.796687722206115723e+00,1.845356583595275879e+00,2.243574619293212891e+00,1.285399198532104492e+00,1.273809790611267090e+00,1.264677882194519043e+00,1.316118359565734863e+00,2.242293119430541992e+00,2.242037057876586914e+00,2.241780996322631836e+00,2.241524934768676758e+00,2.241269111633300781e+00,2.241013050079345703e+00,2.240757226943969727e+00,2.240501403808593750e+00,2.240245819091796875e+00,2.239989995956420898e+00,2.239734411239624023e+00,2.239478826522827148e+00,2.239223480224609375e+00,2.238968133926391602e+00,2.238712787628173828e+00,2.238457441329956055e+00,2.238202095031738281e+00,2.223690509796142578e+00,2.182892084121704102e+00,2.143563747406005859e+00,2.105627298355102539e+00,2.069010257720947266e+00,2.033645153045654297e+00,1.999468684196472168e+00,1.966422080993652344e+00,1.934450030326843262e+00,1.903500795364379883e+00,1.873526453971862793e+00,1.844481348991394043e+00
1.988372564315795898e+00,1.988170623779296875e+00,1.987968564033508301e+00,1.987766623497009277e+00,1.987564802169799805e+00,1.987363100051879883e+00,1.987161397933959961e+00,1.986959695816040039e+00,1.986757755279541016e+00,1.986556172370910645e+00,1.986354589462280273e+00,1.986153125762939453e+00,1.985951662063598633e+00,1.985749959945678711e+00,1.985548496246337891e+00,1.985347151756286621e+00,1.985145926475524902e+00,1.984944581985473633e+00,1.984743356704711914e+00,1.984541893005371094e+00,1.984340786933898926e+00,1.984139680862426758e+00,1.983938574790954590e+00,1.983737468719482422e+00,1.983536243438720703e+00,1.983335375785827637e+00,1.983134388923645020e+00,1.982933521270751953e+00,1.982732772827148438e+00,1.982531905174255371e+00,1.982330918312072754e+00,1.982130289077758789e+00,1.981929540634155273e+00,1.981728911399841309e+00,1.981528401374816895e+00,1.981327772140502930e+00,1.981127142906188965e+00,1.980926632881164551e+00,1.980726242065429688e+00,1.980525851249694824e+00,1.980325460433959961e+00,1.980124950408935547e+00,1.979924678802490234e+00,1.767905354499816895e+00,1.766015052795410156e+00,1.779596686363220215e+00,1.979123950004577637e+00,1.978923678398132324e+00,1.274528622627258301e+00,1.259396195411682129e+00,1.262907028198242188e+00,1.978123903274536133e+00,1.977923750877380371e+00,1.977723956108093262e+00,1.977524161338806152e+00,1.977324366569519043e+00,1.977124691009521484e+00,1.976925015449523926e+00,1.976725220680236816e+00,1.976525664329528809e+00,1.976326107978820801e+00,1.976126551628112793e+00,1.975927114486694336e+00,1.975727438926696777e+00,1.975528120994567871e+00,1.975328803062438965e+00,1.975129485130310059e+00,1.974930167198181152e+00,1.974730968475341797e+00,1.974531531333923340e+00,1.974332451820373535e+00,1.974133372306823730e+00,1.973934292793273926e+00,1.973735332489013672e+00,1.973536014556884766e+00,1.966444969177246094e+00,1.934471845626831055e+00,1.903522133827209473e+00,1.873547196388244629e+00,1.844501376152038574e+00
1.777849435806274414e+00,1.777687907218933105e+00,1.777526497840881348e+00,1.777365088462829590e+00,1.777203798294067383e+00,1.777042269706726074e+00,1.776880979537963867e+00,1.776719689369201660e+00,1.776558518409729004e+00,1.776397228240966797e+00,1.776235938072204590e+00,1.776074767112731934e+00,1.775913715362548828e+00,1.775752544403076172e+00,1.775591492652893066e+00,1.775430440902709961e+00,1.775269269943237305e+00,1.775108337402343750e+00,1.774947404861450195e+00,1.774786472320556641e+00,1.774625539779663086e+00,1.774464726448059082e+00,1.774303674697875977e+00,1.774142861366271973e+00,1.773982167243957520e+00,1.773821353912353516e+00,1.773660659790039062e+00,1.773499846458435059e+00,1.773339152336120605e+00,1.773178577423095703e+00,1.773018002510070801e+00,1.772857427597045898e+00,1.772696852684020996e+00,1.772536158561706543e+00,1.772375702857971191e+00,1.772215247154235840e+00,1.772054791450500488e+00,1.771894454956054688e+00,1.771733880043029785e+00,1.771573543548583984e+00,1.771413207054138184e+00,1.771252989768981934e+00,1.771092772483825684e+00,1.770932435989379883e+00,1.770772099494934082e+00,1.770612001419067383e+00,1.770451784133911133e+00,1.770291686058044434e+00,1.268889665603637695e+00,1.246015429496765137e+00,1.231577038764953613e+00,1.769651412963867188e+00,1.769491434097290039e+00,1.769331574440002441e+00,1.769171595573425293e+00,1.769011616706848145e+00,1.768851757049560547e+00,1.768691897392272949e+00,1.768532156944274902e+00,1.768372416496276855e+00,1.768212676048278809e+00,1.768052816390991211e+00,1.767893075942993164e+00,1.767733454704284668e+00,1.767573833465576172e+00,1.767414331436157227e+00,1.767254590988159180e+00,1.767095088958740234e+00,1.766935586929321289e+00,1.766776084899902344e+00,1.766616702079772949e+00,1.766457200050354004e+00,1.766297698020935059e+00,1.766138315200805664e+00,1.765979051589965820e+00,1.765819668769836426e+00,1.765660405158996582e+00,1.765501022338867188e+00,1.765341877937316895e+00,1.765182733535766602e+00
1.607637524604797363e+00,1.607505440711975098e+00,1.607373356819152832e+00,1.607241392135620117e+00,1.607109427452087402e+00,1.606977462768554688e+00,1.606845617294311523e+00,1.606713771820068359e+00,1.606581687927246094e+00,1.606449842453002930e+00,1.606318116188049316e+00,1.606186270713806152e+00,1.606054544448852539e+00,1.605922579765319824e+00,1.605790853500366211e+00,1.605659127235412598e+00,1.605527520179748535e+00,1.605395793914794922e+00,1.605264186859130859e+00,1.605132460594177246e+00,1.605000853538513184e+00,1.604869246482849121e+00,1.604737639427185059e+00,1.604606151580810547e+00,1.604474425315856934e+00,1.604342937469482422e+00,1.604211568832397461e+00,1.604080080986022949e+00,1.603948593139648438e+00,1.603817224502563477e+00,1.603685736656188965e+00,1.603554368019104004e+00,1.603422999382019043e+00,1.603291749954223633e+00,1.603160381317138672e+00,1.603029131889343262e+00,1.602897763252258301e+00,1.602766513824462891e+00,1.602635264396667480e+00,1.602504134178161621e+00,1.602372884750366211e+00,1.602241635322570801e+00,1.602110505104064941e+00,1.601979374885559082e+00,1.601848363876342773e+00,1.601717233657836914e+00,1.601586222648620605e+00,1.601455092430114746e+00,1.258941292762756348e+00,1.223425030708312988e+00,1.202808141708374023e+00,1.191247463226318359e+00,1.188884377479553223e+00,1.600669264793395996e+00,1.600538372993469238e+00,1.600407600402832031e+00,1.600276708602905273e+00,1.600145936012268066e+00,1.600015044212341309e+00,1.599884152412414551e+00,1.599753499031066895e+00,1.599622726440429688e+00,1.599492073059082031e+00,1.599361181259155273e+00,1.599230527877807617e+00,1.599099993705749512e+00,1.598969340324401855e+00,1.598838806152343750e+00,1.598708152770996094e+00,1.598577499389648438e+00,1.598446965217590332e+00,1.598316431045532227e+00,1.598186016082763672e+00,1.598055481910705566e+00,1.597924947738647461e+00,1.597794532775878906e+00,1.597664117813110352e+00,1.597533702850341797e+00,1.597403407096862793e+00,1.597272992134094238e+00
1.467170000076293945e+00,1.467059969902038574e+00,1.466950058937072754e+00,1.466840147972106934e+00,1.466730237007141113e+00,1.466620326042175293e+00,1.466510415077209473e+00,1.466400504112243652e+00,1.466290712356567383e+00,1.466180920600891113e+00,1.466071009635925293e+00,1.465961217880249023e+00,1.465851426124572754e+00,1.465741634368896484e+00,1.465631961822509766e+00,1.465522170066833496e+00,1.465412378311157227e+00,1.465302705764770508e+00,1.465193033218383789e+00,1.465083360671997070e+00,1.464973688125610352e+00,1.464864134788513184e+00,1.464754343032836914e+00,1.464644789695739746e+00,1.464535236358642578e+00,1.464425683021545410e+00,1.464316129684448242e+00,1.464206457138061523e+00,1.464097023010253906e+00,1.463987469673156738e+00,1.463878035545349121e+00,1.463768601417541504e+00,1.463659048080444336e+00,1.463549494743347168e+00,1.463440179824829102e+00,1.463330745697021484e+00,1.463221430778503418e+00,1.463111996650695801e+00,1.463002562522888184e+00,1.462893247604370117e+00,1.462783932685852051e+00,1.462674617767333984e+00,1.462565302848815918e+00,1.462456107139587402e+00,1.462346792221069336e+00,1.462237477302551270e+00,1.462128281593322754e+00,1.462019085884094238e+00,1.241328477859497070e+00,1.192548274993896484e+00,1.171451687812805176e+00,1.148519635200500488e+00,1.134587168693542480e+00,1.129949092864990234e+00,1.107922315597534180e+00,1.461145877838134766e+00,1.461036801338195801e+00,1.460927844047546387e+00,1.460818767547607422e+00,1.460709810256958008e+00,1.460600852966308594e+00,1.460491776466369629e+00,1.460382819175720215e+00,1.460273861885070801e+00,1.460164904594421387e+00,1.460056066513061523e+00,1.459946990013122559e+00,1.459838151931762695e+00,1.459729313850402832e+00,1.459620475769042969e+00,1.459511637687683105e+00,1.459402799606323242e+00,1.459293961524963379e+00,1.459185123443603516e+00,1.459076404571533203e+00,1.458967685699462891e+00,1.458858966827392578e+00,1.458750128746032715e+00,1.458641409873962402e+00,1.458532691001892090e+00
1.349276781082153320e+00,1.349183797836303711e+00,1.349090814590454102e+00,1.348997831344604492e+00,1.348904848098754883e+00,1.348811864852905273e+00,1.348719000816345215e+00,1.348626136779785156e+00,1.348533034324645996e+00,1.348440170288085938e+00,1.348347306251525879e+00,1.348254442214965820e+00,1.348161578178405762e+00,1.348068714141845703e+00,1.347975850105285645e+00,1.347882986068725586e+00,1.347790241241455078e+00,1.347697496414184570e+00,1.347604632377624512e+00,1.347511768341064453e+00,1.347419023513793945e+00,1.347326397895812988e+00,1.347233653068542480e+00,1.347140908241271973e+00,1.347048163414001465e+00,1.346955418586730957e+00,1.346862792968750000e+00,1.346770167350769043e+00,1.346677541732788086e+00,1.346584916114807129e+00,1.346492171287536621e+00,1.346399545669555664e+00,1.346306920051574707e+00,1.346214294433593750e+00,1.346121788024902344e+00,1.346029281616210938e+00,1.345936536788940430e+00,1.345844030380249023e+00,1.345751523971557617e+00,1.345659017562866211e+00,1.345566511154174805e+00,1.345474004745483398e+00,1.345381498336791992e+00,1.345288991928100586e+00,1.345196604728698730e+00,1.345104217529296875e+00,1.345011711120605469e+00,1.344919204711914062e+00,1.291351914405822754e+00,1.165137648582458496e+00,1.134422779083251953e+00,1.122034668922424316e+00,1.112509369850158691e+00,1.140514850616455078e+00,1.118481397628784180e+00,1.344180345535278320e+00,1.344088077545166016e+00,1.343995809555053711e+00,1.343903422355651855e+00,1.343811154365539551e+00,1.343718886375427246e+00,1.343626737594604492e+00,1.343534469604492188e+00,1.343442201614379883e+00,1.343350052833557129e+00,1.343257784843444824e+00,1.343165636062622070e+00,1.343073487281799316e+00,1.342981338500976562e+00,1.342889189720153809e+00,1.342797040939331055e+00,1.342704892158508301e+00,1.342612862586975098e+00,1.342520713806152344e+00,1.342428565025329590e+00,1.342336535453796387e+00,1.342244505882263184e+00,1.342152476310729980e+00,1.342060446739196777e+00,1.341968417167663574e+00
1.248920798301696777e+00,1.248841166496276855e+00,1.248761534690856934e+00,1.248681902885437012e+00,1.248602271080017090e+00,1.248522520065307617e+00,1.248442888259887695e+00,1.248363256454467773e+00,1.248283743858337402e+00,1.248204112052917480e+00,1.248124480247497559e+00,1.248044848442077637e+00,1.247965335845947266e+00,1.247885704040527344e+00,1.247806191444396973e+00,1.247726678848266602e+00,1.247647047042846680e+00,1.247567534446716309e+00,1.247488021850585938e+00,1.247408509254455566e+00,1.247329115867614746e+00,1.247249603271484375e+00,1.247170090675354004e+00,1.247090578079223633e+00,1.247011184692382812e+00,1.246931791305541992e+00,1.246852278709411621e+00,1.246772885322570801e+00,1.246693372726440430e+00,1.246614098548889160e+00,1.246534705162048340e+00,1.246455311775207520e+00,1.246375918388366699e+00,1.246296525001525879e+00,1.246217131614685059e+00,1.246137857437133789e+00,1.246058464050292969e+00,1.245979189872741699e+00,1.245899796485900879e+00,1.245820522308349609e+00,1.245741248130798340e+00,1.245661973953247070e+00,1.245582699775695801e+00,1.245503544807434082e+00,1.245424151420593262e+00,1.245344877243041992e+00,1.245265722274780273e+00,1.245186448097229004e+00,1.245107293128967285e+00,1.245028018951416016e+00,1.244948863983154297e+00,1.244869709014892578e+00,1.244790554046630859e+00,1.244711399078369141e+00,1.244632244110107422e+00,1.244553089141845703e+00,1.244473934173583984e+00,1.244394779205322266e+00,1.244315743446350098e+00,1.244236588478088379e+00,1.244157552719116211e+00,1.244078397750854492e+00,1.243999361991882324e+00,1.243920326232910156e+00,1.243841290473937988e+00,1.243762254714965820e+00,1.243683099746704102e+00,1.243604183197021484e+00,1.243525147438049316e+00,1.243446111679077148e+00,1.243367195129394531e+00,1.243288278579711914e+00,1.243209123611450195e+00,1.243130207061767578e+00,1.243051290512084961e+00,1.242972373962402344e+00,1.242893457412719727e+00,1.242814421653747559e+00,1.242735624313354492e+00,1.242656707763671875e+00
1.162459969520568848e+00,1.162390947341918945e+00,1.162321805953979492e+00,1.162252902984619141e+00,1.162183880805969238e+00,1.162114858627319336e+00,1.162045836448669434e+00,1.161976933479309082e+00,1.161907911300659180e+00,1.161838889122009277e+00,1.161769986152648926e+00,1.161700963973999023e+00,1.161632061004638672e+00,1.161563038825988770e+00,1.161494135856628418e+00,1.161425232887268066e+00,1.161356329917907715e+00,1.161287426948547363e+00,1.161218523979187012e+00,1.161149621009826660e+00,1.161080718040466309e+00,1.161011934280395508e+00,1.160943031311035156e+00,1.160874247550964355e+00,1.160805225372314453e+00,1.160736441612243652e+00,1.160667657852172852e+00,1.160598874092102051e+00,1.160529971122741699e+00,1.160461187362670898e+00,1.160392403602600098e+00,1.160323619842529297e+00,1.160254836082458496e+00,1.160186052322387695e+00,1.160117268562316895e+00,1.160048604011535645e+00,1.159979701042175293e+00,1.159911036491394043e+00,1.159842252731323242e+00,1.159773588180541992e+00,1.159704804420471191e+00,1.159636139869689941e+00,1.159567356109619141e+00,1.159498691558837891e+00,1.159430027008056641e+00,1.159361362457275391e+00,1.159292697906494141e+00,1.159224033355712891e+00,1.159155368804931641e+00,1.159086704254150391e+00,1.159018039703369141e+00,1.158949494361877441e+00,1.158880829811096191e+00,1.158812165260314941e+00,1.158743619918823242e+00,1.158675074577331543e+00,1.158606410026550293e+00,1.158537864685058594e+00,1.158469200134277344e+00,1.158400654792785645e+00,1.158332228660583496e+00,1.158263683319091797e+00,1.158195137977600098e+00,1.158126473426818848e+00,1.158058047294616699e+00,1.157989501953125000e+00,1.157921075820922852e+00,1.157852530479431152e+00,1.157784104347229004e+00,1.157715559005737305e+00,1.157647013664245605e+00,1.157578587532043457e+00,1.157510161399841309e+00,1.157441735267639160e+00,1.157373189926147461e+00,1.157304763793945312e+00,1.157236337661743164e+00,1.157168030738830566e+00,1.157099604606628418e+00,1.157031178474426270e+00
1.087195038795471191e+00,1.087134599685668945e+00,1.087074279785156250e+00,1.087013959884643555e+00,1.086953520774841309e+00,1.086893081665039062e+00,1.086832761764526367e+00,1.086772441864013672e+00,1.086712121963500977e+00,1.086651802062988281e+00,1.086591482162475586e+00,1.086531162261962891e+00,1.086470842361450195e+00,1.086410522460937500e+00,1.086350202560424805e+00,1.086290001869201660e+00,1.086229562759399414e+00,1.086169362068176270e+00,1.086109042167663574e+00,1.086048841476440430e+00,1.085988640785217285e+00,1.085928320884704590e+00,1.085868000984191895e+00,1.085807800292968750e+00,1.085747599601745605e+00,1.085687398910522461e+00,1.085627198219299316e+00,1.085566878318786621e+00,1.085506677627563477e+00,1.085446476936340332e+00,1.085386395454406738e+00,1.085326194763183594e+00,1.085265994071960449e+00,1.085205793380737305e+00,1.085145592689514160e+00,1.085085511207580566e+00,1.085025310516357422e+00,1.084965229034423828e+00,1.084905028343200684e+00,1.084844946861267090e+00,1.084784746170043945e+00,1.084724664688110352e+00,1.084664583206176758e+00,1.084604501724243164e+00,1.084544301033020020e+00,1.084484219551086426e+00,1.084424138069152832e+00,1.084364056587219238e+00,1.084304094314575195e+00,1.084243893623352051e+00,1.084183931350708008e+00,1.084123849868774414e+00,1.084063768386840820e+00,1.084003806114196777e+00,1.083943724632263184e+00,1.083883643150329590e+00,1.083823680877685547e+00,1.083763718605041504e+00,1.083703637123107910e+00,1.083643674850463867e+00,1.083583712577819824e+00,1.083523631095886230e+00,1.083463668823242188e+00,1.083403706550598145e+00,1.083343744277954102e+00,1.083283782005310059e+00,1.083223819732666016e+00,1.083163857460021973e+00,1.083104014396667480e+00,1.083044052124023438e+00,1.082984089851379395e+00,1.082924246788024902e+00,1.082864284515380859e+00,1.082804322242736816e+00,1.082744479179382324e+00,1.082684636116027832e+00,1.082624673843383789e+00,1.082564711570739746e+00,1.082504868507385254e+00,1.082445025444030762e+00
1.021083712577819824e+00,1.021030426025390625e+00,1.020977139472961426e+00,1.020923852920532227e+00,1.020870685577392578e+00,1.020817399024963379e+00,1.020764231681823730e+00,1.020710945129394531e+00,1.020657658576965332e+00,1.020604491233825684e+00,1.020551323890686035e+00,1.020498037338256836e+00,1.020444869995117188e+00,1.020391583442687988e+00,1.020338416099548340e+00,1.020285248756408691e+00,1.020232081413269043e+00,1.020178914070129395e+00,1.020125746726989746e+00,1.020072579383850098e+00,1.020019412040710449e+00,1.019966244697570801e+00,1.019913077354431152e+00,1.019860029220581055e+00,1.019806861877441406e+00,1.019753694534301758e+00,1.019700527191162109e+00,1.019647479057312012e+00,1.019594311714172363e+00,1.019541263580322266e+00,1.019488096237182617e+00,1.019435048103332520e+00,1.019381880760192871e+00,1.019328832626342773e+00,1.019275784492492676e+00,1.019222736358642578e+00,1.019169569015502930e+00,1.019116520881652832e+00,1.019063472747802734e+00,1.019010424613952637e+00,1.018957376480102539e+00,1.018904328346252441e+00,1.018851280212402344e+00,1.018798232078552246e+00,1.018745303153991699e+00,1.018692255020141602e+00,1.018639206886291504e+00,1.018586158752441406e+00,1.018533229827880859e+00,1.018480181694030762e+00,1.018427252769470215e+00,1.018374204635620117e+00,1.018321156501770020e+00,1.018268227577209473e+00,1.018215298652648926e+00,1.018162250518798828e+00,1.018109321594238281e+00,1.018056392669677734e+00,1.018003463745117188e+00,1.017950415611267090e+00,1.017897486686706543e+00,1.017844676971435547e+00,1.017791748046875000e+00,1.017738699913024902e+00,1.017685770988464355e+00,1.017632961273193359e+00,1.017580032348632812e+00,1.017527103424072266e+00,1.017474293708801270e+00,1.017421364784240723e+00,1.017368435859680176e+00,1.017315626144409180e+00,1.017262697219848633e+00,1.017209887504577637e+00,1.017156958580017090e+00,1.017104148864746094e+00,1.017051219940185547e+00,1.016998410224914551e+00,1.016945600509643555e+00,1.016892790794372559e+00
9.625518321990966797e-01,9.625045657157897949e-01,9.624571800231933594e-01,9.624099135398864746e-01,9.623625278472900391e-01,9.623151421546936035e-01,9.622679352760314941e-01,9.622205495834350586e-01,9.621733427047729492e-01,9.621259570121765137e-01,9.620786309242248535e-01,9.620314240455627441e-01,9.619840979576110840e-01,9.619368910789489746e-01,9.618895649909973145e-01,9.618423581123352051e-01,9.617950320243835449e-01,9.617477655410766602e-01,9.617005586624145508e-01,9.616532325744628906e-01,9.616060853004455566e-01,9.615588188171386719e-01,9.615114927291870117e-01,9.614643454551696777e-01,9.614170789718627930e-01,9.613699316978454590e-01,9.613226652145385742e-01,9.612753987312316895e-01,9.612282514572143555e-01,9.611809849739074707e-01,9.611338376998901367e-01,9.610866308212280273e-01,9.610394835472106934e-01,9.609922766685485840e-01,9.609450697898864746e-01,9.608979225158691406e-01,9.608507156372070312e-01,9.608036279678344727e-01,9.607564210891723633e-01,9.607092142105102539e-01,9.606621265411376953e-01,9.606149196624755859e-01,9.605678319931030273e-01,9.605206847190856934e-01,9.604734778404235840e-01,9.604263901710510254e-01,9.603792428970336914e-01,9.603321552276611328e-01,9.602850079536437988e-01,9.602378606796264648e-01,9.601908326148986816e-01,9.601436853408813477e-01,9.600966572761535645e-01,9.600495100021362305e-01,9.600024819374084473e-01,9.599553346633911133e-01,9.599082469940185547e-01,9.598612189292907715e-01,9.598140716552734375e-01,9.597671031951904297e-01,9.597199559211730957e-01,9.596728682518005371e-01,9.596258997917175293e-01,9.595788121223449707e-01,9.595318436622619629e-01,9.594847559928894043e-01,9.594376683235168457e-01,9.593906998634338379e-01,9.593436121940612793e-01,9.592966437339782715e-01,9.592496156692504883e-01,9.592026472091674805e-01,9.591556191444396973e-01,9.591085910797119141e-01,9.590616226196289062e-01,9.590145945549011230e-01,9.589676856994628906e-01,9.589206576347351074e-01,9.588736295700073242e-01,9.588267207145690918e-01
9.103666543960571289e-01,9.103242754936218262e-01,9.102818965911865234e-01,9.102395772933959961e-01,9.101972579956054688e-01,9.101549983024597168e-01,9.101126194000244141e-01,9.100703597068786621e-01,9.100279808044433594e-01,9.099856615066528320e-01,9.099434018135070801e-01,9.099010229110717773e-01,9.098588228225708008e-01,9.098165035247802734e-01,9.097741246223449707e-01,9.097319245338439941e-01,9.096896052360534668e-01,9.096474051475524902e-01,9.096050858497619629e-01,9.095627665519714355e-01,9.095205664634704590e-01,9.094782471656799316e-01,9.094360470771789551e-01,9.093937277793884277e-01,9.093514680862426758e-01,9.093092679977416992e-01,9.092669486999511719e-01,9.092248082160949707e-01,9.091825485229492188e-01,9.091403484344482422e-01,9.090980887413024902e-01,9.090558290481567383e-01,9.090136289596557617e-01,9.089713692665100098e-01,9.089292287826538086e-01,9.088869690895080566e-01,9.088447690010070801e-01,9.088026285171508789e-01,9.087603688240051270e-01,9.087182283401489258e-01,9.086760282516479492e-01,9.086337685585021973e-01,9.085916876792907715e-01,9.085494279861450195e-01,9.085073471069335938e-01,9.084651470184326172e-01,9.084230065345764160e-01,9.083808064460754395e-01,9.083386063575744629e-01,9.082965254783630371e-01,9.082543253898620605e-01,9.082122445106506348e-01,9.081701040267944336e-01,9.081279039382934570e-01,9.080858230590820312e-01,9.080436825752258301e-01,9.080016016960144043e-01,9.079594016075134277e-01,9.079172611236572266e-01,9.078752398490905762e-01,9.078330397605895996e-01,9.077910184860229492e-01,9.077488780021667480e-01,9.077067375183105469e-01,9.076647162437438965e-01,9.076225757598876953e-01,9.075805544853210449e-01,9.075384140014648438e-01,9.074963927268981934e-01,9.074542522430419922e-01,9.074121713638305664e-01,9.073701500892639160e-01,9.073280692100524902e-01,9.072860479354858398e-01,9.072439670562744141e-01,9.072018861770629883e-01,9.071598649024963379e-01,9.071177840232849121e-01,9.070758223533630371e-01,9.070337414741516113e-01
8.635488748550415039e-01,8.635107278823852539e-01,8.634727001190185547e-01,8.634345531463623047e-01,8.633965253829956055e-01,8.633584380149841309e-01,8.633202910423278809e-01,8.632822632789611816e-01,8.632441759109497070e-01,8.632061481475830078e-01,8.631680607795715332e-01,8.631299138069152832e-01,8.630919456481933594e-01,8.630538582801818848e-01,8.630158305168151855e-01,8.629777431488037109e-01,8.629396557807922363e-01,8.629016876220703125e-01,8.628636002540588379e-01,8.628256320953369141e-01,8.627875447273254395e-01,8.627495765686035156e-01,8.627114892005920410e-01,8.626734614372253418e-01,8.626354336738586426e-01,8.625974059104919434e-01,8.625594377517700195e-01,8.625214099884033203e-01,8.624833822250366211e-01,8.624454140663146973e-01,8.624073863029479980e-01,8.623694181442260742e-01,8.623313903808593750e-01,8.622933626174926758e-01,8.622554540634155273e-01,8.622174263000488281e-01,8.621794581413269043e-01,8.621414303779602051e-01,8.621034622192382812e-01,8.620655536651611328e-01,8.620275259017944336e-01,8.619896173477172852e-01,8.619516491889953613e-01,8.619137406349182129e-01,8.618757128715515137e-01,8.618377447128295898e-01,8.617998361587524414e-01,8.617618680000305176e-01,8.617239594459533691e-01,8.616859912872314453e-01,8.616480231285095215e-01,8.616101741790771484e-01,8.615722060203552246e-01,8.615342974662780762e-01,8.614963293075561523e-01,8.614584207534790039e-01,8.614205121994018555e-01,8.613826036453247070e-01,8.613447546958923340e-01,8.613067865371704102e-01,8.612689375877380371e-01,8.612310290336608887e-01,8.611930608749389648e-01,8.611552119255065918e-01,8.611173033714294434e-01,8.610795140266418457e-01,8.610415458679199219e-01,8.610036373138427734e-01,8.609658479690551758e-01,8.609279394149780273e-01,8.608900904655456543e-01,8.608521819114685059e-01,8.608143329620361328e-01,8.607764840126037598e-01,8.607386350631713867e-01,8.607008457183837891e-01,8.606629371643066406e-01,8.606250286102294922e-01,8.605872392654418945e-01,8.605493903160095215e-01
8.213109970092773438e-01,8.212766051292419434e-01,8.212420940399169922e-01,8.212076425552368164e-01,8.211731910705566406e-01,8.211387395858764648e-01,8.211043477058410645e-01,8.210698366165161133e-01,8.210353851318359375e-01,8.210009932518005371e-01,8.209665417671203613e-01,8.209321498870849609e-01,8.208976984024047852e-01,8.208631873130798340e-01,8.208288550376892090e-01,8.207944035530090332e-01,8.207600116729736328e-01,8.207255601882934570e-01,8.206911683082580566e-01,8.206567764282226562e-01,8.206223249435424805e-01,8.205879330635070801e-01,8.205535411834716797e-01,8.205191493034362793e-01,8.204847574234008789e-01,8.204503059387207031e-01,8.204159736633300781e-01,8.203815817832946777e-01,8.203472495079040527e-01,8.203127980232238770e-01,8.202784061431884766e-01,8.202440738677978516e-01,8.202096819877624512e-01,8.201753497123718262e-01,8.201409578323364258e-01,8.201066255569458008e-01,8.200722336769104004e-01,8.200378417968750000e-01,8.200035095214843750e-01,8.199691176414489746e-01,8.199348449707031250e-01,8.199004530906677246e-01,8.198660612106323242e-01,8.198317885398864746e-01,8.197973966598510742e-01,8.197631239891052246e-01,8.197287321090698242e-01,8.196943998336791992e-01,8.196601271629333496e-01,8.196257352828979492e-01,8.195914626121520996e-01,8.195571303367614746e-01,8.195227980613708496e-01,8.194885253906250000e-01,8.194541931152343750e-01,8.194199204444885254e-01,8.193855881690979004e-01,8.193513154983520508e-01,8.193169832229614258e-01,8.192826509475708008e-01,8.192484378814697266e-01,8.192141056060791016e-01,8.191798329353332520e-01,8.191455602645874023e-01,8.191112279891967773e-01,8.190770149230957031e-01,8.190426826477050781e-01,8.190084695816040039e-01,8.189741373062133789e-01,8.189398646354675293e-01,8.189056515693664551e-01,8.188713192939758301e-01,8.188371062278747559e-01,8.188028335571289062e-01,8.187685608863830566e-01,8.187343478202819824e-01,8.187000751495361328e-01,8.186658620834350586e-01,8.186315894126892090e-01,8.185974359512329102e-01
7.830123901367187500e-01,7.829810976982116699e-01,7.829497456550598145e-01,7.829184532165527344e-01,7.828871011734008789e-01,7.828558087348937988e-01,7.828245162963867188e-01,7.827931642532348633e-01,7.827619314193725586e-01,7.827305793762207031e-01,7.826992273330688477e-01,7.826679944992065430e-01,7.826366424560546875e-01,7.826054096221923828e-01,7.825741171836853027e-01,7.825428247451782227e-01,7.825115323066711426e-01,7.824802398681640625e-01,7.824489474296569824e-01,7.824176549911499023e-01,7.823864221572875977e-01,7.823551297187805176e-01,7.823238372802734375e-01,7.822926044464111328e-01,7.822613120079040527e-01,7.822300791740417480e-01,7.821987867355346680e-01,7.821674942970275879e-01,7.821362614631652832e-01,7.821050286293029785e-01,7.820737957954406738e-01,7.820425033569335938e-01,7.820113301277160645e-01,7.819800376892089844e-01,7.819487452507019043e-01,7.819175720214843750e-01,7.818862795829772949e-01,7.818551063537597656e-01,7.818238735198974609e-01,7.817925810813903809e-01,7.817614078521728516e-01,7.817301750183105469e-01,7.816990017890930176e-01,7.816677093505859375e-01,7.816364765167236328e-01,7.816053032875061035e-01,7.815740704536437988e-01,7.815428972244262695e-01,7.815116643905639648e-01,7.814804315567016602e-01,7.814492583274841309e-01,7.814180254936218262e-01,7.813869118690490723e-01,7.813556790351867676e-01,7.813245058059692383e-01,7.812933325767517090e-01,7.812620997428894043e-01,7.812309265136718750e-01,7.811997532844543457e-01,7.811685800552368164e-01,7.811374068260192871e-01,7.811061739921569824e-01,7.810750603675842285e-01,7.810438871383666992e-01,7.810127139091491699e-01,7.809815406799316406e-01,7.809503674507141113e-01,7.809192538261413574e-01,7.808880209922790527e-01,7.808569669723510742e-01,7.808257341384887695e-01,7.807946801185607910e-01,7.807634472846984863e-01,7.807322740554809570e-01,7.807012200355529785e-01,7.806700468063354492e-01,7.806389331817626953e-01,7.806077599525451660e-01,7.805765867233276367e-01,7.805455327033996582e-01
7.481264472007751465e-01,7.480978369712829590e-01,7.480692267417907715e-01,7.480406761169433594e-01,7.480120658874511719e-01,7.479835152626037598e-01,7.479549050331115723e-01,7.479263544082641602e-01,7.478977441787719727e-01,7.478691339492797852e-01,7.478405833244323730e-01,7.478120326995849609e-01,7.477834820747375488e-01,7.477548718452453613e-01,7.477262616157531738e-01,7.476977705955505371e-01,7.476691603660583496e-01,7.476406693458557129e-01,7.476120591163635254e-01,7.475835084915161133e-01,7.475549578666687012e-01,7.475264072418212891e-01,7.474978566169738770e-01,7.474693059921264648e-01,7.474407553672790527e-01,7.474122047424316406e-01,7.473836541175842285e-01,7.473551630973815918e-01,7.473266124725341797e-01,7.472981214523315430e-01,7.472695708274841309e-01,7.472410202026367188e-01,7.472125291824340820e-01,7.471839785575866699e-01,7.471554875373840332e-01,7.471269369125366211e-01,7.470983862876892090e-01,7.470698952674865723e-01,7.470413446426391602e-01,7.470129132270812988e-01,7.469843626022338867e-01,7.469558119773864746e-01,7.469273209571838379e-01,7.468988299369812012e-01,7.468703389167785645e-01,7.468418478965759277e-01,7.468133568763732910e-01,7.467848658561706543e-01,7.467563152313232422e-01,7.467278838157653809e-01,7.466993331909179688e-01,7.466709017753601074e-01,7.466424107551574707e-01,7.466139197349548340e-01,7.465854287147521973e-01,7.465569376945495605e-01,7.465285062789916992e-01,7.465000152587890625e-01,7.464715242385864258e-01,7.464430928230285645e-01,7.464146018028259277e-01,7.463861703872680664e-01,7.463576793670654297e-01,7.463291883468627930e-01,7.463007569313049316e-01,7.462722659111022949e-01,7.462438941001892090e-01,7.462154030799865723e-01,7.461869716644287109e-01,7.461585402488708496e-01,7.461300492286682129e-01,7.461016178131103516e-01,7.460731863975524902e-01,7.460447549819946289e-01,7.460163235664367676e-01,7.459878325462341309e-01,7.459594607353210449e-01,7.459309697151184082e-01,7.459025979042053223e-01,7.458741664886474609e-01
