5.000000000000000000e+00,5.000000000000000000e+00,5.000000000000000000e+00,5.000000000000000000e+00,5.000000000000000000e+00,5.000000000000000000e+00,5.000000000000000000e+00,5.000000000000000000e+00,5.000000000000000000e+00,5.000000000000000000e+00,5.000000000000000000e+00,5.000000000000000000e+00,5.000000000000000000e+00,5.000000000000000000e+00,5.000000000000000000e+00,5.000000000000000000e+00,5.000000000000000000e+00,5.000000000000000000e+00,5.000000000000000000e+00,5.000000000000000000e+00,5.000000000000000000e+00,5.000000000000000000e+00,5.000000000000000000e+00,5.000000000000000000e+00,5.000000000000000000e+00,5.000000000000000000e+00,5.000000000000000000e+00,5.000000000000000000e+00,5.000000000000000000e+00,2.073122262954711914e+00,2.088928461074829102e+00,2.089340686798095703e+00,2.044876813888549805e+00,2.035662889480590820e+00,2.122010469436645508e+00,2.085134506225585938e+00,2.077487468719482422e+00,5.000000000000000000e+00,5.000000000000000000e+00,5.000000000000000000e+00,5.000000000000000000e+00,5.000000000000000000e+00,5.000000000000000000e+00,4.170192241668701172e+00,4.028973579406738281e+00,3.897006273269653320e+00,3.773409366607666016e+00,3.657411575317382812e+00,3.548333168029785156e+00,3.445572137832641602e+00,3.348595857620239258e+00,3.256928920745849609e+00,3.170146942138671875e+00,3.087869644165039062e+00,3.009755134582519531e+00,2.935495138168334961e+00,2.864811658859252930e+00,2.797451734542846680e+00,2.733186960220336914e+00,2.671808481216430664e+00,2.613126039505004883e+00,2.556966066360473633e+00,2.503169059753417969e+00,2.451589345932006836e+00,2.402092456817626953e+00,2.354554414749145508e+00,2.308861494064331055e+00,2.264908552169799805e+00,2.222597360610961914e+00,2.181838274002075195e+00,2.142547130584716797e+00,2.104645967483520508e+00,2.068062543869018555e+00,2.032729387283325195e+00,1.998583078384399414e+00,1.965565085411071777e+00,1.933620214462280273e+00,1.902697086334228516e+00,1.872747421264648438e+00,1.843726038932800293e+00
5.000000000000000000e+00,5.000000000000000000e+00,5.000000000000000000e+00,5.000000000000000000e+00,5.000000000000000000e+00,5.000000000000000000e+00,5.000000000000000000e+00,5.000000000000000000e+00,5.000000000000000000e+00,5.000000000000000000e+00,5.000000000000000000e+00,5.000000000000000000e+00,5.000000000000000000e+00,5.000000000000000000e+00,5.000000000000000000e+00,5.000000000000000000e+00,5.000000000000000000e+00,5.000000000000000000e+00,5.000000000000000000e+00,5.000000000000000000e+00,5.000000000000000000e+00,5.000000000000000000e+00,5.000000000000000000e+00,5.000000000000000000e+00,5.000000000000000000e+00,5.000000000000000000e+00,5.000000000000000000e+00,5.000000000000000000e+00,2.044151782989501953e+00,2.052616834640502930e+00,2.048274517059326172e+00,2.040027856826782227e+00,2.040502309799194336e+00,2.042450904846191406e+00,2.052689313888549805e+00,2.055477380752563477e+00,2.070671796798706055e+00,2.083263874053955078e+00,2.118998527526855469e+00,2.127388000488281250e+00,2.140416860580444336e+00,5.000000000000000000e+00,4.321779727935791016e+00,4.170294761657714844e+00,4.029068946838378906e+00,3.897095441818237305e+00,3.773493051528930664e+00,3.657490491867065430e+00,3.548407077789306641e+00,3.445642232894897461e+00,3.348661661148071289e+00,3.256991147994995117e+00,3.170206069946289062e+00,3.087925672531127930e+00,3.009808301925659180e+00,2.935545921325683594e+00,2.864859819412231445e+00,2.797497749328613281e+00,2.733230829238891602e+00,2.671850442886352539e+00,2.613166332244873047e+00,2.557004451751708984e+00,2.503206014633178711e+00,2.451624870300292969e+00,2.402126312255859375e+00,2.354587078094482422e+00,2.308892965316772461e+00,2.264938592910766602e+00,2.222626447677612305e+00,2.181866407394409180e+00,2.142574071884155273e+00,2.104672193527221680e+00,2.068087577819824219e+00,2.032753705978393555e+00,1.998606443405151367e+00,1.965587615966796875e+00,1.933642268180847168e+00,1.902718424797058105e+00,1.872768163681030273e+00,1.843746066093444824e+00
5.000000000000000000e+00,5.000000000000000000e+00,5.000000000000000000e+00,5.000000000000000000e+00,5.000000000000000000e+00,5.000000000000000000e+00,5.000000000000000000e+00,5.000000000000000000e+00,5.000000000000000000e+00,5.000000000000000000e+00,5.000000000000000000e+00,5.000000000000000000e+00,5.000000000000000000e+00,5.000000000000000000e+00,5.000000000000000000e+00,5.000000000000000000e+00,5.000000000000000000e+00,5.000000000000000000e+00,5.000000000000000000e+00,5.000000000000000000e+00,5.000000000000000000e+00,5.000000000000000000e+00,5.000000000000000000e+00,5.000000000000000000e+00,5.000000000000000000e+00,5.000000000000000000e+00,5.000000000000000000e+00,2.077997207641601562e+00,2.048617601394653320e+00,2.059427976608276367e+00,2.040207624435424805e+00,2.021204471588134766e+00,2.009895324707031250e+00,2.005202293395996094e+00,2.023774147033691406e+00,2.019812107086181641e+00,2.031915664672851562e+00,2.055713415145874023e+00,2.091988801956176758e+00,2.130115270614624023e+00,2.133147716522216797e+00,4.484804153442382812e+00,4.321889877319335938e+00,4.170396804809570312e+00,4.029164791107177734e+00,3.897184610366821289e+00,3.773576974868774414e+00,3.657569169998168945e+00,3.548481225967407227e+00,3.445711851119995117e+00,3.348727703094482422e+00,3.257053852081298828e+00,3.170265197753906250e+00,3.087981700897216797e+00,3.009861707687377930e+00,2.935596704483032227e+00,2.864908218383789062e+00,2.797543764114379883e+00,2.733274698257446289e+00,2.671892404556274414e+00,2.613206386566162109e+00,2.557042837142944336e+00,2.503242969512939453e+00,2.451660156250000000e+00,2.402160167694091797e+00,2.354619741439819336e+00,2.308924198150634766e+00,2.264968872070312500e+00,2.222655534744262695e+00,2.181894302368164062e+00,2.142601251602172852e+00,2.104698181152343750e+00,2.068112850189208984e+00,2.032778024673461914e+00,1.998630046844482422e+00,1.965610504150390625e+00,1.933664083480834961e+00,1.902739644050598145e+00,1.872788786888122559e+00,1.843766212463378906e+00
5.000000000000000000e+00,5.000000000000000000e+00,5.000000000000000000e+00,5.000000000000000000e+00,5.000000000000000000e+00,5.000000000000000000e+00,5.000000000000000000e+00,5.000000000000000000e+00,5.000000000000000000e+00,5.000000000000000000e+00,5.000000000000000000e+00,5.000000000000000000e+00,5.000000000000000000e+00,5.000000000000000000e+00,5.000000000000000000e+00,5.000000000000000000e+00,5.000000000000000000e+00,5.000000000000000000e+00,5.000000000000000000e+00,5.000000000000000000e+00,5.000000000000000000e+00,5.000000000000000000e+00,5.000000000000000000e+00,5.000000000000000000e+00,5.000000000000000000e+00,5.000000000000000000e+00,5.000000000000000000e+00,2.081243753433227539e+00,2.059662580490112305e+00,2.073396444320678711e+00,2.047725915908813477e+00,2.019633293151855469e+00,2.010890245437622070e+00,2.010281562805175781e+00,2.013030290603637695e+00,2.024434566497802734e+00,2.026294946670532227e+00,2.050394296646118164e+00,2.091568470001220703e+00,2.141289949417114258e+00,2.146339893341064453e+00,4.484922409057617188e+00,4.321999549865722656e+00,4.170499324798583984e+00,4.029259681701660156e+00,3.897274255752563477e+00,3.773660659790039062e+00,3.657648086547851562e+00,3.548555374145507812e+00,3.445781469345092773e+00,3.348793745040893555e+00,3.257116079330444336e+00,3.170324087142944336e+00,3.088037967681884766e+00,3.009914875030517578e+00,2.935647487640380859e+00,2.864956378936767578e+00,2.797589778900146484e+00,2.733318805694580078e+00,2.671934366226196289e+00,2.613246440887451172e+00,2.557081460952758789e+00,2.503279685974121094e+00,2.451695442199707031e+00,2.402194261550903320e+00,2.354652166366577148e+00,2.308955669403076172e+00,2.264998912811279297e+00,2.222684621810913086e+00,2.181922435760498047e+00,2.142628192901611328e+00,2.104724407196044922e+00,2.068138122558593750e+00,2.032802104949951172e+00,1.998653531074523926e+00,1.965633273124694824e+00,1.933686137199401855e+00,1.902760982513427734e+00,1.872809290885925293e+00,1.843786239624023438e+00
5.000000000000000000e+00,5.000000000000000000e+00,5.000000000000000000e+00,5.000000000000000000e+00,5.000000000000000000e+00,5.000000000000000000e+00,5.000000000000000000e+00,5.000000000000000000e+00,5.000000000000000000e+00,5.000000000000000000e+00,5.000000000000000000e+00,5.000000000000000000e+00,5.000000000000000000e+00,5.000000000000000000e+00,5.000000000000000000e+00,5.000000000000000000e+00,5.000000000000000000e+00,5.000000000000000000e+00,5.000000000000000000e+00,5.000000000000000000e+00,5.000000000000000000e+00,5.000000000000000000e+00,5.000000000000000000e+00,5.000000000000000000e+00,5.000000000000000000e+00,5.000000000000000000e+00,5.000000000000000000e+00,5.000000000000000000e+00,2.064986944198608398e+00,2.066229820251464844e+00,2.053737163543701172e+00,2.024812459945678711e+00,2.016625404357910156e+00,2.005337238311767578e+00,2.015561103820800781e+00,2.020502090454101562e+00,2.030005693435668945e+00,2.051487684249877930e+00,2.089180231094360352e+00,2.158184766769409180e+00,2.159524679183959961e+00,4.485041141510009766e+00,4.322109699249267578e+00,4.170601367950439453e+00,4.029355525970458984e+00,3.897363424301147461e+00,3.773744583129882812e+00,3.657726526260375977e+00,3.548629283905029297e+00,3.445851564407348633e+00,3.348859548568725586e+00,3.257178544998168945e+00,3.170383453369140625e+00,3.088093996047973633e+00,3.009968280792236328e+00,2.935698032379150391e+00,2.865004539489746094e+00,2.797636032104492188e+00,2.733362674713134766e+00,2.671976327896118164e+00,2.613286733627319336e+00,2.557119846343994141e+00,2.503316640853881836e+00,2.451730728149414062e+00,2.402228116989135742e+00,2.354685068130493164e+00,2.308986902236938477e+00,2.265029191970825195e+00,2.222713708877563477e+00,2.181950330734252930e+00,2.142655134201049805e+00,2.104750394821166992e+00,2.068163156509399414e+00,2.032826662063598633e+00,1.998676896095275879e+00,1.965655803680419922e+00,1.933708190917968750e+00,1.902782320976257324e+00,1.872830033302307129e+00,1.843806028366088867e+00
5.000000000000000000e+00,5.000000000000000000e+00,5.000000000000000000e+00,5.000000000000000000e+00,5.000000000000000000e+00,5.000000000000000000e+00,5.000000000000000000e+00,5.000000000000000000e+00,5.000000000000000000e+00,5.000000000000000000e+00,5.000000000000000000e+00,5.000000000000000000e+00,5.000000000000000000e+00,5.000000000000000000e+00,5.000000000000000000e+00,5.000000000000000000e+00,5.000000000000000000e+00,5.000000000000000000e+00,5.000000000000000000e+00,5.000000000000000000e+00,5.000000000000000000e+00,5.000000000000000000e+00,5.000000000000000000e+00,5.000000000000000000e+00,5.000000000000000000e+00,5.000000000000000000e+00,5.000000000000000000e+00,5.000000000000000000e+00,2.063911914825439453e+00,2.064450502395629883e+00,2.075900554656982422e+00,2.038126230239868164e+00,2.022145748138427734e+00,2.009773731231689453e+00,2.008690357208251953e+00,2.013942241668701172e+00,2.033613920211791992e+00,2.064387083053588867e+00,2.097744464874267578e+00,2.155913829803466797e+00,2.164423227310180664e+00,4.485159397125244141e+00,4.322219371795654297e+00,4.170703887939453125e+00,4.029450893402099609e+00,3.897453069686889648e+00,3.773828268051147461e+00,3.657805204391479492e+00,3.548703432083129883e+00,3.445921421051025391e+00,3.348925590515136719e+00,3.257241010665893555e+00,3.170442342758178711e+00,3.088150262832641602e+00,3.010021686553955078e+00,2.935748577117919922e+00,2.865052938461303711e+00,2.797681808471679688e+00,2.733406543731689453e+00,2.672018527984619141e+00,2.613327026367187500e+00,2.557158470153808594e+00,2.503353595733642578e+00,2.451766014099121094e+00,2.402261972427368164e+00,2.354717493057250977e+00,2.309018373489379883e+00,2.265059471130371094e+00,2.222742795944213867e+00,2.181978464126586914e+00,2.142682075500488281e+00,2.104776382446289062e+00,2.068188428878784180e+00,2.032850742340087891e+00,1.998700499534606934e+00,1.965678572654724121e+00,1.933730006217956543e+00,1.902803659439086914e+00,1.872850656509399414e+00,1.843826174736022949e+00
5.000000000000000000e+00,5.000000000000000000e+00,5.000000000000000000e+00,5.000000000000000000e+00,5.000000000000000000e+00,5.000000000000000000e+00,5.000000000000000000e+00,5.000000000000000000e+00,5.000000000000000000e+00,5.000000000000000000e+00,5.000000000000000000e+00,5.000000000000000000e+00,5.000000000000000000e+00,5.000000000000000000e+00,5.000000000000000000e+00,5.000000000000000000e+00,5.000000000000000000e+00,5.000000000000000000e+00,5.000000000000000000e+00,5.000000000000000000e+00,5.000000000000000000e+00,5.000000000000000000e+00,5.000000000000000000e+00,5.000000000000000000e+00,5.000000000000000000e+00,5.000000000000000000e+00,5.000000000000000000e+00,5.000000000000000000e+00,2.060408353805541992e+00,2.055977821350097656e+00,2.078487396240234375e+00,2.040496110916137695e+00,2.019983291625976562e+00,2.010338783264160156e+00,2.009037017822265625e+00,2.014736652374267578e+00,2.029237985610961914e+00,2.057539939880371094e+00,2.104810237884521484e+00,2.156152486801147461e+00,2.170506238937377930e+00,4.485277652740478516e+00,4.322329521179199219e+00,4.170806407928466797e+00,4.029546737670898438e+00,3.897542238235473633e+00,3.773911952972412109e+00,3.657884120941162109e+00,3.548777341842651367e+00,3.445991039276123047e+00,3.348991632461547852e+00,3.257303237915039062e+00,3.170501708984375000e+00,3.088206291198730469e+00,3.010074853897094727e+00,2.935799598693847656e+00,2.865101099014282227e+00,2.797727823257446289e+00,2.733450651168823242e+00,2.672060251235961914e+00,2.613367319107055664e+00,2.557196855545043945e+00,2.503390312194824219e+00,2.451801538467407227e+00,2.402296066284179688e+00,2.354750156402587891e+00,2.309049606323242188e+00,2.265089511871337891e+00,2.222771883010864258e+00,2.182006359100341797e+00,2.142709255218505859e+00,2.104802370071411133e+00,2.068213462829589844e+00,2.032875061035156250e+00,1.998724102973937988e+00,1.965701460838317871e+00,1.933752179145812988e+00,1.902824878692626953e+00,1.872871160507202148e+00,1.843846201896667480e+00
5.000000000000000000e+00,5.000000000000000000e+00,5.000000000000000000e+00,5.000000000000000000e+00,5.000000000000000000e+00,5.000000000000000000e+00,5.000000000000000000e+00,5.000000000000000000e+00,5.000000000000000000e+00,5.000000000000000000e+00,5.000000000000000000e+00,5.000000000000000000e+00,5.000000000000000000e+00,5.000000000000000000e+00,5.000000000000000000e+00,5.000000000000000000e+00,5.000000000000000000e+00,5.000000000000000000e+00,5.000000000000000000e+00,5.000000000000000000e+00,5.000000000000000000e+00,5.000000000000000000e+00,5.000000000000000000e+00,5.000000000000000000e+00,5.000000000000000000e+00,5.000000000000000000e+00,5.000000000000000000e+00,5.000000000000000000e+00,2.057463884353637695e+00,2.049677610397338867e+00,2.074006080627441406e+00,2.050234794616699219e+00,2.021649599075317383e+00,2.012286663055419922e+00,2.011579036712646484e+00,2.017274379730224609e+00,2.030217885971069336e+00,2.054661035537719727e+00,2.132216930389404297e+00,2.156391143798828125e+00,2.177168846130371094e+00,4.485395908355712891e+00,4.322439193725585938e+00,4.170908451080322266e+00,4.029642105102539062e+00,3.897631406784057617e+00,3.773995876312255859e+00,3.657962560653686523e+00,3.548851490020751953e+00,3.446061134338378906e+00,3.349057435989379883e+00,3.257365942001342773e+00,3.170560836791992188e+00,3.088262081146240234e+00,3.010128259658813477e+00,2.935850143432617188e+00,2.865149497985839844e+00,2.797774076461791992e+00,2.733494520187377930e+00,2.672102451324462891e+00,2.613407373428344727e+00,2.557235240936279297e+00,2.503427267074584961e+00,2.451836824417114258e+00,2.402329921722412109e+00,2.354782819747924805e+00,2.309081077575683594e+00,2.265119791030883789e+00,2.222800731658935547e+00,2.182034254074096680e+00,2.142736196517944336e+00,2.104828596115112305e+00,2.068238496780395508e+00,2.032899379730224609e+00,1.998747348785400391e+00,1.965724229812622070e+00,1.933774232864379883e+00,1.902846217155456543e+00,1.872891902923583984e+00,1.843866109848022461e+00
5.000000000000000000e+00,5.000000000000000000e+00,5.000000000000000000e+00,5.000000000000000000e+00,5.000000000000000000e+00,5.000000000000000000e+00,5.000000000000000000e+00,5.000000000000000000e+00,5.000000000000000000e+00,5.000000000000000000e+00,5.000000000000000000e+00,5.000000000000000000e+00,5.000000000000000000e+00,5.000000000000000000e+00,5.000000000000000000e+00,5.000000000000000000e+00,5.000000000000000000e+00,5.000000000000000000e+00,5.000000000000000000e+00,5.000000000000000000e+00,5.000000000000000000e+00,5.000000000000000000e+00,5.000000000000000000e+00,5.000000000000000000e+00,5.000000000000000000e+00,5.000000000000000000e+00,5.000000000000000000e+00,5.000000000000000000e+00,2.055986642837524414e+00,2.053258180618286133e+00,2.081689834594726562e+00,2.049645185470581055e+00,2.017186403274536133e+00,2.010716199874877930e+00,2.017766475677490234e+00,2.019883394241333008e+00,2.028980016708374023e+00,2.054953813552856445e+00,2.184955596923828125e+00,2.165436506271362305e+00,2.184939861297607422e+00,4.485514163970947266e+00,4.322549343109130859e+00,4.171010494232177734e+00,4.029737472534179688e+00,3.897721052169799805e+00,3.774079561233520508e+00,3.658041238784790039e+00,3.548925638198852539e+00,3.446130990982055664e+00,3.349123716354370117e+00,3.257428169250488281e+00,3.170619726181030273e+00,3.088318347930908203e+00,3.010181427001953125e+00,2.935900688171386719e+00,2.865197896957397461e+00,2.797820091247558594e+00,2.733538627624511719e+00,2.672144412994384766e+00,2.613447427749633789e+00,2.557273864746093750e+00,2.503463983535766602e+00,2.451872110366821289e+00,2.402364015579223633e+00,2.354815483093261719e+00,2.309112548828125000e+00,2.265149831771850586e+00,2.222829818725585938e+00,2.182062387466430664e+00,2.142763137817382812e+00,2.104854583740234375e+00,2.068263769149780273e+00,2.032923698425292969e+00,1.998770952224731445e+00,1.965746760368347168e+00,1.933796048164367676e+00,1.902867555618286133e+00,1.872912526130676270e+00,1.843886137008666992e+00
5.000000000000000000e+00,5.000000000000000000e+00,5.000000000000000000e+00,5.000000000000000000e+00,5.000000000000000000e+00,5.000000000000000000e+00,5.000000000000000000e+00,5.000000000000000000e+00,5.000000000000000000e+00,5.000000000000000000e+00,5.000000000000000000e+00,5.000000000000000000e+00,5.000000000000000000e+00,5.000000000000000000e+00,5.000000000000000000e+00,5.000000000000000000e+00,5.000000000000000000e+00,5.000000000000000000e+00,5.000000000000000000e+00,5.000000000000000000e+00,5.000000000000000000e+00,5.000000000000000000e+00,5.000000000000000000e+00,5.000000000000000000e+00,5.000000000000000000e+00,5.000000000000000000e+00,5.000000000000000000e+00,5.000000000000000000e+00,2.054073095321655273e+00,2.059001445770263672e+00,2.089045286178588867e+00,2.032638072967529297e+00,2.007608890533447266e+00,2.004537820816040039e+00,2.011633157730102539e+00,2.011410713195800781e+00,2.021156311035156250e+00,2.044641494750976562e+00,2.197624444961547852e+00,2.178864002227783203e+00,2.193470478057861328e+00,4.485632896423339844e+00,4.322659015655517578e+00,4.171113014221191406e+00,4.029832839965820312e+00,3.897810220718383789e+00,3.774163246154785156e+00,3.658120155334472656e+00,3.548999547958374023e+00,3.446200847625732422e+00,3.349189519882202148e+00,3.257490634918212891e+00,3.170679092407226562e+00,3.088374376296997070e+00,3.010234594345092773e+00,2.935951471328735352e+00,2.865246057510375977e+00,2.797866344451904297e+00,2.733582496643066406e+00,2.672186374664306641e+00,2.613487720489501953e+00,2.557312250137329102e+00,2.503500938415527344e+00,2.451907634735107422e+00,2.402397871017456055e+00,2.354848146438598633e+00,2.309143781661987305e+00,2.265180110931396484e+00,2.222858905792236328e+00,2.182090282440185547e+00,2.142790079116821289e+00,2.104880571365356445e+00,2.068289041519165039e+00,2.032948017120361328e+00,1.998794555664062500e+00,1.965769648551940918e+00,1.933818101882934570e+00,1.902888774871826172e+00,1.872933030128479004e+00,1.843906164169311523e+00
5.000000000000000000e+00,5.000000000000000000e+00,5.000000000000000000e+00,5.000000000000000000e+00,5.000000000000000000e+00,5.000000000000000000e+00,5.000000000000000000e+00,5.000000000000000000e+00,5.000000000000000000e+00,5.000000000000000000e+00,5.000000000000000000e+00,5.000000000000000000e+00,5.000000000000000000e+00,5.000000000000000000e+00,5.000000000000000000e+00,5.000000000000000000e+00,5.000000000000000000e+00,5.000000000000000000e+00,5.000000000000000000e+00,5.000000000000000000e+00,5.000000000000000000e+00,5.000000000000000000e+00,5.000000000000000000e+00,5.000000000000000000e+00,5.000000000000000000e+00,5.000000000000000000e+00,5.000000000000000000e+00,5.000000000000000000e+00,2.034740447998046875e+00,2.052966594696044922e+00,2.111954927444458008e+00,2.036739587783813477e+00,2.027570247650146484e+00,2.002074241638183594e+00,2.004573106765747070e+00,2.009130954742431641e+00,2.017761707305908203e+00,2.041955232620239258e+00,2.106148719787597656e+00,2.192459344863891602e+00,2.202067613601684570e+00,4.485750675201416016e+00,4.322769165039062500e+00,4.171215534210205078e+00,4.029928684234619141e+00,3.897899389266967773e+00,3.774247169494628906e+00,3.658198595046997070e+00,3.549073934555053711e+00,3.446270704269409180e+00,3.349255323410034180e+00,3.257553100585937500e+00,3.170738220214843750e+00,3.088430404663085938e+00,3.010288000106811523e+00,2.936002254486083984e+00,2.865294456481933594e+00,2.797912120819091797e+00,2.733626365661621094e+00,2.672228574752807617e+00,2.613527774810791016e+00,2.557350635528564453e+00,2.503537893295288086e+00,2.451942920684814453e+00,2.402431964874267578e+00,2.354880571365356445e+00,2.309175014495849609e+00,2.265210390090942383e+00,2.222887992858886719e+00,2.182118177413940430e+00,2.142817258834838867e+00,2.104906558990478516e+00,2.068314313888549805e+00,2.032972335815429688e+00,1.998817920684814453e+00,1.965792417526245117e+00,1.933840155601501465e+00,1.902910113334655762e+00,1.872953772544860840e+00,1.843926072120666504e+00
5.000000000000000000e+00,5.000000000000000000e+00,5.000000000000000000e+00,5.000000000000000000e+00,5.000000000000000000e+00,5.000000000000000000e+00,5.000000000000000000e+00,5.000000000000000000e+00,5.000000000000000000e+00,5.000000000000000000e+00,5.000000000000000000e+00,5.000000000000000000e+00,5.000000000000000000e+00,5.000000000000000000e+00,5.000000000000000000e+00,5.000000000000000000e+00,5.000000000000000000e+00,5.000000000000000000e+00,5.000000000000000000e+00,5.000000000000000000e+00,5.000000000000000000e+00,5.000000000000000000e+00,5.000000000000000000e+00,5.000000000000000000e+00,5.000000000000000000e+00,5.000000000000000000e+00,5.000000000000000000e+00,2.029844045639038086e+00,2.002534627914428711e+00,2.020514011383056641e+00,2.117058277130126953e+00,2.040021896362304688e+00,2.019553422927856445e+00,2.015295505523681641e+00,2.010018825531005859e+00,2.021666526794433594e+00,2.030738592147827148e+00,2.061791658401489258e+00,2.109853029251098633e+00,2.192004919052124023e+00,2.197578191757202148e+00,4.485869407653808594e+00,4.322878837585449219e+00,4.171318054199218750e+00,4.030024051666259766e+00,3.897989034652709961e+00,3.774330854415893555e+00,3.658277750015258789e+00,3.549147844314575195e+00,3.446340322494506836e+00,3.349321603775024414e+00,3.257615327835083008e+00,3.170797109603881836e+00,3.088486671447753906e+00,3.010341405868530273e+00,2.936053037643432617e+00,2.865342617034912109e+00,2.797958135604858398e+00,2.733670473098754883e+00,2.672270298004150391e+00,2.613567829132080078e+00,2.557389259338378906e+00,2.503574609756469727e+00,2.451978445053100586e+00,2.402465820312500000e+00,2.354913234710693359e+00,2.309206485748291016e+00,2.265240430831909180e+00,2.222917079925537109e+00,2.182146310806274414e+00,2.142844200134277344e+00,2.104932785034179688e+00,2.068339347839355469e+00,2.032996654510498047e+00,1.998841404914855957e+00,1.965814948081970215e+00,1.933861970901489258e+00,1.902931451797485352e+00,1.872974514961242676e+00,1.843946099281311035e+00
5.000000000000000000e+00,5.000000000000000000e+00,5.000000000000000000e+00,5.000000000000000000e+00,5.000000000000000000e+00,5.000000000000000000e+00,5.000000000000000000e+00,5.000000000000000000e+00,5.000000000000000000e+00,5.000000000000000000e+00,5.000000000000000000e+00,5.000000000000000000e+00,5.000000000000000000e+00,5.000000000000000000e+00,5.000000000000000000e+00,5.000000000000000000e+00,5.000000000000000000e+00,5.000000000000000000e+00,5.000000000000000000e+00,5.000000000000000000e+00,5.000000000000000000e+00,5.000000000000000000e+00,5.000000000000000000e+00,5.000000000000000000e+00,5.000000000000000000e+00,5.000000000000000000e+00,5.000000000000000000e+00,1.998802781105041504e+00,1.976295590400695801e+00,2.001614093780517578e+00,2.077024459838867188e+00,2.039247035980224609e+00,2.024874925613403320e+00,2.018344879150390625e+00,2.019436597824096680e+00,2.031261920928955078e+00,2.044972181320190430e+00,2.072958707809448242e+00,2.135789394378662109e+00,2.184532642364501953e+00,2.189751863479614258e+00,4.485987663269042969e+00,4.322988986968994141e+00,4.171420097351074219e+00,4.030119419097900391e+00,3.898078441619873047e+00,3.774415016174316406e+00,3.658356189727783203e+00,3.549221992492675781e+00,3.446410417556762695e+00,3.349387407302856445e+00,3.257677793502807617e+00,3.170856475830078125e+00,3.088542699813842773e+00,3.010394811630249023e+00,2.936103582382202148e+00,2.865390777587890625e+00,2.798004388809204102e+00,2.733714342117309570e+00,2.672312259674072266e+00,2.613608121871948242e+00,2.557427644729614258e+00,2.503611564636230469e+00,2.452013731002807617e+00,2.402499675750732422e+00,2.354945898056030273e+00,2.309237957000732422e+00,2.265270471572875977e+00,2.222946166992187500e+00,2.182174444198608398e+00,2.142871379852294922e+00,2.104958772659301758e+00,2.068364381790161133e+00,2.033020973205566406e+00,1.998865008354187012e+00,1.965837836265563965e+00,1.933884143829345703e+00,1.902952551841735840e+00,1.872995138168334961e+00,1.843966245651245117e+00
5.000000000000000000e+00,5.000000000000000000e+00,5.000000000000000000e+00,5.000000000000000000e+00,5.000000000000000000e+00,5.000000000000000000e+00,5.000000000000000000e+00,5.000000000000000000e+00,5.000000000000000000e+00,5.000000000000000000e+00,5.000000000000000000e+00,5.000000000000000000e+00,5.000000000000000000e+00,5.000000000000000000e+00,5.000000000000000000e+00,5.000000000000000000e+00,5.000000000000000000e+00,5.000000000000000000e+00,5.000000000000000000e+00,5.000000000000000000e+00,5.000000000000000000e+00,5.000000000000000000e+00,5.000000000000000000e+00,5.000000000000000000e+00,5.000000000000000000e+00,5.000000000000000000e+00,5.000000000000000000e+00,1.961875438690185547e+00,1.942015767097473145e+00,1.984054446220397949e+00,2.070253133773803711e+00,2.041581869125366211e+00,2.035778999328613281e+00,2.039558172225952148e+00,2.028993129730224609e+00,2.051986217498779297e+00,2.031778573989868164e+00,2.042765140533447266e+00,2.123919725418090820e+00,2.182635307312011719e+00,2.184999227523803711e+00,4.486105918884277344e+00,4.323098659515380859e+00,4.171522617340087891e+00,4.030215263366699219e+00,3.898167610168457031e+00,3.774498462677001953e+00,3.658434867858886719e+00,3.549296140670776367e+00,3.446480274200439453e+00,3.349453210830688477e+00,3.257740259170532227e+00,3.170915603637695312e+00,3.088598728179931641e+00,3.010447978973388672e+00,2.936154365539550781e+00,2.865439414978027344e+00,2.798050403594970703e+00,2.733758211135864258e+00,2.672354459762573242e+00,2.613648414611816406e+00,2.557466030120849609e+00,2.503648519515991211e+00,2.452049016952514648e+00,2.402533769607543945e+00,2.354978561401367188e+00,2.309269189834594727e+00,2.265300750732421875e+00,2.222975254058837891e+00,2.182202339172363281e+00,2.142898321151733398e+00,2.104984760284423828e+00,2.068389654159545898e+00,2.033045291900634766e+00,1.998888373374938965e+00,1.965860605239868164e+00,1.933906197547912598e+00,1.902974009513854980e+00,1.873015642166137695e+00,1.843986034393310547e+00
5.000000000000000000e+00,5.000000000000000000e+00,5.000000000000000000e+00,5.000000000000000000e+00,5.000000000000000000e+00,5.000000000000000000e+00,5.000000000000000000e+00,5.000000000000000000e+00,5.000000000000000000e+00,5.000000000000000000e+00,5.000000000000000000e+00,5.000000000000000000e+00,5.000000000000000000e+00,5.000000000000000000e+00,5.000000000000000000e+00,5.000000000000000000e+00,5.000000000000000000e+00,5.000000000000000000e+00,5.000000000000000000e+00,5.000000000000000000e+00,5.000000000000000000e+00,5.000000000000000000e+00,5.000000000000000000e+00,5.000000000000000000e+00,5.000000000000000000e+00,5.000000000000000000e+00,5.000000000000000000e+00,1.942571282386779785e+00,1.939873218536376953e+00,2.018988609313964844e+00,2.067711830139160156e+00,2.047006368637084961e+00,2.040811538696289062e+00,2.063072443008422852e+00,2.066161155700683594e+00,2.000117063522338867e+00,1.973791122436523438e+00,1.992470860481262207e+00,2.020232439041137695e+00,2.183331012725830078e+00,2.178016901016235352e+00,4.486224174499511719e+00,4.323208808898925781e+00,4.171625137329101562e+00,4.030310630798339844e+00,3.898257255554199219e+00,3.774582147598266602e+00,3.658513784408569336e+00,3.549370288848876953e+00,3.446549892425537109e+00,3.349519491195678711e+00,3.257802724838256836e+00,3.170974493026733398e+00,3.088654994964599609e+00,3.010501146316528320e+00,2.936205148696899414e+00,2.865487575531005859e+00,2.798096418380737305e+00,2.733802318572998047e+00,2.672396421432495117e+00,2.613688468933105469e+00,2.557504653930664062e+00,2.503685235977172852e+00,2.452084541320800781e+00,2.402567625045776367e+00,2.355010986328125000e+00,2.309300661087036133e+00,2.265331029891967773e+00,2.223004102706909180e+00,2.182230472564697266e+00,2.142925262451171875e+00,2.105010986328125000e+00,2.068414688110351562e+00,2.033069610595703125e+00,1.998911976814270020e+00,1.965883135795593262e+00,1.933928012847900391e+00,1.902995347976684570e+00,1.873036384582519531e+00,1.844006061553955078e+00
5.000000000000000000e+00,5.000000000000000000e+00,5.000000000000000000e+00,5.000000000000000000e+00,5.000000000000000000e+00,5.000000000000000000e+00,5.000000000000000000e+00,5.000000000000000000e+00,5.000000000000000000e+00,5.000000000000000000e+00,5.000000000000000000e+00,5.000000000000000000e+00,5.000000000000000000e+00,5.000000000000000000e+00,5.000000000000000000e+00,5.000000000000000000e+00,5.000000000000000000e+00,5.000000000000000000e+00,5.000000000000000000e+00,5.000000000000000000e+00,5.000000000000000000e+00,5.000000000000000000e+00,5.000000000000000000e+00,5.000000000000000000e+00,5.000000000000000000e+00,5.000000000000000000e+00,5.000000000000000000e+00,1.889203310012817383e+00,1.885859966278076172e+00,5.000000000000000000e+00,2.067416906356811523e+00,2.051538705825805664e+00,2.042317152023315430e+00,2.065088748931884766e+00,2.055294275283813477e+00,1.976471066474914551e+00,1.955885529518127441e+00,1.970152020454406738e+00,1.996483802795410156e+00,2.180573225021362305e+00,2.169010400772094727e+00,4.486342906951904297e+00,4.323318958282470703e+00,4.171727180480957031e+00,4.030405998229980469e+00,3.898346424102783203e+00,3.774666309356689453e+00,3.658592462539672852e+00,3.549444198608398438e+00,3.446619987487792969e+00,3.349585294723510742e+00,3.257864952087402344e+00,3.171033859252929688e+00,3.088711023330688477e+00,3.010554790496826172e+00,2.936255693435668945e+00,2.865535736083984375e+00,2.798142433166503906e+00,2.733846187591552734e+00,2.672438383102416992e+00,2.613728761672973633e+00,2.557543039321899414e+00,2.503722190856933594e+00,2.452119827270507812e+00,2.402601480484008789e+00,2.355043888092041016e+00,2.309331893920898438e+00,2.265361070632934570e+00,2.223033428192138672e+00,2.182258367538452148e+00,2.142952203750610352e+00,2.105036973953247070e+00,2.068439960479736328e+00,2.033093929290771484e+00,1.998935580253601074e+00,1.965906023979187012e+00,1.933950066566467285e+00,1.903016448020935059e+00,1.873057126998901367e+00,1.844026207923889160e+00
5.000000000000000000e+00,5.000000000000000000e+00,5.000000000000000000e+00,5.000000000000000000e+00,5.000000000000000000e+00,5.000000000000000000e+00,5.000000000000000000e+00,5.000000000000000000e+00,5.000000000000000000e+00,5.000000000000000000e+00,5.000000000000000000e+00,5.000000000000000000e+00,5.000000000000000000e+00,5.000000000000000000e+00,5.000000000000000000e+00,5.000000000000000000e+00,5.000000000000000000e+00,5.000000000000000000e+00,5.000000000000000000e+00,5.000000000000000000e+00,5.000000000000000000e+00,5.000000000000000000e+00,5.000000000000000000e+00,5.000000000000000000e+00,5.000000000000000000e+00,5.000000000000000000e+00,5.000000000000000000e+00,1.853243470191955566e+00,5.000000000000000000e+00,5.000000000000000000e+00,2.066416978836059570e+00,2.053499937057495117e+00,2.043815374374389648e+00,2.066406250000000000e+00,2.039665699005126953e+00,1.961532235145568848e+00,1.941974878311157227e+00,1.950552821159362793e+00,1.977666378021240234e+00,2.207791328430175781e+00,2.177637100219726562e+00,4.486461162567138672e+00,4.323428630828857422e+00,4.171829700469970703e+00,4.030501842498779297e+00,3.898436069488525391e+00,3.774749994277954102e+00,3.658670902252197266e+00,3.549518585205078125e+00,3.446689844131469727e+00,3.349651336669921875e+00,3.257927656173706055e+00,3.171092987060546875e+00,3.088767290115356445e+00,3.010607957839965820e+00,2.936306476593017578e+00,2.865584135055541992e+00,2.798188447952270508e+00,2.733890056610107422e+00,2.672480344772338867e+00,2.613768815994262695e+00,2.557581663131713867e+00,2.503758907318115234e+00,2.452155113220214844e+00,2.402635574340820312e+00,2.355076313018798828e+00,2.309363365173339844e+00,2.265391349792480469e+00,2.223062276840209961e+00,2.182286500930786133e+00,2.142979145050048828e+00,2.105062961578369141e+00,2.068465232849121094e+00,2.033118247985839844e+00,1.998958826065063477e+00,1.965928792953491211e+00,1.933972120285034180e+00,1.903037905693054199e+00,1.873077630996704102e+00,1.844045996665954590e+00
5.000000000000000000e+00,5.000000000000000000e+00,5.000000000000000000e+00,5.000000000000000000e+00,5.000000000000000000e+00,5.000000000000000000e+00,5.000000000000000000e+00,5.000000000000000000e+00,5.000000000000000000e+00,5.000000000000000000e+00,5.000000000000000000e+00,5.000000000000000000e+00,5.000000000000000000e+00,5.000000000000000000e+00,5.000000000000000000e+00,5.000000000000000000e+00,5.000000000000000000e+00,5.000000000000000000e+00,5.000000000000000000e+00,5.000000000000000000e+00,5.000000000000000000e+00,5.000000000000000000e+00,5.000000000000000000e+00,5.000000000000000000e+00,5.000000000000000000e+00,5.000000000000000000e+00,5.000000000000000000e+00,1.816878199577331543e+00,5.000000000000000000e+00,5.000000000000000000e+00,2.076063394546508789e+00,2.063724040985107422e+00,2.051852941513061523e+00,2.071425914764404297e+00,2.120655536651611328e+00,1.943989992141723633e+00,1.927754044532775879e+00,1.931935548782348633e+00,1.960325241088867188e+00,2.157677650451660156e+00,2.163418054580688477e+00,4.486579418182373047e+00,4.323538303375244141e+00,4.171932220458984375e+00,4.030597209930419922e+00,3.898525238037109375e+00,3.774833679199218750e+00,3.658750057220458984e+00,3.549592494964599609e+00,3.446759462356567383e+00,3.349717378616333008e+00,3.257989883422851562e+00,3.171152353286743164e+00,3.088823318481445312e+00,3.010661125183105469e+00,2.936357259750366211e+00,2.865632534027099609e+00,2.798234462738037109e+00,2.733934164047241211e+00,2.672522306442260742e+00,2.613809108734130859e+00,2.557620048522949219e+00,2.503795862197875977e+00,2.452190637588500977e+00,2.402669429779052734e+00,2.355108976364135742e+00,2.309394836425781250e+00,2.265421390533447266e+00,2.223091602325439453e+00,2.182314395904541016e+00,2.143006324768066406e+00,2.105089187622070312e+00,2.068490266799926758e+00,2.033142566680908203e+00,1.998982429504394531e+00,1.965951323509216309e+00,1.933994174003601074e+00,1.903059244155883789e+00,1.873098254203796387e+00,1.844066143035888672e+00
5.000000000000000000e+00,5.000000000000000000e+00,5.000000000000000000e+00,5.000000000000000000e+00,5.000000000000000000e+00,5.000000000000000000e+00,5.000000000000000000e+00,5.000000000000000000e+00,5.000000000000000000e+00,5.000000000000000000e+00,5.000000000000000000e+00,5.000000000000000000e+00,5.000000000000000000e+00,5.000000000000000000e+00,5.000000000000000000e+00,5.000000000000000000e+00,5.000000000000000000e+00,5.000000000000000000e+00,5.000000000000000000e+00,5.000000000000000000e+00,5.000000000000000000e+00,5.000000000000000000e+00,5.000000000000000000e+00,5.000000000000000000e+00,5.000000000000000000e+00,5.000000000000000000e+00,5.000000000000000000e+00,5.000000000000000000e+00,5.000000000000000000e+00,5.000000000000000000e+00,2.089739322662353516e+00,2.075804710388183594e+00,2.062821388244628906e+00,2.081252574920654297e+00,2.138651847839355469e+00,1.926825404167175293e+00,1.911575794219970703e+00,1.911479473114013672e+00,1.941147089004516602e+00,2.139619350433349609e+00,2.145828247070312500e+00,4.486698150634765625e+00,4.323648452758789062e+00,4.172034263610839844e+00,4.030692577362060547e+00,3.898614645004272461e+00,3.774917602539062500e+00,3.658828496932983398e+00,3.549666404724121094e+00,3.446829557418823242e+00,3.349783420562744141e+00,3.258052587509155273e+00,3.171211242675781250e+00,3.088879346847534180e+00,3.010714530944824219e+00,2.936407804489135742e+00,2.865680694580078125e+00,2.798280715942382812e+00,2.733978033065795898e+00,2.672564506530761719e+00,2.613849163055419922e+00,2.557658433914184570e+00,2.503832817077636719e+00,2.452225923538208008e+00,2.402703285217285156e+00,2.355141639709472656e+00,2.309426069259643555e+00,2.265451669692993164e+00,2.223120450973510742e+00,2.182342290878295898e+00,2.143033266067504883e+00,2.105115175247192383e+00,2.068515300750732422e+00,2.033166885375976562e+00,1.999006032943725586e+00,1.965974092483520508e+00,1.934016108512878418e+00,1.903080344200134277e+00,1.873118996620178223e+00,1.844086170196533203e+00
5.000000000000000000e+00,5.000000000000000000e+00,5.000000000000000000e+00,5.000000000000000000e+00,5.000000000000000000e+00,5.000000000000000000e+00,5.000000000000000000e+00,5.000000000000000000e+00,5.000000000000000000e+00,5.000000000000000000e+00,5.000000000000000000e+00,5.000000000000000000e+00,5.000000000000000000e+00,5.000000000000000000e+00,5.000000000000000000e+00,5.000000000000000000e+00,5.000000000000000000e+00,5.000000000000000000e+00,5.000000000000000000e+00,5.000000000000000000e+00,5.000000000000000000e+00,5.000000000000000000e+00,5.000000000000000000e+00,5.000000000000000000e+00,5.000000000000000000e+00,5.000000000000000000e+00,5.000000000000000000e+00,5.000000000000000000e+00,5.000000000000000000e+00,5.000000000000000000e+00,5.000000000000000000e+00,2.089410781860351562e+00,2.076256990432739258e+00,2.094517469406127930e+00,2.152209997177124023e+00,1.908118486404418945e+00,1.896615743637084961e+00,1.888235092163085938e+00,1.921842694282531738e+00,2.134693384170532227e+00,2.136658668518066406e+00,4.486816406250000000e+00,4.323758602142333984e+00,4.172136783599853516e+00,4.030788421630859375e+00,3.898704290390014648e+00,3.775001287460327148e+00,3.658907175064086914e+00,3.549740791320800781e+00,3.446899414062500000e+00,3.349849462509155273e+00,3.258114814758300781e+00,3.171270370483398438e+00,3.088935613632202148e+00,3.010767698287963867e+00,2.936458587646484375e+00,2.865729093551635742e+00,2.798326730728149414e+00,2.734022140502929688e+00,2.672606468200683594e+00,2.613889455795288086e+00,2.557697057723999023e+00,2.503869533538818359e+00,2.452261209487915039e+00,2.402737379074096680e+00,2.355174303054809570e+00,2.309457540512084961e+00,2.265481948852539062e+00,2.223149538040161133e+00,2.182370424270629883e+00,2.143060207366943359e+00,2.105141162872314453e+00,2.068540573120117188e+00,2.033191204071044922e+00,1.999029636383056641e+00,1.965996980667114258e+00,1.934038162231445312e+00,1.903101801872253418e+00,1.873139500617980957e+00,1.844106078147888184e+00
5.000000000000000000e+00,5.000000000000000000e+00,5.000000000000000000e+00,5.000000000000000000e+00,5.000000000000000000e+00,5.000000000000000000e+00,5.000000000000000000e+00,5.000000000000000000e+00,5.000000000000000000e+00,5.000000000000000000e+00,5.000000000000000000e+00,5.000000000000000000e+00,5.000000000000000000e+00,5.000000000000000000e+00,5.000000000000000000e+00,5.000000000000000000e+00,5.000000000000000000e+00,5.000000000000000000e+00,5.000000000000000000e+00,5.000000000000000000e+00,5.000000000000000000e+00,5.000000000000000000e+00,5.000000000000000000e+00,5.000000000000000000e+00,5.000000000000000000e+00,5.000000000000000000e+00,5.000000000000000000e+00,5.000000000000000000e+00,5.000000000000000000e+00,5.000000000000000000e+00,5.000000000000000000e+00,2.104557514190673828e+00,2.089869022369384766e+00,2.107217073440551758e+00,2.165002346038818359e+00,1.896688461303710938e+00,1.878511905670166016e+00,1.867338895797729492e+00,1.906567811965942383e+00,4.852975845336914062e+00,2.125361204147338867e+00,4.486935138702392578e+00,4.323868274688720703e+00,4.172239303588867188e+00,4.030884265899658203e+00,3.898793458938598633e+00,3.775084972381591797e+00,3.658986091613769531e+00,3.549814701080322266e+00,3.446969509124755859e+00,3.349915504455566406e+00,3.258177280426025391e+00,3.171329736709594727e+00,3.088991641998291016e+00,3.010821104049682617e+00,2.936509370803833008e+00,2.865777254104614258e+00,2.798372745513916016e+00,2.734066009521484375e+00,2.672648429870605469e+00,2.613929748535156250e+00,2.557735443115234375e+00,2.503906488418579102e+00,2.452296733856201172e+00,2.402771234512329102e+00,2.355206966400146484e+00,2.309488773345947266e+00,2.265511989593505859e+00,2.223178863525390625e+00,2.182398557662963867e+00,2.143087148666381836e+00,2.105167388916015625e+00,2.068565845489501953e+00,2.033215522766113281e+00,1.999052882194519043e+00,1.966019511222839355e+00,1.934060215950012207e+00,1.903123140335083008e+00,1.873160123825073242e+00,1.844126105308532715e+00
5.000000000000000000e+00,5.000000000000000000e+00,5.000000000000000000e+00,5.000000000000000000e+00,5.000000000000000000e+00,5.000000000000000000e+00,5.000000000000000000e+00,5.000000000000000000e+00,5.000000000000000000e+00,5.000000000000000000e+00,5.000000000000000000e+00,5.000000000000000000e+00,5.000000000000000000e+00,5.000000000000000000e+00,5.000000000000000000e+00,5.000000000000000000e+00,5.000000000000000000e+00,5.000000000000000000e+00,5.000000000000000000e+00,5.000000000000000000e+00,5.000000000000000000e+00,5.000000000000000000e+00,5.000000000000000000e+00,5.000000000000000000e+00,5.000000000000000000e+00,5.000000000000000000e+00,5.000000000000000000e+00,5.000000000000000000e+00,5.000000000000000000e+00,5.000000000000000000e+00,5.000000000000000000e+00,2.119553804397583008e+00,2.104020595550537109e+00,2.118845224380493164e+00,2.175761699676513672e+00,1.889542698860168457e+00,1.861698389053344727e+00,1.853778719902038574e+00,1.892628431320190430e+00,4.853114128112792969e+00,4.662910461425781250e+00,4.487053394317626953e+00,4.323978424072265625e+00,4.172341346740722656e+00,4.030979633331298828e+00,3.898882865905761719e+00,3.775169134140014648e+00,3.659064769744873047e+00,3.549889087677001953e+00,3.447039365768432617e+00,3.349981307983398438e+00,3.258239746093750000e+00,3.171388864517211914e+00,3.089047670364379883e+00,3.010874509811401367e+00,2.936559915542602539e+00,2.865825653076171875e+00,2.798418760299682617e+00,2.734109878540039062e+00,2.672690629959106445e+00,2.613969802856445312e+00,2.557773828506469727e+00,2.503943443298339844e+00,2.452332019805908203e+00,2.402805328369140625e+00,2.355239391326904297e+00,2.309520244598388672e+00,2.265542268753051758e+00,2.223207712173461914e+00,2.182426452636718750e+00,2.143114328384399414e+00,2.105193376541137695e+00,2.068591117858886719e+00,2.033239841461181641e+00,1.999076485633850098e+00,1.966042280197143555e+00,1.934082031250000000e+00,1.903144240379333496e+00,1.873180866241455078e+00,1.844146132469177246e+00
5.000000000000000000e+00,5.000000000000000000e+00,5.000000000000000000e+00,5.000000000000000000e+00,5.000000000000000000e+00,5.000000000000000000e+00,5.000000000000000000e+00,5.000000000000000000e+00,5.000000000000000000e+00,5.000000000000000000e+00,5.000000000000000000e+00,5.000000000000000000e+00,5.000000000000000000e+00,5.000000000000000000e+00,5.000000000000000000e+00,5.000000000000000000e+00,5.000000000000000000e+00,5.000000000000000000e+00,5.000000000000000000e+00,5.000000000000000000e+00,5.000000000000000000e+00,5.000000000000000000e+00,5.000000000000000000e+00,5.000000000000000000e+00,5.000000000000000000e+00,5.000000000000000000e+00,5.000000000000000000e+00,5.000000000000000000e+00,5.000000000000000000e+00,5.000000000000000000e+00,5.000000000000000000e+00,2.131665468215942383e+00,2.115258216857910156e+00,2.131017923355102539e+00,2.176936388015747070e+00,1.882265329360961914e+00,1.852933526039123535e+00,1.847938179969787598e+00,1.932548642158508301e+00,4.853252887725830078e+00,4.663038253784179688e+00,4.487171649932861328e+00,4.324088573455810547e+00,4.172443866729736328e+00,4.031075000762939453e+00,3.898972511291503906e+00,3.775252819061279297e+00,3.659143686294555664e+00,3.549963235855102539e+00,3.447108983993530273e+00,3.350047588348388672e+00,3.258302211761474609e+00,3.171447753906250000e+00,3.089103937149047852e+00,3.010927677154541016e+00,2.936610937118530273e+00,2.865874052047729492e+00,2.798464775085449219e+00,2.734153985977172852e+00,2.672732591629028320e+00,2.614009857177734375e+00,2.557812452316284180e+00,2.503980159759521484e+00,2.452367544174194336e+00,2.402839183807373047e+00,2.355272054672241211e+00,2.309551715850830078e+00,2.265572309494018555e+00,2.223236799240112305e+00,2.182454586029052734e+00,2.143141269683837891e+00,2.105219602584838867e+00,2.068616151809692383e+00,2.033264160156250000e+00,1.999100089073181152e+00,1.966065168380737305e+00,1.934104084968566895e+00,1.903165698051452637e+00,1.873201370239257812e+00,1.844166278839111328e+00
4.959440708160400391e+00,5.000000000000000000e+00,5.000000000000000000e+00,5.000000000000000000e+00,5.000000000000000000e+00,5.000000000000000000e+00,5.000000000000000000e+00,5.000000000000000000e+00,5.000000000000000000e+00,5.000000000000000000e+00,5.000000000000000000e+00,5.000000000000000000e+00,5.000000000000000000e+00,5.000000000000000000e+00,5.000000000000000000e+00,5.000000000000000000e+00,5.000000000000000000e+00,5.000000000000000000e+00,5.000000000000000000e+00,5.000000000000000000e+00,5.000000000000000000e+00,5.000000000000000000e+00,5.000000000000000000e+00,5.000000000000000000e+00,5.000000000000000000e+00,5.000000000000000000e+00,5.000000000000000000e+00,5.000000000000000000e+00,5.000000000000000000e+00,5.000000000000000000e+00,5.000000000000000000e+00,2.151029825210571289e+00,2.126217365264892578e+00,2.142513275146484375e+00,2.189573764801025391e+00,1.889433860778808594e+00,1.856954216957092285e+00,1.851175904273986816e+00,1.903671622276306152e+00,4.853391170501708984e+00,4.663166046142578125e+00,4.487290382385253906e+00,4.324198722839355469e+00,4.172546386718750000e+00,4.031170845031738281e+00,3.899061679840087891e+00,3.775336980819702148e+00,3.659222364425659180e+00,3.550037145614624023e+00,3.447179079055786133e+00,3.350113391876220703e+00,3.258364439010620117e+00,3.171507120132446289e+00,3.089159965515136719e+00,3.010981321334838867e+00,2.936661481857299805e+00,2.865922212600708008e+00,2.798511028289794922e+00,2.734197854995727539e+00,2.672774553298950195e+00,2.614050149917602539e+00,2.557850837707519531e+00,2.504017353057861328e+00,2.452402830123901367e+00,2.402873039245605469e+00,2.355304718017578125e+00,2.309582948684692383e+00,2.265602350234985352e+00,2.223265886306762695e+00,2.182482481002807617e+00,2.143168449401855469e+00,2.105245590209960938e+00,2.068641185760498047e+00,2.033288478851318359e+00,1.999123454093933105e+00,1.966087698936462402e+00,1.934126257896423340e+00,1.903187036514282227e+00,1.873222112655639648e+00,1.844186067581176758e+00
4.905639648437500000e+00,5.000000000000000000e+00,5.000000000000000000e+00,5.000000000000000000e+00,5.000000000000000000e+00,5.000000000000000000e+00,5.000000000000000000e+00,5.000000000000000000e+00,5.000000000000000000e+00,5.000000000000000000e+00,5.000000000000000000e+00,5.000000000000000000e+00,5.000000000000000000e+00,5.000000000000000000e+00,5.000000000000000000e+00,5.000000000000000000e+00,5.000000000000000000e+00,5.000000000000000000e+00,5.000000000000000000e+00,5.000000000000000000e+00,5.000000000000000000e+00,5.000000000000000000e+00,5.000000000000000000e+00,5.000000000000000000e+00,5.000000000000000000e+00,5.000000000000000000e+00,5.000000000000000000e+00,5.000000000000000000e+00,5.000000000000000000e+00,5.000000000000000000e+00,5.000000000000000000e+00,5.000000000000000000e+00,2.137290477752685547e+00,2.152059555053710938e+00,2.204582691192626953e+00,1.904871821403503418e+00,1.863541841506958008e+00,1.856864809989929199e+00,1.892273664474487305e+00,4.853529930114746094e+00,4.663294315338134766e+00,4.487408638000488281e+00,4.324308395385742188e+00,4.172648906707763672e+00,4.031266212463378906e+00,3.899151325225830078e+00,3.775420665740966797e+00,3.659301042556762695e+00,3.550111532211303711e+00,3.447248935699462891e+00,3.350179433822631836e+00,3.258427143096923828e+00,3.171566247940063477e+00,3.089216470718383789e+00,3.011034488677978516e+00,2.936712265014648438e+00,2.865970611572265625e+00,2.798557043075561523e+00,2.734241724014282227e+00,2.672816514968872070e+00,2.614090442657470703e+00,2.557889461517333984e+00,2.504054069519042969e+00,2.452438116073608398e+00,2.402907133102416992e+00,2.355337381362915039e+00,2.309614181518554688e+00,2.265632867813110352e+00,2.223294973373413086e+00,2.182510614395141602e+00,2.143195390701293945e+00,2.105271577835083008e+00,2.068666458129882812e+00,2.033312797546386719e+00,1.999147057533264160e+00,1.966110587120056152e+00,1.934148073196411133e+00,1.903208374977111816e+00,1.873242735862731934e+00,1.844206213951110840e+00
4.853740692138671875e+00,5.000000000000000000e+00,5.000000000000000000e+00,5.000000000000000000e+00,5.000000000000000000e+00,5.000000000000000000e+00,5.000000000000000000e+00,5.000000000000000000e+00,5.000000000000000000e+00,5.000000000000000000e+00,5.000000000000000000e+00,5.000000000000000000e+00,5.000000000000000000e+00,5.000000000000000000e+00,5.000000000000000000e+00,5.000000000000000000e+00,5.000000000000000000e+00,5.000000000000000000e+00,5.000000000000000000e+00,5.000000000000000000e+00,5.000000000000000000e+00,5.000000000000000000e+00,5.000000000000000000e+00,5.000000000000000000e+00,5.000000000000000000e+00,5.000000000000000000e+00,5.000000000000000000e+00,5.000000000000000000e+00,5.000000000000000000e+00,5.000000000000000000e+00,5.000000000000000000e+00,5.000000000000000000e+00,2.152477979660034180e+00,2.164649724960327148e+00,2.227494955062866211e+00,1.920564174652099609e+00,1.874912261962890625e+00,1.862589001655578613e+00,1.891891956329345703e+00,4.853668689727783203e+00,4.663421630859375000e+00,4.487526893615722656e+00,4.324418544769287109e+00,4.172751426696777344e+00,4.031361579895019531e+00,3.899240732192993164e+00,3.775504350662231445e+00,3.659379959106445312e+00,3.550185441970825195e+00,3.447318792343139648e+00,3.350245475769042969e+00,3.258489608764648438e+00,3.171625375747680664e+00,3.089272499084472656e+00,3.011087656021118164e+00,2.936763048171997070e+00,2.866019010543823242e+00,2.798603057861328125e+00,2.734285831451416016e+00,2.672858476638793945e+00,2.614130496978759766e+00,2.557927846908569336e+00,2.504090785980224609e+00,2.452473640441894531e+00,2.402941226959228516e+00,2.355370044708251953e+00,2.309645652770996094e+00,2.265662908554077148e+00,2.223324060440063477e+00,2.182538509368896484e+00,2.143222332000732422e+00,2.105297803878784180e+00,2.068691730499267578e+00,2.033337116241455078e+00,1.999170660972595215e+00,1.966133356094360352e+00,1.934170126914978027e+00,1.903229594230651855e+00,1.873263239860534668e+00,1.844226241111755371e+00
5.000000000000000000e+00,5.000000000000000000e+00,5.000000000000000000e+00,5.000000000000000000e+00,4.993267536163330078e+00,5.000000000000000000e+00,5.000000000000000000e+00,5.000000000000000000e+00,5.000000000000000000e+00,5.000000000000000000e+00,5.000000000000000000e+00,5.000000000000000000e+00,5.000000000000000000e+00,5.000000000000000000e+00,5.000000000000000000e+00,5.000000000000000000e+00,5.000000000000000000e+00,5.000000000000000000e+00,5.000000000000000000e+00,5.000000000000000000e+00,5.000000000000000000e+00,5.000000000000000000e+00,5.000000000000000000e+00,5.000000000000000000e+00,5.000000000000000000e+00,5.000000000000000000e+00,5.000000000000000000e+00,5.000000000000000000e+00,5.000000000000000000e+00,5.000000000000000000e+00,5.000000000000000000e+00,5.000000000000000000e+00,2.188337087631225586e+00,2.198375463485717773e+00,2.289553642272949219e+00,1.936517238616943359e+00,1.885598897933959961e+00,1.869092822074890137e+00,1.894728899002075195e+00,4.853806972503662109e+00,4.663549900054931641e+00,4.487645626068115234e+00,4.324528694152832031e+00,4.172853469848632812e+00,4.031457424163818359e+00,3.899329900741577148e+00,3.775588274002075195e+00,3.659458637237548828e+00,3.550259351730346680e+00,3.447388887405395508e+00,3.350311517715454102e+00,3.258551836013793945e+00,3.171684741973876953e+00,3.089328527450561523e+00,3.011141300201416016e+00,2.936813592910766602e+00,2.866067171096801758e+00,2.798649311065673828e+00,2.734329700469970703e+00,2.672900438308715820e+00,2.614170789718627930e+00,2.557966232299804688e+00,2.504127979278564453e+00,2.452508926391601562e+00,2.402975082397460938e+00,2.355402708053588867e+00,2.309677124023437500e+00,2.265692949295043945e+00,2.223353147506713867e+00,2.182566642761230469e+00,2.143249511718750000e+00,2.105323791503906250e+00,2.068716764450073242e+00,2.033361434936523438e+00,1.999193906784057617e+00,1.966155886650085449e+00,1.934192180633544922e+00,1.903250932693481445e+00,1.873283982276916504e+00,1.844246149063110352e+00
5.000000000000000000e+00,5.000000000000000000e+00,5.000000000000000000e+00,5.000000000000000000e+00,4.976729869842529297e+00,5.000000000000000000e+00,5.000000000000000000e+00,5.000000000000000000e+00,5.000000000000000000e+00,5.000000000000000000e+00,5.000000000000000000e+00,5.000000000000000000e+00,5.000000000000000000e+00,5.000000000000000000e+00,5.000000000000000000e+00,5.000000000000000000e+00,5.000000000000000000e+00,5.000000000000000000e+00,5.000000000000000000e+00,5.000000000000000000e+00,5.000000000000000000e+00,5.000000000000000000e+00,5.000000000000000000e+00,5.000000000000000000e+00,5.000000000000000000e+00,5.000000000000000000e+00,5.000000000000000000e+00,5.000000000000000000e+00,5.000000000000000000e+00,5.000000000000000000e+00,5.000000000000000000e+00,2.311582326889038086e+00,2.242462396621704102e+00,2.240455865859985352e+00,2.342554569244384766e+00,5.000000000000000000e+00,1.881178617477416992e+00,1.862840056419372559e+00,1.890127778053283691e+00,4.853944301605224609e+00,4.663677692413330078e+00,4.487763881683349609e+00,4.324638366699218750e+00,4.172955989837646484e+00,4.031553268432617188e+00,3.899419784545898438e+00,3.775671958923339844e+00,3.659537315368652344e+00,3.550333738327026367e+00,3.447458505630493164e+00,3.350377321243286133e+00,3.258614540100097656e+00,3.171743631362915039e+00,3.089384794235229492e+00,3.011194467544555664e+00,2.936864376068115234e+00,2.866115570068359375e+00,2.798695087432861328e+00,2.734373569488525391e+00,2.672942638397216797e+00,2.614210844039916992e+00,2.558004856109619141e+00,2.504164695739746094e+00,2.452544212341308594e+00,2.403009176254272461e+00,2.355435371398925781e+00,2.309708356857299805e+00,2.265723228454589844e+00,2.223382234573364258e+00,2.182594537734985352e+00,2.143276453018188477e+00,2.105349779129028320e+00,2.068742036819458008e+00,2.033385753631591797e+00,1.999217510223388672e+00,1.966178774833679199e+00,1.934213995933532715e+00,1.903272271156311035e+00,1.873304724693298340e+00,1.844266176223754883e+00
5.000000000000000000e+00,5.000000000000000000e+00,5.000000000000000000e+00,5.000000000000000000e+00,5.000000000000000000e+00,5.000000000000000000e+00,5.000000000000000000e+00,5.000000000000000000e+00,5.000000000000000000e+00,5.000000000000000000e+00,5.000000000000000000e+00,5.000000000000000000e+00,5.000000000000000000e+00,5.000000000000000000e+00,5.000000000000000000e+00,5.000000000000000000e+00,5.000000000000000000e+00,5.000000000000000000e+00,5.000000000000000000e+00,5.000000000000000000e+00,5.000000000000000000e+00,5.000000000000000000e+00,5.000000000000000000e+00,5.000000000000000000e+00,5.000000000000000000e+00,5.000000000000000000e+00,5.000000000000000000e+00,5.000000000000000000e+00,5.000000000000000000e+00,5.000000000000000000e+00,5.000000000000000000e+00,5.000000000000000000e+00,2.276018381118774414e+00,2.279902219772338867e+00,2.349640130996704102e+00,5.000000000000000000e+00,1.875958561897277832e+00,1.858525633811950684e+00,1.888181686401367188e+00,4.854082107543945312e+00,4.663805961608886719e+00,4.487882137298583984e+00,4.324748516082763672e+00,4.173058509826660156e+00,4.031648635864257812e+00,3.899508953094482422e+00,3.775755882263183594e+00,3.659616231918334961e+00,3.550407886505126953e+00,3.447528362274169922e+00,3.350443601608276367e+00,3.258676767349243164e+00,3.171802997589111328e+00,3.089440822601318359e+00,3.011247634887695312e+00,2.936915159225463867e+00,2.866163730621337891e+00,2.798741102218627930e+00,2.734417676925659180e+00,2.672984600067138672e+00,2.614251375198364258e+00,2.558043241500854492e+00,2.504201412200927734e+00,2.452579736709594727e+00,2.403043031692504883e+00,2.355467796325683594e+00,2.309739828109741211e+00,2.265753507614135742e+00,2.223411321640014648e+00,2.182622671127319336e+00,2.143303394317626953e+00,2.105376005172729492e+00,2.068767070770263672e+00,2.033410072326660156e+00,1.999241113662719727e+00,1.966201543807983398e+00,1.934236168861389160e+00,1.903293490409851074e+00,1.873325228691101074e+00,1.844286203384399414e+00
5.000000000000000000e+00,5.000000000000000000e+00,5.000000000000000000e+00,5.000000000000000000e+00,4.998123645782470703e+00,5.000000000000000000e+00,5.000000000000000000e+00,5.000000000000000000e+00,5.000000000000000000e+00,5.000000000000000000e+00,5.000000000000000000e+00,5.000000000000000000e+00,5.000000000000000000e+00,5.000000000000000000e+00,5.000000000000000000e+00,5.000000000000000000e+00,5.000000000000000000e+00,5.000000000000000000e+00,5.000000000000000000e+00,5.000000000000000000e+00,5.000000000000000000e+00,5.000000000000000000e+00,5.000000000000000000e+00,5.000000000000000000e+00,5.000000000000000000e+00,5.000000000000000000e+00,5.000000000000000000e+00,5.000000000000000000e+00,5.000000000000000000e+00,5.000000000000000000e+00,5.000000000000000000e+00,5.000000000000000000e+00,2.299474477767944336e+00,2.299538135528564453e+00,2.358131408691406250e+00,5.000000000000000000e+00,1.870430588722229004e+00,1.854231119155883789e+00,1.886334896087646484e+00,4.854219913482666016e+00,4.663931846618652344e+00,4.488000869750976562e+00,4.324858665466308594e+00,4.173161029815673828e+00,4.031744003295898438e+00,3.899598121643066406e+00,3.775839805603027344e+00,3.659694910049438477e+00,3.550481796264648438e+00,3.447598457336425781e+00,3.350509643554687500e+00,3.258739471435546875e+00,3.171862125396728516e+00,3.089496850967407227e+00,3.011301279067993164e+00,2.936965942382812500e+00,2.866212129592895508e+00,2.798787355422973633e+00,2.734461784362792969e+00,2.673026800155639648e+00,2.614291429519653320e+00,2.558081865310668945e+00,2.504238605499267578e+00,2.452615022659301758e+00,2.403076887130737305e+00,2.355500459671020508e+00,2.309771299362182617e+00,2.265783786773681641e+00,2.223440408706665039e+00,2.182650566101074219e+00,2.143330574035644531e+00,2.105401992797851562e+00,2.068792343139648438e+00,2.033434391021728516e+00,1.999264478683471680e+00,1.966224312782287598e+00,1.934258222579956055e+00,1.903314828872680664e+00,1.873345851898193359e+00,1.844306111335754395e+00
5.000000000000000000e+00,5.000000000000000000e+00,5.000000000000000000e+00,5.000000000000000000e+00,5.000000000000000000e+00,5.000000000000000000e+00,5.000000000000000000e+00,5.000000000000000000e+00,5.000000000000000000e+00,5.000000000000000000e+00,5.000000000000000000e+00,5.000000000000000000e+00,5.000000000000000000e+00,5.000000000000000000e+00,5.000000000000000000e+00,5.000000000000000000e+00,5.000000000000000000e+00,5.000000000000000000e+00,5.000000000000000000e+00,5.000000000000000000e+00,5.000000000000000000e+00,5.000000000000000000e+00,5.000000000000000000e+00,5.000000000000000000e+00,5.000000000000000000e+00,5.000000000000000000e+00,5.000000000000000000e+00,5.000000000000000000e+00,5.000000000000000000e+00,5.000000000000000000e+00,5.000000000000000000e+00,5.000000000000000000e+00,2.329194784164428711e+00,2.319141387939453125e+00,2.375737428665161133e+00,5.000000000000000000e+00,1.865039467811584473e+00,1.849419355392456055e+00,1.884491920471191406e+00,4.854357719421386719e+00,4.664059162139892578e+00,4.488118171691894531e+00,4.324968338012695312e+00,4.173263072967529297e+00,4.031839847564697266e+00,3.899688005447387695e+00,3.775923490524291992e+00,3.659773588180541992e+00,3.550556182861328125e+00,3.447668313980102539e+00,3.350575685501098633e+00,3.258801937103271484e+00,3.171921253204345703e+00,3.089553117752075195e+00,3.011354446411132812e+00,2.937016487121582031e+00,2.866260528564453125e+00,2.798833370208740234e+00,2.734505891799926758e+00,2.673068761825561523e+00,2.614331483840942383e+00,2.558120250701904297e+00,2.504275321960449219e+00,2.452650308609008789e+00,2.403110980987548828e+00,2.355533123016357422e+00,2.309802770614624023e+00,2.265813827514648438e+00,2.223469495773315430e+00,2.182678699493408203e+00,2.143357515335083008e+00,2.105427980422973633e+00,2.068817615509033203e+00,2.033458709716796875e+00,1.999288082122802734e+00,1.966246962547302246e+00,1.934280037879943848e+00,1.903336286544799805e+00,1.873366594314575195e+00,1.844326138496398926e+00
5.000000000000000000e+00,5.000000000000000000e+00,5.000000000000000000e+00,5.000000000000000000e+00,5.000000000000000000e+00,5.000000000000000000e+00,5.000000000000000000e+00,5.000000000000000000e+00,5.000000000000000000e+00,5.000000000000000000e+00,5.000000000000000000e+00,5.000000000000000000e+00,5.000000000000000000e+00,5.000000000000000000e+00,5.000000000000000000e+00,5.000000000000000000e+00,5.000000000000000000e+00,5.000000000000000000e+00,5.000000000000000000e+00,5.000000000000000000e+00,5.000000000000000000e+00,5.000000000000000000e+00,5.000000000000000000e+00,5.000000000000000000e+00,5.000000000000000000e+00,5.000000000000000000e+00,5.000000000000000000e+00,5.000000000000000000e+00,5.000000000000000000e+00,5.000000000000000000e+00,5.000000000000000000e+00,5.000000000000000000e+00,2.371847629547119141e+00,2.339322805404663086e+00,2.404696702957153320e+00,5.000000000000000000e+00,1.860705852508544922e+00,1.845157623291015625e+00,1.884007811546325684e+00,4.854495525360107422e+00,4.664186477661132812e+00,4.488235950469970703e+00,4.325077533721923828e+00,4.173365592956542969e+00,4.031935691833496094e+00,3.899777173995971680e+00,3.776007413864135742e+00,3.659852504730224609e+00,3.550630331039428711e+00,3.447738409042358398e+00,3.350641727447509766e+00,3.258864164352416992e+00,3.171980619430541992e+00,3.089609146118164062e+00,3.011407613754272461e+00,2.937067508697509766e+00,2.866308689117431641e+00,2.798879623413085938e+00,2.734549760818481445e+00,2.673110723495483398e+00,2.614371776580810547e+00,2.558158874511718750e+00,2.504312276840209961e+00,2.452685832977294922e+00,2.403144836425781250e+00,2.355565786361694336e+00,2.309834003448486328e+00,2.265844106674194336e+00,2.223498582839965820e+00,2.182706594467163086e+00,2.143384456634521484e+00,2.105454206466674805e+00,2.068842649459838867e+00,2.033483028411865234e+00,1.999311685562133789e+00,1.966269731521606445e+00,1.934302091598510742e+00,1.903357386589050293e+00,1.873387098312377930e+00,1.844346284866333008e+00
5.000000000000000000e+00,5.000000000000000000e+00,5.000000000000000000e+00,5.000000000000000000e+00,5.000000000000000000e+00,4.865919113159179688e+00,5.000000000000000000e+00,5.000000000000000000e+00,5.000000000000000000e+00,5.000000000000000000e+00,5.000000000000000000e+00,5.000000000000000000e+00,5.000000000000000000e+00,5.000000000000000000e+00,5.000000000000000000e+00,5.000000000000000000e+00,5.000000000000000000e+00,5.000000000000000000e+00,5.000000000000000000e+00,5.000000000000000000e+00,5.000000000000000000e+00,5.000000000000000000e+00,5.000000000000000000e+00,5.000000000000000000e+00,5.000000000000000000e+00,5.000000000000000000e+00,5.000000000000000000e+00,5.000000000000000000e+00,5.000000000000000000e+00,5.000000000000000000e+00,5.000000000000000000e+00,5.000000000000000000e+00,2.418364286422729492e+00,2.363694429397583008e+00,2.434370994567871094e+00,5.000000000000000000e+00,1.856766104698181152e+00,1.844758629798889160e+00,1.883948326110839844e+00,4.854632854461669922e+00,4.664313316345214844e+00,4.488353729248046875e+00,4.325186729431152344e+00,4.173468112945556641e+00,4.032031059265136719e+00,3.899866580963134766e+00,3.776091337203979492e+00,3.659931182861328125e+00,3.550704717636108398e+00,3.447808265686035156e+00,3.350707530975341797e+00,3.258926868438720703e+00,3.172039747238159180e+00,3.089665174484252930e+00,3.011461257934570312e+00,2.937118053436279297e+00,2.866357326507568359e+00,2.798925638198852539e+00,2.734593629837036133e+00,2.673152923583984375e+00,2.614412069320678711e+00,2.558197259902954102e+00,2.504349231719970703e+00,2.452721118927001953e+00,2.403178930282592773e+00,2.355598449707031250e+00,2.309865236282348633e+00,2.265874385833740234e+00,2.223527669906616211e+00,2.182734727859497070e+00,2.143411636352539062e+00,2.105480194091796875e+00,2.068867921829223633e+00,2.033507347106933594e+00,1.999335050582885742e+00,1.966292619705200195e+00,1.934324264526367188e+00,1.903378725051879883e+00,1.873407840728759766e+00,1.844366192817687988e+00
4.875138282775878906e+00,4.873928070068359375e+00,4.872717857360839844e+00,4.871508598327636719e+00,4.870299816131591797e+00,4.869091510772705078e+00,4.867884159088134766e+00,4.866677284240722656e+00,4.865470886230468750e+00,4.864264965057373047e+00,4.863059520721435547e+00,4.861855030059814453e+00,4.860651016235351562e+00,4.859447479248046875e+00,4.858244895935058594e+00,4.857042789459228516e+00,4.855841159820556641e+00,4.854640007019042969e+00,4.853439807891845703e+00,4.852240085601806641e+00,4.851040840148925781e+00,4.849842071533203125e+00,4.848644256591796875e+00,4.847446918487548828e+00,4.846250057220458984e+00,4.845053672790527344e+00,4.843857765197753906e+00,4.842662811279296875e+00,4.841468334197998047e+00,4.840274333953857422e+00,4.839081287384033203e+00,4.837888240814208984e+00,4.836696147918701172e+00,2.398718833923339844e+00,4.834313869476318359e+00,4.833123207092285156e+00,1.854520797729492188e+00,1.847361087799072266e+00,1.884077191352844238e+00,4.828367710113525391e+00,4.664440631866455078e+00,4.488471508026123047e+00,4.325296401977539062e+00,4.173569679260253906e+00,4.032126903533935547e+00,3.899956226348876953e+00,3.776175260543823242e+00,3.660010337829589844e+00,3.550778627395629883e+00,3.447878122329711914e+00,3.350773811340332031e+00,3.258989334106445312e+00,3.172098636627197266e+00,3.089721441268920898e+00,3.011514425277709961e+00,2.937169075012207031e+00,2.866405487060546875e+00,2.798971652984619141e+00,2.734637737274169922e+00,2.673194885253906250e+00,2.614452123641967773e+00,2.558235883712768555e+00,2.504385948181152344e+00,2.452756643295288086e+00,2.403212785720825195e+00,2.355631113052368164e+00,2.309896707534790039e+00,2.265904426574707031e+00,2.223556518554687500e+00,2.182762861251831055e+00,2.143438577651977539e+00,2.105506420135498047e+00,2.068892955780029297e+00,2.033531665802001953e+00,1.999358534812927246e+00,1.966315150260925293e+00,1.934346079826354980e+00,1.903400182723999023e+00,1.873428583145141602e+00,1.844386219978332520e+00
3.777953624725341797e+00,3.777226924896240234e+00,3.776499986648559570e+00,3.775773525238037109e+00,3.775047302246093750e+00,3.774321556091308594e+00,3.773595571517944336e+00,3.772870540618896484e+00,3.772145271301269531e+00,3.771420717239379883e+00,3.770695924758911133e+00,3.769971847534179688e+00,3.769247770309448242e+00,3.768524169921875000e+00,3.767800569534301758e+00,3.767077684402465820e+00,3.766354799270629883e+00,3.765632390975952148e+00,3.764909982681274414e+00,3.764187574386596680e+00,3.763466119766235352e+00,3.762744426727294922e+00,3.762023448944091797e+00,3.761302471160888672e+00,3.760581970214843750e+00,3.759861469268798828e+00,3.759141445159912109e+00,3.758421421051025391e+00,3.757702112197875977e+00,3.756982803344726562e+00,3.756263971328735352e+00,3.755545139312744141e+00,3.754826784133911133e+00,2.431650161743164062e+00,2.459870100021362305e+00,3.752672910690307617e+00,1.852280855178833008e+00,1.843240618705749512e+00,1.884319067001342773e+00,3.749805212020874023e+00,3.749089241027832031e+00,3.748373031616210938e+00,3.747657537460327148e+00,3.746942043304443359e+00,3.746227025985717773e+00,3.745512008666992188e+00,3.744797706604003906e+00,3.660088777542114258e+00,3.550852775573730469e+00,3.447948217391967773e+00,3.350839853286743164e+00,3.259051561355590820e+00,3.172158241271972656e+00,3.089777708053588867e+00,3.011567831039428711e+00,2.937219619750976562e+00,2.866453647613525391e+00,2.799017906188964844e+00,2.734681606292724609e+00,2.673236608505249023e+00,2.614492416381835938e+00,2.558274269104003906e+00,2.504422903060913086e+00,2.452791929244995117e+00,2.403246879577636719e+00,2.355663776397705078e+00,2.309928178787231445e+00,2.265934705734252930e+00,2.223585844039916992e+00,2.182790756225585938e+00,2.143465518951416016e+00,2.105532407760620117e+00,2.068918228149414062e+00,2.033555984497070312e+00,1.999382138252258301e+00,1.966338038444519043e+00,1.934368133544921875e+00,1.903421282768249512e+00,1.873449206352233887e+00,1.844406247138977051e+00
3.083899974822998047e+00,3.083415746688842773e+00,3.082931280136108398e+00,3.082447290420532227e+00,3.081963062286376953e+00,3.081479310989379883e+00,3.080995559692382812e+00,3.080512285232543945e+00,3.080028533935546875e+00,3.079545497894287109e+00,3.079062223434448242e+00,3.078579425811767578e+00,3.078096628189086914e+00,3.077614068984985352e+00,3.077131509780883789e+00,3.076649188995361328e+00,3.076166868209838867e+00,3.075685024261474609e+00,3.075202941894531250e+00,3.074721574783325195e+00,3.074239730834960938e+00,3.073758363723754883e+00,3.073276996612548828e+00,3.072796106338500977e+00,3.072314977645874023e+00,3.071834087371826172e+00,3.071353435516357422e+00,3.070872783660888672e+00,3.070392608642578125e+00,3.069912195205688477e+00,3.069432258605957031e+00,3.068952083587646484e+00,3.068472623825073242e+00,2.400578975677490234e+00,2.397370338439941406e+00,3.067034006118774414e+00,1.877043366432189941e+00,1.849230408668518066e+00,3.065597295761108398e+00,3.065118312835693359e+00,3.064639806747436523e+00,3.064161300659179688e+00,3.063683271408081055e+00,3.063205003738403320e+00,3.062727212905883789e+00,3.062249183654785156e+00,3.061771631240844727e+00,3.061293840408325195e+00,3.060816764831542969e+00,3.060339450836181641e+00,3.059862375259399414e+00,3.059385299682617188e+00,3.058908700942993164e+00,3.058431863784790039e+00,3.011621236801147461e+00,2.937270164489746094e+00,2.866502285003662109e+00,2.799063920974731445e+00,2.734725475311279297e+00,2.673278808593750000e+00,2.614532470703125000e+00,2.558312892913818359e+00,2.504459857940673828e+00,2.452827215194702148e+00,2.403280735015869141e+00,2.355696439743041992e+00,2.309959411621093750e+00,2.265964984893798828e+00,2.223614931106567383e+00,2.182818889617919922e+00,2.143492698669433594e+00,2.105558395385742188e+00,2.068943500518798828e+00,2.033580303192138672e+00,1.999405503273010254e+00,1.966360807418823242e+00,1.934390187263488770e+00,1.903442740440368652e+00,1.873469710350036621e+00,1.844426155090332031e+00
2.605280160903930664e+00,2.604934215545654297e+00,2.604588508605957031e+00,2.604243040084838867e+00,2.603897571563720703e+00,2.603552103042602539e+00,2.603206872940063477e+00,2.602861642837524414e+00,2.602516412734985352e+00,2.602171421051025391e+00,2.601826429367065430e+00,2.601481676101684570e+00,2.601136922836303711e+00,2.600792407989501953e+00,2.600447654724121094e+00,2.600103378295898438e+00,2.599758863449096680e+00,2.599414587020874023e+00,2.599070310592651367e+00,2.598726272583007812e+00,2.598382234573364258e+00,2.598038434982299805e+00,2.597694396972656250e+00,2.597350835800170898e+00,2.597007036209106445e+00,2.596663475036621094e+00,2.596319913864135742e+00,2.595976591110229492e+00,2.595633268356323242e+00,2.595290184020996094e+00,2.594947099685668945e+00,2.594604015350341797e+00,2.594260931015014648e+00,2.369642734527587891e+00,2.338957071304321289e+00,2.593232631683349609e+00,1.848174095153808594e+00,1.785807728767395020e+00,2.592205286026000977e+00,2.591862916946411133e+00,2.591520786285400391e+00,2.591178655624389648e+00,2.590836763381958008e+00,2.590494632720947266e+00,2.590152978897094727e+00,2.589811086654663086e+00,2.589469432830810547e+00,2.589127779006958008e+00,2.588786363601684570e+00,2.588444948196411133e+00,2.588103771209716797e+00,2.587762355804443359e+00,2.587421417236328125e+00,2.587080240249633789e+00,2.586739540100097656e+00,2.586398601531982422e+00,2.586057901382446289e+00,2.585717201232910156e+00,2.585376739501953125e+00,2.585036039352416992e+00,2.584695816040039062e+00,2.558351278305053711e+00,2.504496574401855469e+00,2.452862739562988281e+00,2.403314828872680664e+00,2.355728864669799805e+00,2.309990882873535156e+00,2.265995025634765625e+00,2.223644018173217773e+00,2.182846784591674805e+00,2.143519639968872070e+00,2.105584621429443359e+00,2.068968534469604492e+00,2.033604621887207031e+00,1.999429106712341309e+00,1.966383337974548340e+00,1.934412360191345215e+00,1.903464078903198242e+00,1.873490452766418457e+00,1.844446182250976562e+00
2.255292177200317383e+00,2.255031824111938477e+00,2.254771471023559570e+00,2.254511356353759766e+00,2.254251241683959961e+00,2.253991127014160156e+00,2.253731012344360352e+00,2.253471136093139648e+00,2.253211498260498047e+00,2.252951622009277344e+00,2.252691745758056641e+00,2.252432107925415039e+00,2.252172470092773438e+00,2.251912832260131836e+00,2.251653432846069336e+00,2.251393795013427734e+00,2.251134395599365234e+00,2.250875234603881836e+00,2.250615835189819336e+00,2.250356674194335938e+00,2.250097274780273438e+00,2.249838352203369141e+00,2.249579191207885742e+00,2.249320268630981445e+00,2.249062061309814453e+00,2.248804330825805664e+00,2.248546600341796875e+00,2.248289346694946289e+00,2.248031616210937500e+00,2.247774362564086914e+00,2.247516870498657227e+00,2.247259616851806641e+00,2.247002363204956055e+00,2.246745109558105469e+00,2.246487855911254883e+00,2.246230840682983398e+00,1.748886823654174805e+00,1.690902829170227051e+00,1.703577518463134766e+00,2.245203018188476562e+00,2.244946241378784180e+00,2.244689464569091797e+00,2.244432926177978516e+00,2.244176149368286133e+00,2.243919610977172852e+00,2.243663072586059570e+00,2.243406772613525391e+00,2.243150234222412109e+00,2.242893934249877930e+00,2.242637634277343750e+00,2.242381572723388672e+00,2.242125272750854492e+00,2.241869211196899414e+00,2.241613149642944336e+00,2.241357326507568359e+00,2.241101264953613281e+00,2.240845441818237305e+00,2.240589618682861328e+00,2.240334033966064453e+00,2.240078210830688477e+00,2.239822626113891602e+00,2.239567041397094727e+00,2.239311695098876953e+00,2.239056110382080078e+00,2.238800764083862305e+00,2.238545417785644531e+00,2.238290309906005859e+00,2.238034963607788086e+00,2.223673105239868164e+00,2.182874679565429688e+00,2.143546581268310547e+00,2.105610609054565430e+00,2.068993806838989258e+00,2.033628940582275391e+00,1.999452710151672363e+00,1.966406226158142090e+00,1.934434175491333008e+00,1.903485178947448730e+00,1.873511195182800293e+00,1.844466328620910645e+00
1.988253593444824219e+00,1.988051414489746094e+00,1.987849116325378418e+00,1.987646818161010742e+00,1.987444758415222168e+00,1.987242579460144043e+00,1.987040400505065918e+00,1.986838221549987793e+00,1.986636400222778320e+00,1.986434340476989746e+00,1.986232280731201172e+00,1.986030578613281250e+00,1.985828638076782227e+00,1.985626816749572754e+00,1.985424995422363281e+00,1.985223412513732910e+00,1.985021591186523438e+00,1.984819889068603516e+00,1.984618186950683594e+00,1.984416842460632324e+00,1.984215140342712402e+00,1.984013676643371582e+00,1.983812332153320312e+00,1.983610868453979492e+00,1.983409404754638672e+00,1.983208060264587402e+00,1.983006954193115234e+00,1.982805609703063965e+00,1.982604384422302246e+00,1.982403397560119629e+00,1.982202172279357910e+00,1.982000946998596191e+00,1.981799840927124023e+00,1.981599092483520508e+00,1.981397986412048340e+00,1.981196999549865723e+00,1.980996131896972656e+00,1.865331411361694336e+00,1.980594515800476074e+00,1.980393767356872559e+00,1.980193138122558594e+00,1.979992389678955078e+00,1.979791760444641113e+00,1.979591012001037598e+00,1.979390621185302734e+00,1.979190111160278320e+00,1.978989481925964355e+00,1.978789210319519043e+00,1.978588819503784180e+00,1.978388309478759766e+00,1.978188037872314453e+00,1.977987885475158691e+00,1.977787613868713379e+00,1.977587342262268066e+00,1.977387309074401855e+00,1.977187156677246094e+00,1.976987004280090332e+00,1.976786971092224121e+00,1.976587057113647461e+00,1.976387023925781250e+00,1.976187109947204590e+00,1.975987195968627930e+00,1.975787520408630371e+00,1.975587606430053711e+00,1.975387811660766602e+00,1.975188255310058594e+00,1.974988579750061035e+00,1.974788904190063477e+00,1.974589228630065918e+00,1.974389791488647461e+00,1.974190235137939453e+00,1.973990678787231445e+00,1.973791480064392090e+00,1.973592042922973633e+00,1.973392605781555176e+00,1.966428995132446289e+00,1.934456229209899902e+00,1.903506636619567871e+00,1.873531699180603027e+00,1.844486117362976074e+00
1.777757763862609863e+00,1.777595996856689453e+00,1.777434468269348145e+00,1.777272701263427734e+00,1.777110934257507324e+00,1.776949524879455566e+00,1.776787877082824707e+00,1.776626229286193848e+00,1.776464581489562988e+00,1.776303291320800781e+00,1.776141762733459473e+00,1.775980234146118164e+00,1.775818943977355957e+00,1.775657534599304199e+00,1.775496006011962891e+00,1.775334715843200684e+00,1.775173544883728027e+00,1.775012135505676270e+00,1.774850845336914062e+00,1.774689555168151855e+00,1.774528503417968750e+00,1.774367332458496094e+00,1.774206161499023438e+00,1.774045228958129883e+00,1.773884057998657227e+00,1.773723006248474121e+00,1.773561835289001465e+00,1.773401021957397461e+00,1.773239970207214355e+00,1.773079037666320801e+00,1.772918224334716797e+00,1.772757411003112793e+00,1.772596478462219238e+00,1.772435545921325684e+00,1.772274971008300781e+00,1.772114157676696777e+00,1.771953344345092773e+00,1.771792650222778320e+00,1.771632075309753418e+00,1.771471381187438965e+00,1.771310806274414062e+00,1.771150350570678711e+00,1.770989656448364258e+00,1.770829081535339355e+00,1.770668625831604004e+00,1.770508289337158203e+00,1.770347714424133301e+00,1.770187258720397949e+00,1.770027041435241699e+00,1.769866704940795898e+00,1.769706368446350098e+00,1.769545912742614746e+00,1.769385814666748047e+00,1.769225597381591797e+00,1.769065260887145996e+00,1.768905043601989746e+00,1.768745064735412598e+00,1.768584847450256348e+00,1.768424749374389648e+00,1.768264889717102051e+00,1.768104791641235352e+00,1.767944693565368652e+00,1.767784714698791504e+00,1.767624855041503906e+00,1.767464995384216309e+00,1.767305016517639160e+00,1.767145276069641113e+00,1.766985416412353516e+00,1.766825556755065918e+00,1.766665697097778320e+00,1.766506195068359375e+00,1.766346454620361328e+00,1.766186714172363281e+00,1.766026973724365234e+00,1.765867471694946289e+00,1.765707850456237793e+00,1.765548229217529297e+00,1.765388846397399902e+00,1.765229344367980957e+00,1.765069842338562012e+00
1.607565402984619141e+00,1.607433080673217773e+00,1.607300758361816406e+00,1.607168674468994141e+00,1.607036471366882324e+00,1.606904268264770508e+00,1.606772184371948242e+00,1.606639981269836426e+00,1.606507897377014160e+00,1.606375694274902344e+00,1.606243729591369629e+00,1.606111645698547363e+00,1.605979681015014648e+00,1.605847597122192383e+00,1.605715751647949219e+00,1.605583667755126953e+00,1.605451703071594238e+00,1.605319976806640625e+00,1.605188012123107910e+00,1.605056047439575195e+00,1.604924201965332031e+00,1.604792475700378418e+00,1.604660630226135254e+00,1.604528784751892090e+00,1.604397177696228027e+00,1.604265332221984863e+00,1.604133605957031250e+00,1.604001879692077637e+00,1.603870272636413574e+00,1.603738546371459961e+00,1.603606939315795898e+00,1.603475213050842285e+00,1.603343844413757324e+00,1.603212118148803711e+00,1.603080630302429199e+00,1.602949142456054688e+00,1.602817654609680176e+00,1.602686047554016113e+00,1.602554559707641602e+00,1.602423310279846191e+00,1.602291822433471680e+00,1.602160334587097168e+00,1.602029085159301758e+00,1.601897716522216797e+00,1.601766347885131836e+00,1.601634979248046875e+00,1.601503849029541016e+00,1.601372480392456055e+00,1.601241230964660645e+00,1.601109981536865234e+00,1.600978851318359375e+00,1.600847601890563965e+00,1.600716471672058105e+00,1.600585460662841797e+00,1.600454330444335938e+00,1.600323081016540527e+00,1.600192070007324219e+00,1.600061058998107910e+00,1.599929928779602051e+00,1.599798917770385742e+00,1.599668025970458984e+00,1.599537014961242676e+00,1.599406003952026367e+00,1.599275112152099609e+00,1.599144339561462402e+00,1.599013328552246094e+00,1.598882436752319336e+00,1.598751544952392578e+00,1.598620891571044922e+00,1.598490118980407715e+00,1.598359227180480957e+00,1.598228573799133301e+00,1.598097801208496094e+00,1.597967147827148438e+00,1.597836375236511230e+00,1.597705841064453125e+00,1.597575068473815918e+00,1.597444415092468262e+00,1.597314000129699707e+00,1.597183346748352051e+00
1.467112421989440918e+00,1.467002153396606445e+00,1.466892004013061523e+00,1.466781854629516602e+00,1.466671824455261230e+00,1.466561675071716309e+00,1.466451525688171387e+00,1.466341495513916016e+00,1.466231465339660645e+00,1.466121435165405273e+00,1.466011404991149902e+00,1.465901494026184082e+00,1.465791463851928711e+00,1.465681433677673340e+00,1.465571522712707520e+00,1.465461611747741699e+00,1.465351700782775879e+00,1.465241789817810059e+00,1.465131998062133789e+00,1.465022087097167969e+00,1.464912176132202148e+00,1.464802384376525879e+00,1.464692592620849609e+00,1.464582800865173340e+00,1.464473009109497070e+00,1.464363336563110352e+00,1.464253544807434082e+00,1.464143753051757812e+00,1.464033961296081543e+00,1.463924407958984375e+00,1.463814616203308105e+00,1.463704943656921387e+00,1.463595271110534668e+00,1.463485717773437500e+00,1.463376045227050781e+00,1.463266372680664062e+00,1.463156938552856445e+00,1.463047385215759277e+00,1.462937712669372559e+00,1.462828159332275391e+00,1.462718725204467773e+00,1.462609171867370605e+00,1.462499737739562988e+00,1.462390303611755371e+00,1.462280869483947754e+00,1.462171316146850586e+00,1.462061882019042969e+00,1.461952567100524902e+00,1.461843132972717285e+00,1.461733818054199219e+00,1.461624383926391602e+00,1.461515188217163086e+00,1.461405754089355469e+00,1.461296439170837402e+00,1.461187243461608887e+00,1.461077928543090820e+00,1.460968613624572754e+00,1.460859417915344238e+00,1.460750222206115723e+00,1.460641026496887207e+00,1.460531830787658691e+00,1.460422754287719727e+00,1.460313558578491211e+00,1.460204362869262695e+00,1.460095167160034180e+00,1.459986209869384766e+00,1.459877014160156250e+00,1.459767937660217285e+00,1.459658861160278320e+00,1.459549903869628906e+00,1.459440827369689941e+00,1.459331750869750977e+00,1.459222793579101562e+00,1.459113836288452148e+00,1.459004878997802734e+00,1.458895802497863770e+00,1.458786964416503906e+00,1.458678126335144043e+00,1.458569169044494629e+00,1.458460330963134766e+00
1.349229931831359863e+00,1.349136829376220703e+00,1.349043726921081543e+00,1.348950505256652832e+00,1.348857402801513672e+00,1.348764300346374512e+00,1.348671197891235352e+00,1.348578095436096191e+00,1.348484992980957031e+00,1.348392009735107422e+00,1.348298907279968262e+00,1.348205804824829102e+00,1.348112821578979492e+00,1.348019838333129883e+00,1.347926735877990723e+00,1.347833752632141113e+00,1.347740888595581055e+00,1.347647905349731445e+00,1.347554922103881836e+00,1.347462058067321777e+00,1.347369074821472168e+00,1.347276210784912109e+00,1.347183227539062500e+00,1.347090482711791992e+00,1.346997499465942383e+00,1.346904635429382324e+00,1.346811771392822266e+00,1.346719026565551758e+00,1.346626162528991699e+00,1.346533298492431641e+00,1.346440553665161133e+00,1.346347808837890625e+00,1.346254944801330566e+00,1.346162199974060059e+00,1.346069455146789551e+00,1.345976710319519043e+00,1.345883965492248535e+00,1.345791339874267578e+00,1.345698595046997070e+00,1.345605969429016113e+00,1.345513224601745605e+00,1.345420598983764648e+00,1.345327973365783691e+00,1.345235347747802734e+00,1.345142722129821777e+00,1.345050096511840820e+00,1.344957470893859863e+00,1.344864845275878906e+00,1.344772458076477051e+00,1.344679832458496094e+00,1.344587206840515137e+00,1.344494700431823730e+00,1.344402194023132324e+00,1.344309687614440918e+00,1.344217181205749512e+00,1.344124794006347656e+00,1.344032287597656250e+00,1.343939781188964844e+00,1.343847274780273438e+00,1.343755006790161133e+00,1.343662500381469727e+00,1.343570113182067871e+00,1.343477725982666016e+00,1.343385338783264160e+00,1.343292951583862305e+00,1.343200564384460449e+00,1.343108296394348145e+00,1.343016028404235840e+00,1.342923641204833984e+00,1.342831254005432129e+00,1.342739105224609375e+00,1.342646837234497070e+00,1.342554450035095215e+00,1.342462301254272461e+00,1.342370033264160156e+00,1.342277765274047852e+00,1.342185497283935547e+00,1.342093467712402344e+00,1.342001199722290039e+00,1.341909050941467285e+00
1.248882412910461426e+00,1.248802542686462402e+00,1.248722791671752930e+00,1.248643040657043457e+00,1.248563170433044434e+00,1.248483419418334961e+00,1.248403668403625488e+00,1.248323917388916016e+00,1.248244166374206543e+00,1.248164296150207520e+00,1.248084664344787598e+00,1.248004913330078125e+00,1.247925162315368652e+00,1.247845530509948730e+00,1.247765779495239258e+00,1.247686147689819336e+00,1.247606396675109863e+00,1.247526884078979492e+00,1.247447133064270020e+00,1.247367501258850098e+00,1.247287869453430176e+00,1.247208237648010254e+00,1.247128605842590332e+00,1.247048974037170410e+00,1.246969461441040039e+00,1.246889829635620117e+00,1.246810317039489746e+00,1.246730685234069824e+00,1.246651172637939453e+00,1.246571660041809082e+00,1.246492028236389160e+00,1.246412634849548340e+00,1.246333122253417969e+00,1.246253490447998047e+00,1.246173977851867676e+00,1.246094584465026855e+00,1.246015071868896484e+00,1.245935678482055664e+00,1.245856165885925293e+00,1.245776772499084473e+00,1.245697379112243652e+00,1.245617866516113281e+00,1.245538473129272461e+00,1.245459079742431641e+00,1.245379686355590820e+00,1.245300292968750000e+00,1.245221018791198730e+00,1.245141625404357910e+00,1.245062232017517090e+00,1.244982957839965820e+00,1.244903564453125000e+00,1.244824290275573730e+00,1.244744896888732910e+00,1.244665622711181641e+00,1.244586348533630371e+00,1.244507074356079102e+00,1.244427800178527832e+00,1.244348526000976562e+00,1.244269251823425293e+00,1.244190096855163574e+00,1.244110941886901855e+00,1.244031667709350586e+00,1.243952393531799316e+00,1.243873238563537598e+00,1.243794083595275879e+00,1.243714809417724609e+00,1.243635654449462891e+00,1.243556618690490723e+00,1.243477463722229004e+00,1.243398189544677734e+00,1.243319153785705566e+00,1.243239998817443848e+00,1.243160963058471680e+00,1.243081808090209961e+00,1.243002772331237793e+00,1.242923617362976074e+00,1.242844581604003906e+00,1.242765545845031738e+00,1.242686510086059570e+00,1.242607474327087402e+00
1.162428140640258789e+00,1.162358999252319336e+00,1.162289857864379883e+00,1.162220597267150879e+00,1.162151575088500977e+00,1.162082433700561523e+00,1.162013292312622070e+00,1.161944270133972168e+00,1.161875128746032715e+00,1.161805987358093262e+00,1.161736845970153809e+00,1.161667823791503906e+00,1.161598801612854004e+00,1.161529660224914551e+00,1.161460757255554199e+00,1.161391615867614746e+00,1.161322593688964844e+00,1.161253571510314941e+00,1.161184549331665039e+00,1.161115527153015137e+00,1.161046504974365234e+00,1.160977482795715332e+00,1.160908579826354980e+00,1.160839557647705078e+00,1.160770535469055176e+00,1.160701632499694824e+00,1.160632729530334473e+00,1.160563707351684570e+00,1.160494804382324219e+00,1.160425901412963867e+00,1.160356998443603516e+00,1.160287976264953613e+00,1.160219192504882812e+00,1.160150289535522461e+00,1.160081386566162109e+00,1.160012483596801758e+00,1.159943699836730957e+00,1.159874796867370605e+00,1.159805893898010254e+00,1.159736990928649902e+00,1.159668207168579102e+00,1.159599423408508301e+00,1.159530520439147949e+00,1.159461736679077148e+00,1.159392952919006348e+00,1.159324169158935547e+00,1.159255266189575195e+00,1.159186601638793945e+00,1.159117817878723145e+00,1.159049034118652344e+00,1.158980250358581543e+00,1.158911585807800293e+00,1.158842802047729492e+00,1.158774018287658691e+00,1.158705353736877441e+00,1.158636569976806641e+00,1.158567905426025391e+00,1.158499121665954590e+00,1.158430457115173340e+00,1.158361792564392090e+00,1.158293128013610840e+00,1.158224582672119141e+00,1.158155918121337891e+00,1.158087134361267090e+00,1.158018469810485840e+00,1.157949924468994141e+00,1.157881259918212891e+00,1.157812714576721191e+00,1.157744169235229492e+00,1.157675504684448242e+00,1.157606840133666992e+00,1.157538294792175293e+00,1.157469749450683594e+00,1.157401204109191895e+00,1.157332539558410645e+00,1.157263994216918945e+00,1.157195568084716797e+00,1.157126903533935547e+00,1.157058358192443848e+00,1.156989932060241699e+00
1.087168455123901367e+00,1.087108016014099121e+00,1.087047457695007324e+00,1.086987018585205078e+00,1.086926460266113281e+00,1.086866140365600586e+00,1.086805582046508789e+00,1.086745142936706543e+00,1.086684703826904297e+00,1.086624264717102051e+00,1.086563825607299805e+00,1.086503386497497559e+00,1.086443066596984863e+00,1.086382627487182617e+00,1.086322188377380371e+00,1.086261749267578125e+00,1.086201429367065430e+00,1.086140990257263184e+00,1.086080670356750488e+00,1.086020350456237793e+00,1.085959911346435547e+00,1.085899472236633301e+00,1.085839152336120605e+00,1.085778832435607910e+00,1.085718512535095215e+00,1.085658192634582520e+00,1.085597872734069824e+00,1.085537552833557129e+00,1.085477232933044434e+00,1.085416913032531738e+00,1.085356593132019043e+00,1.085296392440795898e+00,1.085236072540283203e+00,1.085175752639770508e+00,1.085115551948547363e+00,1.085055232048034668e+00,1.084995031356811523e+00,1.084934830665588379e+00,1.084874510765075684e+00,1.084814310073852539e+00,1.084753990173339844e+00,1.084693789482116699e+00,1.084633588790893555e+00,1.084573388099670410e+00,1.084513187408447266e+00,1.084452986717224121e+00,1.084392786026000977e+00,1.084332585334777832e+00,1.084272384643554688e+00,1.084212303161621094e+00,1.084152102470397949e+00,1.084091901779174805e+00,1.084031820297241211e+00,1.083971619606018066e+00,1.083911418914794922e+00,1.083851337432861328e+00,1.083791255950927734e+00,1.083731055259704590e+00,1.083670973777770996e+00,1.083610892295837402e+00,1.083550810813903809e+00,1.083490729331970215e+00,1.083430647850036621e+00,1.083370566368103027e+00,1.083310484886169434e+00,1.083250403404235840e+00,1.083190441131591797e+00,1.083130359649658203e+00,1.083070278167724609e+00,1.083010196685791016e+00,1.082950234413146973e+00,1.082890152931213379e+00,1.082830190658569336e+00,1.082770228385925293e+00,1.082710146903991699e+00,1.082650184631347656e+00,1.082590103149414062e+00,1.082530140876770020e+00,1.082470178604125977e+00,1.082410216331481934e+00
1.021061420440673828e+00,1.021008014678955078e+00,1.020954728126525879e+00,1.020901322364807129e+00,1.020848035812377930e+00,1.020794630050659180e+00,1.020741343498229980e+00,1.020687937736511230e+00,1.020634651184082031e+00,1.020581364631652832e+00,1.020528078079223633e+00,1.020474791526794434e+00,1.020421385765075684e+00,1.020368218421936035e+00,1.020314931869506836e+00,1.020261526107788086e+00,1.020208239555358887e+00,1.020155072212219238e+00,1.020101785659790039e+00,1.020048499107360840e+00,1.019995331764221191e+00,1.019942045211791992e+00,1.019888758659362793e+00,1.019835472106933594e+00,1.019782304763793945e+00,1.019729137420654297e+00,1.019675850868225098e+00,1.019622564315795898e+00,1.019569396972656250e+00,1.019516229629516602e+00,1.019463062286376953e+00,1.019409894943237305e+00,1.019356608390808105e+00,1.019303441047668457e+00,1.019250273704528809e+00,1.019197106361389160e+00,1.019143939018249512e+00,1.019090771675109863e+00,1.019037723541259766e+00,1.018984556198120117e+00,1.018931388854980469e+00,1.018878221511840820e+00,1.018825173377990723e+00,1.018772006034851074e+00,1.018718838691711426e+00,1.018665790557861328e+00,1.018612623214721680e+00,1.018559455871582031e+00,1.018506407737731934e+00,1.018453359603881836e+00,1.018400192260742188e+00,1.018347144126892090e+00,1.018294095993041992e+00,1.018241047859191895e+00,1.018187999725341797e+00,1.018134832382202148e+00,1.018081903457641602e+00,1.018028736114501953e+00,1.017975687980651855e+00,1.017922639846801758e+00,1.017869710922241211e+00,1.017816662788391113e+00,1.017763614654541016e+00,1.017710685729980469e+00,1.017657637596130371e+00,1.017604589462280273e+00,1.017551541328430176e+00,1.017498612403869629e+00,1.017445564270019531e+00,1.017392635345458984e+00,1.017339587211608887e+00,1.017286658287048340e+00,1.017233729362487793e+00,1.017180800437927246e+00,1.017127871513366699e+00,1.017074823379516602e+00,1.017021894454956055e+00,1.016968965530395508e+00,1.016916036605834961e+00,1.016863107681274414e+00
