5.000000000000000000e+00,5.000000000000000000e+00,5.000000000000000000e+00,5.000000000000000000e+00,5.000000000000000000e+00,5.000000000000000000e+00,5.000000000000000000e+00,5.000000000000000000e+00,5.000000000000000000e+00,5.000000000000000000e+00,5.000000000000000000e+00,5.000000000000000000e+00,5.000000000000000000e+00,5.000000000000000000e+00,5.000000000000000000e+00,5.000000000000000000e+00,5.000000000000000000e+00,5.000000000000000000e+00,5.000000000000000000e+00,5.000000000000000000e+00,5.000000000000000000e+00,5.000000000000000000e+00,5.000000000000000000e+00,5.000000000000000000e+00,5.000000000000000000e+00,5.000000000000000000e+00,5.000000000000000000e+00,5.000000000000000000e+00,5.000000000000000000e+00,5.000000000000000000e+00,5.000000000000000000e+00,5.000000000000000000e+00,5.000000000000000000e+00,5.000000000000000000e+00,5.000000000000000000e+00,5.000000000000000000e+00,5.000000000000000000e+00,5.000000000000000000e+00,5.000000000000000000e+00,4.850143909454345703e+00,4.660178661346435547e+00,4.484533786773681641e+00,4.321648120880126953e+00,4.170180320739746094e+00,4.028970241546630859e+00,3.897010326385498047e+00,3.773420333862304688e+00,3.657428741455078125e+00,3.548355340957641602e+00,3.445599079132080078e+00,3.348626613616943359e+00,3.256963491439819336e+00,3.170184612274169922e+00,3.087909936904907227e+00,3.009798049926757812e+00,2.935540199279785156e+00,2.864858388900756836e+00,2.797500133514404297e+00,2.733236789703369141e+00,2.671859741210937500e+00,2.613178491592407227e+00,2.557019472122192383e+00,2.503223419189453125e+00,2.451644420623779297e+00,2.402148008346557617e+00,2.354610681533813477e+00,2.308918237686157227e+00,2.264965534210205078e+00,2.222654819488525391e+00,2.181895971298217773e+00,2.142605066299438477e+00,2.104704141616821289e+00,2.068120718002319336e+00,2.032787561416625977e+00,1.998641252517700195e+00,1.965623378753662109e+00,1.933678388595581055e+00,1.902755141258239746e+00,1.872805595397949219e+00,1.843783974647521973e+00
5.000000000000000000e+00,5.000000000000000000e+00,5.000000000000000000e+00,5.000000000000000000e+00,5.000000000000000000e+00,5.000000000000000000e+00,5.000000000000000000e+00,5.000000000000000000e+00,5.000000000000000000e+00,5.000000000000000000e+00,5.000000000000000000e+00,5.000000000000000000e+00,5.000000000000000000e+00,5.000000000000000000e+00,5.000000000000000000e+00,5.000000000000000000e+00,5.000000000000000000e+00,5.000000000000000000e+00,5.000000000000000000e+00,5.000000000000000000e+00,5.000000000000000000e+00,5.000000000000000000e+00,5.000000000000000000e+00,5.000000000000000000e+00,5.000000000000000000e+00,4.134630680084228516e+00,5.000000000000000000e+00,5.000000000000000000e+00,5.000000000000000000e+00,5.000000000000000000e+00,5.000000000000000000e+00,5.000000000000000000e+00,5.000000000000000000e+00,5.000000000000000000e+00,5.000000000000000000e+00,5.000000000000000000e+00,5.000000000000000000e+00,5.000000000000000000e+00,5.000000000000000000e+00,4.850282192230224609e+00,4.660306453704833984e+00,4.484652042388916016e+00,4.321757793426513672e+00,4.170282363891601562e+00,4.029065608978271484e+00,3.897099494934082031e+00,3.773504018783569336e+00,3.657507181167602539e+00,3.548429250717163086e+00,3.445668697357177734e+00,3.348692417144775391e+00,3.257025718688964844e+00,3.170243501663208008e+00,3.087965726852416992e+00,3.009850978851318359e+00,2.935590744018554688e+00,2.864906549453735352e+00,2.797546148300170898e+00,2.733280658721923828e+00,2.671901702880859375e+00,2.613218545913696289e+00,2.557057857513427734e+00,2.503260374069213867e+00,2.451679706573486328e+00,2.402181863784790039e+00,2.354643106460571289e+00,2.308949470520019531e+00,2.264995574951171875e+00,2.222683906555175781e+00,2.181923866271972656e+00,2.142632007598876953e+00,2.104730129241943359e+00,2.068145751953125000e+00,2.032811880111694336e+00,1.998664736747741699e+00,1.965645909309387207e+00,1.933700203895568848e+00,1.902776479721069336e+00,1.872825980186462402e+00,1.843804121017456055e+00
5.000000000000000000e+00,5.000000000000000000e+00,5.000000000000000000e+00,5.000000000000000000e+00,5.000000000000000000e+00,5.000000000000000000e+00,5.000000000000000000e+00,5.000000000000000000e+00,5.000000000000000000e+00,5.000000000000000000e+00,5.000000000000000000e+00,5.000000000000000000e+00,5.000000000000000000e+00,5.000000000000000000e+00,5.000000000000000000e+00,5.000000000000000000e+00,5.000000000000000000e+00,5.000000000000000000e+00,5.000000000000000000e+00,5.000000000000000000e+00,5.000000000000000000e+00,5.000000000000000000e+00,5.000000000000000000e+00,5.000000000000000000e+00,4.189036846160888672e+00,4.126062870025634766e+00,4.168764591217041016e+00,5.000000000000000000e+00,5.000000000000000000e+00,5.000000000000000000e+00,5.000000000000000000e+00,5.000000000000000000e+00,5.000000000000000000e+00,5.000000000000000000e+00,5.000000000000000000e+00,5.000000000000000000e+00,5.000000000000000000e+00,5.000000000000000000e+00,5.000000000000000000e+00,4.850419998168945312e+00,4.660433769226074219e+00,4.484769821166992188e+00,4.321866989135742188e+00,4.170384407043457031e+00,4.029160499572753906e+00,3.897188663482666016e+00,3.773587703704833984e+00,3.657585859298706055e+00,3.548503160476684570e+00,3.445738315582275391e+00,3.348758459091186523e+00,3.257087707519531250e+00,3.170302391052246094e+00,3.088021755218505859e+00,3.009904146194458008e+00,2.935641288757324219e+00,2.864954710006713867e+00,2.797592163085937500e+00,2.733324527740478516e+00,2.671943426132202148e+00,2.613258838653564453e+00,2.557096242904663086e+00,2.503296852111816406e+00,2.451714992523193359e+00,2.402215719223022461e+00,2.354675769805908203e+00,2.308980703353881836e+00,2.265025615692138672e+00,2.222712755203247070e+00,2.181951761245727539e+00,2.142658948898315430e+00,2.104756116867065430e+00,2.068171024322509766e+00,2.032835960388183594e+00,1.998688101768493652e+00,1.965668439865112305e+00,1.933722257614135742e+00,1.902797579765319824e+00,1.872846722602844238e+00,1.843823909759521484e+00
5.000000000000000000e+00,5.000000000000000000e+00,5.000000000000000000e+00,5.000000000000000000e+00,5.000000000000000000e+00,5.000000000000000000e+00,5.000000000000000000e+00,5.000000000000000000e+00,5.000000000000000000e+00,5.000000000000000000e+00,5.000000000000000000e+00,5.000000000000000000e+00,5.000000000000000000e+00,5.000000000000000000e+00,5.000000000000000000e+00,5.000000000000000000e+00,5.000000000000000000e+00,5.000000000000000000e+00,5.000000000000000000e+00,5.000000000000000000e+00,5.000000000000000000e+00,5.000000000000000000e+00,5.000000000000000000e+00,5.000000000000000000e+00,5.000000000000000000e+00,4.143035411834716797e+00,4.207498073577880859e+00,5.000000000000000000e+00,5.000000000000000000e+00,5.000000000000000000e+00,5.000000000000000000e+00,5.000000000000000000e+00,5.000000000000000000e+00,5.000000000000000000e+00,5.000000000000000000e+00,5.000000000000000000e+00,5.000000000000000000e+00,5.000000000000000000e+00,5.000000000000000000e+00,4.850557804107666016e+00,4.660561084747314453e+00,4.484887599945068359e+00,4.321976661682128906e+00,4.170486450195312500e+00,4.029255867004394531e+00,3.897277832031250000e+00,3.773671150207519531e+00,3.657664299011230469e+00,3.548577070236206055e+00,3.445807695388793945e+00,3.348823785781860352e+00,3.257149934768676758e+00,3.170361280441284180e+00,3.088077783584594727e+00,3.009957313537597656e+00,2.935691833496093750e+00,2.865002870559692383e+00,2.797637939453125000e+00,2.733368396759033203e+00,2.671985387802124023e+00,2.613298654556274414e+00,2.557134628295898438e+00,2.503333806991577148e+00,2.451750278472900391e+00,2.402249574661254883e+00,2.354708194732666016e+00,2.309012174606323242e+00,2.265055894851684570e+00,2.222741842269897461e+00,2.181979894638061523e+00,2.142685890197753906e+00,2.104782104492187500e+00,2.068195819854736328e+00,2.032860279083251953e+00,1.998711466789245605e+00,1.965691328048706055e+00,1.933744072914123535e+00,1.902819037437438965e+00,1.872867226600646973e+00,1.843843936920166016e+00
5.000000000000000000e+00,5.000000000000000000e+00,5.000000000000000000e+00,5.000000000000000000e+00,5.000000000000000000e+00,5.000000000000000000e+00,5.000000000000000000e+00,5.000000000000000000e+00,5.000000000000000000e+00,5.000000000000000000e+00,5.000000000000000000e+00,5.000000000000000000e+00,5.000000000000000000e+00,5.000000000000000000e+00,5.000000000000000000e+00,5.000000000000000000e+00,5.000000000000000000e+00,5.000000000000000000e+00,5.000000000000000000e+00,5.000000000000000000e+00,5.000000000000000000e+00,5.000000000000000000e+00,5.000000000000000000e+00,5.000000000000000000e+00,4.140430927276611328e+00,4.208628654479980469e+00,4.269520282745361328e+00,5.000000000000000000e+00,5.000000000000000000e+00,5.000000000000000000e+00,5.000000000000000000e+00,5.000000000000000000e+00,5.000000000000000000e+00,5.000000000000000000e+00,5.000000000000000000e+00,5.000000000000000000e+00,5.000000000000000000e+00,5.000000000000000000e+00,5.000000000000000000e+00,4.850696086883544922e+00,4.660688400268554688e+00,4.485005855560302734e+00,4.322085857391357422e+00,4.170588016510009766e+00,4.029351234436035156e+00,3.897367000579833984e+00,3.773754835128784180e+00,3.657742500305175781e+00,3.548650503158569336e+00,3.445877552032470703e+00,3.348889827728271484e+00,3.257212162017822266e+00,3.170420408248901367e+00,3.088133811950683594e+00,3.010010480880737305e+00,2.935742378234863281e+00,2.865051031112670898e+00,2.797683954238891602e+00,2.733412027359008789e+00,2.672027111053466797e+00,2.613338708877563477e+00,2.557173013687133789e+00,2.503370523452758789e+00,2.451785564422607422e+00,2.402283430099487305e+00,2.354740858078002930e+00,2.309043407440185547e+00,2.265085935592651367e+00,2.222770690917968750e+00,2.182007551193237305e+00,2.142712593078613281e+00,2.104808092117309570e+00,2.068221092224121094e+00,2.032884359359741211e+00,1.998734951019287109e+00,1.965713858604431152e+00,1.933766126632690430e+00,1.902840137481689453e+00,1.872887969017028809e+00,1.843863844871520996e+00
5.000000000000000000e+00,5.000000000000000000e+00,5.000000000000000000e+00,5.000000000000000000e+00,5.000000000000000000e+00,5.000000000000000000e+00,5.000000000000000000e+00,5.000000000000000000e+00,5.000000000000000000e+00,5.000000000000000000e+00,5.000000000000000000e+00,5.000000000000000000e+00,5.000000000000000000e+00,5.000000000000000000e+00,5.000000000000000000e+00,5.000000000000000000e+00,5.000000000000000000e+00,5.000000000000000000e+00,5.000000000000000000e+00,5.000000000000000000e+00,5.000000000000000000e+00,5.000000000000000000e+00,4.044388771057128906e+00,4.069406509399414062e+00,4.093426704406738281e+00,4.132045269012451172e+00,4.190826416015625000e+00,4.277244567871093750e+00,5.000000000000000000e+00,5.000000000000000000e+00,5.000000000000000000e+00,5.000000000000000000e+00,5.000000000000000000e+00,5.000000000000000000e+00,5.000000000000000000e+00,5.000000000000000000e+00,5.000000000000000000e+00,5.000000000000000000e+00,5.000000000000000000e+00,4.850834369659423828e+00,4.660815715789794922e+00,4.485123634338378906e+00,4.322195529937744141e+00,4.170690536499023438e+00,4.029446601867675781e+00,3.897455692291259766e+00,3.773838043212890625e+00,3.657820940017700195e+00,3.548724412918090820e+00,3.445947170257568359e+00,3.348955631256103516e+00,3.257274627685546875e+00,3.170479297637939453e+00,3.088189601898193359e+00,3.010063648223876953e+00,2.935793161392211914e+00,2.865098953247070312e+00,2.797729730606079102e+00,2.733455896377563477e+00,2.672069072723388672e+00,2.613378763198852539e+00,2.557211399078369141e+00,2.503407239913940430e+00,2.451820850372314453e+00,2.402317285537719727e+00,2.354773283004760742e+00,2.309074640274047852e+00,2.265115976333618164e+00,2.222799777984619141e+00,2.182035446166992188e+00,2.142739534378051758e+00,2.104834079742431641e+00,2.068246126174926758e+00,2.032908678054809570e+00,1.998758316040039062e+00,1.965736627578735352e+00,1.933788061141967773e+00,1.902861356735229492e+00,1.872908353805541992e+00,1.843883752822875977e+00
5.000000000000000000e+00,5.000000000000000000e+00,5.000000000000000000e+00,5.000000000000000000e+00,5.000000000000000000e+00,5.000000000000000000e+00,5.000000000000000000e+00,5.000000000000000000e+00,5.000000000000000000e+00,5.000000000000000000e+00,5.000000000000000000e+00,5.000000000000000000e+00,5.000000000000000000e+00,5.000000000000000000e+00,5.000000000000000000e+00,5.000000000000000000e+00,5.000000000000000000e+00,5.000000000000000000e+00,5.000000000000000000e+00,5.000000000000000000e+00,5.000000000000000000e+00,5.000000000000000000e+00,4.066622257232666016e+00,4.081119060516357422e+00,4.072879314422607422e+00,4.093378543853759766e+00,4.139154911041259766e+00,4.215287685394287109e+00,4.339883327484130859e+00,5.000000000000000000e+00,5.000000000000000000e+00,5.000000000000000000e+00,5.000000000000000000e+00,5.000000000000000000e+00,5.000000000000000000e+00,5.000000000000000000e+00,5.000000000000000000e+00,5.000000000000000000e+00,5.000000000000000000e+00,4.850972175598144531e+00,4.660943508148193359e+00,4.485241889953613281e+00,4.322305679321289062e+00,4.170792102813720703e+00,4.029541492462158203e+00,3.897544860839843750e+00,3.773921728134155273e+00,3.657899618148803711e+00,3.548798561096191406e+00,3.446016788482666016e+00,3.349021434783935547e+00,3.257336854934692383e+00,3.170538425445556641e+00,3.088245630264282227e+00,3.010116577148437500e+00,2.935843467712402344e+00,2.865147113800048828e+00,2.797775745391845703e+00,2.733499765396118164e+00,2.672111034393310547e+00,2.613418817520141602e+00,2.557249784469604492e+00,2.503444194793701172e+00,2.451856136322021484e+00,2.402351140975952148e+00,2.354805707931518555e+00,2.309105873107910156e+00,2.265146017074584961e+00,2.222828626632690430e+00,2.182063579559326172e+00,2.142766714096069336e+00,2.104860067367553711e+00,2.068271160125732422e+00,2.032932996749877930e+00,1.998781919479370117e+00,1.965759277343750000e+00,1.933809876441955566e+00,1.902882695198059082e+00,1.872928857803344727e+00,1.843903779983520508e+00
5.000000000000000000e+00,5.000000000000000000e+00,5.000000000000000000e+00,5.000000000000000000e+00,5.000000000000000000e+00,5.000000000000000000e+00,5.000000000000000000e+00,5.000000000000000000e+00,5.000000000000000000e+00,5.000000000000000000e+00,5.000000000000000000e+00,5.000000000000000000e+00,5.000000000000000000e+00,5.000000000000000000e+00,5.000000000000000000e+00,5.000000000000000000e+00,5.000000000000000000e+00,5.000000000000000000e+00,5.000000000000000000e+00,5.000000000000000000e+00,5.000000000000000000e+00,5.000000000000000000e+00,4.080476284027099609e+00,4.088762760162353516e+00,4.090069293975830078e+00,4.095623493194580078e+00,4.133984565734863281e+00,4.223289966583251953e+00,4.395824432373046875e+00,5.000000000000000000e+00,5.000000000000000000e+00,5.000000000000000000e+00,5.000000000000000000e+00,5.000000000000000000e+00,5.000000000000000000e+00,5.000000000000000000e+00,5.000000000000000000e+00,5.000000000000000000e+00,5.000000000000000000e+00,4.851109981536865234e+00,4.661070823669433594e+00,4.485359668731689453e+00,4.322414875030517578e+00,4.170894145965576172e+00,4.029636859893798828e+00,3.897634029388427734e+00,3.774005174636840820e+00,3.657978057861328125e+00,3.548872470855712891e+00,3.446086645126342773e+00,3.349087238311767578e+00,3.257399082183837891e+00,3.170597076416015625e+00,3.088301420211791992e+00,3.010169744491577148e+00,2.935894012451171875e+00,2.865195274353027344e+00,2.797821760177612305e+00,2.733543634414672852e+00,2.672152996063232422e+00,2.613459110260009766e+00,2.557288169860839844e+00,2.503480911254882812e+00,2.451891183853149414e+00,2.402384996414184570e+00,2.354838371276855469e+00,2.309137105941772461e+00,2.265176296234130859e+00,2.222857713699340820e+00,2.182091474533081055e+00,2.142793655395507812e+00,2.104886054992675781e+00,2.068296432495117188e+00,2.032957077026367188e+00,1.998805284500122070e+00,1.965781807899475098e+00,1.933831930160522461e+00,1.902903795242309570e+00,1.872949600219726562e+00,1.843923568725585938e+00
5.000000000000000000e+00,5.000000000000000000e+00,5.000000000000000000e+00,5.000000000000000000e+00,5.000000000000000000e+00,5.000000000000000000e+00,5.000000000000000000e+00,5.000000000000000000e+00,5.000000000000000000e+00,5.000000000000000000e+00,5.000000000000000000e+00,5.000000000000000000e+00,5.000000000000000000e+00,5.000000000000000000e+00,5.000000000000000000e+00,5.000000000000000000e+00,5.000000000000000000e+00,5.000000000000000000e+00,5.000000000000000000e+00,5.000000000000000000e+00,5.000000000000000000e+00,5.000000000000000000e+00,4.083411216735839844e+00,4.083469390869140625e+00,4.093631267547607422e+00,4.095162868499755859e+00,4.131524085998535156e+00,4.226283550262451172e+00,5.000000000000000000e+00,5.000000000000000000e+00,5.000000000000000000e+00,5.000000000000000000e+00,5.000000000000000000e+00,5.000000000000000000e+00,5.000000000000000000e+00,5.000000000000000000e+00,5.000000000000000000e+00,5.000000000000000000e+00,5.000000000000000000e+00,4.851247787475585938e+00,4.661198139190673828e+00,4.485477924346923828e+00,4.322524547576904297e+00,4.170996665954589844e+00,4.029732227325439453e+00,3.897723197937011719e+00,3.774088859558105469e+00,3.658056735992431641e+00,3.548946380615234375e+00,3.446156263351440430e+00,3.349152803421020508e+00,3.257461071014404297e+00,3.170655965805053711e+00,3.088357448577880859e+00,3.010223150253295898e+00,2.935944557189941406e+00,2.865243673324584961e+00,2.797867774963378906e+00,2.733587503433227539e+00,2.672194719314575195e+00,2.613499164581298828e+00,2.557326316833496094e+00,2.503517389297485352e+00,2.451926469802856445e+00,2.402418851852416992e+00,2.354870796203613281e+00,2.309168338775634766e+00,2.265206336975097656e+00,2.222886800765991211e+00,2.182119369506835938e+00,2.142820596694946289e+00,2.104912042617797852e+00,2.068321228027343750e+00,2.032981395721435547e+00,1.998828649520874023e+00,1.965804576873779297e+00,1.933853745460510254e+00,1.902925133705139160e+00,1.872970104217529297e+00,1.843943715095520020e+00
5.000000000000000000e+00,5.000000000000000000e+00,5.000000000000000000e+00,5.000000000000000000e+00,5.000000000000000000e+00,5.000000000000000000e+00,5.000000000000000000e+00,5.000000000000000000e+00,5.000000000000000000e+00,5.000000000000000000e+00,5.000000000000000000e+00,5.000000000000000000e+00,5.000000000000000000e+00,5.000000000000000000e+00,5.000000000000000000e+00,5.000000000000000000e+00,5.000000000000000000e+00,5.000000000000000000e+00,5.000000000000000000e+00,5.000000000000000000e+00,5.000000000000000000e+00,5.000000000000000000e+00,4.098023414611816406e+00,4.099864482879638672e+00,4.081458568572998047e+00,4.087358474731445312e+00,4.127111911773681641e+00,4.202957630157470703e+00,5.000000000000000000e+00,5.000000000000000000e+00,5.000000000000000000e+00,5.000000000000000000e+00,5.000000000000000000e+00,5.000000000000000000e+00,5.000000000000000000e+00,5.000000000000000000e+00,5.000000000000000000e+00,5.000000000000000000e+00,5.000000000000000000e+00,4.851386070251464844e+00,4.661325931549072266e+00,4.485595703125000000e+00,4.322634220123291016e+00,4.171098232269287109e+00,4.029827117919921875e+00,3.897812604904174805e+00,3.774172544479370117e+00,3.658135175704956055e+00,3.549019813537597656e+00,3.446225643157958984e+00,3.349218606948852539e+00,3.257523298263549805e+00,3.170715093612670898e+00,3.088413476943969727e+00,3.010276317596435547e+00,2.935995340347290039e+00,2.865291833877563477e+00,2.797913551330566406e+00,2.733631372451782227e+00,2.672236442565917969e+00,2.613538980484008789e+00,2.557364702224731445e+00,2.503554344177246094e+00,2.451961755752563477e+00,2.402452707290649414e+00,2.354903459548950195e+00,2.309199810028076172e+00,2.265236377716064453e+00,2.222915649414062500e+00,2.182147264480590820e+00,2.142847299575805664e+00,2.104938030242919922e+00,2.068346500396728516e+00,2.033005714416503906e+00,1.998852133750915527e+00,1.965827226638793945e+00,1.933875799179077148e+00,1.902946352958679199e+00,1.872990846633911133e+00,1.843963503837585449e+00
5.000000000000000000e+00,5.000000000000000000e+00,5.000000000000000000e+00,5.000000000000000000e+00,5.000000000000000000e+00,5.000000000000000000e+00,5.000000000000000000e+00,5.000000000000000000e+00,5.000000000000000000e+00,5.000000000000000000e+00,5.000000000000000000e+00,5.000000000000000000e+00,5.000000000000000000e+00,5.000000000000000000e+00,5.000000000000000000e+00,5.000000000000000000e+00,5.000000000000000000e+00,5.000000000000000000e+00,5.000000000000000000e+00,5.000000000000000000e+00,5.000000000000000000e+00,5.000000000000000000e+00,5.000000000000000000e+00,4.063811779022216797e+00,4.089058399200439453e+00,4.094773769378662109e+00,4.128907680511474609e+00,4.212724208831787109e+00,5.000000000000000000e+00,5.000000000000000000e+00,5.000000000000000000e+00,5.000000000000000000e+00,5.000000000000000000e+00,5.000000000000000000e+00,5.000000000000000000e+00,5.000000000000000000e+00,5.000000000000000000e+00,5.000000000000000000e+00,5.000000000000000000e+00,4.851524353027343750e+00,4.661453247070312500e+00,4.485713481903076172e+00,4.322743892669677734e+00,4.171200275421142578e+00,4.029922485351562500e+00,3.897901773452758789e+00,3.774255752563476562e+00,3.658213376998901367e+00,3.549093961715698242e+00,3.446295499801635742e+00,3.349284410476684570e+00,3.257585763931274414e+00,3.170774221420288086e+00,3.088469505310058594e+00,3.010329484939575195e+00,2.936045885086059570e+00,2.865339994430541992e+00,2.797959327697753906e+00,2.733675003051757812e+00,2.672278404235839844e+00,2.613579034805297852e+00,2.557403087615966797e+00,2.503591060638427734e+00,2.451997041702270508e+00,2.402486562728881836e+00,2.354936122894287109e+00,2.309231042861938477e+00,2.265266418457031250e+00,2.222944498062133789e+00,2.182175159454345703e+00,2.142874240875244141e+00,2.104964017868041992e+00,2.068371534347534180e+00,2.033029794692993164e+00,1.998875498771667480e+00,1.965849995613098145e+00,1.933897733688354492e+00,1.902967691421508789e+00,1.873011231422424316e+00,1.843983411788940430e+00
5.000000000000000000e+00,5.000000000000000000e+00,5.000000000000000000e+00,5.000000000000000000e+00,5.000000000000000000e+00,5.000000000000000000e+00,5.000000000000000000e+00,5.000000000000000000e+00,5.000000000000000000e+00,5.000000000000000000e+00,5.000000000000000000e+00,5.000000000000000000e+00,5.000000000000000000e+00,5.000000000000000000e+00,5.000000000000000000e+00,5.000000000000000000e+00,5.000000000000000000e+00,5.000000000000000000e+00,5.000000000000000000e+00,5.000000000000000000e+00,5.000000000000000000e+00,5.000000000000000000e+00,5.000000000000000000e+00,4.016520977020263672e+00,4.084490776062011719e+00,4.114832401275634766e+00,4.154818058013916016e+00,4.190975189208984375e+00,5.000000000000000000e+00,5.000000000000000000e+00,5.000000000000000000e+00,5.000000000000000000e+00,5.000000000000000000e+00,5.000000000000000000e+00,5.000000000000000000e+00,5.000000000000000000e+00,5.000000000000000000e+00,5.000000000000000000e+00,5.000000000000000000e+00,4.851662158966064453e+00,4.661580562591552734e+00,4.485831737518310547e+00,4.322853565216064453e+00,4.171302795410156250e+00,4.030017852783203125e+00,3.897990465164184570e+00,3.774339437484741211e+00,3.658292055130004883e+00,3.549167871475219727e+00,3.446365118026733398e+00,3.349350452423095703e+00,3.257647991180419922e+00,3.170833110809326172e+00,3.088525295257568359e+00,3.010382652282714844e+00,2.936096191406250000e+00,2.865387916564941406e+00,2.798005342483520508e+00,2.733718872070312500e+00,2.672320365905761719e+00,2.613619327545166016e+00,2.557441473007202148e+00,2.503627777099609375e+00,2.452032327651977539e+00,2.402520418167114258e+00,2.354968309402465820e+00,2.309262275695800781e+00,2.265296459197998047e+00,2.222973585128784180e+00,2.182203054428100586e+00,2.142901182174682617e+00,2.104990005493164062e+00,2.068396806716918945e+00,2.033054113388061523e+00,1.998899102210998535e+00,1.965872526168823242e+00,1.933919548988342285e+00,1.902988910675048828e+00,1.873031735420227051e+00,1.844003438949584961e+00
5.000000000000000000e+00,5.000000000000000000e+00,5.000000000000000000e+00,5.000000000000000000e+00,5.000000000000000000e+00,5.000000000000000000e+00,5.000000000000000000e+00,5.000000000000000000e+00,5.000000000000000000e+00,5.000000000000000000e+00,5.000000000000000000e+00,5.000000000000000000e+00,5.000000000000000000e+00,5.000000000000000000e+00,5.000000000000000000e+00,5.000000000000000000e+00,5.000000000000000000e+00,5.000000000000000000e+00,5.000000000000000000e+00,5.000000000000000000e+00,5.000000000000000000e+00,5.000000000000000000e+00,5.000000000000000000e+00,3.987889766693115234e+00,4.068151950836181641e+00,4.113027095794677734e+00,4.116947650909423828e+00,4.122256278991699219e+00,5.000000000000000000e+00,5.000000000000000000e+00,5.000000000000000000e+00,5.000000000000000000e+00,5.000000000000000000e+00,5.000000000000000000e+00,5.000000000000000000e+00,5.000000000000000000e+00,5.000000000000000000e+00,5.000000000000000000e+00,5.000000000000000000e+00,4.851800441741943359e+00,4.661707878112792969e+00,4.485949993133544922e+00,4.322962760925292969e+00,4.171404361724853516e+00,4.030113220214843750e+00,3.898079633712768555e+00,3.774422883987426758e+00,3.658370494842529297e+00,3.549241781234741211e+00,3.446434974670410156e+00,3.349416255950927734e+00,3.257710218429565430e+00,3.170892238616943359e+00,3.088581085205078125e+00,3.010435581207275391e+00,2.936146736145019531e+00,2.865436077117919922e+00,2.798051357269287109e+00,2.733762741088867188e+00,2.672362327575683594e+00,2.613659381866455078e+00,2.557479858398437500e+00,2.503664731979370117e+00,2.452067375183105469e+00,2.402554273605346680e+00,2.355000972747802734e+00,2.309293508529663086e+00,2.265326738357543945e+00,2.223002672195434570e+00,2.182231187820434570e+00,2.142928123474121094e+00,2.105015993118286133e+00,2.068421840667724609e+00,2.033078432083129883e+00,1.998922467231750488e+00,1.965895175933837891e+00,1.933941602706909180e+00,1.903010010719299316e+00,1.873052477836608887e+00,1.844023346900939941e+00
5.000000000000000000e+00,5.000000000000000000e+00,5.000000000000000000e+00,5.000000000000000000e+00,5.000000000000000000e+00,5.000000000000000000e+00,5.000000000000000000e+00,5.000000000000000000e+00,5.000000000000000000e+00,5.000000000000000000e+00,5.000000000000000000e+00,5.000000000000000000e+00,5.000000000000000000e+00,5.000000000000000000e+00,5.000000000000000000e+00,5.000000000000000000e+00,5.000000000000000000e+00,5.000000000000000000e+00,5.000000000000000000e+00,5.000000000000000000e+00,5.000000000000000000e+00,5.000000000000000000e+00,5.000000000000000000e+00,3.930455684661865234e+00,4.066769123077392578e+00,4.102002143859863281e+00,4.111830711364746094e+00,4.103660106658935547e+00,5.000000000000000000e+00,5.000000000000000000e+00,5.000000000000000000e+00,5.000000000000000000e+00,5.000000000000000000e+00,5.000000000000000000e+00,5.000000000000000000e+00,5.000000000000000000e+00,5.000000000000000000e+00,5.000000000000000000e+00,5.000000000000000000e+00,4.851938724517822266e+00,4.661835193634033203e+00,4.486067771911621094e+00,4.323072433471679688e+00,4.171506881713867188e+00,4.030208587646484375e+00,3.898168802261352539e+00,3.774506568908691406e+00,3.658449172973632812e+00,3.549315690994262695e+00,3.446504592895507812e+00,3.349482059478759766e+00,3.257772207260131836e+00,3.170950889587402344e+00,3.088637113571166992e+00,3.010488748550415039e+00,2.936197519302368164e+00,2.865484476089477539e+00,2.798097372055053711e+00,2.733806610107421875e+00,2.672404289245605469e+00,2.613699436187744141e+00,2.557518005371093750e+00,2.503701210021972656e+00,2.452102661132812500e+00,2.402588129043579102e+00,2.355033636093139648e+00,2.309324741363525391e+00,2.265356779098510742e+00,2.223031520843505859e+00,2.182259082794189453e+00,2.142955064773559570e+00,2.105041980743408203e+00,2.068446874618530273e+00,2.033102512359619141e+00,1.998945713043212891e+00,1.965917944908142090e+00,1.933963418006896973e+00,1.903031349182128906e+00,1.873072981834411621e+00,1.844043374061584473e+00
5.000000000000000000e+00,5.000000000000000000e+00,5.000000000000000000e+00,5.000000000000000000e+00,5.000000000000000000e+00,5.000000000000000000e+00,5.000000000000000000e+00,5.000000000000000000e+00,5.000000000000000000e+00,5.000000000000000000e+00,5.000000000000000000e+00,5.000000000000000000e+00,5.000000000000000000e+00,5.000000000000000000e+00,5.000000000000000000e+00,5.000000000000000000e+00,5.000000000000000000e+00,5.000000000000000000e+00,5.000000000000000000e+00,5.000000000000000000e+00,5.000000000000000000e+00,5.000000000000000000e+00,5.000000000000000000e+00,3.904053688049316406e+00,4.071020126342773438e+00,4.109361171722412109e+00,4.104447841644287109e+00,4.085310935974121094e+00,4.357479095458984375e+00,5.000000000000000000e+00,5.000000000000000000e+00,5.000000000000000000e+00,5.000000000000000000e+00,5.000000000000000000e+00,5.000000000000000000e+00,5.000000000000000000e+00,5.000000000000000000e+00,5.000000000000000000e+00,5.000000000000000000e+00,4.852076530456542969e+00,4.661962985992431641e+00,4.486186027526855469e+00,4.323182106018066406e+00,4.171608924865722656e+00,4.030303478240966797e+00,3.898258209228515625e+00,3.774590253829956055e+00,3.658527851104736328e+00,3.549389600753784180e+00,3.446573972702026367e+00,3.349547624588012695e+00,3.257834672927856445e+00,3.171010017395019531e+00,3.088693141937255859e+00,3.010541915893554688e+00,2.936248064041137695e+00,2.865532636642456055e+00,2.798143148422241211e+00,2.733850479125976562e+00,2.672446250915527344e+00,2.613739252090454102e+00,2.557556390762329102e+00,2.503738164901733398e+00,2.452138185501098633e+00,2.402621984481811523e+00,2.355066061019897461e+00,2.309356212615966797e+00,2.265386819839477539e+00,2.223060607910156250e+00,2.182286977767944336e+00,2.142982006072998047e+00,2.105067968368530273e+00,2.068471908569335938e+00,2.033126831054687500e+00,1.998969316482543945e+00,1.965940475463867188e+00,1.933985471725463867e+00,1.903052568435668945e+00,1.873093724250793457e+00,1.844063282012939453e+00
5.000000000000000000e+00,5.000000000000000000e+00,5.000000000000000000e+00,5.000000000000000000e+00,5.000000000000000000e+00,5.000000000000000000e+00,5.000000000000000000e+00,5.000000000000000000e+00,5.000000000000000000e+00,5.000000000000000000e+00,5.000000000000000000e+00,5.000000000000000000e+00,5.000000000000000000e+00,5.000000000000000000e+00,5.000000000000000000e+00,5.000000000000000000e+00,5.000000000000000000e+00,5.000000000000000000e+00,5.000000000000000000e+00,5.000000000000000000e+00,5.000000000000000000e+00,5.000000000000000000e+00,5.000000000000000000e+00,5.000000000000000000e+00,4.074880123138427734e+00,4.114089965820312500e+00,4.091175556182861328e+00,4.064575195312500000e+00,5.000000000000000000e+00,5.000000000000000000e+00,5.000000000000000000e+00,5.000000000000000000e+00,5.000000000000000000e+00,5.000000000000000000e+00,5.000000000000000000e+00,5.000000000000000000e+00,5.000000000000000000e+00,5.000000000000000000e+00,5.000000000000000000e+00,4.852214813232421875e+00,4.662090778350830078e+00,4.486304283142089844e+00,4.323291778564453125e+00,4.171710968017578125e+00,4.030398845672607422e+00,3.898347377777099609e+00,3.774673938751220703e+00,3.658605813980102539e+00,3.549463272094726562e+00,3.446643829345703125e+00,3.349613428115844727e+00,3.257896900177001953e+00,3.171068906784057617e+00,3.088749170303344727e+00,3.010595321655273438e+00,2.936298608779907227e+00,2.865580797195434570e+00,2.798189163208007812e+00,2.733894348144531250e+00,2.672487974166870117e+00,2.613779544830322266e+00,2.557594776153564453e+00,2.503774881362915039e+00,2.452173471450805664e+00,2.402655839920043945e+00,2.355098724365234375e+00,2.309387445449829102e+00,2.265417098999023438e+00,2.223089456558227539e+00,2.182314872741699219e+00,2.143008947372436523e+00,2.105093955993652344e+00,2.068496942520141602e+00,2.033151149749755859e+00,1.998992681503295898e+00,1.965963363647460938e+00,1.934007406234741211e+00,1.903073906898498535e+00,1.873114109039306641e+00,1.844083189964294434e+00
5.000000000000000000e+00,5.000000000000000000e+00,5.000000000000000000e+00,5.000000000000000000e+00,5.000000000000000000e+00,5.000000000000000000e+00,5.000000000000000000e+00,5.000000000000000000e+00,5.000000000000000000e+00,5.000000000000000000e+00,5.000000000000000000e+00,5.000000000000000000e+00,5.000000000000000000e+00,5.000000000000000000e+00,5.000000000000000000e+00,5.000000000000000000e+00,5.000000000000000000e+00,5.000000000000000000e+00,5.000000000000000000e+00,5.000000000000000000e+00,5.000000000000000000e+00,5.000000000000000000e+00,5.000000000000000000e+00,5.000000000000000000e+00,4.077126979827880859e+00,4.116140365600585938e+00,5.000000000000000000e+00,4.043080329895019531e+00,5.000000000000000000e+00,5.000000000000000000e+00,5.000000000000000000e+00,5.000000000000000000e+00,5.000000000000000000e+00,5.000000000000000000e+00,5.000000000000000000e+00,5.000000000000000000e+00,5.000000000000000000e+00,5.000000000000000000e+00,5.000000000000000000e+00,4.852353096008300781e+00,4.662218093872070312e+00,4.486422061920166016e+00,4.323401451110839844e+00,4.171813011169433594e+00,4.030494213104248047e+00,3.898436069488525391e+00,3.774757146835327148e+00,3.658684492111206055e+00,3.549537181854248047e+00,3.446713447570800781e+00,3.349679470062255859e+00,3.257959365844726562e+00,3.171128034591674805e+00,3.088805198669433594e+00,3.010648488998413086e+00,2.936349391937255859e+00,2.865628719329833984e+00,2.798234939575195312e+00,2.733938217163085938e+00,2.672529935836791992e+00,2.613819599151611328e+00,2.557633399963378906e+00,2.503811597824096680e+00,2.452208757400512695e+00,2.402689695358276367e+00,2.355131149291992188e+00,2.309418678283691406e+00,2.265447139739990234e+00,2.223118543624877930e+00,2.182342767715454102e+00,2.143035888671875000e+00,2.105119943618774414e+00,2.068522214889526367e+00,2.033175468444824219e+00,1.999016284942626953e+00,1.965985894203186035e+00,1.934029459953308105e+00,1.903095126152038574e+00,1.873134613037109375e+00,1.844103217124938965e+00
5.000000000000000000e+00,5.000000000000000000e+00,5.000000000000000000e+00,5.000000000000000000e+00,5.000000000000000000e+00,5.000000000000000000e+00,5.000000000000000000e+00,5.000000000000000000e+00,5.000000000000000000e+00,5.000000000000000000e+00,5.000000000000000000e+00,5.000000000000000000e+00,5.000000000000000000e+00,5.000000000000000000e+00,5.000000000000000000e+00,5.000000000000000000e+00,5.000000000000000000e+00,5.000000000000000000e+00,5.000000000000000000e+00,5.000000000000000000e+00,5.000000000000000000e+00,5.000000000000000000e+00,5.000000000000000000e+00,5.000000000000000000e+00,4.088485717773437500e+00,4.123344421386718750e+00,5.000000000000000000e+00,4.063148975372314453e+00,5.000000000000000000e+00,5.000000000000000000e+00,5.000000000000000000e+00,5.000000000000000000e+00,5.000000000000000000e+00,5.000000000000000000e+00,5.000000000000000000e+00,5.000000000000000000e+00,5.000000000000000000e+00,5.000000000000000000e+00,5.000000000000000000e+00,4.852490425109863281e+00,4.662345409393310547e+00,4.486540317535400391e+00,4.323511123657226562e+00,4.171915054321289062e+00,4.030589580535888672e+00,3.898525238037109375e+00,3.774840831756591797e+00,3.658763170242309570e+00,3.549611330032348633e+00,3.446783304214477539e+00,3.349745273590087891e+00,3.258021593093872070e+00,3.171187162399291992e+00,3.088861227035522461e+00,3.010701417922973633e+00,2.936399698257446289e+00,2.865676879882812500e+00,2.798280954360961914e+00,2.733982086181640625e+00,2.672571659088134766e+00,2.613859653472900391e+00,2.557671785354614258e+00,2.503848552703857422e+00,2.452244043350219727e+00,2.402723550796508789e+00,2.355163574218750000e+00,2.309449911117553711e+00,2.265477180480957031e+00,2.223147630691528320e+00,2.182370662689208984e+00,2.143062829971313477e+00,2.105145931243896484e+00,2.068547248840332031e+00,2.033199548721313477e+00,1.999039649963378906e+00,1.966008424758911133e+00,1.934051275253295898e+00,1.903116226196289062e+00,1.873155355453491211e+00,1.844123005867004395e+00
5.000000000000000000e+00,5.000000000000000000e+00,5.000000000000000000e+00,5.000000000000000000e+00,5.000000000000000000e+00,5.000000000000000000e+00,5.000000000000000000e+00,5.000000000000000000e+00,5.000000000000000000e+00,5.000000000000000000e+00,5.000000000000000000e+00,5.000000000000000000e+00,5.000000000000000000e+00,5.000000000000000000e+00,5.000000000000000000e+00,5.000000000000000000e+00,5.000000000000000000e+00,5.000000000000000000e+00,5.000000000000000000e+00,5.000000000000000000e+00,5.000000000000000000e+00,5.000000000000000000e+00,5.000000000000000000e+00,4.221312999725341797e+00,4.146603584289550781e+00,5.000000000000000000e+00,4.112257003784179688e+00,4.092257022857666016e+00,5.000000000000000000e+00,5.000000000000000000e+00,5.000000000000000000e+00,5.000000000000000000e+00,5.000000000000000000e+00,5.000000000000000000e+00,5.000000000000000000e+00,5.000000000000000000e+00,5.000000000000000000e+00,5.000000000000000000e+00,5.000000000000000000e+00,4.852627754211425781e+00,4.662473201751708984e+00,4.486658096313476562e+00,4.323620796203613281e+00,4.172017097473144531e+00,4.030684947967529297e+00,3.898614645004272461e+00,3.774924516677856445e+00,3.658841609954833984e+00,3.549685239791870117e+00,3.446852922439575195e+00,3.349811077117919922e+00,3.258083820343017578e+00,3.171245813369750977e+00,3.088917016983032227e+00,3.010754585266113281e+00,2.936450242996215820e+00,2.865725278854370117e+00,2.798326969146728516e+00,2.734025955200195312e+00,2.672613620758056641e+00,2.613899707794189453e+00,2.557710170745849609e+00,2.503885030746459961e+00,2.452279090881347656e+00,2.402757406234741211e+00,2.355196237564086914e+00,2.309481143951416016e+00,2.265507221221923828e+00,2.223176479339599609e+00,2.182398796081542969e+00,2.143089771270751953e+00,2.105171918869018555e+00,2.068572521209716797e+00,2.033223867416381836e+00,1.999062895774841309e+00,1.966031312942504883e+00,1.934073090553283691e+00,1.903137564659118652e+00,1.873175859451293945e+00,1.844143152236938477e+00
5.000000000000000000e+00,5.000000000000000000e+00,5.000000000000000000e+00,5.000000000000000000e+00,5.000000000000000000e+00,5.000000000000000000e+00,5.000000000000000000e+00,5.000000000000000000e+00,5.000000000000000000e+00,5.000000000000000000e+00,5.000000000000000000e+00,5.000000000000000000e+00,5.000000000000000000e+00,5.000000000000000000e+00,5.000000000000000000e+00,5.000000000000000000e+00,5.000000000000000000e+00,5.000000000000000000e+00,5.000000000000000000e+00,5.000000000000000000e+00,5.000000000000000000e+00,5.000000000000000000e+00,5.000000000000000000e+00,4.280217170715332031e+00,5.000000000000000000e+00,5.000000000000000000e+00,4.108187198638916016e+00,4.095046520233154297e+00,5.000000000000000000e+00,5.000000000000000000e+00,5.000000000000000000e+00,5.000000000000000000e+00,5.000000000000000000e+00,5.000000000000000000e+00,5.000000000000000000e+00,5.000000000000000000e+00,5.000000000000000000e+00,5.000000000000000000e+00,5.000000000000000000e+00,4.852765560150146484e+00,4.662599563598632812e+00,4.486776351928710938e+00,4.323730468750000000e+00,4.172119140625000000e+00,4.030779838562011719e+00,3.898703813552856445e+00,3.775008201599121094e+00,3.658920288085937500e+00,3.549759149551391602e+00,3.446922779083251953e+00,3.349876642227172852e+00,3.258145809173583984e+00,3.171304941177368164e+00,3.088973045349121094e+00,3.010807752609252930e+00,2.936501026153564453e+00,2.865773439407348633e+00,2.798372745513916016e+00,2.734069824218750000e+00,2.672655582427978516e+00,2.613939762115478516e+00,2.557748317718505859e+00,2.503921985626220703e+00,2.452314376831054688e+00,2.402791261672973633e+00,2.355228662490844727e+00,2.309512615203857422e+00,2.265537261962890625e+00,2.223205566406250000e+00,2.182426691055297852e+00,2.143116712570190430e+00,2.105197906494140625e+00,2.068597316741943359e+00,2.033248186111450195e+00,1.999086499214172363e+00,1.966053843498229980e+00,1.934095263481140137e+00,1.903158783912658691e+00,1.873196601867675781e+00,1.844162940979003906e+00
5.000000000000000000e+00,5.000000000000000000e+00,5.000000000000000000e+00,5.000000000000000000e+00,5.000000000000000000e+00,5.000000000000000000e+00,5.000000000000000000e+00,5.000000000000000000e+00,5.000000000000000000e+00,5.000000000000000000e+00,5.000000000000000000e+00,5.000000000000000000e+00,5.000000000000000000e+00,5.000000000000000000e+00,5.000000000000000000e+00,5.000000000000000000e+00,5.000000000000000000e+00,5.000000000000000000e+00,5.000000000000000000e+00,5.000000000000000000e+00,5.000000000000000000e+00,5.000000000000000000e+00,5.000000000000000000e+00,4.370103836059570312e+00,5.000000000000000000e+00,5.000000000000000000e+00,4.109323501586914062e+00,4.097440719604492188e+00,5.000000000000000000e+00,5.000000000000000000e+00,5.000000000000000000e+00,5.000000000000000000e+00,5.000000000000000000e+00,5.000000000000000000e+00,5.000000000000000000e+00,5.000000000000000000e+00,5.000000000000000000e+00,5.000000000000000000e+00,5.000000000000000000e+00,4.852902889251708984e+00,4.662726879119873047e+00,4.486893653869628906e+00,4.323840141296386719e+00,4.172221183776855469e+00,4.030875205993652344e+00,3.898792982101440430e+00,3.775091886520385742e+00,3.658998966217041016e+00,3.549832820892333984e+00,3.446992158889770508e+00,3.349942445755004883e+00,3.258208274841308594e+00,3.171363830566406250e+00,3.089028835296630859e+00,3.010860919952392578e+00,2.936551570892333984e+00,2.865821599960327148e+00,2.798418760299682617e+00,2.734113454818725586e+00,2.672697305679321289e+00,2.613979816436767578e+00,2.557786703109741211e+00,2.503958702087402344e+00,2.452349662780761719e+00,2.402825117111206055e+00,2.355261325836181641e+00,2.309543848037719727e+00,2.265567541122436523e+00,2.223234653472900391e+00,2.182454586029052734e+00,2.143143653869628906e+00,2.105223894119262695e+00,2.068622589111328125e+00,2.033272266387939453e+00,1.999109864234924316e+00,1.966076612472534180e+00,1.934117078781127930e+00,1.903180122375488281e+00,1.873217105865478516e+00,1.844183087348937988e+00
5.000000000000000000e+00,5.000000000000000000e+00,5.000000000000000000e+00,5.000000000000000000e+00,5.000000000000000000e+00,5.000000000000000000e+00,5.000000000000000000e+00,5.000000000000000000e+00,5.000000000000000000e+00,5.000000000000000000e+00,5.000000000000000000e+00,5.000000000000000000e+00,5.000000000000000000e+00,5.000000000000000000e+00,5.000000000000000000e+00,5.000000000000000000e+00,5.000000000000000000e+00,5.000000000000000000e+00,5.000000000000000000e+00,5.000000000000000000e+00,5.000000000000000000e+00,5.000000000000000000e+00,5.000000000000000000e+00,4.454154491424560547e+00,5.000000000000000000e+00,5.000000000000000000e+00,4.115176200866699219e+00,4.120428562164306641e+00,5.000000000000000000e+00,5.000000000000000000e+00,5.000000000000000000e+00,5.000000000000000000e+00,5.000000000000000000e+00,5.000000000000000000e+00,5.000000000000000000e+00,5.000000000000000000e+00,5.000000000000000000e+00,5.000000000000000000e+00,5.000000000000000000e+00,4.853040695190429688e+00,4.662853717803955078e+00,4.487011432647705078e+00,4.323949337005615234e+00,4.172323226928710938e+00,4.030970573425292969e+00,3.898882389068603516e+00,3.775175094604492188e+00,3.659077167510986328e+00,3.549906730651855469e+00,3.447062015533447266e+00,3.350008487701416016e+00,3.258270502090454102e+00,3.171422958374023438e+00,3.089084863662719727e+00,3.010914325714111328e+00,2.936602115631103516e+00,2.865869522094726562e+00,2.798464536666870117e+00,2.734157323837280273e+00,2.672739267349243164e+00,2.614019870758056641e+00,2.557825088500976562e+00,2.503995656967163086e+00,2.452384948730468750e+00,2.402858972549438477e+00,2.355293989181518555e+00,2.309575080871582031e+00,2.265597343444824219e+00,2.223263502120971680e+00,2.182482481002807617e+00,2.143170595169067383e+00,2.105249881744384766e+00,2.068647623062133789e+00,2.033296585083007812e+00,1.999133467674255371e+00,1.966099262237548828e+00,1.934139132499694824e+00,1.903201341629028320e+00,1.873237609863281250e+00,1.844202995300292969e+00
5.000000000000000000e+00,5.000000000000000000e+00,5.000000000000000000e+00,5.000000000000000000e+00,5.000000000000000000e+00,5.000000000000000000e+00,5.000000000000000000e+00,5.000000000000000000e+00,5.000000000000000000e+00,5.000000000000000000e+00,5.000000000000000000e+00,5.000000000000000000e+00,5.000000000000000000e+00,5.000000000000000000e+00,5.000000000000000000e+00,5.000000000000000000e+00,5.000000000000000000e+00,5.000000000000000000e+00,5.000000000000000000e+00,5.000000000000000000e+00,5.000000000000000000e+00,5.000000000000000000e+00,5.000000000000000000e+00,4.472042560577392578e+00,5.000000000000000000e+00,5.000000000000000000e+00,4.129679203033447266e+00,5.000000000000000000e+00,5.000000000000000000e+00,5.000000000000000000e+00,5.000000000000000000e+00,5.000000000000000000e+00,5.000000000000000000e+00,5.000000000000000000e+00,5.000000000000000000e+00,5.000000000000000000e+00,5.000000000000000000e+00,5.000000000000000000e+00,5.000000000000000000e+00,4.853178024291992188e+00,4.662980556488037109e+00,4.487129211425781250e+00,4.324058532714843750e+00,4.172425746917724609e+00,4.031065940856933594e+00,3.898971080780029297e+00,3.775258779525756836e+00,3.659155607223510742e+00,3.549980878829956055e+00,3.447131633758544922e+00,3.350074291229248047e+00,3.258332967758178711e+00,3.171482086181640625e+00,3.089140892028808594e+00,3.010967254638671875e+00,2.936652660369873047e+00,2.865917921066284180e+00,2.798510551452636719e+00,2.734201192855834961e+00,2.672781229019165039e+00,2.614059925079345703e+00,2.557863473892211914e+00,2.504032373428344727e+00,2.452420234680175781e+00,2.402892827987670898e+00,2.355326414108276367e+00,2.309606313705444336e+00,2.265627622604370117e+00,2.223292350769042969e+00,2.182510375976562500e+00,2.143197536468505859e+00,2.105275869369506836e+00,2.068672657012939453e+00,2.033320903778076172e+00,1.999156832695007324e+00,1.966122031211853027e+00,1.934160947799682617e+00,1.903222441673278809e+00,1.873258233070373535e+00,1.844222784042358398e+00
4.875105381011962891e+00,4.873894214630126953e+00,4.872684478759765625e+00,4.871475219726562500e+00,4.870266437530517578e+00,4.869057655334472656e+00,4.867850303649902344e+00,4.866643428802490234e+00,4.865437030792236328e+00,4.864230632781982422e+00,4.863025665283203125e+00,4.861821174621582031e+00,4.860616683959960938e+00,4.859413623809814453e+00,4.858210563659667969e+00,4.857008457183837891e+00,4.855806827545166016e+00,4.854605674743652344e+00,4.853405475616455078e+00,4.852205753326416016e+00,4.851006031036376953e+00,4.849807262420654297e+00,4.848609447479248047e+00,4.847412109375000000e+00,4.846214771270751953e+00,4.845018386840820312e+00,4.125575542449951172e+00,4.071701049804687500e+00,4.841433048248291016e+00,4.840239048004150391e+00,4.839046001434326172e+00,4.837852954864501953e+00,4.836660861968994141e+00,4.835469245910644531e+00,4.834278106689453125e+00,4.833087444305419922e+00,4.831897735595703125e+00,4.830708503723144531e+00,4.829519748687744141e+00,4.828331470489501953e+00,4.663107872009277344e+00,4.487246513366699219e+00,4.324167728424072266e+00,4.172526836395263672e+00,4.031161308288574219e+00,3.899060249328613281e+00,3.775342464447021484e+00,3.659234285354614258e+00,3.550054788589477539e+00,3.447201490402221680e+00,3.350140333175659180e+00,3.258395195007324219e+00,3.171540737152099609e+00,3.089196681976318359e+00,3.011020421981811523e+00,2.936703205108642578e+00,2.865966081619262695e+00,2.798556566238403320e+00,2.734245061874389648e+00,2.672823190689086914e+00,2.614100217819213867e+00,2.557901859283447266e+00,2.504069089889526367e+00,2.452455520629882812e+00,2.402926683425903320e+00,2.355358839035034180e+00,2.309637546539306641e+00,2.265657663345336914e+00,2.223321437835693359e+00,2.182538509368896484e+00,2.143224477767944336e+00,2.105301856994628906e+00,2.068697929382324219e+00,2.033345222473144531e+00,1.999180078506469727e+00,1.966144680976867676e+00,1.934182882308959961e+00,1.903243780136108398e+00,1.873278737068176270e+00,1.844242811203002930e+00
3.777927637100219727e+00,3.777200937271118164e+00,3.776473999023437500e+00,3.775747299194335938e+00,3.775021314620971680e+00,3.774295091629028320e+00,3.773569822311401367e+00,3.772844314575195312e+00,3.772119045257568359e+00,3.771394491195678711e+00,3.770669698715209961e+00,3.769945144653320312e+00,3.769221544265747070e+00,3.768497705459594727e+00,3.767774105072021484e+00,3.767051219940185547e+00,3.766328096389770508e+00,3.765605688095092773e+00,3.764883279800415039e+00,3.764161109924316406e+00,3.763439416885375977e+00,3.762717962265014648e+00,3.761996507644653320e+00,3.761275768280029297e+00,3.760555028915405273e+00,3.759834766387939453e+00,3.759114503860473633e+00,3.758394479751586914e+00,3.757675170898437500e+00,3.756955862045288086e+00,3.756236553192138672e+00,3.755518198013305664e+00,3.754799604415893555e+00,3.754081249237060547e+00,3.753363609313964844e+00,3.752645730972290039e+00,3.751928567886352539e+00,3.751211404800415039e+00,3.750494241714477539e+00,3.749778032302856445e+00,3.749061584472656250e+00,3.748345375061035156e+00,3.747630119323730469e+00,3.746914386749267578e+00,3.746199369430541992e+00,3.745484352111816406e+00,3.744769573211669922e+00,3.659312963485717773e+00,3.550128698348999023e+00,3.447271347045898438e+00,3.350205659866333008e+00,3.258457183837890625e+00,3.171599864959716797e+00,3.089252710342407227e+00,3.011073589324951172e+00,2.936753749847412109e+00,2.866014242172241211e+00,2.798602581024169922e+00,2.734288930892944336e+00,2.672865152359008789e+00,2.614140272140502930e+00,2.557940244674682617e+00,2.504105806350708008e+00,2.452490806579589844e+00,2.402960538864135742e+00,2.355391502380371094e+00,2.309669017791748047e+00,2.265687942504882812e+00,2.223350524902343750e+00,2.182566404342651367e+00,2.143251419067382812e+00,2.105328083038330078e+00,2.068722963333129883e+00,2.033369302749633789e+00,1.999203681945800781e+00,1.966167211532592773e+00,1.934204936027526855e+00,1.903264999389648438e+00,1.873299479484558105e+00,1.844262719154357910e+00
3.083878993988037109e+00,3.083394527435302734e+00,3.082910060882568359e+00,3.082426071166992188e+00,3.081941843032836914e+00,3.081457853317260742e+00,3.080974340438842773e+00,3.080490589141845703e+00,3.080007314682006836e+00,3.079524040222167969e+00,3.079040765762329102e+00,3.078557968139648438e+00,3.078075170516967773e+00,3.077592372894287109e+00,3.077110052108764648e+00,3.076627492904663086e+00,3.076145172119140625e+00,3.075663328170776367e+00,3.075181245803833008e+00,3.074699878692626953e+00,3.074218034744262695e+00,3.073736429214477539e+00,3.073255300521850586e+00,3.072774171829223633e+00,3.072293043136596680e+00,3.071812391281127930e+00,3.071331501007080078e+00,3.070851087570190430e+00,3.070370674133300781e+00,3.069890260696411133e+00,3.069410324096679688e+00,3.068930387496948242e+00,3.068450450897216797e+00,3.067970991134643555e+00,3.067491292953491211e+00,3.067011833190917969e+00,3.066532850265502930e+00,3.066053628921508789e+00,3.065575122833251953e+00,3.065096139907836914e+00,3.064617633819580078e+00,3.064139366149902344e+00,3.063660860061645508e+00,3.063182592391967773e+00,3.062704801559448242e+00,3.062226772308349609e+00,3.061749219894409180e+00,3.061271667480468750e+00,3.060794115066528320e+00,3.060317039489746094e+00,3.059839725494384766e+00,3.059362649917602539e+00,3.058886051177978516e+00,3.058409214019775391e+00,3.011126995086669922e+00,2.936804533004760742e+00,2.866062402725219727e+00,2.798648595809936523e+00,2.734332799911499023e+00,2.672906875610351562e+00,2.614180088043212891e+00,2.557978630065917969e+00,2.504142761230468750e+00,2.452526092529296875e+00,2.402994394302368164e+00,2.355423927307128906e+00,2.309700250625610352e+00,2.265717983245849609e+00,2.223379611968994141e+00,2.182594299316406250e+00,2.143278360366821289e+00,2.105353832244873047e+00,2.068747997283935547e+00,2.033393621444702148e+00,1.999227046966552734e+00,1.966189980506896973e+00,1.934226751327514648e+00,1.903286337852478027e+00,1.873319983482360840e+00,1.844282865524291992e+00
2.605262041091918945e+00,2.604916334152221680e+00,2.604570627212524414e+00,2.604225158691406250e+00,2.603879451751708984e+00,2.603534221649169922e+00,2.603188753128051758e+00,2.602843523025512695e+00,2.602498531341552734e+00,2.602153301239013672e+00,2.601808309555053711e+00,2.601463556289672852e+00,2.601118803024291992e+00,2.600774288177490234e+00,2.600429534912109375e+00,2.600085020065307617e+00,2.599740743637084961e+00,2.599396228790283203e+00,2.599051952362060547e+00,2.598707914352416992e+00,2.598363876342773438e+00,2.598020076751708984e+00,2.597676038742065430e+00,2.597332239151000977e+00,2.596988677978515625e+00,2.596645116806030273e+00,2.596301555633544922e+00,2.595958232879638672e+00,2.595614910125732422e+00,2.595271825790405273e+00,2.594928503036499023e+00,2.594585418701171875e+00,2.594242572784423828e+00,2.593899726867675781e+00,2.593556880950927734e+00,2.593214273452758789e+00,2.592871665954589844e+00,2.592529058456420898e+00,2.592186689376831055e+00,2.591844320297241211e+00,2.591502189636230469e+00,2.591160058975219727e+00,2.590817928314208984e+00,2.590476036071777344e+00,2.590134143829345703e+00,2.589792251586914062e+00,2.589450836181640625e+00,2.589109182357788086e+00,2.588767766952514648e+00,2.588426113128662109e+00,2.588084936141967773e+00,2.587743759155273438e+00,2.587402582168579102e+00,2.587061405181884766e+00,2.586720466613769531e+00,2.586379528045654297e+00,2.586038827896118164e+00,2.585698127746582031e+00,2.585357427597045898e+00,2.585017204284667969e+00,2.584676742553710938e+00,2.558017015457153320e+00,2.504179477691650391e+00,2.452561378479003906e+00,2.403028249740600586e+00,2.355456590652465820e+00,2.309731483459472656e+00,2.265748023986816406e+00,2.223408460617065430e+00,2.182622194290161133e+00,2.143305301666259766e+00,2.105379819869995117e+00,2.068773031234741211e+00,2.033417940139770508e+00,1.999250650405883789e+00,1.966212630271911621e+00,1.934248805046081543e+00,1.903307557106018066e+00,1.873340487480163574e+00,1.844302654266357422e+00
2.255277395248413086e+00,2.255017042160034180e+00,2.254756927490234375e+00,2.254496574401855469e+00,2.254236459732055664e+00,2.253976106643676758e+00,2.253716230392456055e+00,2.253456354141235352e+00,2.253196239471435547e+00,2.252936363220214844e+00,2.252676486968994141e+00,2.252416849136352539e+00,2.252157211303710938e+00,2.251897573471069336e+00,2.251637935638427734e+00,2.251378297805786133e+00,2.251118898391723633e+00,2.250859498977661133e+00,2.250600337982177734e+00,2.250340938568115234e+00,2.250081777572631836e+00,2.249822378158569336e+00,2.249563455581665039e+00,2.249304533004760742e+00,2.249046087265014648e+00,2.248788356781005859e+00,2.248530864715576172e+00,2.248273372650146484e+00,2.248015642166137695e+00,2.247758388519287109e+00,2.247500896453857422e+00,2.247243642807006836e+00,2.246986389160156250e+00,2.246729135513305664e+00,2.246471881866455078e+00,2.246214866638183594e+00,2.245957612991333008e+00,2.245700836181640625e+00,2.245443820953369141e+00,2.245186805725097656e+00,2.244930267333984375e+00,2.244673490524291992e+00,2.244416713714599609e+00,2.244160175323486328e+00,2.243903398513793945e+00,2.243647098541259766e+00,2.243390560150146484e+00,2.243134021759033203e+00,2.242877721786499023e+00,2.242621421813964844e+00,2.242365360260009766e+00,2.242109060287475586e+00,2.241852998733520508e+00,2.241596937179565430e+00,2.241341114044189453e+00,2.241085052490234375e+00,2.240829229354858398e+00,2.240573406219482422e+00,2.240317583084106445e+00,2.240061998367309570e+00,2.239806175231933594e+00,2.239550828933715820e+00,2.239295244216918945e+00,2.239039659500122070e+00,2.238784313201904297e+00,2.238528966903686523e+00,2.238273620605468750e+00,2.238018512725830078e+00,2.223437547683715820e+00,2.182650089263916016e+00,2.143332242965698242e+00,2.105405807495117188e+00,2.068798303604125977e+00,2.033442258834838867e+00,1.999274015426635742e+00,1.966235399246215820e+00,1.934270739555358887e+00,1.903328657150268555e+00,1.873361229896545410e+00,1.844322562217712402e+00
1.988242983818054199e+00,1.988040566444396973e+00,1.987838506698608398e+00,1.987636208534240723e+00,1.987433910369873047e+00,1.987231731414794922e+00,1.987029552459716797e+00,1.986827373504638672e+00,1.986625313758850098e+00,1.986423254013061523e+00,1.986221313476562500e+00,1.986019372940063477e+00,1.985817670822143555e+00,1.985615730285644531e+00,1.985413908958435059e+00,1.985212087631225586e+00,1.985010385513305664e+00,1.984808683395385742e+00,1.984606981277465820e+00,1.984405279159545898e+00,1.984203696250915527e+00,1.984002113342285156e+00,1.983800649642944336e+00,1.983599424362182617e+00,1.983397960662841797e+00,1.983196496963500977e+00,1.982995152473449707e+00,1.982793927192687988e+00,1.982592582702636719e+00,1.982391357421875000e+00,1.982190251350402832e+00,1.981989026069641113e+00,1.981787919998168945e+00,1.981586933135986328e+00,1.981386065483093262e+00,1.981185078620910645e+00,1.980984210968017578e+00,1.980783224105834961e+00,1.980582356452941895e+00,1.980381608009338379e+00,1.980180740356445312e+00,1.979979991912841797e+00,1.979779362678527832e+00,1.979578614234924316e+00,1.979377985000610352e+00,1.979177713394165039e+00,1.978977203369140625e+00,1.978776693344116211e+00,1.978576183319091797e+00,1.978375792503356934e+00,1.978175401687622070e+00,1.977975010871887207e+00,1.977774739265441895e+00,1.977574467658996582e+00,1.977374315261840820e+00,1.977174162864685059e+00,1.976974248886108398e+00,1.976774096488952637e+00,1.976574063301086426e+00,1.976374030113220215e+00,1.976174116134643555e+00,1.975974082946777344e+00,1.975774288177490234e+00,1.975574374198913574e+00,1.975374579429626465e+00,1.975174784660339355e+00,1.974975347518920898e+00,1.974775671958923340e+00,1.974575996398925781e+00,1.974376320838928223e+00,1.974176764488220215e+00,1.973977208137512207e+00,1.973777770996093750e+00,1.973578333854675293e+00,1.973378896713256836e+00,1.966258049011230469e+00,1.934292554855346680e+00,1.903349995613098145e+00,1.873381733894348145e+00,1.844342589378356934e+00
1.777749896049499512e+00,1.777588129043579102e+00,1.777426481246948242e+00,1.777264833450317383e+00,1.777103066444396973e+00,1.776941418647766113e+00,1.776779770851135254e+00,1.776618123054504395e+00,1.776456475257873535e+00,1.776294946670532227e+00,1.776133418083190918e+00,1.775971889495849609e+00,1.775810480117797852e+00,1.775649189949035645e+00,1.775487780570983887e+00,1.775326371192932129e+00,1.775165081024169922e+00,1.775003671646118164e+00,1.774842381477355957e+00,1.774681210517883301e+00,1.774519920349121094e+00,1.774358749389648438e+00,1.774197459220886230e+00,1.774036407470703125e+00,1.773875474929809570e+00,1.773714303970336914e+00,1.773553252220153809e+00,1.773392200469970703e+00,1.773231267929077148e+00,1.773070216178894043e+00,1.772909283638000488e+00,1.772748351097106934e+00,1.772587418556213379e+00,1.772426605224609375e+00,1.772265791893005371e+00,1.772105216979980469e+00,1.771944403648376465e+00,1.771783590316772461e+00,1.771622896194458008e+00,1.771462202072143555e+00,1.771301627159118652e+00,1.771140933036804199e+00,1.770980358123779297e+00,1.770819783210754395e+00,1.770659208297729492e+00,1.770498871803283691e+00,1.770338416099548340e+00,1.770177960395812988e+00,1.770017504692077637e+00,1.769857168197631836e+00,1.769696831703186035e+00,1.769536495208740234e+00,1.769376158714294434e+00,1.769215822219848633e+00,1.769055604934692383e+00,1.768895387649536133e+00,1.768735408782958984e+00,1.768575191497802734e+00,1.768415093421936035e+00,1.768254995346069336e+00,1.768094897270202637e+00,1.767934799194335938e+00,1.767774820327758789e+00,1.767614841461181641e+00,1.767454862594604492e+00,1.767295002937316895e+00,1.767135024070739746e+00,1.766975402832031250e+00,1.766815543174743652e+00,1.766655683517456055e+00,1.766495943069458008e+00,1.766336202621459961e+00,1.766176462173461914e+00,1.766016721725463867e+00,1.765857100486755371e+00,1.765697479248046875e+00,1.765537858009338379e+00,1.765378236770629883e+00,1.765218973159790039e+00,1.765059351921081543e+00
1.607559323310852051e+00,1.607427120208740234e+00,1.607294797897338867e+00,1.607162714004516602e+00,1.607030391693115234e+00,1.606898188591003418e+00,1.606765985488891602e+00,1.606633901596069336e+00,1.606501698493957520e+00,1.606369614601135254e+00,1.606237530708312988e+00,1.606105446815490723e+00,1.605973362922668457e+00,1.605841279029846191e+00,1.605709433555603027e+00,1.605577468872070312e+00,1.605445384979248047e+00,1.605313420295715332e+00,1.605181574821472168e+00,1.605049610137939453e+00,1.604917764663696289e+00,1.604785919189453125e+00,1.604654073715209961e+00,1.604522228240966797e+00,1.604390382766723633e+00,1.604258775711059570e+00,1.604127049446105957e+00,1.603995203971862793e+00,1.603863596916198730e+00,1.603731870651245117e+00,1.603600144386291504e+00,1.603468537330627441e+00,1.603336930274963379e+00,1.603205323219299316e+00,1.603073716163635254e+00,1.602942228317260742e+00,1.602810740470886230e+00,1.602679252624511719e+00,1.602547764778137207e+00,1.602416276931762695e+00,1.602284789085388184e+00,1.602153301239013672e+00,1.602021932601928711e+00,1.601890563964843750e+00,1.601759195327758789e+00,1.601627826690673828e+00,1.601496577262878418e+00,1.601365327835083008e+00,1.601234078407287598e+00,1.601102828979492188e+00,1.600971579551696777e+00,1.600840330123901367e+00,1.600709080696105957e+00,1.600577950477600098e+00,1.600446820259094238e+00,1.600315690040588379e+00,1.600184559822082520e+00,1.600053668022155762e+00,1.599922537803649902e+00,1.599791407585144043e+00,1.599660396575927734e+00,1.599529385566711426e+00,1.599398374557495117e+00,1.599267482757568359e+00,1.599136471748352051e+00,1.599005579948425293e+00,1.598874688148498535e+00,1.598743796348571777e+00,1.598613142967224121e+00,1.598482251167297363e+00,1.598351478576660156e+00,1.598220705986022949e+00,1.598089933395385742e+00,1.597959160804748535e+00,1.597828388214111328e+00,1.597697734832763672e+00,1.597567081451416016e+00,1.597436428070068359e+00,1.597305893898010254e+00,1.597175240516662598e+00
1.467107772827148438e+00,1.466997504234313965e+00,1.466887354850769043e+00,1.466777205467224121e+00,1.466667175292968750e+00,1.466557025909423828e+00,1.466446995735168457e+00,1.466336846351623535e+00,1.466226816177368164e+00,1.466116666793823242e+00,1.466006636619567871e+00,1.465896606445312500e+00,1.465786576271057129e+00,1.465676665306091309e+00,1.465566754341125488e+00,1.465456843376159668e+00,1.465346813201904297e+00,1.465236902236938477e+00,1.465126991271972656e+00,1.465017080307006836e+00,1.464907169342041016e+00,1.464797377586364746e+00,1.464687466621398926e+00,1.464577674865722656e+00,1.464467883110046387e+00,1.464358210563659668e+00,1.464248418807983398e+00,1.464138627052307129e+00,1.464028835296630859e+00,1.463919162750244141e+00,1.463809370994567871e+00,1.463699698448181152e+00,1.463590025901794434e+00,1.463480353355407715e+00,1.463370680809020996e+00,1.463261127471923828e+00,1.463151574134826660e+00,1.463042020797729492e+00,1.462932348251342773e+00,1.462822794914245605e+00,1.462713241577148438e+00,1.462603688240051270e+00,1.462494254112243652e+00,1.462384700775146484e+00,1.462275266647338867e+00,1.462165713310241699e+00,1.462056279182434082e+00,1.461946964263916016e+00,1.461837530136108398e+00,1.461728215217590332e+00,1.461618781089782715e+00,1.461509466171264648e+00,1.461400032043457031e+00,1.461290717124938965e+00,1.461181402206420898e+00,1.461072087287902832e+00,1.460962772369384766e+00,1.460853576660156250e+00,1.460744380950927734e+00,1.460635185241699219e+00,1.460525989532470703e+00,1.460416674613952637e+00,1.460307478904724121e+00,1.460198402404785156e+00,1.460089206695556641e+00,1.459980010986328125e+00,1.459870934486389160e+00,1.459761857986450195e+00,1.459652900695800781e+00,1.459543824195861816e+00,1.459434747695922852e+00,1.459325671195983887e+00,1.459216594696044922e+00,1.459107637405395508e+00,1.458998680114746094e+00,1.458889603614807129e+00,1.458780646324157715e+00,1.458671689033508301e+00,1.458562850952148438e+00,1.458454012870788574e+00
1.349226474761962891e+00,1.349133253097534180e+00,1.349040150642395020e+00,1.348946928977966309e+00,1.348853826522827148e+00,1.348760724067687988e+00,1.348667621612548828e+00,1.348574519157409668e+00,1.348481416702270508e+00,1.348388314247131348e+00,1.348295211791992188e+00,1.348202109336853027e+00,1.348109006881713867e+00,1.348016023635864258e+00,1.347923040390014648e+00,1.347830057144165039e+00,1.347737073898315430e+00,1.347644090652465820e+00,1.347551107406616211e+00,1.347458124160766602e+00,1.347365260124206543e+00,1.347272276878356934e+00,1.347179293632507324e+00,1.347086429595947266e+00,1.346993565559387207e+00,1.346900582313537598e+00,1.346807837486267090e+00,1.346714973449707031e+00,1.346622109413146973e+00,1.346529364585876465e+00,1.346436500549316406e+00,1.346343636512756348e+00,1.346250891685485840e+00,1.346158027648925781e+00,1.346065282821655273e+00,1.345972537994384766e+00,1.345879793167114258e+00,1.345787167549133301e+00,1.345694422721862793e+00,1.345601677894592285e+00,1.345509052276611328e+00,1.345416307449340820e+00,1.345323681831359863e+00,1.345231056213378906e+00,1.345138311386108398e+00,1.345045685768127441e+00,1.344953060150146484e+00,1.344860553741455078e+00,1.344768047332763672e+00,1.344675421714782715e+00,1.344582796096801758e+00,1.344490289688110352e+00,1.344397664070129395e+00,1.344305157661437988e+00,1.344212651252746582e+00,1.344120144844055176e+00,1.344027638435363770e+00,1.343935132026672363e+00,1.343842864036560059e+00,1.343750357627868652e+00,1.343657970428466797e+00,1.343565464019775391e+00,1.343473076820373535e+00,1.343380689620971680e+00,1.343288302421569824e+00,1.343195915222167969e+00,1.343103528022766113e+00,1.343011140823364258e+00,1.342918753623962402e+00,1.342826604843139648e+00,1.342734217643737793e+00,1.342641949653625488e+00,1.342549681663513184e+00,1.342457413673400879e+00,1.342365145683288574e+00,1.342272877693176270e+00,1.342180609703063965e+00,1.342088341712951660e+00,1.341996192932128906e+00,1.341903924942016602e+00
1.248879790306091309e+00,1.248799920082092285e+00,1.248720049858093262e+00,1.248640298843383789e+00,1.248560428619384766e+00,1.248480677604675293e+00,1.248400926589965820e+00,1.248321175575256348e+00,1.248241305351257324e+00,1.248161554336547852e+00,1.248081803321838379e+00,1.248002052307128906e+00,1.247922301292419434e+00,1.247842550277709961e+00,1.247762918472290039e+00,1.247683167457580566e+00,1.247603535652160645e+00,1.247523903846740723e+00,1.247444152832031250e+00,1.247364521026611328e+00,1.247284889221191406e+00,1.247205257415771484e+00,1.247125506401062012e+00,1.247045993804931641e+00,1.246966361999511719e+00,1.246886730194091797e+00,1.246807098388671875e+00,1.246727585792541504e+00,1.246648073196411133e+00,1.246568441390991211e+00,1.246488928794860840e+00,1.246409416198730469e+00,1.246329784393310547e+00,1.246250271797180176e+00,1.246170759201049805e+00,1.246091246604919434e+00,1.246011734008789062e+00,1.245932340621948242e+00,1.245852947235107422e+00,1.245773434638977051e+00,1.245694041252136230e+00,1.245614528656005859e+00,1.245535135269165039e+00,1.245455741882324219e+00,1.245376229286193848e+00,1.245296835899353027e+00,1.245217442512512207e+00,1.245138049125671387e+00,1.245058774948120117e+00,1.244979381561279297e+00,1.244900107383728027e+00,1.244820713996887207e+00,1.244741439819335938e+00,1.244662046432495117e+00,1.244582772254943848e+00,1.244503498077392578e+00,1.244424223899841309e+00,1.244344830513000488e+00,1.244265556335449219e+00,1.244186401367187500e+00,1.244107246398925781e+00,1.244027972221374512e+00,1.243948698043823242e+00,1.243869543075561523e+00,1.243790268898010254e+00,1.243711113929748535e+00,1.243631839752197266e+00,1.243552684783935547e+00,1.243473529815673828e+00,1.243394374847412109e+00,1.243315339088439941e+00,1.243236184120178223e+00,1.243157029151916504e+00,1.243077874183654785e+00,1.242998838424682617e+00,1.242919683456420898e+00,1.242840647697448730e+00,1.242761492729187012e+00,1.242682456970214844e+00,1.242603421211242676e+00
1.162426114082336426e+00,1.162356853485107422e+00,1.162287712097167969e+00,1.162218570709228516e+00,1.162149429321289062e+00,1.162080287933349609e+00,1.162011146545410156e+00,1.161942124366760254e+00,1.161872982978820801e+00,1.161803841590881348e+00,1.161734700202941895e+00,1.161665678024291992e+00,1.161596536636352539e+00,1.161527395248413086e+00,1.161458373069763184e+00,1.161389350891113281e+00,1.161320328712463379e+00,1.161251306533813477e+00,1.161182284355163574e+00,1.161113262176513672e+00,1.161044239997863770e+00,1.160975217819213867e+00,1.160906195640563965e+00,1.160837173461914062e+00,1.160768151283264160e+00,1.160699248313903809e+00,1.160630226135253906e+00,1.160561323165893555e+00,1.160492420196533203e+00,1.160423398017883301e+00,1.160354495048522949e+00,1.160285592079162598e+00,1.160216569900512695e+00,1.160147666931152344e+00,1.160078763961791992e+00,1.160009860992431641e+00,1.159940958023071289e+00,1.159872055053710938e+00,1.159803271293640137e+00,1.159734487533569336e+00,1.159665584564208984e+00,1.159596681594848633e+00,1.159527897834777832e+00,1.159458994865417480e+00,1.159390211105346680e+00,1.159321427345275879e+00,1.159252643585205078e+00,1.159183740615844727e+00,1.159114956855773926e+00,1.159046292304992676e+00,1.158977508544921875e+00,1.158908724784851074e+00,1.158839941024780273e+00,1.158771157264709473e+00,1.158702492713928223e+00,1.158633708953857422e+00,1.158565044403076172e+00,1.158496260643005371e+00,1.158427596092224121e+00,1.158358931541442871e+00,1.158290266990661621e+00,1.158221602439880371e+00,1.158152937889099121e+00,1.158084273338317871e+00,1.158015608787536621e+00,1.157946944236755371e+00,1.157878279685974121e+00,1.157809615135192871e+00,1.157740950584411621e+00,1.157672405242919922e+00,1.157603859901428223e+00,1.157535195350646973e+00,1.157466650009155273e+00,1.157397985458374023e+00,1.157329440116882324e+00,1.157260894775390625e+00,1.157192349433898926e+00,1.157123804092407227e+00,1.157055258750915527e+00,1.156986713409423828e+00
1.087166905403137207e+00,1.087106347084045410e+00,1.087045907974243164e+00,1.086985349655151367e+00,1.086924910545349121e+00,1.086864352226257324e+00,1.086804032325744629e+00,1.086743474006652832e+00,1.086683034896850586e+00,1.086622595787048340e+00,1.086562156677246094e+00,1.086501717567443848e+00,1.086441278457641602e+00,1.086380839347839355e+00,1.086320400238037109e+00,1.086259961128234863e+00,1.086199641227722168e+00,1.086139202117919922e+00,1.086078882217407227e+00,1.086018443107604980e+00,1.085958123207092285e+00,1.085897684097290039e+00,1.085837364196777344e+00,1.085776925086975098e+00,1.085716605186462402e+00,1.085656285285949707e+00,1.085595965385437012e+00,1.085535645484924316e+00,1.085475325584411621e+00,1.085415005683898926e+00,1.085354685783386230e+00,1.085294365882873535e+00,1.085234045982360840e+00,1.085173726081848145e+00,1.085113525390625000e+00,1.085053205490112305e+00,1.084992885589599609e+00,1.084932684898376465e+00,1.084872364997863770e+00,1.084812164306640625e+00,1.084751963615417480e+00,1.084691643714904785e+00,1.084631443023681641e+00,1.084571242332458496e+00,1.084511041641235352e+00,1.084450840950012207e+00,1.084390640258789062e+00,1.084330439567565918e+00,1.084270238876342773e+00,1.084210038185119629e+00,1.084149837493896484e+00,1.084089756011962891e+00,1.084029555320739746e+00,1.083969354629516602e+00,1.083909273147583008e+00,1.083849072456359863e+00,1.083788990974426270e+00,1.083728790283203125e+00,1.083668708801269531e+00,1.083608508110046387e+00,1.083548545837402344e+00,1.083488345146179199e+00,1.083428263664245605e+00,1.083368182182312012e+00,1.083308100700378418e+00,1.083248019218444824e+00,1.083187937736511230e+00,1.083127856254577637e+00,1.083067774772644043e+00,1.083007812500000000e+00,1.082947731018066406e+00,1.082887768745422363e+00,1.082827687263488770e+00,1.082767605781555176e+00,1.082707643508911133e+00,1.082647562026977539e+00,1.082587599754333496e+00,1.082527637481689453e+00,1.082467555999755859e+00,1.082407593727111816e+00
1.021060228347778320e+00,1.021006822586059570e+00,1.020953416824340820e+00,1.020900130271911621e+00,1.020846724510192871e+00,1.020793437957763672e+00,1.020740032196044922e+00,1.020686745643615723e+00,1.020633459091186523e+00,1.020580053329467773e+00,1.020526766777038574e+00,1.020473480224609375e+00,1.020420074462890625e+00,1.020366787910461426e+00,1.020313501358032227e+00,1.020260214805603027e+00,1.020206928253173828e+00,1.020153641700744629e+00,1.020100355148315430e+00,1.020047187805175781e+00,1.019993901252746582e+00,1.019940614700317383e+00,1.019887328147888184e+00,1.019834041595458984e+00,1.019780874252319336e+00,1.019727587699890137e+00,1.019674420356750488e+00,1.019621133804321289e+00,1.019567847251892090e+00,1.019514799118041992e+00,1.019461512565612793e+00,1.019408345222473145e+00,1.019355058670043945e+00,1.019301891326904297e+00,1.019248723983764648e+00,1.019195556640625000e+00,1.019142389297485352e+00,1.019089221954345703e+00,1.019036054611206055e+00,1.018982887268066406e+00,1.018929719924926758e+00,1.018876552581787109e+00,1.018823385238647461e+00,1.018770337104797363e+00,1.018717169761657715e+00,1.018664002418518066e+00,1.018610954284667969e+00,1.018557786941528320e+00,1.018504619598388672e+00,1.018451571464538574e+00,1.018398523330688477e+00,1.018345475196838379e+00,1.018292307853698730e+00,1.018239259719848633e+00,1.018186211585998535e+00,1.018133044242858887e+00,1.018079996109008789e+00,1.018026947975158691e+00,1.017973899841308594e+00,1.017920851707458496e+00,1.017867803573608398e+00,1.017814755439758301e+00,1.017761707305908203e+00,1.017708778381347656e+00,1.017655730247497559e+00,1.017602682113647461e+00,1.017549633979797363e+00,1.017496705055236816e+00,1.017443656921386719e+00,1.017390608787536621e+00,1.017337679862976074e+00,1.017284631729125977e+00,1.017231702804565430e+00,1.017178773880004883e+00,1.017125844955444336e+00,1.017072796821594238e+00,1.017019867897033691e+00,1.016966938972473145e+00,1.016914010047912598e+00,1.016860961914062500e+00
9.625321626663208008e-01,9.624847769737243652e-01,9.624372720718383789e-01,9.623898863792419434e-01,9.623424410820007324e-01,9.622950553894042969e-01,9.622476100921630859e-01,9.622002243995666504e-01,9.621528983116149902e-01,9.621054530143737793e-01,9.620581269264221191e-01,9.620106816291809082e-01,9.619633555412292480e-01,9.619159102439880371e-01,9.618685841560363770e-01,9.618211984634399414e-01,9.617738723754882812e-01,9.617264866828918457e-01,9.616791605949401855e-01,9.616318941116333008e-01,9.615844488143920898e-01,9.615371823310852051e-01,9.614897966384887695e-01,9.614425301551818848e-01,9.613951444625854492e-01,9.613478779792785645e-01,9.613004922866821289e-01,9.612532258033752441e-01,9.612058997154235840e-01,9.611586332321166992e-01,9.611114263534545898e-01,9.610640406608581543e-01,9.610168337821960449e-01,9.609695076942443848e-01,9.609222412109375000e-01,9.608749151229858398e-01,9.608277082443237305e-01,9.607803821563720703e-01,9.607331752777099609e-01,9.606858491897583008e-01,9.606387019157409668e-01,9.605914950370788574e-01,9.605441689491271973e-01,9.604970216751098633e-01,9.604496955871582031e-01,9.604025483131408691e-01,9.603552818298339844e-01,9.603081345558166504e-01,9.602608084678649902e-01,9.602136611938476562e-01,9.601663947105407715e-01,9.601192474365234375e-01,9.600721597671508789e-01,9.600248932838439941e-01,9.599777460098266602e-01,9.599305391311645508e-01,9.598833918571472168e-01,9.598361849784851074e-01,9.597890377044677734e-01,9.597418308258056641e-01,9.596947431564331055e-01,9.596475362777709961e-01,9.596004486083984375e-01,9.595533609390258789e-01,9.595061540603637695e-01,9.594590663909912109e-01,9.594118595123291016e-01,9.593647718429565430e-01,9.593176245689392090e-01,9.592705368995666504e-01,9.592233896255493164e-01,9.591763615608215332e-01,9.591292738914489746e-01,9.590821266174316406e-01,9.590350985527038574e-01,9.589879512786865234e-01,9.589409232139587402e-01,9.588937759399414062e-01,9.588467478752136230e-01,9.587996602058410645e-01
9.103500247001647949e-01,9.103076457977294922e-01,9.102652072906494141e-01,9.102228283882141113e-01,9.101803302764892578e-01,9.101380109786987305e-01,9.100955128669738770e-01,9.100531935691833496e-01,9.100108146667480469e-01,9.099683761596679688e-01,9.099259972572326660e-01,9.098835587501525879e-01,9.098412394523620605e-01,9.097988009452819824e-01,9.097564816474914551e-01,9.097140431404113770e-01,9.096717238426208496e-01,9.096293449401855469e-01,9.095870256423950195e-01,9.095447063446044922e-01,9.095022678375244141e-01,9.094600081443786621e-01,9.094175696372985840e-01,9.093753099441528320e-01,9.093329310417175293e-01,9.092906117439270020e-01,9.092482328414916992e-01,9.092059731483459473e-01,9.091635942459106445e-01,9.091213345527648926e-01,9.090790748596191406e-01,9.090366959571838379e-01,9.089944362640380859e-01,9.089521169662475586e-01,9.089098572731018066e-01,9.088674783706665039e-01,9.088252782821655273e-01,9.087828993797302246e-01,9.087406992912292480e-01,9.086983799934387207e-01,9.086561203002929688e-01,9.086139202117919922e-01,9.085716009140014648e-01,9.085294008255004883e-01,9.084870815277099609e-01,9.084448814392089844e-01,9.084025621414184570e-01,9.083603620529174805e-01,9.083180427551269531e-01,9.082759022712707520e-01,9.082335829734802246e-01,9.081914424896240234e-01,9.081492424011230469e-01,9.081069827079772949e-01,9.080647826194763184e-01,9.080225229263305664e-01,9.079803824424743652e-01,9.079381227493286133e-01,9.078959226608276367e-01,9.078537225723266602e-01,9.078115224838256836e-01,9.077693223953247070e-01,9.077271819114685059e-01,9.076850414276123047e-01,9.076427817344665527e-01,9.076006412506103516e-01,9.075584411621093750e-01,9.075163006782531738e-01,9.074741005897521973e-01,9.074320197105407715e-01,9.073898196220397949e-01,9.073476791381835938e-01,9.073054790496826172e-01,9.072633981704711914e-01,9.072213172912597656e-01,9.071791172027587891e-01,9.071370363235473633e-01,9.070948362350463867e-01,9.070527553558349609e-01,9.070106148719787598e-01
8.635349273681640625e-01,8.634967803955078125e-01,8.634585738182067871e-01,8.634204268455505371e-01,8.633822202682495117e-01,8.633441329002380371e-01,8.633059263229370117e-01,8.632677793502807617e-01,8.632295727729797363e-01,8.631914854049682617e-01,8.631533980369567871e-01,8.631151914596557617e-01,8.630771040916442871e-01,8.630388975143432617e-01,8.630008101463317871e-01,8.629626631736755371e-01,8.629245758056640625e-01,8.628864288330078125e-01,8.628483414649963379e-01,8.628101944923400879e-01,8.627721071243286133e-01,8.627340197563171387e-01,8.626958727836608887e-01,8.626578450202941895e-01,8.626196980476379395e-01,8.625816106796264648e-01,8.625434637069702148e-01,8.625054359436035156e-01,8.624672889709472656e-01,8.624292612075805664e-01,8.623911142349243164e-01,8.623530864715576172e-01,8.623150587081909180e-01,8.622769713401794434e-01,8.622389435768127441e-01,8.622008562088012695e-01,8.621628284454345703e-01,8.621247410774230957e-01,8.620867133140563965e-01,8.620486259460449219e-01,8.620105981826782227e-01,8.619726300239562988e-01,8.619345426559448242e-01,8.618965148925781250e-01,8.618584275245666504e-01,8.618204593658447266e-01,8.617823719978332520e-01,8.617444038391113281e-01,8.617063760757446289e-01,8.616684079170227051e-01,8.616303205490112305e-01,8.615923523902893066e-01,8.615543842315673828e-01,8.615163564682006836e-01,8.614783883094787598e-01,8.614403605461120605e-01,8.614023923873901367e-01,8.613643646240234375e-01,8.613263964653015137e-01,8.612884283065795898e-01,8.612504601478576660e-01,8.612124323844909668e-01,8.611745238304138184e-01,8.611366152763366699e-01,8.610985875129699707e-01,8.610606789588928223e-01,8.610226511955261230e-01,8.609847426414489746e-01,8.609467744827270508e-01,8.609088659286499023e-01,8.608708381652832031e-01,8.608329296112060547e-01,8.607949614524841309e-01,8.607570528984069824e-01,8.607192039489746094e-01,8.606812357902526855e-01,8.606433272361755371e-01,8.606053590774536133e-01,8.605675101280212402e-01,8.605295419692993164e-01
8.212992548942565918e-01,8.212648034095764160e-01,8.212302327156066895e-01,8.211957216262817383e-01,8.211611509323120117e-01,8.211266994476318359e-01,8.210921287536621094e-01,8.210576176643371582e-01,8.210231065750122070e-01,8.209885954856872559e-01,8.209541440010070801e-01,8.209195733070373535e-01,8.208851218223571777e-01,8.208506107330322266e-01,8.208161592483520508e-01,8.207815885543823242e-01,8.207471370697021484e-01,8.207126259803771973e-01,8.206781744956970215e-01,8.206436634063720703e-01,8.206092119216918945e-01,8.205748200416564941e-01,8.205403089523315430e-01,8.205058574676513672e-01,8.204713463783264160e-01,8.204368948936462402e-01,8.204024434089660645e-01,8.203679919242858887e-01,8.203334808349609375e-01,8.202990889549255371e-01,8.202645778656005859e-01,8.202301859855651855e-01,8.201957941055297852e-01,8.201612830162048340e-01,8.201268911361694336e-01,8.200924396514892578e-01,8.200580477714538574e-01,8.200235366821289062e-01,8.199892044067382812e-01,8.199546933174133301e-01,8.199203014373779297e-01,8.198858499526977539e-01,8.198515176773071289e-01,8.198171257972717285e-01,8.197826743125915527e-01,8.197482824325561523e-01,8.197138309478759766e-01,8.196794986724853516e-01,8.196450471878051758e-01,8.196107149124145508e-01,8.195762634277343750e-01,8.195419311523437500e-01,8.195074796676635742e-01,8.194731473922729492e-01,8.194388151168823242e-01,8.194043636322021484e-01,8.193700313568115234e-01,8.193356394767761230e-01,8.193013072013854980e-01,8.192669153213500977e-01,8.192325830459594727e-01,8.191981911659240723e-01,8.191638588905334473e-01,8.191294670104980469e-01,8.190951347351074219e-01,8.190608620643615723e-01,8.190264701843261719e-01,8.189921379089355469e-01,8.189577460289001465e-01,8.189234733581542969e-01,8.188890814781188965e-01,8.188548088073730469e-01,8.188204169273376465e-01,8.187861442565917969e-01,8.187518715858459473e-01,8.187174797058105469e-01,8.186832070350646973e-01,8.186488747596740723e-01,8.186146020889282227e-01,8.185802102088928223e-01
7.830024957656860352e-01,7.829711437225341797e-01,7.829397320747375488e-01,7.829083800315856934e-01,7.828769683837890625e-01,7.828456163406372070e-01,7.828142046928405762e-01,7.827828526496887207e-01,7.827514410018920898e-01,7.827201485633850098e-01,7.826887965202331543e-01,7.826573848724365234e-01,7.826260924339294434e-01,7.825946807861328125e-01,7.825633883476257324e-01,7.825319766998291016e-01,7.825006246566772461e-01,7.824692726135253906e-01,7.824379801750183105e-01,7.824065685272216797e-01,7.823752760887145996e-01,7.823439836502075195e-01,7.823125720024108887e-01,7.822812795639038086e-01,7.822499275207519531e-01,7.822186350822448730e-01,7.821872830390930176e-01,7.821559906005859375e-01,7.821246385574340820e-01,7.820933461189270020e-01,7.820619940757751465e-01,7.820307016372680664e-01,7.819994091987609863e-01,7.819681167602539062e-01,7.819368243217468262e-01,7.819054722785949707e-01,7.818741798400878906e-01,7.818428874015808105e-01,7.818115949630737305e-01,7.817803025245666504e-01,7.817490100860595703e-01,7.817177176475524902e-01,7.816864252090454102e-01,7.816551923751831055e-01,7.816238999366760254e-01,7.815926671028137207e-01,7.815613150596618652e-01,7.815300822257995605e-01,7.814987897872924805e-01,7.814675569534301758e-01,7.814362645149230957e-01,7.814050316810607910e-01,7.813737392425537109e-01,7.813425064086914062e-01,7.813112735748291016e-01,7.812799811363220215e-01,7.812487483024597168e-01,7.812175154685974121e-01,7.811862826347351074e-01,7.811549901962280273e-01,7.811238169670104980e-01,7.810925245285034180e-01,7.810612916946411133e-01,7.810300588607788086e-01,7.809988260269165039e-01,7.809676527976989746e-01,7.809364199638366699e-01,7.809051871299743652e-01,7.808739542961120605e-01,7.808427810668945312e-01,7.808114886283874512e-01,7.807803153991699219e-01,7.807490825653076172e-01,7.807179093360900879e-01,7.806866765022277832e-01,7.806555032730102539e-01,7.806243300437927246e-01,7.805930972099304199e-01,7.805619239807128906e-01,7.805306911468505859e-01
7.481181025505065918e-01,7.480894923210144043e-01,7.480608224868774414e-01,7.480322122573852539e-01,7.480035424232482910e-01,7.479749321937561035e-01,7.479462027549743652e-01,7.479175925254821777e-01,7.478889226913452148e-01,7.478603720664978027e-01,7.478317022323608398e-01,7.478030920028686523e-01,7.477744817733764648e-01,7.477458119392395020e-01,7.477172017097473145e-01,7.476885914802551270e-01,7.476599812507629395e-01,7.476313114166259766e-01,7.476027607917785645e-01,7.475740909576416016e-01,7.475454807281494141e-01,7.475168704986572266e-01,7.474882602691650391e-01,7.474597096443176270e-01,7.474310994148254395e-01,7.474024891853332520e-01,7.473738789558410645e-01,7.473453283309936523e-01,7.473166584968566895e-01,7.472881078720092773e-01,7.472594976425170898e-01,7.472309470176696777e-01,7.472023367881774902e-01,7.471737861633300781e-01,7.471452355384826660e-01,7.471166253089904785e-01,7.470880746841430664e-01,7.470594644546508789e-01,7.470309138298034668e-01,7.470023036003112793e-01,7.469737529754638672e-01,7.469451427459716797e-01,7.469166517257690430e-01,7.468881011009216309e-01,7.468594908714294434e-01,7.468309998512268066e-01,7.468023896217346191e-01,7.467738986015319824e-01,7.467452883720397949e-01,7.467167973518371582e-01,7.466881871223449707e-01,7.466596961021423340e-01,7.466310858726501465e-01,7.466025948524475098e-01,7.465741038322448730e-01,7.465454936027526855e-01,7.465170025825500488e-01,7.464884519577026367e-01,7.464599609375000000e-01,7.464314103126525879e-01,7.464029192924499512e-01,7.463743686676025391e-01,7.463458776473999023e-01,7.463173270225524902e-01,7.462888360023498535e-01,7.462603449821472168e-01,7.462317943572998047e-01,7.462033033370971680e-01,7.461747527122497559e-01,7.461463212966918945e-01,7.461177706718444824e-01,7.460892796516418457e-01,7.460607886314392090e-01,7.460322976112365723e-01,7.460037469863891602e-01,7.459753155708312988e-01,7.459468245506286621e-01,7.459183335304260254e-01,7.458898425102233887e-01,7.458613514900207520e-01
7.162094712257385254e-01,7.161832451820373535e-01,7.161569595336914062e-01,7.161307334899902344e-01,7.161044478416442871e-01,7.160782217979431152e-01,7.160519361495971680e-01,7.160257101058959961e-01,7.159994244575500488e-01,7.159732580184936523e-01,7.159469723701477051e-01,7.159207463264465332e-01,7.158945202827453613e-01,7.158682942390441895e-01,7.158420681953430176e-01,7.158157825469970703e-01,7.157896161079406738e-01,7.157633304595947266e-01,7.157371044158935547e-01,7.157108783721923828e-01,7.156846523284912109e-01,7.156584262847900391e-01,7.156322002410888672e-01,7.156060338020324707e-01,7.155798077583312988e-01,7.155535817146301270e-01,7.155273556709289551e-01,7.155011892318725586e-01,7.154749631881713867e-01,7.154487371444702148e-01,7.154225111007690430e-01,7.153963446617126465e-01,7.153701186180114746e-01,7.153439521789550781e-01,7.153177857398986816e-01,7.152915596961975098e-01,7.152653932571411133e-01,7.152391672134399414e-01,7.152130007743835449e-01,7.151867747306823730e-01,7.151606082916259766e-01,7.151343822479248047e-01,7.151082754135131836e-01,7.150820493698120117e-01,7.150558829307556152e-01,7.150297164916992188e-01,7.150035500526428223e-01,7.149773836135864258e-01,7.149512171745300293e-01,7.149250507354736328e-01,7.148988842964172363e-01,7.148727178573608398e-01,7.148465514183044434e-01,7.148203849792480469e-01,7.147942185401916504e-01,7.147680521011352539e-01,7.147419452667236328e-01,7.147157788276672363e-01,7.146896123886108398e-01,7.146634459495544434e-01,7.146373391151428223e-01,7.146111726760864258e-01,7.145850658416748047e-01,7.145588994026184082e-01,7.145327329635620117e-01,7.145065665245056152e-01,7.144804596900939941e-01,7.144543528556823730e-01,7.144281864166259766e-01,7.144021391868591309e-01,7.143759727478027344e-01,7.143498659133911133e-01,7.143236994743347168e-01,7.142975926399230957e-01,7.142714262008666992e-01,7.142453789710998535e-01,7.142192721366882324e-01,7.141931056976318359e-01,7.141670584678649902e-01,7.141408920288085938e-01
6.869114637374877930e-01,6.868872642517089844e-01,6.868631243705749512e-01,6.868390440940856934e-01,6.868148446083068848e-01,6.867907047271728516e-01,6.867665648460388184e-01,6.867424249649047852e-01,6.867182254791259766e-01,6.866941452026367188e-01,6.866699457168579102e-01,6.866458654403686523e-01,6.866217255592346191e-01,6.865975856781005859e-01,6.865734457969665527e-01,6.865493059158325195e-01,6.865252256393432617e-01,6.865010261535644531e-01,6.864769458770751953e-01,6.864528059959411621e-01,6.864286661148071289e-01,6.864045262336730957e-01,6.863804459571838379e-01,6.863563656806945801e-01,6.863322257995605469e-01,6.863080859184265137e-01,6.862839460372924805e-01,6.862598657608032227e-01,6.862357258796691895e-01,6.862116456031799316e-01,6.861875057220458984e-01,6.861634254455566406e-01,6.861392855644226074e-01,6.861152052879333496e-01,6.860911846160888672e-01,6.860670447349548340e-01,6.860429644584655762e-01,6.860188245773315430e-01,6.859947443008422852e-01,6.859706640243530273e-01,6.859465837478637695e-01,6.859224438667297363e-01,6.858984231948852539e-01,6.858742833137512207e-01,6.858502030372619629e-01,6.858261823654174805e-01,6.858020424842834473e-01,6.857780218124389648e-01,6.857538819313049316e-01,6.857298612594604492e-01,6.857057809829711914e-01,6.856817007064819336e-01,6.856576204299926758e-01,6.856335401535034180e-01,6.856094598770141602e-01,6.855854392051696777e-01,6.855614185333251953e-01,6.855372786521911621e-01,6.855132579803466797e-01,6.854891777038574219e-01,6.854651570320129395e-01,6.854410767555236816e-01,6.854170560836791992e-01,6.853929758071899414e-01,6.853689551353454590e-01,6.853448748588562012e-01,6.853208541870117188e-01,6.852968335151672363e-01,6.852727532386779785e-01,6.852487325668334961e-01,6.852246522903442383e-01,6.852006316184997559e-01,6.851766109466552734e-01,6.851525902748107910e-01,6.851285099983215332e-01,6.851044893264770508e-01,6.850804686546325684e-01,6.850564479827880859e-01,6.850324273109436035e-01,6.850084066390991211e-01
6.599162220954895020e-01,6.598938703536987305e-01,6.598716378211975098e-01,6.598493456840515137e-01,6.598270535469055176e-01,6.598047614097595215e-01,6.597824692726135254e-01,6.597601771354675293e-01,6.597378849983215332e-01,6.597156524658203125e-01,6.596933007240295410e-01,6.596710681915283203e-01,6.596487760543823242e-01,6.596264839172363281e-01,6.596042513847351074e-01,6.595819592475891113e-01,6.595597267150878906e-01,6.595374345779418945e-01,6.595151424407958984e-01,6.594928503036499023e-01,6.594706177711486816e-01,6.594483256340026855e-01,6.594260931015014648e-01,6.594038009643554688e-01,6.593815684318542480e-01,6.593593358993530273e-01,6.593370437622070312e-01,6.593148112297058105e-01,6.592925190925598145e-01,6.592703461647033691e-01,6.592480540275573730e-01,6.592258214950561523e-01,6.592035293579101562e-01,6.591812968254089355e-01,6.591590642929077148e-01,6.591368317604064941e-01,6.591145992279052734e-01,6.590923666954040527e-01,6.590701341629028320e-01,6.590478420257568359e-01,6.590256690979003906e-01,6.590033769607543945e-01,6.589811444282531738e-01,6.589589118957519531e-01,6.589367389678955078e-01,6.589145064353942871e-01,6.588922739028930664e-01,6.588700413703918457e-01,6.588478088378906250e-01,6.588255763053894043e-01,6.588033437728881836e-01,6.587811708450317383e-01,6.587589383125305176e-01,6.587367057800292969e-01,6.587144732475280762e-01,6.586923003196716309e-01,6.586700677871704102e-01,6.586478352546691895e-01,6.586256623268127441e-01,6.586034297943115234e-01,6.585812568664550781e-01,6.585590243339538574e-01,6.585368514060974121e-01,6.585146188735961914e-01,6.584924459457397461e-01,6.584702134132385254e-01,6.584480404853820801e-01,6.584258675575256348e-01,6.584036350250244141e-01,6.583814620971679688e-01,6.583592295646667480e-01,6.583371162414550781e-01,6.583148837089538574e-01,6.582927107810974121e-01,6.582704782485961914e-01,6.582483649253845215e-01,6.582261323928833008e-01,6.582039594650268555e-01,6.581817865371704102e-01,6.581596136093139648e-01
6.349624991416931152e-01,6.349418759346008301e-01,6.349212527275085449e-01,6.349006295204162598e-01,6.348799467086791992e-01,6.348593235015869141e-01,6.348387002944946289e-01,6.348180770874023438e-01,6.347973942756652832e-01,6.347768306732177734e-01,6.347561478614807129e-01,6.347355246543884277e-01,6.347149014472961426e-01,6.346942782402038574e-01,6.346737146377563477e-01,6.346530318260192871e-01,6.346324682235717773e-01,6.346117854118347168e-01,6.345912218093872070e-01,6.345705986022949219e-01,6.345499753952026367e-01,6.345293521881103516e-01,6.345087289810180664e-01,6.344881057739257812e-01,6.344675421714782715e-01,6.344469189643859863e-01,6.344262957572937012e-01,6.344057321548461914e-01,6.343851089477539062e-01,6.343644857406616211e-01,6.343438625335693359e-01,6.343232989311218262e-01,6.343026757240295410e-01,6.342821121215820312e-01,6.342614889144897461e-01,6.342409253120422363e-01,6.342203617095947266e-01,6.341997385025024414e-01,6.341791749000549316e-01,6.341585516929626465e-01,6.341379880905151367e-01,6.341173648834228516e-01,6.340968012809753418e-01,6.340761780738830566e-01,6.340556144714355469e-01,6.340350508689880371e-01,6.340144872665405273e-01,6.339939236640930176e-01,6.339733004570007324e-01,6.339527368545532227e-01,6.339321732521057129e-01,6.339116096496582031e-01,6.338909864425659180e-01,6.338704824447631836e-01,6.338498592376708984e-01,6.338292956352233887e-01,6.338087320327758789e-01,6.337881684303283691e-01,6.337676644325256348e-01,6.337470412254333496e-01,6.337265372276306152e-01,6.337059140205383301e-01,6.336854100227355957e-01,6.336647868156433105e-01,6.336442828178405762e-01,6.336236596107482910e-01,6.336031556129455566e-01,6.335825920104980469e-01,6.335620284080505371e-01,6.335415244102478027e-01,6.335209608078002930e-01,6.335003972053527832e-01,6.334798336029052734e-01,6.334593296051025391e-01,6.334387660026550293e-01,6.334182620048522949e-01,6.333976984024047852e-01,6.333771347999572754e-01,6.333566308021545410e-01,6.333360671997070312e-01
