5.000000000000000000e+00,5.000000000000000000e+00,5.000000000000000000e+00,5.000000000000000000e+00,5.000000000000000000e+00,5.000000000000000000e+00,5.000000000000000000e+00,5.000000000000000000e+00,5.000000000000000000e+00,5.000000000000000000e+00,5.000000000000000000e+00,5.000000000000000000e+00,5.000000000000000000e+00,5.000000000000000000e+00,5.000000000000000000e+00,5.000000000000000000e+00,5.000000000000000000e+00,5.000000000000000000e+00,5.000000000000000000e+00,5.000000000000000000e+00,5.000000000000000000e+00,5.000000000000000000e+00,5.000000000000000000e+00,5.000000000000000000e+00,5.000000000000000000e+00,5.000000000000000000e+00,5.000000000000000000e+00,5.000000000000000000e+00,5.000000000000000000e+00,5.000000000000000000e+00,5.000000000000000000e+00,5.000000000000000000e+00,5.000000000000000000e+00,5.000000000000000000e+00,5.000000000000000000e+00,5.000000000000000000e+00,5.000000000000000000e+00,5.000000000000000000e+00,5.000000000000000000e+00,4.847092151641845703e+00,4.657379150390625000e+00,4.481957435607910156e+00,4.319270133972167969e+00,4.167980194091796875e+00,4.026929378509521484e+00,3.895113468170166016e+00,3.771653413772583008e+00,3.655779361724853516e+00,3.546813011169433594e+00,3.444154262542724609e+00,3.347271203994750977e+00,3.255689620971679688e+00,3.168985843658447266e+00,3.086780548095703125e+00,3.008732318878173828e+00,2.934533357620239258e+00,2.863906145095825195e+00,2.796598672866821289e+00,2.732382059097290039e+00,2.671048641204833984e+00,2.612408399581909180e+00,2.556287288665771484e+00,2.502526760101318359e+00,2.450980901718139648e+00,2.401515722274780273e+00,2.354007720947265625e+00,2.308342695236206055e+00,2.264415502548217773e+00,2.222129106521606445e+00,2.181393384933471680e+00,2.142123937606811523e+00,2.104243516921997070e+00,2.067679405212402344e+00,2.032364368438720703e+00,1.998235702514648438e+00,1.965234160423278809e+00,1.933304786682128906e+00,1.902396440505981445e+00,1.872460722923278809e+00,1.843452692031860352e+00
5.000000000000000000e+00,5.000000000000000000e+00,5.000000000000000000e+00,5.000000000000000000e+00,5.000000000000000000e+00,5.000000000000000000e+00,5.000000000000000000e+00,5.000000000000000000e+00,5.000000000000000000e+00,5.000000000000000000e+00,5.000000000000000000e+00,5.000000000000000000e+00,5.000000000000000000e+00,5.000000000000000000e+00,5.000000000000000000e+00,5.000000000000000000e+00,5.000000000000000000e+00,5.000000000000000000e+00,5.000000000000000000e+00,5.000000000000000000e+00,5.000000000000000000e+00,5.000000000000000000e+00,5.000000000000000000e+00,5.000000000000000000e+00,5.000000000000000000e+00,5.000000000000000000e+00,5.000000000000000000e+00,5.000000000000000000e+00,5.000000000000000000e+00,5.000000000000000000e+00,5.000000000000000000e+00,5.000000000000000000e+00,5.000000000000000000e+00,5.000000000000000000e+00,5.000000000000000000e+00,5.000000000000000000e+00,5.000000000000000000e+00,5.000000000000000000e+00,5.000000000000000000e+00,4.847230911254882812e+00,4.657506942749023438e+00,4.482075691223144531e+00,4.319380283355712891e+00,4.168082714080810547e+00,4.027025222778320312e+00,3.895203113555908203e+00,3.771737337112426758e+00,3.655858278274536133e+00,3.546887636184692383e+00,3.444224596023559570e+00,3.347337484359741211e+00,3.255752563476562500e+00,3.169045209884643555e+00,3.086836814880371094e+00,3.008785724639892578e+00,2.934584379196166992e+00,2.863954544067382812e+00,2.796644687652587891e+00,2.732426166534423828e+00,2.671090841293334961e+00,2.612448453903198242e+00,2.556325912475585938e+00,2.502563714981079102e+00,2.451016426086425781e+00,2.401549816131591797e+00,2.354040384292602539e+00,2.308373928070068359e+00,2.264445781707763672e+00,2.222158432006835938e+00,2.181421279907226562e+00,2.142151117324829102e+00,2.104269742965698242e+00,2.067704677581787109e+00,2.032388925552368164e+00,1.998259305953979492e+00,1.965256929397583008e+00,1.933326840400695801e+00,1.902417778968811035e+00,1.872481465339660645e+00,1.843472719192504883e+00
5.000000000000000000e+00,5.000000000000000000e+00,5.000000000000000000e+00,5.000000000000000000e+00,5.000000000000000000e+00,5.000000000000000000e+00,5.000000000000000000e+00,5.000000000000000000e+00,5.000000000000000000e+00,5.000000000000000000e+00,5.000000000000000000e+00,5.000000000000000000e+00,5.000000000000000000e+00,5.000000000000000000e+00,5.000000000000000000e+00,5.000000000000000000e+00,5.000000000000000000e+00,5.000000000000000000e+00,5.000000000000000000e+00,5.000000000000000000e+00,5.000000000000000000e+00,5.000000000000000000e+00,5.000000000000000000e+00,5.000000000000000000e+00,5.000000000000000000e+00,5.000000000000000000e+00,5.000000000000000000e+00,5.000000000000000000e+00,5.000000000000000000e+00,5.000000000000000000e+00,5.000000000000000000e+00,5.000000000000000000e+00,5.000000000000000000e+00,5.000000000000000000e+00,5.000000000000000000e+00,5.000000000000000000e+00,5.000000000000000000e+00,5.000000000000000000e+00,5.000000000000000000e+00,4.847369670867919922e+00,4.657635211944580078e+00,4.482194423675537109e+00,4.319490909576416016e+00,4.168185234069824219e+00,4.027121067047119141e+00,3.895292997360229492e+00,3.771821737289428711e+00,3.655937433242797852e+00,3.546961784362792969e+00,3.444294691085815430e+00,3.347403764724731445e+00,3.255815029144287109e+00,3.169104576110839844e+00,3.086893081665039062e+00,3.008839130401611328e+00,2.934635162353515625e+00,2.864002943038940430e+00,2.796690940856933594e+00,2.732470273971557617e+00,2.671132802963256836e+00,2.612488746643066406e+00,2.556364297866821289e+00,2.502600669860839844e+00,2.451051950454711914e+00,2.401583909988403320e+00,2.354072809219360352e+00,2.308405399322509766e+00,2.264476060867309570e+00,2.222187519073486328e+00,2.181449413299560547e+00,2.142178058624267578e+00,2.104295730590820312e+00,2.067729949951171875e+00,2.032413244247436523e+00,1.998282790184020996e+00,1.965279698371887207e+00,1.933348894119262695e+00,1.902439117431640625e+00,1.872502088546752930e+00,1.843492746353149414e+00
5.000000000000000000e+00,5.000000000000000000e+00,5.000000000000000000e+00,5.000000000000000000e+00,5.000000000000000000e+00,5.000000000000000000e+00,5.000000000000000000e+00,5.000000000000000000e+00,5.000000000000000000e+00,5.000000000000000000e+00,5.000000000000000000e+00,5.000000000000000000e+00,5.000000000000000000e+00,5.000000000000000000e+00,5.000000000000000000e+00,5.000000000000000000e+00,5.000000000000000000e+00,5.000000000000000000e+00,5.000000000000000000e+00,5.000000000000000000e+00,5.000000000000000000e+00,5.000000000000000000e+00,5.000000000000000000e+00,5.000000000000000000e+00,5.000000000000000000e+00,5.000000000000000000e+00,5.000000000000000000e+00,5.000000000000000000e+00,5.000000000000000000e+00,5.000000000000000000e+00,5.000000000000000000e+00,5.000000000000000000e+00,5.000000000000000000e+00,5.000000000000000000e+00,5.000000000000000000e+00,5.000000000000000000e+00,5.000000000000000000e+00,5.000000000000000000e+00,5.000000000000000000e+00,4.847508430480957031e+00,4.657763481140136719e+00,4.482313156127929688e+00,4.319601058959960938e+00,4.168287754058837891e+00,4.027216911315917969e+00,3.895382642745971680e+00,3.771905660629272461e+00,3.656016349792480469e+00,3.547035932540893555e+00,3.444364547729492188e+00,3.347469806671142578e+00,3.255877494812011719e+00,3.169163942337036133e+00,3.086949348449707031e+00,3.008892536163330078e+00,2.934685945510864258e+00,2.864051342010498047e+00,2.796736955642700195e+00,2.732514381408691406e+00,2.671175003051757812e+00,2.612529039382934570e+00,2.556402921676635742e+00,2.502637624740600586e+00,2.451087236404418945e+00,2.401617527008056641e+00,2.354105472564697266e+00,2.308436870574951172e+00,2.264506340026855469e+00,2.222216844558715820e+00,2.181477785110473633e+00,2.142205238342285156e+00,2.104321956634521484e+00,2.067755222320556641e+00,2.032437801361083984e+00,1.998306393623352051e+00,1.965302467346191406e+00,1.933370947837829590e+00,1.902460455894470215e+00,1.872522830963134766e+00,1.843512773513793945e+00
5.000000000000000000e+00,5.000000000000000000e+00,5.000000000000000000e+00,5.000000000000000000e+00,5.000000000000000000e+00,5.000000000000000000e+00,5.000000000000000000e+00,5.000000000000000000e+00,5.000000000000000000e+00,5.000000000000000000e+00,5.000000000000000000e+00,5.000000000000000000e+00,5.000000000000000000e+00,5.000000000000000000e+00,5.000000000000000000e+00,5.000000000000000000e+00,5.000000000000000000e+00,5.000000000000000000e+00,5.000000000000000000e+00,5.000000000000000000e+00,5.000000000000000000e+00,5.000000000000000000e+00,5.000000000000000000e+00,5.000000000000000000e+00,5.000000000000000000e+00,5.000000000000000000e+00,5.000000000000000000e+00,5.000000000000000000e+00,5.000000000000000000e+00,5.000000000000000000e+00,5.000000000000000000e+00,5.000000000000000000e+00,5.000000000000000000e+00,5.000000000000000000e+00,5.000000000000000000e+00,5.000000000000000000e+00,5.000000000000000000e+00,5.000000000000000000e+00,5.000000000000000000e+00,4.847647190093994141e+00,4.657891273498535156e+00,4.482431888580322266e+00,4.319710731506347656e+00,4.168390274047851562e+00,4.027312755584716797e+00,3.895472049713134766e+00,3.771989583969116211e+00,3.656095266342163086e+00,3.547110319137573242e+00,3.444434642791748047e+00,3.347535848617553711e+00,3.255940198898315430e+00,3.169223070144653320e+00,3.087005615234375000e+00,3.008945941925048828e+00,2.934736728668212891e+00,2.864099740982055664e+00,2.796783208847045898e+00,2.732558488845825195e+00,2.671217203140258789e+00,2.612569332122802734e+00,2.556441545486450195e+00,2.502674818038940430e+00,2.451122760772705078e+00,2.401651859283447266e+00,2.354138374328613281e+00,2.308468341827392578e+00,2.264536857604980469e+00,2.222245931625366211e+00,2.181505680084228516e+00,2.142232418060302734e+00,2.104348182678222656e+00,2.067780494689941406e+00,2.032462120056152344e+00,1.998329997062683105e+00,1.965325236320495605e+00,1.933393001556396484e+00,1.902481794357299805e+00,1.872543573379516602e+00,1.843532919883728027e+00
5.000000000000000000e+00,5.000000000000000000e+00,5.000000000000000000e+00,5.000000000000000000e+00,5.000000000000000000e+00,5.000000000000000000e+00,5.000000000000000000e+00,5.000000000000000000e+00,5.000000000000000000e+00,5.000000000000000000e+00,5.000000000000000000e+00,5.000000000000000000e+00,5.000000000000000000e+00,5.000000000000000000e+00,5.000000000000000000e+00,5.000000000000000000e+00,5.000000000000000000e+00,5.000000000000000000e+00,5.000000000000000000e+00,5.000000000000000000e+00,5.000000000000000000e+00,5.000000000000000000e+00,5.000000000000000000e+00,5.000000000000000000e+00,5.000000000000000000e+00,5.000000000000000000e+00,5.000000000000000000e+00,5.000000000000000000e+00,5.000000000000000000e+00,5.000000000000000000e+00,5.000000000000000000e+00,5.000000000000000000e+00,5.000000000000000000e+00,5.000000000000000000e+00,5.000000000000000000e+00,5.000000000000000000e+00,5.000000000000000000e+00,5.000000000000000000e+00,5.000000000000000000e+00,4.847785949707031250e+00,4.658019542694091797e+00,4.482550621032714844e+00,4.319821357727050781e+00,4.168493270874023438e+00,4.027408599853515625e+00,3.895561695098876953e+00,3.772073507308959961e+00,3.656174182891845703e+00,3.547184467315673828e+00,3.444504737854003906e+00,3.347602128982543945e+00,3.256002664566040039e+00,3.169282436370849609e+00,3.087061643600463867e+00,3.008999347686767578e+00,2.934787511825561523e+00,2.864148139953613281e+00,2.796829462051391602e+00,2.732602596282958984e+00,2.671259403228759766e+00,2.612609863281250000e+00,2.556480169296264648e+00,2.502711534500122070e+00,2.451158285140991211e+00,2.401685714721679688e+00,2.354171037673950195e+00,2.308499813079833984e+00,2.264567136764526367e+00,2.222275018692016602e+00,2.181533813476562500e+00,2.142259597778320312e+00,2.104374170303344727e+00,2.067805767059326172e+00,2.032486438751220703e+00,1.998353481292724609e+00,1.965348124504089355e+00,1.933415055274963379e+00,1.902503252029418945e+00,1.872564196586608887e+00,1.843552947044372559e+00
5.000000000000000000e+00,5.000000000000000000e+00,5.000000000000000000e+00,5.000000000000000000e+00,5.000000000000000000e+00,5.000000000000000000e+00,5.000000000000000000e+00,5.000000000000000000e+00,5.000000000000000000e+00,5.000000000000000000e+00,5.000000000000000000e+00,5.000000000000000000e+00,5.000000000000000000e+00,5.000000000000000000e+00,5.000000000000000000e+00,5.000000000000000000e+00,5.000000000000000000e+00,5.000000000000000000e+00,5.000000000000000000e+00,5.000000000000000000e+00,5.000000000000000000e+00,5.000000000000000000e+00,5.000000000000000000e+00,5.000000000000000000e+00,5.000000000000000000e+00,5.000000000000000000e+00,5.000000000000000000e+00,5.000000000000000000e+00,5.000000000000000000e+00,5.000000000000000000e+00,5.000000000000000000e+00,5.000000000000000000e+00,5.000000000000000000e+00,5.000000000000000000e+00,5.000000000000000000e+00,5.000000000000000000e+00,5.000000000000000000e+00,5.000000000000000000e+00,5.000000000000000000e+00,4.847925186157226562e+00,4.658147811889648438e+00,4.482669353485107422e+00,4.319931507110595703e+00,4.168595790863037109e+00,4.027504444122314453e+00,3.895651102066040039e+00,3.772157430648803711e+00,3.656253099441528320e+00,3.547258853912353516e+00,3.444574594497680664e+00,3.347668170928955078e+00,3.256065607070922852e+00,3.169342041015625000e+00,3.087118148803710938e+00,3.009052991867065430e+00,2.934838533401489258e+00,2.864196777343750000e+00,2.796875715255737305e+00,2.732646703720092773e+00,2.671301603317260742e+00,2.612650156021118164e+00,2.556518793106079102e+00,2.502748489379882812e+00,2.451193571090698242e+00,2.401719808578491211e+00,2.354203939437866211e+00,2.308531284332275391e+00,2.264597415924072266e+00,2.222304105758666992e+00,2.181561946868896484e+00,2.142286539077758789e+00,2.104400396347045898e+00,2.067830801010131836e+00,2.032510757446289062e+00,1.998377084732055664e+00,1.965370893478393555e+00,1.933437108993530273e+00,1.902524590492248535e+00,1.872584939002990723e+00,1.843572974205017090e+00
5.000000000000000000e+00,5.000000000000000000e+00,5.000000000000000000e+00,5.000000000000000000e+00,5.000000000000000000e+00,5.000000000000000000e+00,5.000000000000000000e+00,5.000000000000000000e+00,5.000000000000000000e+00,5.000000000000000000e+00,5.000000000000000000e+00,5.000000000000000000e+00,5.000000000000000000e+00,5.000000000000000000e+00,5.000000000000000000e+00,5.000000000000000000e+00,5.000000000000000000e+00,5.000000000000000000e+00,5.000000000000000000e+00,5.000000000000000000e+00,5.000000000000000000e+00,5.000000000000000000e+00,5.000000000000000000e+00,5.000000000000000000e+00,5.000000000000000000e+00,5.000000000000000000e+00,5.000000000000000000e+00,5.000000000000000000e+00,5.000000000000000000e+00,5.000000000000000000e+00,5.000000000000000000e+00,5.000000000000000000e+00,5.000000000000000000e+00,5.000000000000000000e+00,5.000000000000000000e+00,5.000000000000000000e+00,5.000000000000000000e+00,5.000000000000000000e+00,5.000000000000000000e+00,4.848063945770263672e+00,4.658276081085205078e+00,4.482787609100341797e+00,4.320041656494140625e+00,4.168698310852050781e+00,4.027599811553955078e+00,3.895741224288940430e+00,3.772241830825805664e+00,3.656332254409790039e+00,3.547333478927612305e+00,3.444644927978515625e+00,3.347734689712524414e+00,3.256128072738647461e+00,3.169401168823242188e+00,3.087174415588378906e+00,3.009106397628784180e+00,2.934889554977416992e+00,2.864245176315307617e+00,2.796921968460083008e+00,2.732690811157226562e+00,2.671343564987182617e+00,2.612690210342407227e+00,2.556557178497314453e+00,2.502785444259643555e+00,2.451229095458984375e+00,2.401753902435302734e+00,2.354236602783203125e+00,2.308562755584716797e+00,2.264627456665039062e+00,2.222333431243896484e+00,2.181590080261230469e+00,2.142313718795776367e+00,2.104426622390747070e+00,2.067856073379516602e+00,2.032535314559936523e+00,1.998400688171386719e+00,1.965393662452697754e+00,1.933459162712097168e+00,1.902546167373657227e+00,1.872605800628662109e+00,1.843593239784240723e+00
5.000000000000000000e+00,5.000000000000000000e+00,5.000000000000000000e+00,5.000000000000000000e+00,5.000000000000000000e+00,5.000000000000000000e+00,5.000000000000000000e+00,5.000000000000000000e+00,5.000000000000000000e+00,5.000000000000000000e+00,5.000000000000000000e+00,5.000000000000000000e+00,5.000000000000000000e+00,5.000000000000000000e+00,5.000000000000000000e+00,5.000000000000000000e+00,5.000000000000000000e+00,5.000000000000000000e+00,5.000000000000000000e+00,5.000000000000000000e+00,5.000000000000000000e+00,5.000000000000000000e+00,5.000000000000000000e+00,5.000000000000000000e+00,5.000000000000000000e+00,5.000000000000000000e+00,5.000000000000000000e+00,5.000000000000000000e+00,5.000000000000000000e+00,5.000000000000000000e+00,5.000000000000000000e+00,5.000000000000000000e+00,5.000000000000000000e+00,5.000000000000000000e+00,5.000000000000000000e+00,5.000000000000000000e+00,5.000000000000000000e+00,5.000000000000000000e+00,5.000000000000000000e+00,4.848202705383300781e+00,4.658404350280761719e+00,4.482906818389892578e+00,4.320151805877685547e+00,4.168801307678222656e+00,4.027696132659912109e+00,3.895830869674682617e+00,3.772325992584228516e+00,3.656411170959472656e+00,3.547407627105712891e+00,3.444715023040771484e+00,3.347800731658935547e+00,3.256190776824951172e+00,3.169460535049438477e+00,3.087230682373046875e+00,3.009160041809082031e+00,2.934940338134765625e+00,2.864293575286865234e+00,2.796967983245849609e+00,2.732734918594360352e+00,2.671385765075683594e+00,2.612730503082275391e+00,2.556595802307128906e+00,2.502822399139404297e+00,2.451264619827270508e+00,2.401787996292114258e+00,2.354269266128540039e+00,2.308594226837158203e+00,2.264657735824584961e+00,2.222362518310546875e+00,2.181617975234985352e+00,2.142340660095214844e+00,2.104452848434448242e+00,2.067881584167480469e+00,2.032559633255004883e+00,1.998424410820007324e+00,1.965416669845581055e+00,1.933481454849243164e+00,1.902567505836486816e+00,1.872626543045043945e+00,1.843613266944885254e+00
5.000000000000000000e+00,5.000000000000000000e+00,5.000000000000000000e+00,5.000000000000000000e+00,5.000000000000000000e+00,5.000000000000000000e+00,5.000000000000000000e+00,5.000000000000000000e+00,5.000000000000000000e+00,5.000000000000000000e+00,5.000000000000000000e+00,5.000000000000000000e+00,5.000000000000000000e+00,5.000000000000000000e+00,5.000000000000000000e+00,5.000000000000000000e+00,5.000000000000000000e+00,5.000000000000000000e+00,5.000000000000000000e+00,5.000000000000000000e+00,5.000000000000000000e+00,5.000000000000000000e+00,5.000000000000000000e+00,5.000000000000000000e+00,5.000000000000000000e+00,5.000000000000000000e+00,5.000000000000000000e+00,5.000000000000000000e+00,5.000000000000000000e+00,5.000000000000000000e+00,5.000000000000000000e+00,5.000000000000000000e+00,5.000000000000000000e+00,5.000000000000000000e+00,5.000000000000000000e+00,5.000000000000000000e+00,5.000000000000000000e+00,5.000000000000000000e+00,5.000000000000000000e+00,4.848341464996337891e+00,4.658532142639160156e+00,4.483025074005126953e+00,4.320261955261230469e+00,4.168903827667236328e+00,4.027791500091552734e+00,3.895920276641845703e+00,3.772409915924072266e+00,3.656490087509155273e+00,3.547482013702392578e+00,3.444785118103027344e+00,3.347867012023925781e+00,3.256253242492675781e+00,3.169519662857055664e+00,3.087286949157714844e+00,3.009213447570800781e+00,2.934991121292114258e+00,2.864341974258422852e+00,2.797014236450195312e+00,2.732778787612915039e+00,2.671427726745605469e+00,2.612770795822143555e+00,2.556634426116943359e+00,2.502859354019165039e+00,2.451299905776977539e+00,2.401822090148925781e+00,2.354301929473876953e+00,2.308625698089599609e+00,2.264688253402709961e+00,2.222391843795776367e+00,2.181646347045898438e+00,2.142368078231811523e+00,2.104478836059570312e+00,2.067906618118286133e+00,2.032584190368652344e+00,1.998448014259338379e+00,1.965439438819885254e+00,1.933503508567810059e+00,1.902588844299316406e+00,1.872647166252136230e+00,1.843633294105529785e+00
5.000000000000000000e+00,5.000000000000000000e+00,5.000000000000000000e+00,5.000000000000000000e+00,5.000000000000000000e+00,5.000000000000000000e+00,5.000000000000000000e+00,5.000000000000000000e+00,5.000000000000000000e+00,5.000000000000000000e+00,5.000000000000000000e+00,5.000000000000000000e+00,5.000000000000000000e+00,5.000000000000000000e+00,5.000000000000000000e+00,5.000000000000000000e+00,5.000000000000000000e+00,5.000000000000000000e+00,5.000000000000000000e+00,5.000000000000000000e+00,5.000000000000000000e+00,5.000000000000000000e+00,5.000000000000000000e+00,5.000000000000000000e+00,5.000000000000000000e+00,5.000000000000000000e+00,5.000000000000000000e+00,5.000000000000000000e+00,5.000000000000000000e+00,5.000000000000000000e+00,5.000000000000000000e+00,5.000000000000000000e+00,5.000000000000000000e+00,5.000000000000000000e+00,5.000000000000000000e+00,5.000000000000000000e+00,5.000000000000000000e+00,5.000000000000000000e+00,5.000000000000000000e+00,4.848480224609375000e+00,4.658660411834716797e+00,4.483143806457519531e+00,4.320372104644775391e+00,4.169006347656250000e+00,4.027887821197509766e+00,3.896009922027587891e+00,3.772493839263916016e+00,3.656569004058837891e+00,3.547556161880493164e+00,3.444854974746704102e+00,3.347933053970336914e+00,3.256315708160400391e+00,3.169579029083251953e+00,3.087343215942382812e+00,3.009266853332519531e+00,2.935041904449462891e+00,2.864390373229980469e+00,2.797060489654541016e+00,2.732822895050048828e+00,2.671469688415527344e+00,2.612811326980590820e+00,2.556673049926757812e+00,2.502896547317504883e+00,2.451335668563842773e+00,2.401856184005737305e+00,2.354334831237792969e+00,2.308657169342041016e+00,2.264718532562255859e+00,2.222420930862426758e+00,2.181674480438232422e+00,2.142395019531250000e+00,2.104505062103271484e+00,2.067931890487670898e+00,2.032608509063720703e+00,1.998471617698669434e+00,1.965462207794189453e+00,1.933525562286376953e+00,1.902610182762145996e+00,1.872667908668518066e+00,1.843653440475463867e+00
5.000000000000000000e+00,5.000000000000000000e+00,5.000000000000000000e+00,5.000000000000000000e+00,5.000000000000000000e+00,5.000000000000000000e+00,5.000000000000000000e+00,5.000000000000000000e+00,5.000000000000000000e+00,5.000000000000000000e+00,5.000000000000000000e+00,5.000000000000000000e+00,5.000000000000000000e+00,5.000000000000000000e+00,5.000000000000000000e+00,5.000000000000000000e+00,5.000000000000000000e+00,5.000000000000000000e+00,5.000000000000000000e+00,5.000000000000000000e+00,5.000000000000000000e+00,5.000000000000000000e+00,5.000000000000000000e+00,5.000000000000000000e+00,5.000000000000000000e+00,5.000000000000000000e+00,5.000000000000000000e+00,5.000000000000000000e+00,5.000000000000000000e+00,5.000000000000000000e+00,5.000000000000000000e+00,5.000000000000000000e+00,5.000000000000000000e+00,5.000000000000000000e+00,5.000000000000000000e+00,5.000000000000000000e+00,5.000000000000000000e+00,5.000000000000000000e+00,5.000000000000000000e+00,4.848619461059570312e+00,4.658788681030273438e+00,4.483262538909912109e+00,4.320482730865478516e+00,4.169108867645263672e+00,4.027983188629150391e+00,3.896099567413330078e+00,3.772577762603759766e+00,3.656647920608520508e+00,3.547630548477172852e+00,3.444925069808959961e+00,3.347999334335327148e+00,3.256378412246704102e+00,3.169638395309448242e+00,3.087399482727050781e+00,3.009320497512817383e+00,2.935093164443969727e+00,2.864439010620117188e+00,2.797106504440307617e+00,2.732867002487182617e+00,2.671512126922607422e+00,2.612851619720458984e+00,2.556711673736572266e+00,2.502933502197265625e+00,2.451371192932128906e+00,2.401890277862548828e+00,2.354367494583129883e+00,2.308688640594482422e+00,2.264748811721801758e+00,2.222450017929077148e+00,2.181702375411987305e+00,2.142422199249267578e+00,2.104531288146972656e+00,2.067957162857055664e+00,2.032632827758789062e+00,1.998495101928710938e+00,1.965485095977783203e+00,1.933547616004943848e+00,1.902631521224975586e+00,1.872688531875610352e+00,1.843673467636108398e+00
5.000000000000000000e+00,5.000000000000000000e+00,5.000000000000000000e+00,5.000000000000000000e+00,5.000000000000000000e+00,5.000000000000000000e+00,5.000000000000000000e+00,5.000000000000000000e+00,5.000000000000000000e+00,5.000000000000000000e+00,5.000000000000000000e+00,5.000000000000000000e+00,5.000000000000000000e+00,5.000000000000000000e+00,5.000000000000000000e+00,5.000000000000000000e+00,5.000000000000000000e+00,5.000000000000000000e+00,5.000000000000000000e+00,5.000000000000000000e+00,5.000000000000000000e+00,5.000000000000000000e+00,5.000000000000000000e+00,5.000000000000000000e+00,5.000000000000000000e+00,5.000000000000000000e+00,5.000000000000000000e+00,5.000000000000000000e+00,5.000000000000000000e+00,5.000000000000000000e+00,5.000000000000000000e+00,5.000000000000000000e+00,5.000000000000000000e+00,5.000000000000000000e+00,5.000000000000000000e+00,5.000000000000000000e+00,5.000000000000000000e+00,5.000000000000000000e+00,5.000000000000000000e+00,4.848757743835449219e+00,4.658916950225830078e+00,4.483381271362304688e+00,4.320592880249023438e+00,4.169211387634277344e+00,4.028079032897949219e+00,3.896188974380493164e+00,3.772661924362182617e+00,3.656726837158203125e+00,3.547705173492431641e+00,3.444995403289794922e+00,3.348065614700317383e+00,3.256441354751586914e+00,3.169697999954223633e+00,3.087455987930297852e+00,3.009373903274536133e+00,2.935143947601318359e+00,2.864487171173095703e+00,2.797152757644653320e+00,2.732911109924316406e+00,2.671554088592529297e+00,2.612891674041748047e+00,2.556750297546386719e+00,2.502970457077026367e+00,2.451406478881835938e+00,2.401924371719360352e+00,2.354400157928466797e+00,2.308720111846923828e+00,2.264779090881347656e+00,2.222479104995727539e+00,2.181730508804321289e+00,2.142449140548706055e+00,2.104557275772094727e+00,2.067982435226440430e+00,2.032657146453857422e+00,1.998518705368041992e+00,1.965507864952087402e+00,1.933569669723510742e+00,1.902652978897094727e+00,1.872709274291992188e+00,1.843693494796752930e+00
5.000000000000000000e+00,5.000000000000000000e+00,5.000000000000000000e+00,5.000000000000000000e+00,5.000000000000000000e+00,5.000000000000000000e+00,5.000000000000000000e+00,5.000000000000000000e+00,5.000000000000000000e+00,5.000000000000000000e+00,5.000000000000000000e+00,5.000000000000000000e+00,5.000000000000000000e+00,5.000000000000000000e+00,5.000000000000000000e+00,5.000000000000000000e+00,5.000000000000000000e+00,5.000000000000000000e+00,5.000000000000000000e+00,5.000000000000000000e+00,5.000000000000000000e+00,5.000000000000000000e+00,5.000000000000000000e+00,5.000000000000000000e+00,5.000000000000000000e+00,5.000000000000000000e+00,5.000000000000000000e+00,5.000000000000000000e+00,5.000000000000000000e+00,5.000000000000000000e+00,5.000000000000000000e+00,5.000000000000000000e+00,5.000000000000000000e+00,5.000000000000000000e+00,5.000000000000000000e+00,5.000000000000000000e+00,5.000000000000000000e+00,5.000000000000000000e+00,5.000000000000000000e+00,4.848896503448486328e+00,4.659044742584228516e+00,4.483500003814697266e+00,4.320702552795410156e+00,4.169314384460449219e+00,4.028175354003906250e+00,3.896279096603393555e+00,3.772746324539184570e+00,3.656805992126464844e+00,3.547779321670532227e+00,3.445065498352050781e+00,3.348131895065307617e+00,3.256503820419311523e+00,3.169757127761840820e+00,3.087512254714965820e+00,3.009427309036254883e+00,2.935194492340087891e+00,2.864535808563232422e+00,2.797198772430419922e+00,2.732955217361450195e+00,2.671596288681030273e+00,2.612931966781616211e+00,2.556788921356201172e+00,2.503007411956787109e+00,2.451442003250122070e+00,2.401958227157592773e+00,2.354433059692382812e+00,2.308751583099365234e+00,2.264809370040893555e+00,2.222508430480957031e+00,2.181758642196655273e+00,2.142476320266723633e+00,2.104583501815795898e+00,2.068007707595825195e+00,2.032681703567504883e+00,1.998542308807373047e+00,1.965530633926391602e+00,1.933591723442077637e+00,1.902674317359924316e+00,1.872730016708374023e+00,1.843713521957397461e+00
5.000000000000000000e+00,5.000000000000000000e+00,5.000000000000000000e+00,5.000000000000000000e+00,5.000000000000000000e+00,5.000000000000000000e+00,5.000000000000000000e+00,5.000000000000000000e+00,5.000000000000000000e+00,5.000000000000000000e+00,5.000000000000000000e+00,5.000000000000000000e+00,5.000000000000000000e+00,5.000000000000000000e+00,5.000000000000000000e+00,5.000000000000000000e+00,5.000000000000000000e+00,5.000000000000000000e+00,5.000000000000000000e+00,5.000000000000000000e+00,5.000000000000000000e+00,5.000000000000000000e+00,5.000000000000000000e+00,5.000000000000000000e+00,5.000000000000000000e+00,5.000000000000000000e+00,5.000000000000000000e+00,5.000000000000000000e+00,5.000000000000000000e+00,5.000000000000000000e+00,5.000000000000000000e+00,5.000000000000000000e+00,5.000000000000000000e+00,5.000000000000000000e+00,5.000000000000000000e+00,5.000000000000000000e+00,5.000000000000000000e+00,5.000000000000000000e+00,5.000000000000000000e+00,4.849035739898681641e+00,4.659173488616943359e+00,4.483618736267089844e+00,4.320813179016113281e+00,4.169416904449462891e+00,4.028270721435546875e+00,3.896368741989135742e+00,3.772830247879028320e+00,3.656884908676147461e+00,3.547853708267211914e+00,3.445135593414306641e+00,3.348197937011718750e+00,3.256566524505615234e+00,3.169816493988037109e+00,3.087568521499633789e+00,3.009480714797973633e+00,2.935245275497436523e+00,2.864584207534790039e+00,2.797245025634765625e+00,2.732999324798583984e+00,2.671638488769531250e+00,2.612972259521484375e+00,2.556827306747436523e+00,2.503044366836547852e+00,2.451477527618408203e+00,2.401992321014404297e+00,2.354465723037719727e+00,2.308783054351806641e+00,2.264839649200439453e+00,2.222537517547607422e+00,2.181786775588989258e+00,2.142503499984741211e+00,2.104609727859497070e+00,2.068032979965209961e+00,2.032706022262573242e+00,1.998565793037414551e+00,1.965553402900695801e+00,1.933613777160644531e+00,1.902695655822753906e+00,1.872750639915466309e+00,1.843733668327331543e+00
5.000000000000000000e+00,5.000000000000000000e+00,5.000000000000000000e+00,5.000000000000000000e+00,5.000000000000000000e+00,5.000000000000000000e+00,5.000000000000000000e+00,5.000000000000000000e+00,5.000000000000000000e+00,5.000000000000000000e+00,5.000000000000000000e+00,5.000000000000000000e+00,5.000000000000000000e+00,5.000000000000000000e+00,5.000000000000000000e+00,5.000000000000000000e+00,5.000000000000000000e+00,5.000000000000000000e+00,5.000000000000000000e+00,5.000000000000000000e+00,5.000000000000000000e+00,5.000000000000000000e+00,5.000000000000000000e+00,5.000000000000000000e+00,5.000000000000000000e+00,5.000000000000000000e+00,5.000000000000000000e+00,5.000000000000000000e+00,5.000000000000000000e+00,5.000000000000000000e+00,5.000000000000000000e+00,5.000000000000000000e+00,5.000000000000000000e+00,5.000000000000000000e+00,5.000000000000000000e+00,5.000000000000000000e+00,5.000000000000000000e+00,5.000000000000000000e+00,5.000000000000000000e+00,4.849174499511718750e+00,4.659301280975341797e+00,4.483737468719482422e+00,4.320923328399658203e+00,4.169519424438476562e+00,4.028366565704345703e+00,3.896458148956298828e+00,3.772914171218872070e+00,3.656963825225830078e+00,3.547927856445312500e+00,3.445205688476562500e+00,3.348264217376708984e+00,3.256628990173339844e+00,3.169875860214233398e+00,3.087624549865722656e+00,3.009534120559692383e+00,2.935296058654785156e+00,2.864632606506347656e+00,2.797291278839111328e+00,2.733043432235717773e+00,2.671680450439453125e+00,2.613012552261352539e+00,2.556865930557250977e+00,2.503081321716308594e+00,2.451513051986694336e+00,2.402026653289794922e+00,2.354498624801635742e+00,2.308814764022827148e+00,2.264869928359985352e+00,2.222566843032836914e+00,2.181814908981323242e+00,2.142530679702758789e+00,2.104635953903198242e+00,2.068058252334594727e+00,2.032730579376220703e+00,1.998589396476745605e+00,1.965576291084289551e+00,1.933635950088500977e+00,1.902716994285583496e+00,1.872771382331848145e+00,1.843753695487976074e+00
5.000000000000000000e+00,5.000000000000000000e+00,5.000000000000000000e+00,5.000000000000000000e+00,5.000000000000000000e+00,5.000000000000000000e+00,5.000000000000000000e+00,5.000000000000000000e+00,5.000000000000000000e+00,5.000000000000000000e+00,5.000000000000000000e+00,5.000000000000000000e+00,5.000000000000000000e+00,5.000000000000000000e+00,5.000000000000000000e+00,5.000000000000000000e+00,5.000000000000000000e+00,5.000000000000000000e+00,5.000000000000000000e+00,5.000000000000000000e+00,5.000000000000000000e+00,5.000000000000000000e+00,5.000000000000000000e+00,5.000000000000000000e+00,5.000000000000000000e+00,5.000000000000000000e+00,5.000000000000000000e+00,5.000000000000000000e+00,5.000000000000000000e+00,5.000000000000000000e+00,5.000000000000000000e+00,5.000000000000000000e+00,5.000000000000000000e+00,5.000000000000000000e+00,5.000000000000000000e+00,5.000000000000000000e+00,5.000000000000000000e+00,5.000000000000000000e+00,5.000000000000000000e+00,4.849313259124755859e+00,4.659429550170898438e+00,4.483856201171875000e+00,4.321033954620361328e+00,4.169622421264648438e+00,4.028462886810302734e+00,3.896547794342041016e+00,3.772998094558715820e+00,3.657042741775512695e+00,3.548002243041992188e+00,3.445275545120239258e+00,3.348330259323120117e+00,3.256691694259643555e+00,3.169934749603271484e+00,3.087680816650390625e+00,3.009587526321411133e+00,2.935347080230712891e+00,2.864681005477905273e+00,2.797337532043457031e+00,2.733087778091430664e+00,2.671722888946533203e+00,2.613053083419799805e+00,2.556904792785644531e+00,2.503118515014648438e+00,2.451548576354980469e+00,2.402060747146606445e+00,2.354531288146972656e+00,2.308845996856689453e+00,2.264900207519531250e+00,2.222595930099487305e+00,2.181843042373657227e+00,2.142557621002197266e+00,2.104661941528320312e+00,2.068083524703979492e+00,2.032754898071289062e+00,1.998612999916076660e+00,1.965599060058593750e+00,1.933658003807067871e+00,1.902738332748413086e+00,1.872792005538940430e+00,1.843773722648620605e+00
5.000000000000000000e+00,5.000000000000000000e+00,5.000000000000000000e+00,5.000000000000000000e+00,5.000000000000000000e+00,5.000000000000000000e+00,5.000000000000000000e+00,5.000000000000000000e+00,5.000000000000000000e+00,5.000000000000000000e+00,5.000000000000000000e+00,5.000000000000000000e+00,5.000000000000000000e+00,5.000000000000000000e+00,5.000000000000000000e+00,5.000000000000000000e+00,5.000000000000000000e+00,5.000000000000000000e+00,5.000000000000000000e+00,5.000000000000000000e+00,5.000000000000000000e+00,5.000000000000000000e+00,5.000000000000000000e+00,5.000000000000000000e+00,5.000000000000000000e+00,5.000000000000000000e+00,5.000000000000000000e+00,5.000000000000000000e+00,5.000000000000000000e+00,5.000000000000000000e+00,5.000000000000000000e+00,5.000000000000000000e+00,5.000000000000000000e+00,5.000000000000000000e+00,5.000000000000000000e+00,5.000000000000000000e+00,5.000000000000000000e+00,5.000000000000000000e+00,5.000000000000000000e+00,4.849452495574951172e+00,4.659557819366455078e+00,4.483974933624267578e+00,4.321144104003906250e+00,4.169724941253662109e+00,4.028558254241943359e+00,3.896637439727783203e+00,3.773082256317138672e+00,3.657121658325195312e+00,3.548076391220092773e+00,3.445345640182495117e+00,3.348396539688110352e+00,3.256753921508789062e+00,3.169994354248046875e+00,3.087737321853637695e+00,3.009641170501708984e+00,2.935398101806640625e+00,2.864729642868041992e+00,2.797383785247802734e+00,2.733131647109985352e+00,2.671765089035034180e+00,2.613093376159667969e+00,2.556943416595458984e+00,2.503155469894409180e+00,2.451584100723266602e+00,2.402094602584838867e+00,2.354563951492309570e+00,2.308877468109130859e+00,2.264930486679077148e+00,2.222625017166137695e+00,2.181871175765991211e+00,2.142584800720214844e+00,2.104688167572021484e+00,2.068108797073364258e+00,2.032779216766357422e+00,1.998636603355407715e+00,1.965621829032897949e+00,1.933680057525634766e+00,1.902759790420532227e+00,1.872812747955322266e+00,1.843793869018554688e+00
5.000000000000000000e+00,5.000000000000000000e+00,5.000000000000000000e+00,5.000000000000000000e+00,5.000000000000000000e+00,5.000000000000000000e+00,5.000000000000000000e+00,5.000000000000000000e+00,5.000000000000000000e+00,5.000000000000000000e+00,5.000000000000000000e+00,5.000000000000000000e+00,5.000000000000000000e+00,5.000000000000000000e+00,5.000000000000000000e+00,5.000000000000000000e+00,5.000000000000000000e+00,5.000000000000000000e+00,5.000000000000000000e+00,5.000000000000000000e+00,5.000000000000000000e+00,5.000000000000000000e+00,5.000000000000000000e+00,5.000000000000000000e+00,5.000000000000000000e+00,5.000000000000000000e+00,5.000000000000000000e+00,5.000000000000000000e+00,5.000000000000000000e+00,5.000000000000000000e+00,5.000000000000000000e+00,5.000000000000000000e+00,5.000000000000000000e+00,5.000000000000000000e+00,5.000000000000000000e+00,5.000000000000000000e+00,5.000000000000000000e+00,5.000000000000000000e+00,5.000000000000000000e+00,4.849590301513671875e+00,4.659686088562011719e+00,4.484093666076660156e+00,4.321254253387451172e+00,4.169827461242675781e+00,4.028654098510742188e+00,3.896727085113525391e+00,3.773166656494140625e+00,3.657201051712036133e+00,3.548151254653930664e+00,3.445415973663330078e+00,3.348462820053100586e+00,3.256816864013671875e+00,3.170053720474243164e+00,3.087793588638305664e+00,3.009694576263427734e+00,2.935448884963989258e+00,2.864778041839599609e+00,2.797430038452148438e+00,2.733175754547119141e+00,2.671807050704956055e+00,2.613133668899536133e+00,2.556981801986694336e+00,2.503192424774169922e+00,2.451619625091552734e+00,2.402128696441650391e+00,2.354596614837646484e+00,2.308908939361572266e+00,2.264960765838623047e+00,2.222654342651367188e+00,2.181899309158325195e+00,2.142611980438232422e+00,2.104714393615722656e+00,2.068134069442749023e+00,2.032803773880004883e+00,1.998660087585449219e+00,1.965644598007202148e+00,1.933702111244201660e+00,1.902781128883361816e+00,1.872833609580993652e+00,1.843814134597778320e+00
5.000000000000000000e+00,5.000000000000000000e+00,5.000000000000000000e+00,5.000000000000000000e+00,5.000000000000000000e+00,5.000000000000000000e+00,5.000000000000000000e+00,5.000000000000000000e+00,5.000000000000000000e+00,5.000000000000000000e+00,5.000000000000000000e+00,5.000000000000000000e+00,5.000000000000000000e+00,5.000000000000000000e+00,5.000000000000000000e+00,5.000000000000000000e+00,5.000000000000000000e+00,5.000000000000000000e+00,5.000000000000000000e+00,5.000000000000000000e+00,5.000000000000000000e+00,5.000000000000000000e+00,5.000000000000000000e+00,5.000000000000000000e+00,5.000000000000000000e+00,5.000000000000000000e+00,5.000000000000000000e+00,5.000000000000000000e+00,5.000000000000000000e+00,5.000000000000000000e+00,5.000000000000000000e+00,5.000000000000000000e+00,5.000000000000000000e+00,5.000000000000000000e+00,5.000000000000000000e+00,5.000000000000000000e+00,5.000000000000000000e+00,5.000000000000000000e+00,5.000000000000000000e+00,4.849728107452392578e+00,4.659814357757568359e+00,4.484212398529052734e+00,4.321364879608154297e+00,4.169930458068847656e+00,4.028750419616699219e+00,3.896817207336425781e+00,3.773250579833984375e+00,3.657279968261718750e+00,3.548225402832031250e+00,3.445485830307006836e+00,3.348528861999511719e+00,3.256879329681396484e+00,3.170113086700439453e+00,3.087849855422973633e+00,3.009748220443725586e+00,2.935499906539916992e+00,2.864826440811157227e+00,2.797476053237915039e+00,2.733219861984252930e+00,2.671849250793457031e+00,2.613173961639404297e+00,2.557020425796508789e+00,2.503229379653930664e+00,2.451654911041259766e+00,2.402162790298461914e+00,2.354629516601562500e+00,2.308940410614013672e+00,2.264991044998168945e+00,2.222683429718017578e+00,2.181927442550659180e+00,2.142638921737670898e+00,2.104740381240844727e+00,2.068159341812133789e+00,2.032828092575073242e+00,1.998683929443359375e+00,1.965667724609375000e+00,1.933724403381347656e+00,1.902802705764770508e+00,1.872854351997375488e+00,1.843834161758422852e+00
5.000000000000000000e+00,5.000000000000000000e+00,5.000000000000000000e+00,5.000000000000000000e+00,5.000000000000000000e+00,5.000000000000000000e+00,5.000000000000000000e+00,5.000000000000000000e+00,5.000000000000000000e+00,5.000000000000000000e+00,5.000000000000000000e+00,5.000000000000000000e+00,5.000000000000000000e+00,5.000000000000000000e+00,5.000000000000000000e+00,5.000000000000000000e+00,5.000000000000000000e+00,5.000000000000000000e+00,5.000000000000000000e+00,5.000000000000000000e+00,5.000000000000000000e+00,5.000000000000000000e+00,5.000000000000000000e+00,5.000000000000000000e+00,5.000000000000000000e+00,5.000000000000000000e+00,5.000000000000000000e+00,5.000000000000000000e+00,5.000000000000000000e+00,5.000000000000000000e+00,5.000000000000000000e+00,5.000000000000000000e+00,5.000000000000000000e+00,5.000000000000000000e+00,5.000000000000000000e+00,5.000000000000000000e+00,5.000000000000000000e+00,5.000000000000000000e+00,5.000000000000000000e+00,4.849865913391113281e+00,4.659941196441650391e+00,4.484331130981445312e+00,4.321475028991699219e+00,4.170032978057861328e+00,4.028845787048339844e+00,3.896906614303588867e+00,3.773334741592407227e+00,3.657358884811401367e+00,3.548299551010131836e+00,3.445555925369262695e+00,3.348595142364501953e+00,3.256942033767700195e+00,3.170172452926635742e+00,3.087906122207641602e+00,3.009801626205444336e+00,2.935550689697265625e+00,2.864874839782714844e+00,2.797522306442260742e+00,2.733263969421386719e+00,2.671891450881958008e+00,2.613214254379272461e+00,2.557059049606323242e+00,2.503266334533691406e+00,2.451690435409545898e+00,2.402196884155273438e+00,2.354662179946899414e+00,2.308972120285034180e+00,2.265021562576293945e+00,2.222712755203247070e+00,2.181955575942993164e+00,2.142666101455688477e+00,2.104766607284545898e+00,2.068184614181518555e+00,2.032852649688720703e+00,1.998707532882690430e+00,1.965690493583679199e+00,1.933746457099914551e+00,1.902824044227600098e+00,1.872875094413757324e+00,1.843854188919067383e+00
5.000000000000000000e+00,5.000000000000000000e+00,5.000000000000000000e+00,5.000000000000000000e+00,5.000000000000000000e+00,5.000000000000000000e+00,5.000000000000000000e+00,5.000000000000000000e+00,5.000000000000000000e+00,5.000000000000000000e+00,5.000000000000000000e+00,5.000000000000000000e+00,5.000000000000000000e+00,5.000000000000000000e+00,5.000000000000000000e+00,5.000000000000000000e+00,5.000000000000000000e+00,5.000000000000000000e+00,5.000000000000000000e+00,5.000000000000000000e+00,5.000000000000000000e+00,5.000000000000000000e+00,5.000000000000000000e+00,5.000000000000000000e+00,5.000000000000000000e+00,5.000000000000000000e+00,5.000000000000000000e+00,5.000000000000000000e+00,5.000000000000000000e+00,5.000000000000000000e+00,5.000000000000000000e+00,5.000000000000000000e+00,5.000000000000000000e+00,5.000000000000000000e+00,5.000000000000000000e+00,5.000000000000000000e+00,5.000000000000000000e+00,5.000000000000000000e+00,5.000000000000000000e+00,4.850003719329833984e+00,4.660068511962890625e+00,4.484448909759521484e+00,4.321585178375244141e+00,4.170135498046875000e+00,4.028941631317138672e+00,3.896996259689331055e+00,3.773418664932250977e+00,3.657437562942504883e+00,3.548373699188232422e+00,3.445626020431518555e+00,3.348661184310913086e+00,3.257004499435424805e+00,3.170231580734252930e+00,3.087962388992309570e+00,3.009855031967163086e+00,2.935601472854614258e+00,2.864923477172851562e+00,2.797568559646606445e+00,2.733308076858520508e+00,2.671933412551879883e+00,2.613254547119140625e+00,2.557097911834716797e+00,2.503303527832031250e+00,2.451726198196411133e+00,2.402230978012084961e+00,2.354695081710815430e+00,2.309003591537475586e+00,2.265051841735839844e+00,2.222741842269897461e+00,2.181983709335327148e+00,2.142693281173706055e+00,2.104792833328247070e+00,2.068209886550903320e+00,2.032876968383789062e+00,1.998731136322021484e+00,1.965713262557983398e+00,1.933768510818481445e+00,1.902845382690429688e+00,1.872895717620849609e+00,1.843874216079711914e+00
5.000000000000000000e+00,5.000000000000000000e+00,5.000000000000000000e+00,5.000000000000000000e+00,5.000000000000000000e+00,5.000000000000000000e+00,5.000000000000000000e+00,5.000000000000000000e+00,5.000000000000000000e+00,5.000000000000000000e+00,5.000000000000000000e+00,5.000000000000000000e+00,5.000000000000000000e+00,5.000000000000000000e+00,5.000000000000000000e+00,5.000000000000000000e+00,5.000000000000000000e+00,5.000000000000000000e+00,5.000000000000000000e+00,5.000000000000000000e+00,5.000000000000000000e+00,5.000000000000000000e+00,5.000000000000000000e+00,5.000000000000000000e+00,5.000000000000000000e+00,5.000000000000000000e+00,5.000000000000000000e+00,5.000000000000000000e+00,5.000000000000000000e+00,5.000000000000000000e+00,5.000000000000000000e+00,5.000000000000000000e+00,5.000000000000000000e+00,5.000000000000000000e+00,5.000000000000000000e+00,5.000000000000000000e+00,5.000000000000000000e+00,5.000000000000000000e+00,5.000000000000000000e+00,4.850141525268554688e+00,4.660195350646972656e+00,4.484566688537597656e+00,4.321694374084472656e+00,4.170238494873046875e+00,4.029037952423095703e+00,3.897085905075073242e+00,3.773502588272094727e+00,3.657516717910766602e+00,3.548448085784912109e+00,3.445696115493774414e+00,3.348727464675903320e+00,3.257067203521728516e+00,3.170290946960449219e+00,3.088018655776977539e+00,3.009908437728881836e+00,2.935652494430541992e+00,2.864972114562988281e+00,2.797614812850952148e+00,2.733352422714233398e+00,2.671975851058959961e+00,2.613295078277587891e+00,2.557136297225952148e+00,2.503340482711791992e+00,2.451761484146118164e+00,2.402265071868896484e+00,2.354727745056152344e+00,2.309035062789916992e+00,2.265082120895385742e+00,2.222770929336547852e+00,2.182011842727661133e+00,2.142720460891723633e+00,2.104819059371948242e+00,2.068235158920288086e+00,2.032901287078857422e+00,1.998754620552062988e+00,1.965736031532287598e+00,1.933790564537048340e+00,1.902866840362548828e+00,1.872916460037231445e+00,1.843894362449645996e+00
5.000000000000000000e+00,5.000000000000000000e+00,5.000000000000000000e+00,5.000000000000000000e+00,5.000000000000000000e+00,5.000000000000000000e+00,5.000000000000000000e+00,5.000000000000000000e+00,5.000000000000000000e+00,5.000000000000000000e+00,5.000000000000000000e+00,5.000000000000000000e+00,5.000000000000000000e+00,5.000000000000000000e+00,5.000000000000000000e+00,5.000000000000000000e+00,5.000000000000000000e+00,5.000000000000000000e+00,5.000000000000000000e+00,5.000000000000000000e+00,5.000000000000000000e+00,5.000000000000000000e+00,5.000000000000000000e+00,5.000000000000000000e+00,5.000000000000000000e+00,5.000000000000000000e+00,5.000000000000000000e+00,5.000000000000000000e+00,5.000000000000000000e+00,5.000000000000000000e+00,5.000000000000000000e+00,5.000000000000000000e+00,5.000000000000000000e+00,5.000000000000000000e+00,5.000000000000000000e+00,5.000000000000000000e+00,5.000000000000000000e+00,5.000000000000000000e+00,5.000000000000000000e+00,4.850279331207275391e+00,4.660323143005371094e+00,4.484684944152832031e+00,4.321804046630859375e+00,4.170341014862060547e+00,4.029133796691894531e+00,3.897175312042236328e+00,3.773586511611938477e+00,3.657595634460449219e+00,3.548522472381591797e+00,3.445766448974609375e+00,3.348793983459472656e+00,3.257130146026611328e+00,3.170350551605224609e+00,3.088075160980224609e+00,3.009962320327758789e+00,2.935703516006469727e+00,2.865020513534545898e+00,2.797661066055297852e+00,2.733396530151367188e+00,2.672018051147460938e+00,2.613335371017456055e+00,2.557174921035766602e+00,2.503377437591552734e+00,2.451797008514404297e+00,2.402299165725708008e+00,2.354760408401489258e+00,2.309066534042358398e+00,2.265112400054931641e+00,2.222800254821777344e+00,2.182039976119995117e+00,2.142747402191162109e+00,2.104845046997070312e+00,2.068260192871093750e+00,2.032925605773925781e+00,1.998778223991394043e+00,1.965758919715881348e+00,1.933812618255615234e+00,1.902888178825378418e+00,1.872937083244323730e+00,1.843914389610290527e+00
4.875039100646972656e+00,4.873828887939453125e+00,4.872619152069091797e+00,4.871409893035888672e+00,4.870201587677001953e+00,4.868993282318115234e+00,4.867785930633544922e+00,4.866579532623291016e+00,4.865373134613037109e+00,4.864167213439941406e+00,4.862962722778320312e+00,4.861758232116699219e+00,4.860554218292236328e+00,4.859351158142089844e+00,4.858148574829101562e+00,4.856946468353271484e+00,4.855745315551757812e+00,4.854544162750244141e+00,4.853344440460205078e+00,4.852144718170166016e+00,4.850945472717285156e+00,4.849747180938720703e+00,4.848549365997314453e+00,4.847352027893066406e+00,4.846155166625976562e+00,4.844959259033203125e+00,4.843763828277587891e+00,4.842568874359130859e+00,4.841374397277832031e+00,4.840180873870849609e+00,4.838987827301025391e+00,4.837794780731201172e+00,4.836603164672851562e+00,4.835411548614501953e+00,4.834220886230468750e+00,4.833030700683593750e+00,4.831840991973876953e+00,4.830652236938476562e+00,4.829463481903076172e+00,4.828275680541992188e+00,4.660450458526611328e+00,4.484802722930908203e+00,4.321913719177246094e+00,4.170442581176757812e+00,4.029229640960693359e+00,3.897265434265136719e+00,3.773670911788940430e+00,3.657674789428710938e+00,3.548597097396850586e+00,3.445836544036865234e+00,3.348860025405883789e+00,3.257192850112915039e+00,3.170409917831420898e+00,3.088131427764892578e+00,3.010015726089477539e+00,2.935754299163818359e+00,2.865068912506103516e+00,2.797707319259643555e+00,2.733440637588500977e+00,2.672060012817382812e+00,2.613375663757324219e+00,2.557213544845581055e+00,2.503414630889892578e+00,2.451832532882690430e+00,2.402333259582519531e+00,2.354793071746826172e+00,2.309098005294799805e+00,2.265142679214477539e+00,2.222829341888427734e+00,2.182067871093750000e+00,2.142774581909179688e+00,2.104871273040771484e+00,2.068285465240478516e+00,2.032950162887573242e+00,1.998801827430725098e+00,1.965781688690185547e+00,1.933834671974182129e+00,1.902909517288208008e+00,1.872957825660705566e+00,1.843934416770935059e+00
3.777876138687133789e+00,3.777149438858032227e+00,3.776422977447509766e+00,3.775696277618408203e+00,3.774970293045043945e+00,3.774244785308837891e+00,3.773518800735473633e+00,3.772793769836425781e+00,3.772068977355957031e+00,3.771343946456909180e+00,3.770619630813598633e+00,3.769895792007446289e+00,3.769171476364135742e+00,3.768448114395141602e+00,3.767724990844726562e+00,3.767002105712890625e+00,3.766278982162475586e+00,3.765556812286376953e+00,3.764834642410278320e+00,3.764112472534179688e+00,3.763391017913818359e+00,3.762669801712036133e+00,3.761948347091674805e+00,3.761227846145629883e+00,3.760507345199584961e+00,3.759786844253540039e+00,3.759067058563232422e+00,3.758347511291503906e+00,3.757627725601196289e+00,3.756908655166625977e+00,3.756190061569213867e+00,3.755470991134643555e+00,3.754752874374389648e+00,3.754034996032714844e+00,3.753317356109619141e+00,3.752599477767944336e+00,3.751882314682006836e+00,3.751165628433227539e+00,3.750448703765869141e+00,3.749732494354248047e+00,3.749016284942626953e+00,3.748300313949584961e+00,3.747584819793701172e+00,3.746869564056396484e+00,3.746154308319091797e+00,3.745439767837524414e+00,3.744725227355957031e+00,3.657753944396972656e+00,3.548671483993530273e+00,3.445906639099121094e+00,3.348926305770874023e+00,3.257255315780639648e+00,3.170469284057617188e+00,3.088187694549560547e+00,3.010069131851196289e+00,2.935805082321166992e+00,2.865117311477661133e+00,2.797753572463989258e+00,2.733484745025634766e+00,2.672102212905883789e+00,2.613415956497192383e+00,2.557252168655395508e+00,2.503451585769653320e+00,2.451868057250976562e+00,2.402367353439331055e+00,2.354825973510742188e+00,2.309129476547241211e+00,2.265172958374023438e+00,2.222858428955078125e+00,2.182096004486083984e+00,2.142801761627197266e+00,2.104897499084472656e+00,2.068310976028442383e+00,2.032974720001220703e+00,1.998825430870056152e+00,1.965804457664489746e+00,1.933856725692749023e+00,1.902930855751037598e+00,1.872978568077087402e+00,1.843954563140869141e+00
3.083836555480957031e+00,3.083352088928222656e+00,3.082868099212646484e+00,3.082383871078491211e+00,3.081899881362915039e+00,3.081416368484497070e+00,3.080932378768920898e+00,3.080449104309082031e+00,3.079965829849243164e+00,3.079482555389404297e+00,3.078999519348144531e+00,3.078516721725463867e+00,3.078033924102783203e+00,3.077551364898681641e+00,3.077069044113159180e+00,3.076586961746215820e+00,3.076104640960693359e+00,3.075622797012329102e+00,3.075140953063964844e+00,3.074659109115600586e+00,3.074177742004394531e+00,3.073696613311767578e+00,3.073215007781982422e+00,3.072734117507934570e+00,3.072253227233886719e+00,3.071772336959838867e+00,3.071291923522949219e+00,3.070811510086059570e+00,3.070331096649169922e+00,3.069850921630859375e+00,3.069370985031127930e+00,3.068891048431396484e+00,3.068411350250244141e+00,3.067931890487670898e+00,3.067452669143676758e+00,3.066973209381103516e+00,3.066494226455688477e+00,3.066015243530273438e+00,3.065536499023437500e+00,3.065057754516601562e+00,3.064579486846923828e+00,3.064100980758666992e+00,3.063622713088989258e+00,3.063144922256469727e+00,3.062666654586791992e+00,3.062189102172851562e+00,3.061711549758911133e+00,3.061233997344970703e+00,3.060756683349609375e+00,3.060279607772827148e+00,3.059802532196044922e+00,3.059325695037841797e+00,3.058849096298217773e+00,3.058372259140014648e+00,3.010122537612915039e+00,2.935856103897094727e+00,2.865165710449218750e+00,2.797799587249755859e+00,2.733528852462768555e+00,2.672144412994384766e+00,2.613456249237060547e+00,2.557290792465209961e+00,2.503488540649414062e+00,2.451903581619262695e+00,2.402401447296142578e+00,2.354858875274658203e+00,2.309160947799682617e+00,2.265203237533569336e+00,2.222887754440307617e+00,2.182124376296997070e+00,2.142828941345214844e+00,2.104923725128173828e+00,2.068336248397827148e+00,2.032999038696289062e+00,1.998848915100097656e+00,1.965827226638793945e+00,1.933878898620605469e+00,1.902952313423156738e+00,1.872999191284179688e+00,1.843974590301513672e+00
2.605226039886474609e+00,2.604880571365356445e+00,2.604534864425659180e+00,2.604189395904541016e+00,2.603843927383422852e+00,2.603498697280883789e+00,2.603153228759765625e+00,2.602808237075805664e+00,2.602463245391845703e+00,2.602118015289306641e+00,2.601773262023925781e+00,2.601428508758544922e+00,2.601083755493164062e+00,2.600739240646362305e+00,2.600394725799560547e+00,2.600050210952758789e+00,2.599705934524536133e+00,2.599361658096313477e+00,2.599017620086669922e+00,2.598673343658447266e+00,2.598329544067382812e+00,2.597985744476318359e+00,2.597641706466674805e+00,2.597298145294189453e+00,2.596954584121704102e+00,2.596610784530639648e+00,2.596267461776733398e+00,2.595924377441406250e+00,2.595580816268920898e+00,2.595237731933593750e+00,2.594894886016845703e+00,2.594551801681518555e+00,2.594208955764770508e+00,2.593866109848022461e+00,2.593523502349853516e+00,2.593180894851684570e+00,2.592838287353515625e+00,2.592495918273925781e+00,2.592153549194335938e+00,2.591811418533325195e+00,2.591469287872314453e+00,2.591126918792724609e+00,2.590785026550292969e+00,2.590443372726440430e+00,2.590101242065429688e+00,2.589759826660156250e+00,2.589418172836303711e+00,2.589076519012451172e+00,2.588735103607177734e+00,2.588393926620483398e+00,2.588052511215209961e+00,2.587711334228515625e+00,2.587370395660400391e+00,2.587029218673706055e+00,2.586688518524169922e+00,2.586347818374633789e+00,2.586007118225097656e+00,2.585666418075561523e+00,2.585325956344604492e+00,2.584985494613647461e+00,2.584645032882690430e+00,2.557329654693603516e+00,2.503525733947753906e+00,2.451939105987548828e+00,2.402435541152954102e+00,2.354891538619995117e+00,2.309192419052124023e+00,2.265233516693115234e+00,2.222916841506958008e+00,2.182152509689331055e+00,2.142855882644653320e+00,2.104949951171875000e+00,2.068361282348632812e+00,2.033023357391357422e+00,1.998872518539428711e+00,1.965850114822387695e+00,1.933900952339172363e+00,1.902973651885986328e+00,1.873019933700561523e+00,1.843994617462158203e+00
2.255247354507446289e+00,2.254987001419067383e+00,2.254726648330688477e+00,2.254466533660888672e+00,2.254206418991088867e+00,2.253946304321289062e+00,2.253686189651489258e+00,2.253426313400268555e+00,2.253166437149047852e+00,2.252906322479248047e+00,2.252646684646606445e+00,2.252387046813964844e+00,2.252127170562744141e+00,2.251867532730102539e+00,2.251608133316040039e+00,2.251348495483398438e+00,2.251089096069335938e+00,2.250829696655273438e+00,2.250570535659790039e+00,2.250311136245727539e+00,2.250051975250244141e+00,2.249792814254760742e+00,2.249533891677856445e+00,2.249274730682373047e+00,2.249016284942626953e+00,2.248758554458618164e+00,2.248501062393188477e+00,2.248243570327758789e+00,2.247986078262329102e+00,2.247728586196899414e+00,2.247471332550048828e+00,2.247214078903198242e+00,2.246956825256347656e+00,2.246699810028076172e+00,2.246442556381225586e+00,2.246185541152954102e+00,2.245928525924682617e+00,2.245671749114990234e+00,2.245414733886718750e+00,2.245157957077026367e+00,2.244901180267333984e+00,2.244644403457641602e+00,2.244387865066528320e+00,2.244131326675415039e+00,2.243874549865722656e+00,2.243618249893188477e+00,2.243361949920654297e+00,2.243105411529541016e+00,2.242849111557006836e+00,2.242593050003051758e+00,2.242336750030517578e+00,2.242080688476562500e+00,2.241824626922607422e+00,2.241568565368652344e+00,2.241312742233276367e+00,2.241056919097900391e+00,2.240801095962524414e+00,2.240545272827148438e+00,2.240289688110351562e+00,2.240034103393554688e+00,2.239778280258178711e+00,2.239522933959960938e+00,2.239267349243164062e+00,2.239012002944946289e+00,2.238756656646728516e+00,2.238501310348510742e+00,2.238245964050292969e+00,2.237990856170654297e+00,2.222946166992187500e+00,2.182180404663085938e+00,2.142883062362670898e+00,2.104975938796997070e+00,2.068386554718017578e+00,2.033047676086425781e+00,1.998896121978759766e+00,1.965872883796691895e+00,1.933923006057739258e+00,1.902994990348815918e+00,1.873040676116943359e+00,1.844014763832092285e+00
1.988218426704406738e+00,1.988016128540039062e+00,1.987813711166381836e+00,1.987611413002014160e+00,1.987409472465515137e+00,1.987207293510437012e+00,1.987005114555358887e+00,1.986802935600280762e+00,1.986600875854492188e+00,1.986398816108703613e+00,1.986196875572204590e+00,1.985995054244995117e+00,1.985793232917785645e+00,1.985591292381286621e+00,1.985389471054077148e+00,1.985187649726867676e+00,1.984985947608947754e+00,1.984784245491027832e+00,1.984582781791687012e+00,1.984381079673767090e+00,1.984179496765136719e+00,1.983978033065795898e+00,1.983776450157165527e+00,1.983574986457824707e+00,1.983373522758483887e+00,1.983172178268432617e+00,1.982971072196960449e+00,1.982769727706909180e+00,1.982568502426147461e+00,1.982367277145385742e+00,1.982166051864624023e+00,1.981964945793151855e+00,1.981763839721679688e+00,1.981562972068786621e+00,1.981361985206604004e+00,1.981160998344421387e+00,1.980960011482238770e+00,1.980759143829345703e+00,1.980558276176452637e+00,1.980357527732849121e+00,1.980156898498535156e+00,1.979956150054931641e+00,1.979755520820617676e+00,1.979554891586303711e+00,1.979354262351989746e+00,1.979153633117675781e+00,1.978953123092651367e+00,1.978752851486206055e+00,1.978552341461181641e+00,1.978351950645446777e+00,1.978151559829711914e+00,1.977951288223266602e+00,1.977751016616821289e+00,1.977550745010375977e+00,1.977350711822509766e+00,1.977150559425354004e+00,1.976950407028198242e+00,1.976750373840332031e+00,1.976550340652465820e+00,1.976350307464599609e+00,1.976150274276733398e+00,1.975950360298156738e+00,1.975750684738159180e+00,1.975550889968872070e+00,1.975351095199584961e+00,1.975151300430297852e+00,1.974951624870300293e+00,1.974751949310302734e+00,1.974552273750305176e+00,1.974352836608886719e+00,1.974153280258178711e+00,1.973953843116760254e+00,1.973754286766052246e+00,1.973554849624633789e+00,1.973355412483215332e+00,1.965895652770996094e+00,1.933945059776306152e+00,1.903016328811645508e+00,1.873061299324035645e+00,1.844035029411315918e+00
1.777729392051696777e+00,1.777567625045776367e+00,1.777405858039855957e+00,1.777244091033935547e+00,1.777082324028015137e+00,1.776920914649963379e+00,1.776759266853332520e+00,1.776597619056701660e+00,1.776435971260070801e+00,1.776274442672729492e+00,1.776112914085388184e+00,1.775951504707336426e+00,1.775790214538574219e+00,1.775628685951232910e+00,1.775467276573181152e+00,1.775305986404418945e+00,1.775144577026367188e+00,1.774983286857604980e+00,1.774821996688842773e+00,1.774660825729370117e+00,1.774499654769897461e+00,1.774338483810424805e+00,1.774177312850952148e+00,1.774016141891479492e+00,1.773854970932006836e+00,1.773693919181823730e+00,1.773532867431640625e+00,1.773371934890747070e+00,1.773211002349853516e+00,1.773049950599670410e+00,1.772889018058776855e+00,1.772728085517883301e+00,1.772567272186279297e+00,1.772406339645385742e+00,1.772245764732360840e+00,1.772084951400756836e+00,1.771924138069152832e+00,1.771763443946838379e+00,1.771602749824523926e+00,1.771442055702209473e+00,1.771281361579895020e+00,1.771120905876159668e+00,1.770960330963134766e+00,1.770799756050109863e+00,1.770639300346374512e+00,1.770478725433349609e+00,1.770318269729614258e+00,1.770157814025878906e+00,1.769997596740722656e+00,1.769837141036987305e+00,1.769676804542541504e+00,1.769516468048095703e+00,1.769356131553649902e+00,1.769195914268493652e+00,1.769035696983337402e+00,1.768875598907470703e+00,1.768715381622314453e+00,1.768555283546447754e+00,1.768395185470581055e+00,1.768235087394714355e+00,1.768074989318847656e+00,1.767914891242980957e+00,1.767754912376403809e+00,1.767595052719116211e+00,1.767435193061828613e+00,1.767275214195251465e+00,1.767115354537963867e+00,1.766955494880676270e+00,1.766795635223388672e+00,1.766635775566101074e+00,1.766476154327392578e+00,1.766316413879394531e+00,1.766156792640686035e+00,1.765997052192687988e+00,1.765837430953979492e+00,1.765677690505981445e+00,1.765518069267272949e+00,1.765358805656433105e+00,1.765199184417724609e+00,1.765039682388305664e+00
1.607541799545288086e+00,1.607409477233886719e+00,1.607277274131774902e+00,1.607144951820373535e+00,1.607012748718261719e+00,1.606880545616149902e+00,1.606748461723327637e+00,1.606616377830505371e+00,1.606484174728393555e+00,1.606352090835571289e+00,1.606219887733459473e+00,1.606087803840637207e+00,1.605955839157104492e+00,1.605823874473571777e+00,1.605691909790039062e+00,1.605559945106506348e+00,1.605427980422973633e+00,1.605296015739440918e+00,1.605164051055908203e+00,1.605032086372375488e+00,1.604900360107421875e+00,1.604768514633178711e+00,1.604636669158935547e+00,1.604504823684692383e+00,1.604373097419738770e+00,1.604241251945495605e+00,1.604109525680541992e+00,1.603977918624877930e+00,1.603846192359924316e+00,1.603714585304260254e+00,1.603582859039306641e+00,1.603451251983642578e+00,1.603319525718688965e+00,1.603187918663024902e+00,1.603056430816650391e+00,1.602924942970275879e+00,1.602793455123901367e+00,1.602661967277526855e+00,1.602530360221862793e+00,1.602398991584777832e+00,1.602267503738403320e+00,1.602136015892028809e+00,1.602004766464233398e+00,1.601873397827148438e+00,1.601742029190063477e+00,1.601610660552978516e+00,1.601479411125183105e+00,1.601348042488098145e+00,1.601216793060302734e+00,1.601085662841796875e+00,1.600954413414001465e+00,1.600823163986206055e+00,1.600692033767700195e+00,1.600560903549194336e+00,1.600429654121398926e+00,1.600298523902893066e+00,1.600167632102966309e+00,1.600036501884460449e+00,1.599905371665954590e+00,1.599774360656738281e+00,1.599643349647521973e+00,1.599512338638305664e+00,1.599381327629089355e+00,1.599250555038452148e+00,1.599119663238525391e+00,1.598988652229309082e+00,1.598857760429382324e+00,1.598726868629455566e+00,1.598596096038818359e+00,1.598465204238891602e+00,1.598334431648254395e+00,1.598203778266906738e+00,1.598073005676269531e+00,1.597942233085632324e+00,1.597811579704284668e+00,1.597680807113647461e+00,1.597550153732299805e+00,1.597419500350952148e+00,1.597288966178894043e+00,1.597158432006835938e+00
1.467092514038085938e+00,1.466982245445251465e+00,1.466872096061706543e+00,1.466761946678161621e+00,1.466651797294616699e+00,1.466541647911071777e+00,1.466431617736816406e+00,1.466321587562561035e+00,1.466211557388305664e+00,1.466101408004760742e+00,1.465991377830505371e+00,1.465881347656250000e+00,1.465771317481994629e+00,1.465661406517028809e+00,1.465551495552062988e+00,1.465441584587097168e+00,1.465331554412841797e+00,1.465221643447875977e+00,1.465111732482910156e+00,1.465001821517944336e+00,1.464892029762268066e+00,1.464782238006591797e+00,1.464672446250915527e+00,1.464562535285949707e+00,1.464452743530273438e+00,1.464342951774597168e+00,1.464233160018920898e+00,1.464123368263244629e+00,1.464013814926147461e+00,1.463904023170471191e+00,1.463794350624084473e+00,1.463684678077697754e+00,1.463575005531311035e+00,1.463465332984924316e+00,1.463355660438537598e+00,1.463245987892150879e+00,1.463136553764343262e+00,1.463026881217956543e+00,1.462917327880859375e+00,1.462807774543762207e+00,1.462698221206665039e+00,1.462588667869567871e+00,1.462479233741760254e+00,1.462369799613952637e+00,1.462260365486145020e+00,1.462150812149047852e+00,1.462041378021240234e+00,1.461931943893432617e+00,1.461822509765625000e+00,1.461713194847106934e+00,1.461603879928588867e+00,1.461494565010070801e+00,1.461385130882263184e+00,1.461275815963745117e+00,1.461166501045227051e+00,1.461057186126708984e+00,1.460947871208190918e+00,1.460838794708251953e+00,1.460729479789733887e+00,1.460620284080505371e+00,1.460511088371276855e+00,1.460401892662048340e+00,1.460292696952819824e+00,1.460183501243591309e+00,1.460074424743652344e+00,1.459965348243713379e+00,1.459856152534484863e+00,1.459747076034545898e+00,1.459637999534606934e+00,1.459528923034667969e+00,1.459419846534729004e+00,1.459310770034790039e+00,1.459201931953430176e+00,1.459092855453491211e+00,1.458983898162841797e+00,1.458874940872192383e+00,1.458765983581542969e+00,1.458657026290893555e+00,1.458548069000244141e+00,1.458439350128173828e+00
1.349213004112243652e+00,1.349119782447814941e+00,1.349026679992675781e+00,1.348933458328247070e+00,1.348840355873107910e+00,1.348747134208679199e+00,1.348654031753540039e+00,1.348560929298400879e+00,1.348467946052551270e+00,1.348374843597412109e+00,1.348281741142272949e+00,1.348188638687133789e+00,1.348095655441284180e+00,1.348002552986145020e+00,1.347909569740295410e+00,1.347816586494445801e+00,1.347723603248596191e+00,1.347630620002746582e+00,1.347537636756896973e+00,1.347444653511047363e+00,1.347351789474487305e+00,1.347258806228637695e+00,1.347166061401367188e+00,1.347073078155517578e+00,1.346980214118957520e+00,1.346887350082397461e+00,1.346794486045837402e+00,1.346701622009277344e+00,1.346608757972717285e+00,1.346516013145446777e+00,1.346423149108886719e+00,1.346330404281616211e+00,1.346237540245056152e+00,1.346144795417785645e+00,1.346052050590515137e+00,1.345959305763244629e+00,1.345866560935974121e+00,1.345773935317993164e+00,1.345681190490722656e+00,1.345588445663452148e+00,1.345495700836181641e+00,1.345403075218200684e+00,1.345310449600219727e+00,1.345217704772949219e+00,1.345125198364257812e+00,1.345032572746276855e+00,1.344939947128295898e+00,1.344847321510314941e+00,1.344754695892333984e+00,1.344662189483642578e+00,1.344569563865661621e+00,1.344477176666259766e+00,1.344384551048278809e+00,1.344292044639587402e+00,1.344199538230895996e+00,1.344107031822204590e+00,1.344014525413513184e+00,1.343922019004821777e+00,1.343829631805419922e+00,1.343737244606018066e+00,1.343644738197326660e+00,1.343552350997924805e+00,1.343459963798522949e+00,1.343367576599121094e+00,1.343275189399719238e+00,1.343182802200317383e+00,1.343090534210205078e+00,1.342998147010803223e+00,1.342905759811401367e+00,1.342813491821289062e+00,1.342721104621887207e+00,1.342628836631774902e+00,1.342536568641662598e+00,1.342444419860839844e+00,1.342352151870727539e+00,1.342259883880615234e+00,1.342167615890502930e+00,1.342075347900390625e+00,1.341983199119567871e+00,1.341890931129455566e+00
1.248867630958557129e+00,1.248787879943847656e+00,1.248708128929138184e+00,1.248628258705139160e+00,1.248548388481140137e+00,1.248468637466430664e+00,1.248388886451721191e+00,1.248309016227722168e+00,1.248229265213012695e+00,1.248149633407592773e+00,1.248069882392883301e+00,1.247990131378173828e+00,1.247910380363464355e+00,1.247830629348754883e+00,1.247750878334045410e+00,1.247671127319335938e+00,1.247591614723205566e+00,1.247511863708496094e+00,1.247432231903076172e+00,1.247352600097656250e+00,1.247272849082946777e+00,1.247193217277526855e+00,1.247113585472106934e+00,1.247034072875976562e+00,1.246954441070556641e+00,1.246874809265136719e+00,1.246795296669006348e+00,1.246715664863586426e+00,1.246636033058166504e+00,1.246556520462036133e+00,1.246477007865905762e+00,1.246397495269775391e+00,1.246317982673645020e+00,1.246238470077514648e+00,1.246158957481384277e+00,1.246079444885253906e+00,1.245999932289123535e+00,1.245920538902282715e+00,1.245841026306152344e+00,1.245761632919311523e+00,1.245682120323181152e+00,1.245602726936340332e+00,1.245523214340209961e+00,1.245443820953369141e+00,1.245364427566528320e+00,1.245285153388977051e+00,1.245205760002136230e+00,1.245126366615295410e+00,1.245046973228454590e+00,1.244967579841613770e+00,1.244888305664062500e+00,1.244808912277221680e+00,1.244729638099670410e+00,1.244650363922119141e+00,1.244571089744567871e+00,1.244491696357727051e+00,1.244412422180175781e+00,1.244333148002624512e+00,1.244253873825073242e+00,1.244174718856811523e+00,1.244095444679260254e+00,1.244016289710998535e+00,1.243937015533447266e+00,1.243857741355895996e+00,1.243778586387634277e+00,1.243699431419372559e+00,1.243620276451110840e+00,1.243541121482849121e+00,1.243461966514587402e+00,1.243382811546325684e+00,1.243303656578063965e+00,1.243224501609802246e+00,1.243145346641540527e+00,1.243066310882568359e+00,1.242987155914306641e+00,1.242908120155334473e+00,1.242828965187072754e+00,1.242749929428100586e+00,1.242670893669128418e+00,1.242591857910156250e+00
1.162415146827697754e+00,1.162346005439758301e+00,1.162276983261108398e+00,1.162207722663879395e+00,1.162138581275939941e+00,1.162069439888000488e+00,1.162000298500061035e+00,1.161931157112121582e+00,1.161862134933471680e+00,1.161792993545532227e+00,1.161723971366882324e+00,1.161654829978942871e+00,1.161585807800292969e+00,1.161516666412353516e+00,1.161447644233703613e+00,1.161378502845764160e+00,1.161309480667114258e+00,1.161240577697753906e+00,1.161171436309814453e+00,1.161102414131164551e+00,1.161033391952514648e+00,1.160964369773864746e+00,1.160895347595214844e+00,1.160826444625854492e+00,1.160757541656494141e+00,1.160688519477844238e+00,1.160619497299194336e+00,1.160550594329833984e+00,1.160481572151184082e+00,1.160412669181823730e+00,1.160343766212463379e+00,1.160274863243103027e+00,1.160205960273742676e+00,1.160137057304382324e+00,1.160068154335021973e+00,1.159999251365661621e+00,1.159930348396301270e+00,1.159861445426940918e+00,1.159792661666870117e+00,1.159723758697509766e+00,1.159654974937438965e+00,1.159586071968078613e+00,1.159517168998718262e+00,1.159448385238647461e+00,1.159379601478576660e+00,1.159310817718505859e+00,1.159242033958435059e+00,1.159173250198364258e+00,1.159104466438293457e+00,1.159035682678222656e+00,1.158966898918151855e+00,1.158898115158081055e+00,1.158829331398010254e+00,1.158760666847229004e+00,1.158691883087158203e+00,1.158623218536376953e+00,1.158554434776306152e+00,1.158485770225524902e+00,1.158416986465454102e+00,1.158348321914672852e+00,1.158279657363891602e+00,1.158210992813110352e+00,1.158142328262329102e+00,1.158073663711547852e+00,1.158004999160766602e+00,1.157936334609985352e+00,1.157867670059204102e+00,1.157799124717712402e+00,1.157730579376220703e+00,1.157661914825439453e+00,1.157593250274658203e+00,1.157524704933166504e+00,1.157456040382385254e+00,1.157387495040893555e+00,1.157318949699401855e+00,1.157250404357910156e+00,1.157181859016418457e+00,1.157113313674926758e+00,1.157044768333435059e+00,1.156976222991943359e+00
1.087157011032104492e+00,1.087096571922302246e+00,1.087036013603210449e+00,1.086975574493408203e+00,1.086915135383605957e+00,1.086854577064514160e+00,1.086794137954711914e+00,1.086733698844909668e+00,1.086673259735107422e+00,1.086612701416015625e+00,1.086552381515502930e+00,1.086491942405700684e+00,1.086431503295898438e+00,1.086371064186096191e+00,1.086310625076293945e+00,1.086250185966491699e+00,1.086189866065979004e+00,1.086129426956176758e+00,1.086069107055664062e+00,1.086008667945861816e+00,1.085948348045349121e+00,1.085887908935546875e+00,1.085827589035034180e+00,1.085767149925231934e+00,1.085706830024719238e+00,1.085646510124206543e+00,1.085586190223693848e+00,1.085525870323181152e+00,1.085465550422668457e+00,1.085405230522155762e+00,1.085344910621643066e+00,1.085284590721130371e+00,1.085224390029907227e+00,1.085164070129394531e+00,1.085103750228881836e+00,1.085043549537658691e+00,1.084983229637145996e+00,1.084923028945922852e+00,1.084862709045410156e+00,1.084802508354187012e+00,1.084742307662963867e+00,1.084681987762451172e+00,1.084621787071228027e+00,1.084561586380004883e+00,1.084501385688781738e+00,1.084441184997558594e+00,1.084380984306335449e+00,1.084320783615112305e+00,1.084260582923889160e+00,1.084200382232666016e+00,1.084140181541442871e+00,1.084080100059509277e+00,1.084019899368286133e+00,1.083959698677062988e+00,1.083899617195129395e+00,1.083839535713195801e+00,1.083779335021972656e+00,1.083719253540039062e+00,1.083659052848815918e+00,1.083598971366882324e+00,1.083538889884948730e+00,1.083478808403015137e+00,1.083418726921081543e+00,1.083358645439147949e+00,1.083298563957214355e+00,1.083238482475280762e+00,1.083178400993347168e+00,1.083118319511413574e+00,1.083058357238769531e+00,1.082998275756835938e+00,1.082938194274902344e+00,1.082878112792968750e+00,1.082818150520324707e+00,1.082758069038391113e+00,1.082698106765747070e+00,1.082638144493103027e+00,1.082578063011169434e+00,1.082518100738525391e+00,1.082458138465881348e+00,1.082398176193237305e+00
1.021051168441772461e+00,1.020997881889343262e+00,1.020944476127624512e+00,1.020891070365905762e+00,1.020837783813476562e+00,1.020784497261047363e+00,1.020731091499328613e+00,1.020677804946899414e+00,1.020624399185180664e+00,1.020571112632751465e+00,1.020517706871032715e+00,1.020464539527893066e+00,1.020411133766174316e+00,1.020357847213745117e+00,1.020304560661315918e+00,1.020251274108886719e+00,1.020197987556457520e+00,1.020144701004028320e+00,1.020091533660888672e+00,1.020038247108459473e+00,1.019984960556030273e+00,1.019931674003601074e+00,1.019878387451171875e+00,1.019825220108032227e+00,1.019771933555603027e+00,1.019718647003173828e+00,1.019665479660034180e+00,1.019612312316894531e+00,1.019559025764465332e+00,1.019505858421325684e+00,1.019452571868896484e+00,1.019399404525756836e+00,1.019346237182617188e+00,1.019293069839477539e+00,1.019239902496337891e+00,1.019186735153198242e+00,1.019133448600769043e+00,1.019080281257629395e+00,1.019027113914489746e+00,1.018973946571350098e+00,1.018920898437500000e+00,1.018867731094360352e+00,1.018814563751220703e+00,1.018761396408081055e+00,1.018708348274230957e+00,1.018655180931091309e+00,1.018602013587951660e+00,1.018548965454101562e+00,1.018495917320251465e+00,1.018442749977111816e+00,1.018389701843261719e+00,1.018336534500122070e+00,1.018283486366271973e+00,1.018230438232421875e+00,1.018177390098571777e+00,1.018124341964721680e+00,1.018071293830871582e+00,1.018018126487731934e+00,1.017965078353881836e+00,1.017912030220031738e+00,1.017858982086181641e+00,1.017805933952331543e+00,1.017753005027770996e+00,1.017699956893920898e+00,1.017646908760070801e+00,1.017593860626220703e+00,1.017540931701660156e+00,1.017487883567810059e+00,1.017434835433959961e+00,1.017381906509399414e+00,1.017328977584838867e+00,1.017275929450988770e+00,1.017223000526428223e+00,1.017169952392578125e+00,1.017117023468017578e+00,1.017064094543457031e+00,1.017011165618896484e+00,1.016958236694335938e+00,1.016905307769775391e+00,1.016852378845214844e+00
9.625238776206970215e-01,9.624764919281005859e-01,9.624289870262145996e-01,9.623816013336181641e-01,9.623341560363769531e-01,9.622867703437805176e-01,9.622394442558288574e-01,9.621919989585876465e-01,9.621446132659912109e-01,9.620971679687500000e-01,9.620498418807983398e-01,9.620023965835571289e-01,9.619550704956054688e-01,9.619077444076538086e-01,9.618603587150573730e-01,9.618130326271057129e-01,9.617655873298645020e-01,9.617183208465576172e-01,9.616708755493164062e-01,9.616236090660095215e-01,9.615763425827026367e-01,9.615288972854614258e-01,9.614816308021545410e-01,9.614342451095581055e-01,9.613869786262512207e-01,9.613395929336547852e-01,9.612923264503479004e-01,9.612451195716857910e-01,9.611977338790893555e-01,9.611504673957824707e-01,9.611031413078308105e-01,9.610558748245239258e-01,9.610085487365722656e-01,9.609613418579101562e-01,9.609141349792480469e-01,9.608668088912963867e-01,9.608195424079895020e-01,9.607722759246826172e-01,9.607250690460205078e-01,9.606777429580688477e-01,9.606305360794067383e-01,9.605833292007446289e-01,9.605360627174377441e-01,9.604888558387756348e-01,9.604415893554687500e-01,9.603943824768066406e-01,9.603471159934997559e-01,9.602999687194824219e-01,9.602528214454650879e-01,9.602055549621582031e-01,9.601584076881408691e-01,9.601111412048339844e-01,9.600639939308166504e-01,9.600167870521545410e-01,9.599696397781372070e-01,9.599224925041198730e-01,9.598752856254577637e-01,9.598281383514404297e-01,9.597809314727783203e-01,9.597338438034057617e-01,9.596866369247436523e-01,9.596394896507263184e-01,9.595922827720642090e-01,9.595451951026916504e-01,9.594981074333190918e-01,9.594509601593017578e-01,9.594038724899291992e-01,9.593566656112670898e-01,9.593096375465393066e-01,9.592624306678771973e-01,9.592154026031494141e-01,9.591683149337768555e-01,9.591211676597595215e-01,9.590741395950317383e-01,9.590269923210144043e-01,9.589799642562866211e-01,9.589328169822692871e-01,9.588857889175415039e-01,9.588387608528137207e-01,9.587916731834411621e-01
9.103424549102783203e-01,9.102999567985534668e-01,9.102575778961181641e-01,9.102151393890380859e-01,9.101727604866027832e-01,9.101302623748779297e-01,9.100879430770874023e-01,9.100455641746520996e-01,9.100031256675720215e-01,9.099607467651367188e-01,9.099183082580566406e-01,9.098759889602661133e-01,9.098335504531860352e-01,9.097912311553955078e-01,9.097489118576049805e-01,9.097064733505249023e-01,9.096641540527343750e-01,9.096217155456542969e-01,9.095793962478637695e-01,9.095370173454284668e-01,9.094946980476379395e-01,9.094523787498474121e-01,9.094099998474121094e-01,9.093677401542663574e-01,9.093253016471862793e-01,9.092830419540405273e-01,9.092406630516052246e-01,9.091984033584594727e-01,9.091560840606689453e-01,9.091137647628784180e-01,9.090715050697326660e-01,9.090291261672973633e-01,9.089868664741516113e-01,9.089444875717163086e-01,9.089022874832153320e-01,9.088600277900695801e-01,9.088176488876342773e-01,9.087754487991333008e-01,9.087331295013427734e-01,9.086908698081970215e-01,9.086485505104064941e-01,9.086063504219055176e-01,9.085640907287597656e-01,9.085218310356140137e-01,9.084795713424682617e-01,9.084373116493225098e-01,9.083951115608215332e-01,9.083527922630310059e-01,9.083105921745300293e-01,9.082683920860290527e-01,9.082261323928833008e-01,9.081839323043823242e-01,9.081416726112365723e-01,9.080994725227355957e-01,9.080572128295898438e-01,9.080150723457336426e-01,9.079728722572326660e-01,9.079306125640869141e-01,9.078884720802307129e-01,9.078462123870849609e-01,9.078040719032287598e-01,9.077618122100830078e-01,9.077196717262268066e-01,9.076775312423706055e-01,9.076353311538696289e-01,9.075931906700134277e-01,9.075509905815124512e-01,9.075088500976562500e-01,9.074666500091552734e-01,9.074245095252990723e-01,9.073823094367980957e-01,9.073402285575866699e-01,9.072981476783752441e-01,9.072559475898742676e-01,9.072138667106628418e-01,9.071716666221618652e-01,9.071295857429504395e-01,9.070873856544494629e-01,9.070453047752380371e-01,9.070032238960266113e-01
8.635278344154357910e-01,8.634896874427795410e-01,8.634514808654785156e-01,8.634133338928222656e-01,8.633751273155212402e-01,8.633369803428649902e-01,8.632987737655639648e-01,8.632606863975524902e-01,8.632225990295410156e-01,8.631843924522399902e-01,8.631463050842285156e-01,8.631080985069274902e-01,8.630700111389160156e-01,8.630318045616149902e-01,8.629937171936035156e-01,8.629556298255920410e-01,8.629174828529357910e-01,8.628793954849243164e-01,8.628412485122680664e-01,8.628031611442565918e-01,8.627650141716003418e-01,8.627269268035888672e-01,8.626888394355773926e-01,8.626506924629211426e-01,8.626126646995544434e-01,8.625745177268981934e-01,8.625364899635314941e-01,8.624983429908752441e-01,8.624603152275085449e-01,8.624222874641418457e-01,8.623841404914855957e-01,8.623461127281188965e-01,8.623079657554626465e-01,8.622699379920959473e-01,8.622318506240844727e-01,8.621938228607177734e-01,8.621557950973510742e-01,8.621177077293395996e-01,8.620796799659729004e-01,8.620415925979614258e-01,8.620036244392395020e-01,8.619655370712280273e-01,8.619275093078613281e-01,8.618895411491394043e-01,8.618514537811279297e-01,8.618134856224060059e-01,8.617753982543945312e-01,8.617374300956726074e-01,8.616993427276611328e-01,8.616613745689392090e-01,8.616234064102172852e-01,8.615853786468505859e-01,8.615474104881286621e-01,8.615093827247619629e-01,8.614714145660400391e-01,8.614333868026733398e-01,8.613954186439514160e-01,8.613574504852294922e-01,8.613194227218627930e-01,8.612815141677856445e-01,8.612434864044189453e-01,8.612055182456970215e-01,8.611675500869750977e-01,8.611295819282531738e-01,8.610916733741760254e-01,8.610536456108093262e-01,8.610157370567321777e-01,8.609777688980102539e-01,8.609398603439331055e-01,8.609018325805664062e-01,8.608639836311340332e-01,8.608259558677673340e-01,8.607881069183349609e-01,8.607501983642578125e-01,8.607122302055358887e-01,8.606743216514587402e-01,8.606363534927368164e-01,8.605985045433044434e-01,8.605605363845825195e-01,8.605226278305053711e-01
8.212926983833312988e-01,8.212581276893615723e-01,8.212236166000366211e-01,8.211890459060668945e-01,8.211545944213867188e-01,8.211200237274169922e-01,8.210855126380920410e-01,8.210509419441223145e-01,8.210164904594421387e-01,8.209820389747619629e-01,8.209474682807922363e-01,8.209130167961120605e-01,8.208784461021423340e-01,8.208439946174621582e-01,8.208094835281372070e-01,8.207750320434570312e-01,8.207405805587768555e-01,8.207060694694519043e-01,8.206716179847717285e-01,8.206371068954467773e-01,8.206026554107666016e-01,8.205681443214416504e-01,8.205336928367614746e-01,8.204993009567260742e-01,8.204647898674011230e-01,8.204303383827209473e-01,8.203958272933959961e-01,8.203614354133605957e-01,8.203269243240356445e-01,8.202925324440002441e-01,8.202580809593200684e-01,8.202236294746398926e-01,8.201892375946044922e-01,8.201547265052795410e-01,8.201203346252441406e-01,8.200858831405639648e-01,8.200514316558837891e-01,8.200170993804931641e-01,8.199825882911682129e-01,8.199481964111328125e-01,8.199137449264526367e-01,8.198793530464172363e-01,8.198449015617370605e-01,8.198105692863464355e-01,8.197761774063110352e-01,8.197417259216308594e-01,8.197073936462402344e-01,8.196729421615600586e-01,8.196385502815246582e-01,8.196041584014892578e-01,8.195697665214538574e-01,8.195354342460632324e-01,8.195009827613830566e-01,8.194666504859924316e-01,8.194322586059570312e-01,8.193979263305664062e-01,8.193634748458862305e-01,8.193291425704956055e-01,8.192948102951049805e-01,8.192604184150695801e-01,8.192260861396789551e-01,8.191916942596435547e-01,8.191573619842529297e-01,8.191229701042175293e-01,8.190886974334716797e-01,8.190543651580810547e-01,8.190199732780456543e-01,8.189856410026550293e-01,8.189513087272644043e-01,8.189169764518737793e-01,8.188826441764831543e-01,8.188483119010925293e-01,8.188139796257019043e-01,8.187796473503112793e-01,8.187453746795654297e-01,8.187110424041748047e-01,8.186767697334289551e-01,8.186423778533935547e-01,8.186081051826477051e-01,8.185737729072570801e-01
7.829962968826293945e-01,7.829649448394775391e-01,7.829335331916809082e-01,7.829021811485290527e-01,7.828707695007324219e-01,7.828394174575805664e-01,7.828080058097839355e-01,7.827766537666320801e-01,7.827452421188354492e-01,7.827139496803283691e-01,7.826825976371765137e-01,7.826511859893798828e-01,7.826198935508728027e-01,7.825884819030761719e-01,7.825571298599243164e-01,7.825257778167724609e-01,7.824944257736206055e-01,7.824631333351135254e-01,7.824317216873168945e-01,7.824004292488098145e-01,7.823690772056579590e-01,7.823377847671508789e-01,7.823063731193542480e-01,7.822750806808471680e-01,7.822437882423400879e-01,7.822124361991882324e-01,7.821811437606811523e-01,7.821497917175292969e-01,7.821184992790222168e-01,7.820871472358703613e-01,7.820558547973632812e-01,7.820245623588562012e-01,7.819932103157043457e-01,7.819619774818420410e-01,7.819306254386901855e-01,7.818993330001831055e-01,7.818680405616760254e-01,7.818367481231689453e-01,7.818055152893066406e-01,7.817741632461547852e-01,7.817429304122924805e-01,7.817115783691406250e-01,7.816803455352783203e-01,7.816489934921264648e-01,7.816177606582641602e-01,7.815865278244018555e-01,7.815552353858947754e-01,7.815240025520324707e-01,7.814926505088806152e-01,7.814614176750183105e-01,7.814301252365112305e-01,7.813988924026489258e-01,7.813676595687866211e-01,7.813363671302795410e-01,7.813051939010620117e-01,7.812739014625549316e-01,7.812426686286926270e-01,7.812113761901855469e-01,7.811801433563232422e-01,7.811489701271057129e-01,7.811176776885986328e-01,7.810865044593811035e-01,7.810552120208740234e-01,7.810239791870117188e-01,7.809927463531494141e-01,7.809615731239318848e-01,7.809303402900695801e-01,7.808991074562072754e-01,7.808679342269897461e-01,7.808366417884826660e-01,7.808054685592651367e-01,7.807742357254028320e-01,7.807430624961853027e-01,7.807118892669677734e-01,7.806806564331054688e-01,7.806494832038879395e-01,7.806182503700256348e-01,7.805870771408081055e-01,7.805558443069458008e-01,7.805246710777282715e-01
7.481122612953186035e-01,7.480836510658264160e-01,7.480550408363342285e-01,7.480263113975524902e-01,7.479977011680603027e-01,7.479690313339233398e-01,7.479404211044311523e-01,7.479117512702941895e-01,7.478831410408020020e-01,7.478545308113098145e-01,7.478258609771728516e-01,7.477972507476806641e-01,7.477686405181884766e-01,7.477400302886962891e-01,7.477113604545593262e-01,7.476827502250671387e-01,7.476541399955749512e-01,7.476255297660827637e-01,7.475969195365905762e-01,7.475683093070983887e-01,7.475396990776062012e-01,7.475110888481140137e-01,7.474824786186218262e-01,7.474538683891296387e-01,7.474252581596374512e-01,7.473967075347900391e-01,7.473680973052978516e-01,7.473395466804504395e-01,7.473108768463134766e-01,7.472823262214660645e-01,7.472537159919738770e-01,7.472251653671264648e-01,7.471966147422790527e-01,7.471680045127868652e-01,7.471394538879394531e-01,7.471108436584472656e-01,7.470822930335998535e-01,7.470536828041076660e-01,7.470251321792602539e-01,7.469965815544128418e-01,7.469679713249206543e-01,7.469394207000732422e-01,7.469108700752258301e-01,7.468823194503784180e-01,7.468537092208862305e-01,7.468252182006835938e-01,7.467966675758361816e-01,7.467681169509887695e-01,7.467395663261413574e-01,7.467110157012939453e-01,7.466824650764465332e-01,7.466539144515991211e-01,7.466253638267517090e-01,7.465968728065490723e-01,7.465683221817016602e-01,7.465398311614990234e-01,7.465112209320068359e-01,7.464827299118041992e-01,7.464541792869567871e-01,7.464256882667541504e-01,7.463971972465515137e-01,7.463686466217041016e-01,7.463401556015014648e-01,7.463116049766540527e-01,7.462831139564514160e-01,7.462545633316040039e-01,7.462260723114013672e-01,7.461975812911987305e-01,7.461690902709960938e-01,7.461405992507934570e-01,7.461120486259460449e-01,7.460836172103881836e-01,7.460550665855407715e-01,7.460265755653381348e-01,7.459981441497802734e-01,7.459695935249328613e-01,7.459411621093750000e-01,7.459126114845275879e-01,7.458841800689697266e-01,7.458556294441223145e-01
7.162039875984191895e-01,7.161777019500732422e-01,7.161514759063720703e-01,7.161252498626708984e-01,7.160989642143249512e-01,7.160727381706237793e-01,7.160464525222778320e-01,7.160202264785766602e-01,7.159939408302307129e-01,7.159677147865295410e-01,7.159415483474731445e-01,7.159152626991271973e-01,7.158890366554260254e-01,7.158627510070800781e-01,7.158365845680236816e-01,7.158102989196777344e-01,7.157840728759765625e-01,7.157578468322753906e-01,7.157316207885742188e-01,7.157054543495178223e-01,7.156791687011718750e-01,7.156530022621154785e-01,7.156267166137695312e-01,7.156005501747131348e-01,7.155743241310119629e-01,7.155480980873107910e-01,7.155219316482543945e-01,7.154957056045532227e-01,7.154694795608520508e-01,7.154432535171508789e-01,7.154170870780944824e-01,7.153908610343933105e-01,7.153646945953369141e-01,7.153385281562805176e-01,7.153123021125793457e-01,7.152861356735229492e-01,7.152599096298217773e-01,7.152337431907653809e-01,7.152075171470642090e-01,7.151813507080078125e-01,7.151551842689514160e-01,7.151289582252502441e-01,7.151028513908386230e-01,7.150766253471374512e-01,7.150504589080810547e-01,7.150242328643798828e-01,7.149981260299682617e-01,7.149719595909118652e-01,7.149457931518554688e-01,7.149196267127990723e-01,7.148934602737426758e-01,7.148672938346862793e-01,7.148411273956298828e-01,7.148149609565734863e-01,7.147888541221618652e-01,7.147626280784606934e-01,7.147365212440490723e-01,7.147103548049926758e-01,7.146842479705810547e-01,7.146580219268798828e-01,7.146319150924682617e-01,7.146058082580566406e-01,7.145796418190002441e-01,7.145535349845886230e-01,7.145273685455322266e-01,7.145012617111206055e-01,7.144750952720642090e-01,7.144489884376525879e-01,7.144228816032409668e-01,7.143967151641845703e-01,7.143706083297729492e-01,7.143444418907165527e-01,7.143183350563049316e-01,7.142921686172485352e-01,7.142661213874816895e-01,7.142400145530700684e-01,7.142138481140136719e-01,7.141878008842468262e-01,7.141616344451904297e-01,7.141355276107788086e-01
6.869062185287475586e-01,6.868820786476135254e-01,6.868579387664794922e-01,6.868337988853454590e-01,6.868096590042114258e-01,6.867855191230773926e-01,6.867613792419433594e-01,6.867371797561645508e-01,6.867130994796752930e-01,6.866888999938964844e-01,6.866648197174072266e-01,6.866406798362731934e-01,6.866164803504943848e-01,6.865924000740051270e-01,6.865682601928710938e-01,6.865441203117370605e-01,6.865199804306030273e-01,6.864958405494689941e-01,6.864717602729797363e-01,6.864476203918457031e-01,6.864235401153564453e-01,6.863993406295776367e-01,6.863752603530883789e-01,6.863511204719543457e-01,6.863270401954650879e-01,6.863029003143310547e-01,6.862788200378417969e-01,6.862547397613525391e-01,6.862305998802185059e-01,6.862065196037292480e-01,6.861823797225952148e-01,6.861582994461059570e-01,6.861341595649719238e-01,6.861100792884826660e-01,6.860859990119934082e-01,6.860618591308593750e-01,6.860377788543701172e-01,6.860136985778808594e-01,6.859896183013916016e-01,6.859654784202575684e-01,6.859413981437683105e-01,6.859173774719238281e-01,6.858932375907897949e-01,6.858691573143005371e-01,6.858450770378112793e-01,6.858209967613220215e-01,6.857969164848327637e-01,6.857728362083435059e-01,6.857488155364990234e-01,6.857246756553649902e-01,6.857006549835205078e-01,6.856765747070312500e-01,6.856524944305419922e-01,6.856284141540527344e-01,6.856043934822082520e-01,6.855803132057189941e-01,6.855562329292297363e-01,6.855322122573852539e-01,6.855081319808959961e-01,6.854841113090515137e-01,6.854600310325622559e-01,6.854359507560729980e-01,6.854119300842285156e-01,6.853878498077392578e-01,6.853638291358947754e-01,6.853397488594055176e-01,6.853157281875610352e-01,6.852916479110717773e-01,6.852676868438720703e-01,6.852436661720275879e-01,6.852195858955383301e-01,6.851955652236938477e-01,6.851714849472045898e-01,6.851474642753601074e-01,6.851234436035156250e-01,6.850994229316711426e-01,6.850754022598266602e-01,6.850513815879821777e-01,6.850273609161376953e-01,6.850033402442932129e-01
6.599112749099731445e-01,6.598889827728271484e-01,6.598666906356811523e-01,6.598443984985351562e-01,6.598221063613891602e-01,6.597998738288879395e-01,6.597775220870971680e-01,6.597552895545959473e-01,6.597329378128051758e-01,6.597107052803039551e-01,6.596884131431579590e-01,6.596661210060119629e-01,6.596438884735107422e-01,6.596215963363647461e-01,6.595993041992187500e-01,6.595770120620727539e-01,6.595547795295715332e-01,6.595324873924255371e-01,6.595102548599243164e-01,6.594880223274230957e-01,6.594657301902770996e-01,6.594434380531311035e-01,6.594212055206298828e-01,6.593989133834838867e-01,6.593766808509826660e-01,6.593544483184814453e-01,6.593321561813354492e-01,6.593099236488342285e-01,6.592876911163330078e-01,6.592653989791870117e-01,6.592431664466857910e-01,6.592208743095397949e-01,6.591986417770385742e-01,6.591764092445373535e-01,6.591541767120361328e-01,6.591319441795349121e-01,6.591097116470336914e-01,6.590874791145324707e-01,6.590651869773864746e-01,6.590430140495300293e-01,6.590207219123840332e-01,6.589984893798828125e-01,6.589763164520263672e-01,6.589540243148803711e-01,6.589318513870239258e-01,6.589095592498779297e-01,6.588873863220214844e-01,6.588651537895202637e-01,6.588429212570190430e-01,6.588207483291625977e-01,6.587985157966613770e-01,6.587762832641601562e-01,6.587540507316589355e-01,6.587318778038024902e-01,6.587095856666564941e-01,6.586874127388000488e-01,6.586652398109436035e-01,6.586430072784423828e-01,6.586208343505859375e-01,6.585986018180847168e-01,6.585763692855834961e-01,6.585541367530822754e-01,6.585319638252258301e-01,6.585097908973693848e-01,6.584875583648681641e-01,6.584653854370117188e-01,6.584431529045104980e-01,6.584209799766540527e-01,6.583988070487976074e-01,6.583766341209411621e-01,6.583544611930847168e-01,6.583322286605834961e-01,6.583100557327270508e-01,6.582878828048706055e-01,6.582657098770141602e-01,6.582434773445129395e-01,6.582213044166564941e-01,6.581991910934448242e-01,6.581769585609436035e-01,6.581547856330871582e-01
