5.000000000000000000e+00,5.000000000000000000e+00,5.000000000000000000e+00,5.000000000000000000e+00,5.000000000000000000e+00,5.000000000000000000e+00,5.000000000000000000e+00,5.000000000000000000e+00,5.000000000000000000e+00,5.000000000000000000e+00,5.000000000000000000e+00,5.000000000000000000e+00,5.000000000000000000e+00,5.000000000000000000e+00,5.000000000000000000e+00,1.795791506767272949e+00,1.776865005493164062e+00,1.783805966377258301e+00,1.799198508262634277e+00,1.782335519790649414e+00,1.774751305580139160e+00,1.774239301681518555e+00,1.783400297164916992e+00,1.795080304145812988e+00,1.819164752960205078e+00,1.838122248649597168e+00,1.862287759780883789e+00,1.905666232109069824e+00,1.984524846076965332e+00,2.020536661148071289e+00,5.000000000000000000e+00,5.000000000000000000e+00,5.000000000000000000e+00,5.000000000000000000e+00,5.000000000000000000e+00,5.000000000000000000e+00,5.000000000000000000e+00,5.000000000000000000e+00,5.000000000000000000e+00,5.000000000000000000e+00,5.000000000000000000e+00,5.000000000000000000e+00,5.000000000000000000e+00,4.172266960144042969e+00,4.030895233154296875e+00,3.898790836334228516e+00,3.775069713592529297e+00,3.658959865570068359e+00,3.549778699874877930e+00,3.446924924850463867e+00,3.349863290786743164e+00,3.258118629455566406e+00,3.171264886856079102e+00,3.088922023773193359e+00,3.010746717453002930e+00,2.936430931091308594e+00,2.865695238113403320e+00,2.798287630081176758e+00,2.733978033065795898e+00,2.672558069229125977e+00,2.613837003707885742e+00,2.557641029357910156e+00,2.503810405731201172e+00,2.452199220657348633e+00,2.402672529220581055e+00,2.355107069015502930e+00,2.309388160705566406e+00,2.265410661697387695e+00,2.223076581954956055e+00,2.182295799255371094e+00,2.142984151840209961e+00,2.105063915252685547e+00,2.068462133407592773e+00,2.033111810684204102e+00,1.998949050903320312e+00,1.965915679931640625e+00,1.933956027030944824e+00,1.903019189834594727e+00,1.873056292533874512e+00,1.844022393226623535e+00
5.000000000000000000e+00,5.000000000000000000e+00,5.000000000000000000e+00,5.000000000000000000e+00,5.000000000000000000e+00,5.000000000000000000e+00,5.000000000000000000e+00,5.000000000000000000e+00,5.000000000000000000e+00,5.000000000000000000e+00,5.000000000000000000e+00,5.000000000000000000e+00,5.000000000000000000e+00,5.000000000000000000e+00,5.000000000000000000e+00,5.000000000000000000e+00,1.792899966239929199e+00,1.792866826057434082e+00,1.804885149002075195e+00,1.793308615684509277e+00,1.777647852897644043e+00,1.785949707031250000e+00,1.790836811065673828e+00,1.794831871986389160e+00,1.818633556365966797e+00,1.844033122062683105e+00,1.864638209342956543e+00,1.903955340385437012e+00,1.998753547668457031e+00,2.023332834243774414e+00,5.000000000000000000e+00,5.000000000000000000e+00,5.000000000000000000e+00,5.000000000000000000e+00,5.000000000000000000e+00,5.000000000000000000e+00,5.000000000000000000e+00,5.000000000000000000e+00,5.000000000000000000e+00,5.000000000000000000e+00,5.000000000000000000e+00,5.000000000000000000e+00,4.324024200439453125e+00,4.172369003295898438e+00,4.030990600585937500e+00,3.898879528045654297e+00,3.775153398513793945e+00,3.659038066864013672e+00,3.549852609634399414e+00,3.446994304656982422e+00,3.349929094314575195e+00,3.258180618286132812e+00,3.171324014663696289e+00,3.088977813720703125e+00,3.010799884796142578e+00,2.936481475830078125e+00,2.865743637084960938e+00,2.798333406448364258e+00,2.734021902084350586e+00,2.672599792480468750e+00,2.613877058029174805e+00,2.557679176330566406e+00,2.503847122192382812e+00,2.452234268188476562e+00,2.402706384658813477e+00,2.355139493942260742e+00,2.309419393539428711e+00,2.265440702438354492e+00,2.223105430603027344e+00,2.182323694229125977e+00,2.143011093139648438e+00,2.105089902877807617e+00,2.068487167358398438e+00,2.033135890960693359e+00,1.998972415924072266e+00,1.965938210487365723e+00,1.933978199958801270e+00,1.903040289878845215e+00,1.873076796531677246e+00,1.844042301177978516e+00
5.000000000000000000e+00,5.000000000000000000e+00,5.000000000000000000e+00,5.000000000000000000e+00,5.000000000000000000e+00,5.000000000000000000e+00,5.000000000000000000e+00,5.000000000000000000e+00,5.000000000000000000e+00,5.000000000000000000e+00,5.000000000000000000e+00,5.000000000000000000e+00,5.000000000000000000e+00,5.000000000000000000e+00,5.000000000000000000e+00,5.000000000000000000e+00,1.800209879875183105e+00,1.798573374748229980e+00,1.804674744606018066e+00,1.801942229270935059e+00,1.784309267997741699e+00,1.785715341567993164e+00,1.789329528808593750e+00,1.797915935516357422e+00,1.811210513114929199e+00,1.836947679519653320e+00,1.861829042434692383e+00,1.906858801841735840e+00,1.990819096565246582e+00,2.028493404388427734e+00,2.081130743026733398e+00,5.000000000000000000e+00,5.000000000000000000e+00,5.000000000000000000e+00,5.000000000000000000e+00,5.000000000000000000e+00,5.000000000000000000e+00,5.000000000000000000e+00,5.000000000000000000e+00,5.000000000000000000e+00,5.000000000000000000e+00,4.487238883972167969e+00,4.324134349822998047e+00,4.172471046447753906e+00,4.031085968017578125e+00,3.898968935012817383e+00,3.775237083435058594e+00,3.659116506576538086e+00,3.549926757812500000e+00,3.447064161300659180e+00,3.349995136260986328e+00,3.258243083953857422e+00,3.171383142471313477e+00,3.089033842086791992e+00,3.010853290557861328e+00,2.936532020568847656e+00,2.865791797637939453e+00,2.798379421234130859e+00,2.734065771102905273e+00,2.672641754150390625e+00,2.613917350769042969e+00,2.557717800140380859e+00,2.503884077072143555e+00,2.452269554138183594e+00,2.402740240097045898e+00,2.355172157287597656e+00,2.309450626373291016e+00,2.265470743179321289e+00,2.223134517669677734e+00,2.182351589202880859e+00,2.143038034439086914e+00,2.105115890502929688e+00,2.068512439727783203e+00,2.033160209655761719e+00,1.998996019363403320e+00,1.965960979461669922e+00,1.934000015258789062e+00,1.903061628341674805e+00,1.873097538948059082e+00,1.844062328338623047e+00
5.000000000000000000e+00,5.000000000000000000e+00,5.000000000000000000e+00,5.000000000000000000e+00,5.000000000000000000e+00,5.000000000000000000e+00,5.000000000000000000e+00,5.000000000000000000e+00,5.000000000000000000e+00,5.000000000000000000e+00,5.000000000000000000e+00,5.000000000000000000e+00,5.000000000000000000e+00,5.000000000000000000e+00,5.000000000000000000e+00,5.000000000000000000e+00,1.806356549263000488e+00,1.804175734519958496e+00,1.804601669311523438e+00,1.808479070663452148e+00,1.787907719612121582e+00,1.781840562820434570e+00,1.786415934562683105e+00,1.796275258064270020e+00,1.810079336166381836e+00,1.833102703094482422e+00,1.867232561111450195e+00,1.924511671066284180e+00,2.016829490661621094e+00,2.027673959732055664e+00,2.075691461563110352e+00,5.000000000000000000e+00,5.000000000000000000e+00,5.000000000000000000e+00,5.000000000000000000e+00,5.000000000000000000e+00,5.000000000000000000e+00,5.000000000000000000e+00,5.000000000000000000e+00,5.000000000000000000e+00,4.663257598876953125e+00,4.487357139587402344e+00,4.324244022369384766e+00,4.172573089599609375e+00,4.031181335449218750e+00,3.899058103561401367e+00,3.775320768356323242e+00,3.659195184707641602e+00,3.550000667572021484e+00,3.447133779525756836e+00,3.350060939788818359e+00,3.258305311203002930e+00,3.171442031860351562e+00,3.089089870452880859e+00,3.010906457901000977e+00,2.936582565307617188e+00,2.865839958190917969e+00,2.798425436019897461e+00,2.734109640121459961e+00,2.672683715820312500e+00,2.613957405090332031e+00,2.557756185531616211e+00,2.503920793533325195e+00,2.452304840087890625e+00,2.402774095535278320e+00,2.355204582214355469e+00,2.309482097625732422e+00,2.265500783920288086e+00,2.223163604736328125e+00,2.182379484176635742e+00,2.143064975738525391e+00,2.105141878128051758e+00,2.068537473678588867e+00,2.033184289932250977e+00,1.999019384384155273e+00,1.965983629226684570e+00,1.934022068977355957e+00,1.903082966804504395e+00,1.873118042945861816e+00,1.844082236289978027e+00
5.000000000000000000e+00,5.000000000000000000e+00,5.000000000000000000e+00,5.000000000000000000e+00,5.000000000000000000e+00,5.000000000000000000e+00,5.000000000000000000e+00,5.000000000000000000e+00,5.000000000000000000e+00,5.000000000000000000e+00,5.000000000000000000e+00,5.000000000000000000e+00,5.000000000000000000e+00,5.000000000000000000e+00,5.000000000000000000e+00,5.000000000000000000e+00,1.812861204147338867e+00,1.807002544403076172e+00,1.806153774261474609e+00,1.814696907997131348e+00,1.795266509056091309e+00,1.784576296806335449e+00,1.787892580032348633e+00,1.796773433685302734e+00,1.811949253082275391e+00,1.834180474281311035e+00,1.865948677062988281e+00,1.929668903350830078e+00,2.016206979751586914e+00,2.023776531219482422e+00,2.064861297607421875e+00,5.000000000000000000e+00,5.000000000000000000e+00,5.000000000000000000e+00,5.000000000000000000e+00,5.000000000000000000e+00,5.000000000000000000e+00,5.000000000000000000e+00,5.000000000000000000e+00,4.853649616241455078e+00,4.663384914398193359e+00,4.487474918365478516e+00,4.324353694915771484e+00,4.172675132751464844e+00,4.031276702880859375e+00,3.899147272109985352e+00,3.775403976440429688e+00,3.659273862838745117e+00,3.550074338912963867e+00,3.447203636169433594e+00,3.350126504898071289e+00,3.258367776870727539e+00,3.171500921249389648e+00,3.089145898818969727e+00,3.010959386825561523e+00,2.936633348464965820e+00,2.865887880325317383e+00,2.798471450805664062e+00,2.734153270721435547e+00,2.672725677490234375e+00,2.613997220993041992e+00,2.557794570922851562e+00,2.503957509994506836e+00,2.452340126037597656e+00,2.402807950973510742e+00,2.355237245559692383e+00,2.309513092041015625e+00,2.265530824661254883e+00,2.223192453384399414e+00,2.182407617568969727e+00,2.143091917037963867e+00,2.105167865753173828e+00,2.068562507629394531e+00,2.033208608627319336e+00,1.999042749404907227e+00,1.966006398200988770e+00,1.934043884277343750e+00,1.903104186058044434e+00,1.873138666152954102e+00,1.844102382659912109e+00
5.000000000000000000e+00,5.000000000000000000e+00,5.000000000000000000e+00,5.000000000000000000e+00,5.000000000000000000e+00,5.000000000000000000e+00,5.000000000000000000e+00,5.000000000000000000e+00,5.000000000000000000e+00,5.000000000000000000e+00,5.000000000000000000e+00,5.000000000000000000e+00,5.000000000000000000e+00,5.000000000000000000e+00,5.000000000000000000e+00,5.000000000000000000e+00,1.820549488067626953e+00,1.812531709671020508e+00,1.815558671951293945e+00,1.814278721809387207e+00,1.789722800254821777e+00,1.776700377464294434e+00,1.782979846000671387e+00,1.796729207038879395e+00,1.814900517463684082e+00,1.836531400680541992e+00,1.867256641387939453e+00,1.921501874923706055e+00,2.015363931655883789e+00,2.013047218322753906e+00,2.055203914642333984e+00,5.000000000000000000e+00,5.000000000000000000e+00,5.000000000000000000e+00,5.000000000000000000e+00,5.000000000000000000e+00,5.000000000000000000e+00,5.000000000000000000e+00,5.000000000000000000e+00,4.853787899017333984e+00,4.663512706756591797e+00,4.487593173980712891e+00,4.324463367462158203e+00,4.172777652740478516e+00,4.031372070312500000e+00,3.899236679077148438e+00,3.775487661361694336e+00,3.659352540969848633e+00,3.550148248672485352e+00,3.447273254394531250e+00,3.350192308425903320e+00,3.258430004119873047e+00,3.171560049057006836e+00,3.089201927185058594e+00,3.011012554168701172e+00,2.936683893203735352e+00,2.865936279296875000e+00,2.798517227172851562e+00,2.734197139739990234e+00,2.672767639160156250e+00,2.614037513732910156e+00,2.557832956314086914e+00,2.503994226455688477e+00,2.452375650405883789e+00,2.402841806411743164e+00,2.355269670486450195e+00,2.309544563293457031e+00,2.265561103820800781e+00,2.223221540451049805e+00,2.182435512542724609e+00,2.143118858337402344e+00,2.105193853378295898e+00,2.068587541580200195e+00,2.033232927322387695e+00,1.999066233634948730e+00,1.966028928756713867e+00,1.934065818786621094e+00,1.903125524520874023e+00,1.873159289360046387e+00,1.844122290611267090e+00
5.000000000000000000e+00,5.000000000000000000e+00,5.000000000000000000e+00,5.000000000000000000e+00,5.000000000000000000e+00,5.000000000000000000e+00,5.000000000000000000e+00,5.000000000000000000e+00,5.000000000000000000e+00,5.000000000000000000e+00,5.000000000000000000e+00,5.000000000000000000e+00,5.000000000000000000e+00,5.000000000000000000e+00,5.000000000000000000e+00,5.000000000000000000e+00,1.829228758811950684e+00,1.819383978843688965e+00,1.826609849929809570e+00,1.791755795478820801e+00,1.780832886695861816e+00,1.771952033042907715e+00,1.776535749435424805e+00,1.788353562355041504e+00,1.813129186630249023e+00,1.842630147933959961e+00,1.870971798896789551e+00,1.928203582763671875e+00,2.025541543960571289e+00,2.020155906677246094e+00,2.049677610397338867e+00,5.000000000000000000e+00,5.000000000000000000e+00,5.000000000000000000e+00,5.000000000000000000e+00,5.000000000000000000e+00,5.000000000000000000e+00,5.000000000000000000e+00,5.000000000000000000e+00,4.853926181793212891e+00,4.663640499114990234e+00,4.487711429595947266e+00,4.324573040008544922e+00,4.172879695892333984e+00,4.031467437744140625e+00,3.899325847625732422e+00,3.775571346282958984e+00,3.659430980682373047e+00,3.550222396850585938e+00,3.447343111038208008e+00,3.350258350372314453e+00,3.258492469787597656e+00,3.171618938446044922e+00,3.089257955551147461e+00,3.011065721511840820e+00,2.936734437942504883e+00,2.865984439849853516e+00,2.798563241958618164e+00,2.734241008758544922e+00,2.672809600830078125e+00,2.614077568054199219e+00,2.557871341705322266e+00,2.504031181335449219e+00,2.452410936355590820e+00,2.402875661849975586e+00,2.355302333831787109e+00,2.309575796127319336e+00,2.265591144561767578e+00,2.223250389099121094e+00,2.182463407516479492e+00,2.143145799636840820e+00,2.105219841003417969e+00,2.068612813949584961e+00,2.033257246017456055e+00,1.999089598655700684e+00,1.966051816940307617e+00,1.934087872505187988e+00,1.903146624565124512e+00,1.873179793357849121e+00,1.844142317771911621e+00
5.000000000000000000e+00,5.000000000000000000e+00,5.000000000000000000e+00,5.000000000000000000e+00,5.000000000000000000e+00,5.000000000000000000e+00,5.000000000000000000e+00,5.000000000000000000e+00,5.000000000000000000e+00,5.000000000000000000e+00,5.000000000000000000e+00,5.000000000000000000e+00,5.000000000000000000e+00,5.000000000000000000e+00,5.000000000000000000e+00,5.000000000000000000e+00,1.837697148323059082e+00,1.827402472496032715e+00,1.837796688079833984e+00,1.792922139167785645e+00,1.780896425247192383e+00,1.771244764328002930e+00,1.773641228675842285e+00,1.785921335220336914e+00,1.805222630500793457e+00,1.834444880485534668e+00,1.859935760498046875e+00,1.919809341430664062e+00,2.036056756973266602e+00,2.031394720077514648e+00,2.050876379013061523e+00,5.000000000000000000e+00,5.000000000000000000e+00,5.000000000000000000e+00,5.000000000000000000e+00,5.000000000000000000e+00,5.000000000000000000e+00,5.000000000000000000e+00,5.000000000000000000e+00,4.854063987731933594e+00,4.663767814636230469e+00,4.487829208374023438e+00,4.324682712554931641e+00,4.172981739044189453e+00,4.031562328338623047e+00,3.899414777755737305e+00,3.775655031204223633e+00,3.659509181976318359e+00,3.550296306610107422e+00,3.447412490844726562e+00,3.350324153900146484e+00,3.258554458618164062e+00,3.171678066253662109e+00,3.089313745498657227e+00,3.011119127273559570e+00,2.936784982681274414e+00,2.866032600402832031e+00,2.798609018325805664e+00,2.734284877777099609e+00,2.672851324081420898e+00,2.614117622375488281e+00,2.557909488677978516e+00,2.504067897796630859e+00,2.452445983886718750e+00,2.402909517288208008e+00,2.355334758758544922e+00,2.309607028961181641e+00,2.265621185302734375e+00,2.223279476165771484e+00,2.182491302490234375e+00,2.143172740936279297e+00,2.105245828628540039e+00,2.068637847900390625e+00,2.033281326293945312e+00,1.999113202095031738e+00,1.966074347496032715e+00,1.934109687805175781e+00,1.903167843818664551e+00,1.873200535774230957e+00,1.844162225723266602e+00
5.000000000000000000e+00,5.000000000000000000e+00,5.000000000000000000e+00,5.000000000000000000e+00,5.000000000000000000e+00,5.000000000000000000e+00,5.000000000000000000e+00,5.000000000000000000e+00,5.000000000000000000e+00,5.000000000000000000e+00,5.000000000000000000e+00,5.000000000000000000e+00,5.000000000000000000e+00,5.000000000000000000e+00,5.000000000000000000e+00,5.000000000000000000e+00,1.842049956321716309e+00,1.832300543785095215e+00,1.846022963523864746e+00,1.794089794158935547e+00,1.783707022666931152e+00,1.784848093986511230e+00,1.789665579795837402e+00,1.800269126892089844e+00,1.804995656013488770e+00,1.826844811439514160e+00,1.855307936668395996e+00,1.901770710945129395e+00,2.059389829635620117e+00,2.042356491088867188e+00,2.057268857955932617e+00,5.000000000000000000e+00,5.000000000000000000e+00,5.000000000000000000e+00,5.000000000000000000e+00,5.000000000000000000e+00,5.000000000000000000e+00,5.000000000000000000e+00,5.000000000000000000e+00,4.854202747344970703e+00,4.663895606994628906e+00,4.487947463989257812e+00,4.324792385101318359e+00,4.173083782196044922e+00,4.031658172607421875e+00,3.899503946304321289e+00,3.775738716125488281e+00,3.659587860107421875e+00,3.550370216369628906e+00,3.447482347488403320e+00,3.350390195846557617e+00,3.258616685867309570e+00,3.171737194061279297e+00,3.089369773864746094e+00,3.011172294616699219e+00,2.936835527420043945e+00,2.866080760955810547e+00,2.798655033111572266e+00,2.734328985214233398e+00,2.672893285751342773e+00,2.614157676696777344e+00,2.557947874069213867e+00,2.504104614257812500e+00,2.452481269836425781e+00,2.402943611145019531e+00,2.355367422103881836e+00,2.309638500213623047e+00,2.265651226043701172e+00,2.223308563232421875e+00,2.182519197463989258e+00,2.143199682235717773e+00,2.105271816253662109e+00,2.068662881851196289e+00,2.033305644989013672e+00,1.999136567115783691e+00,1.966096997261047363e+00,1.934131741523742676e+00,1.903189182281494141e+00,1.873221039772033691e+00,1.844182014465332031e+00
5.000000000000000000e+00,5.000000000000000000e+00,5.000000000000000000e+00,5.000000000000000000e+00,5.000000000000000000e+00,5.000000000000000000e+00,5.000000000000000000e+00,5.000000000000000000e+00,5.000000000000000000e+00,5.000000000000000000e+00,5.000000000000000000e+00,5.000000000000000000e+00,5.000000000000000000e+00,5.000000000000000000e+00,5.000000000000000000e+00,5.000000000000000000e+00,1.834091305732727051e+00,1.823053598403930664e+00,1.835942625999450684e+00,1.803562760353088379e+00,1.786322593688964844e+00,1.789160490036010742e+00,1.791529178619384766e+00,1.801664113998413086e+00,1.817433834075927734e+00,1.834988594055175781e+00,1.869132161140441895e+00,1.938444733619689941e+00,2.067279338836669922e+00,2.035910129547119141e+00,2.029126644134521484e+00,2.092904090881347656e+00,5.000000000000000000e+00,5.000000000000000000e+00,5.000000000000000000e+00,5.000000000000000000e+00,5.000000000000000000e+00,5.000000000000000000e+00,5.000000000000000000e+00,4.854341030120849609e+00,4.664023399353027344e+00,4.488065719604492188e+00,4.324902057647705078e+00,4.173186302185058594e+00,4.031753540039062500e+00,3.899593353271484375e+00,3.775822401046752930e+00,3.659666538238525391e+00,3.550444364547729492e+00,3.447552204132080078e+00,3.350455999374389648e+00,3.258679151535034180e+00,3.171796083450317383e+00,3.089425802230834961e+00,3.011225461959838867e+00,2.936886310577392578e+00,2.866129159927368164e+00,2.798701047897338867e+00,2.734372854232788086e+00,2.672935247421264648e+00,2.614197969436645508e+00,2.557986497879028320e+00,2.504141569137573242e+00,2.452516555786132812e+00,2.402977466583251953e+00,2.355399847030639648e+00,2.309669733047485352e+00,2.265681505203247070e+00,2.223337650299072266e+00,2.182547330856323242e+00,2.143226623535156250e+00,2.105297803878784180e+00,2.068688154220581055e+00,2.033329963684082031e+00,1.999160170555114746e+00,1.966119766235351562e+00,1.934153676033020020e+00,1.903210401535034180e+00,1.873241782188415527e+00,1.844202160835266113e+00
5.000000000000000000e+00,5.000000000000000000e+00,5.000000000000000000e+00,5.000000000000000000e+00,5.000000000000000000e+00,5.000000000000000000e+00,5.000000000000000000e+00,5.000000000000000000e+00,5.000000000000000000e+00,5.000000000000000000e+00,5.000000000000000000e+00,5.000000000000000000e+00,5.000000000000000000e+00,5.000000000000000000e+00,5.000000000000000000e+00,5.000000000000000000e+00,1.826382040977478027e+00,1.815874814987182617e+00,1.827718615531921387e+00,1.799123644828796387e+00,1.775657057762145996e+00,1.783757925033569336e+00,1.791825771331787109e+00,1.810473203659057617e+00,1.823334455490112305e+00,1.838502287864685059e+00,1.873785018920898438e+00,1.920633554458618164e+00,5.000000000000000000e+00,2.024609088897705078e+00,2.013841867446899414e+00,2.019734621047973633e+00,5.000000000000000000e+00,5.000000000000000000e+00,5.000000000000000000e+00,5.000000000000000000e+00,5.000000000000000000e+00,5.000000000000000000e+00,5.000000000000000000e+00,4.854478836059570312e+00,4.664150714874267578e+00,4.488183975219726562e+00,4.325011730194091797e+00,4.173287868499755859e+00,4.031848430633544922e+00,3.899682521820068359e+00,3.775905847549438477e+00,3.659745216369628906e+00,3.550518035888671875e+00,3.447621822357177734e+00,3.350521564483642578e+00,3.258741378784179688e+00,3.171854972839355469e+00,3.089481830596923828e+00,3.011278390884399414e+00,2.936936855316162109e+00,2.866177082061767578e+00,2.798747062683105469e+00,2.734416484832763672e+00,2.672977209091186523e+00,2.614237785339355469e+00,2.558024883270263672e+00,2.504178047180175781e+00,2.452551841735839844e+00,2.403011083602905273e+00,2.355432510375976562e+00,2.309700965881347656e+00,2.265711545944213867e+00,2.223366498947143555e+00,2.182575225830078125e+00,2.143253564834594727e+00,2.105323791503906250e+00,2.068712949752807617e+00,2.033354282379150391e+00,1.999183416366577148e+00,1.966142296791076660e+00,1.934175491333007812e+00,1.903231739997863770e+00,1.873262286186218262e+00,1.844221949577331543e+00
5.000000000000000000e+00,5.000000000000000000e+00,5.000000000000000000e+00,5.000000000000000000e+00,5.000000000000000000e+00,5.000000000000000000e+00,5.000000000000000000e+00,5.000000000000000000e+00,5.000000000000000000e+00,5.000000000000000000e+00,5.000000000000000000e+00,5.000000000000000000e+00,5.000000000000000000e+00,5.000000000000000000e+00,5.000000000000000000e+00,5.000000000000000000e+00,1.823292732238769531e+00,1.810893416404724121e+00,1.823770046234130859e+00,1.788785338401794434e+00,1.744962334632873535e+00,1.742336392402648926e+00,1.752236962318420410e+00,1.812613248825073242e+00,1.840098500251770020e+00,1.859697580337524414e+00,1.880049347877502441e+00,1.922290682792663574e+00,5.000000000000000000e+00,2.049855470657348633e+00,2.009427070617675781e+00,1.992518305778503418e+00,2.005955696105957031e+00,5.000000000000000000e+00,5.000000000000000000e+00,5.000000000000000000e+00,5.000000000000000000e+00,5.000000000000000000e+00,5.000000000000000000e+00,4.854617118835449219e+00,4.664278507232666016e+00,4.488302230834960938e+00,4.325121402740478516e+00,4.173390388488769531e+00,4.031944274902343750e+00,3.899771928787231445e+00,3.775989532470703125e+00,3.659823894500732422e+00,3.550591945648193359e+00,3.447691679000854492e+00,3.350587368011474609e+00,3.258803844451904297e+00,3.171914100646972656e+00,3.089537858963012695e+00,3.011331796646118164e+00,2.936987400054931641e+00,2.866225242614746094e+00,2.798793077468872070e+00,2.734460353851318359e+00,2.673019170761108398e+00,2.614277839660644531e+00,2.558063268661499023e+00,2.504215002059936523e+00,2.452587127685546875e+00,2.403044939041137695e+00,2.355464935302734375e+00,2.309732198715209961e+00,2.265741586685180664e+00,2.223395347595214844e+00,2.182603120803833008e+00,2.143280506134033203e+00,2.105349779129028320e+00,2.068738222122192383e+00,2.033378362655639648e+00,1.999206781387329102e+00,1.966165184974670410e+00,1.934197545051574707e+00,1.903252840042114258e+00,1.873282790184020996e+00,1.844242095947265625e+00
5.000000000000000000e+00,5.000000000000000000e+00,5.000000000000000000e+00,5.000000000000000000e+00,5.000000000000000000e+00,5.000000000000000000e+00,5.000000000000000000e+00,5.000000000000000000e+00,5.000000000000000000e+00,5.000000000000000000e+00,5.000000000000000000e+00,5.000000000000000000e+00,5.000000000000000000e+00,5.000000000000000000e+00,5.000000000000000000e+00,5.000000000000000000e+00,1.820213794708251953e+00,1.805595636367797852e+00,1.820452094078063965e+00,1.768336057662963867e+00,1.729727506637573242e+00,1.726199269294738770e+00,1.732282638549804688e+00,1.738652348518371582e+00,1.857760906219482422e+00,1.881387352943420410e+00,1.902219176292419434e+00,1.924257278442382812e+00,5.000000000000000000e+00,5.000000000000000000e+00,2.032212018966674805e+00,1.989240884780883789e+00,1.974490046501159668e+00,5.000000000000000000e+00,5.000000000000000000e+00,5.000000000000000000e+00,5.000000000000000000e+00,5.000000000000000000e+00,5.000000000000000000e+00,4.854755401611328125e+00,4.664405822753906250e+00,4.488420009613037109e+00,4.325231075286865234e+00,4.173492431640625000e+00,4.032039165496826172e+00,3.899860620498657227e+00,3.776073217391967773e+00,3.659902095794677734e+00,3.550665855407714844e+00,3.447761058807373047e+00,3.350653409957885742e+00,3.258865833282470703e+00,3.171972990036010742e+00,3.089593648910522461e+00,3.011384963989257812e+00,2.937037944793701172e+00,2.866273403167724609e+00,2.798838853836059570e+00,2.734504222869873047e+00,2.673060894012451172e+00,2.614318132400512695e+00,2.558101415634155273e+00,2.504251718521118164e+00,2.452622413635253906e+00,2.403079032897949219e+00,2.355497360229492188e+00,2.309763669967651367e+00,2.265771627426147461e+00,2.223424434661865234e+00,2.182631015777587891e+00,2.143307447433471680e+00,2.105375766754150391e+00,2.068763256072998047e+00,2.033402681350708008e+00,1.999230384826660156e+00,1.966187715530395508e+00,1.934219360351562500e+00,1.903274059295654297e+00,1.873303413391113281e+00,1.844261884689331055e+00
5.000000000000000000e+00,5.000000000000000000e+00,5.000000000000000000e+00,5.000000000000000000e+00,5.000000000000000000e+00,5.000000000000000000e+00,5.000000000000000000e+00,5.000000000000000000e+00,5.000000000000000000e+00,5.000000000000000000e+00,5.000000000000000000e+00,5.000000000000000000e+00,5.000000000000000000e+00,5.000000000000000000e+00,5.000000000000000000e+00,5.000000000000000000e+00,1.811522603034973145e+00,1.795863389968872070e+00,1.813935041427612305e+00,1.762996912002563477e+00,1.719536423683166504e+00,1.713456749916076660e+00,1.719403505325317383e+00,1.725391983985900879e+00,1.759959340095520020e+00,1.894008636474609375e+00,1.904191732406616211e+00,1.929417133331298828e+00,5.000000000000000000e+00,5.000000000000000000e+00,5.000000000000000000e+00,2.012615442276000977e+00,1.979306817054748535e+00,1.988126158714294434e+00,5.000000000000000000e+00,5.000000000000000000e+00,5.000000000000000000e+00,5.000000000000000000e+00,5.000000000000000000e+00,4.854893684387207031e+00,4.664533615112304688e+00,4.488538265228271484e+00,4.325341224670410156e+00,4.173594474792480469e+00,4.032134532928466797e+00,3.899950027465820312e+00,3.776156902313232422e+00,3.659980773925781250e+00,3.550740003585815430e+00,3.447830915451049805e+00,3.350719213485717773e+00,3.258928060531616211e+00,3.172032117843627930e+00,3.089649677276611328e+00,3.011438131332397461e+00,2.937088489532470703e+00,2.866321802139282227e+00,2.798884630203247070e+00,2.734548091888427734e+00,2.673102855682373047e+00,2.614358186721801758e+00,2.558139801025390625e+00,2.504288673400878906e+00,2.452657699584960938e+00,2.403112888336181641e+00,2.355530023574829102e+00,2.309794902801513672e+00,2.265801906585693359e+00,2.223453521728515625e+00,2.182658910751342773e+00,2.143334388732910156e+00,2.105401754379272461e+00,2.068788528442382812e+00,2.033426761627197266e+00,1.999253749847412109e+00,1.966210365295410156e+00,1.934241533279418945e+00,1.903295397758483887e+00,1.873323917388916016e+00,1.844281792640686035e+00
5.000000000000000000e+00,5.000000000000000000e+00,5.000000000000000000e+00,5.000000000000000000e+00,5.000000000000000000e+00,5.000000000000000000e+00,5.000000000000000000e+00,5.000000000000000000e+00,5.000000000000000000e+00,5.000000000000000000e+00,5.000000000000000000e+00,5.000000000000000000e+00,5.000000000000000000e+00,5.000000000000000000e+00,5.000000000000000000e+00,5.000000000000000000e+00,1.822632193565368652e+00,1.791143178939819336e+00,1.813235163688659668e+00,1.768341064453125000e+00,1.723654627799987793e+00,1.703503966331481934e+00,1.708255767822265625e+00,1.714166641235351562e+00,1.738710522651672363e+00,1.894245624542236328e+00,1.904402613639831543e+00,1.934749007225036621e+00,5.000000000000000000e+00,5.000000000000000000e+00,5.000000000000000000e+00,5.000000000000000000e+00,1.939184546470642090e+00,1.943069458007812500e+00,5.000000000000000000e+00,5.000000000000000000e+00,5.000000000000000000e+00,5.000000000000000000e+00,5.000000000000000000e+00,4.855031967163085938e+00,4.664661407470703125e+00,4.488656520843505859e+00,4.325450897216796875e+00,4.173696994781494141e+00,4.032230377197265625e+00,3.900039196014404297e+00,3.776240587234497070e+00,3.660059213638305664e+00,3.550813913345336914e+00,3.447900772094726562e+00,3.350785255432128906e+00,3.258990526199340820e+00,3.172091245651245117e+00,3.089705705642700195e+00,3.011491537094116211e+00,2.937139272689819336e+00,2.866369962692260742e+00,2.798930644989013672e+00,2.734591960906982422e+00,2.673144817352294922e+00,2.614398241043090820e+00,2.558178186416625977e+00,2.504325389862060547e+00,2.452692985534667969e+00,2.403146743774414062e+00,2.355562686920166016e+00,2.309826135635375977e+00,2.265831947326660156e+00,2.223482608795166016e+00,2.182687044143676758e+00,2.143361330032348633e+00,2.105427742004394531e+00,2.068813562393188477e+00,2.033451080322265625e+00,1.999277353286743164e+00,1.966233134269714355e+00,1.934263348579406738e+00,1.903316617012023926e+00,1.873344659805297852e+00,1.844301819801330566e+00
5.000000000000000000e+00,5.000000000000000000e+00,5.000000000000000000e+00,5.000000000000000000e+00,5.000000000000000000e+00,5.000000000000000000e+00,5.000000000000000000e+00,5.000000000000000000e+00,5.000000000000000000e+00,5.000000000000000000e+00,5.000000000000000000e+00,5.000000000000000000e+00,5.000000000000000000e+00,5.000000000000000000e+00,5.000000000000000000e+00,5.000000000000000000e+00,5.000000000000000000e+00,1.798483133316040039e+00,5.000000000000000000e+00,1.779186248779296875e+00,1.727792501449584961e+00,1.696326255798339844e+00,1.698485374450683594e+00,1.703086495399475098e+00,1.718876838684082031e+00,1.774038314819335938e+00,1.904062628746032715e+00,1.935477495193481445e+00,5.000000000000000000e+00,5.000000000000000000e+00,5.000000000000000000e+00,5.000000000000000000e+00,5.000000000000000000e+00,1.901180863380432129e+00,1.919409513473510742e+00,5.000000000000000000e+00,5.000000000000000000e+00,5.000000000000000000e+00,5.000000000000000000e+00,4.855170249938964844e+00,4.664788722991943359e+00,4.488774776458740234e+00,4.325560569763183594e+00,4.173799037933349609e+00,4.032325267791748047e+00,3.900128602981567383e+00,3.776323795318603516e+00,3.660137891769409180e+00,3.550887584686279297e+00,3.447970390319824219e+00,3.350850820541381836e+00,3.259052753448486328e+00,3.172150135040283203e+00,3.089761734008789062e+00,3.011544466018676758e+00,2.937189817428588867e+00,2.866417884826660156e+00,2.798976659774780273e+00,2.734635829925537109e+00,2.673186779022216797e+00,2.614438295364379883e+00,2.558216810226440430e+00,2.504362106323242188e+00,2.452728271484375000e+00,2.403180599212646484e+00,2.355595111846923828e+00,2.309857368469238281e+00,2.265861988067626953e+00,2.223511457443237305e+00,2.182714939117431641e+00,2.143388271331787109e+00,2.105453968048095703e+00,2.068838596343994141e+00,2.033475399017333984e+00,1.999300718307495117e+00,1.966255664825439453e+00,1.934285163879394531e+00,1.903337955474853516e+00,1.873365163803100586e+00,1.844321727752685547e+00
5.000000000000000000e+00,5.000000000000000000e+00,5.000000000000000000e+00,5.000000000000000000e+00,5.000000000000000000e+00,5.000000000000000000e+00,5.000000000000000000e+00,5.000000000000000000e+00,5.000000000000000000e+00,5.000000000000000000e+00,5.000000000000000000e+00,5.000000000000000000e+00,5.000000000000000000e+00,5.000000000000000000e+00,5.000000000000000000e+00,5.000000000000000000e+00,5.000000000000000000e+00,1.782487392425537109e+00,1.791251063346862793e+00,5.000000000000000000e+00,1.734951376914978027e+00,1.700781941413879395e+00,1.689175367355346680e+00,1.693496346473693848e+00,1.699473381042480469e+00,1.750942111015319824e+00,1.908220052719116211e+00,1.946967840194702148e+00,5.000000000000000000e+00,5.000000000000000000e+00,5.000000000000000000e+00,5.000000000000000000e+00,5.000000000000000000e+00,5.000000000000000000e+00,2.001653909683227539e+00,1.941643595695495605e+00,5.000000000000000000e+00,5.000000000000000000e+00,5.000000000000000000e+00,4.855308532714843750e+00,4.664916515350341797e+00,4.488893032073974609e+00,4.325670242309570312e+00,4.173901081085205078e+00,4.032420635223388672e+00,3.900217771530151367e+00,3.776407718658447266e+00,3.660216569900512695e+00,3.550961732864379883e+00,3.448040246963500977e+00,3.350916624069213867e+00,3.259115219116210938e+00,3.172209024429321289e+00,3.089817762374877930e+00,3.011597633361816406e+00,2.937240362167358398e+00,2.866466283798217773e+00,2.799022674560546875e+00,2.734679698944091797e+00,2.673228740692138672e+00,2.614478349685668945e+00,2.558255195617675781e+00,2.504398822784423828e+00,2.452763557434082031e+00,2.403214454650878906e+00,2.355627775192260742e+00,2.309888601303100586e+00,2.265892267227172852e+00,2.223540306091308594e+00,2.182742834091186523e+00,2.143415212631225586e+00,2.105479955673217773e+00,2.068863630294799805e+00,2.033499717712402344e+00,1.999324083328247070e+00,1.966278553009033203e+00,1.934307217597961426e+00,1.903359174728393555e+00,1.873385667800903320e+00,1.844341754913330078e+00
5.000000000000000000e+00,5.000000000000000000e+00,5.000000000000000000e+00,5.000000000000000000e+00,5.000000000000000000e+00,5.000000000000000000e+00,5.000000000000000000e+00,5.000000000000000000e+00,5.000000000000000000e+00,5.000000000000000000e+00,5.000000000000000000e+00,5.000000000000000000e+00,5.000000000000000000e+00,5.000000000000000000e+00,5.000000000000000000e+00,5.000000000000000000e+00,1.801176428794860840e+00,1.770172357559204102e+00,1.796417593955993652e+00,5.000000000000000000e+00,1.749547004699707031e+00,1.705437660217285156e+00,1.678267717361450195e+00,1.680540084838867188e+00,1.684538722038269043e+00,1.728688716888427734e+00,1.914847850799560547e+00,1.962206959724426270e+00,5.000000000000000000e+00,5.000000000000000000e+00,5.000000000000000000e+00,5.000000000000000000e+00,5.000000000000000000e+00,5.000000000000000000e+00,5.000000000000000000e+00,1.958030104637145996e+00,5.000000000000000000e+00,5.000000000000000000e+00,5.000000000000000000e+00,4.855446815490722656e+00,4.665044307708740234e+00,4.489011287689208984e+00,4.325779914855957031e+00,4.174003601074218750e+00,4.032516479492187500e+00,3.900307178497314453e+00,3.776491403579711914e+00,3.660295248031616211e+00,3.551035642623901367e+00,3.448110103607177734e+00,3.350982666015625000e+00,3.259177684783935547e+00,3.172268152236938477e+00,3.089873790740966797e+00,3.011650800704956055e+00,2.937291145324707031e+00,2.866514444351196289e+00,2.799068689346313477e+00,2.734723567962646484e+00,2.673270702362060547e+00,2.614518642425537109e+00,2.558293581008911133e+00,2.504435777664184570e+00,2.452799081802368164e+00,2.403248310089111328e+00,2.355660438537597656e+00,2.309920072555541992e+00,2.265922307968139648e+00,2.223569393157958984e+00,2.182770729064941406e+00,2.143442153930664062e+00,2.105505943298339844e+00,2.068888902664184570e+00,2.033524036407470703e+00,1.999347567558288574e+00,1.966301083564758301e+00,1.934329152107238770e+00,1.903380513191223145e+00,1.873406410217285156e+00,1.844361662864685059e+00
5.000000000000000000e+00,5.000000000000000000e+00,5.000000000000000000e+00,5.000000000000000000e+00,5.000000000000000000e+00,5.000000000000000000e+00,5.000000000000000000e+00,5.000000000000000000e+00,5.000000000000000000e+00,5.000000000000000000e+00,5.000000000000000000e+00,5.000000000000000000e+00,5.000000000000000000e+00,5.000000000000000000e+00,5.000000000000000000e+00,5.000000000000000000e+00,1.796931505203247070e+00,1.764151096343994141e+00,5.000000000000000000e+00,5.000000000000000000e+00,1.762585878372192383e+00,1.711006641387939453e+00,1.678924441337585449e+00,1.668158531188964844e+00,1.671258330345153809e+00,1.707565307617187500e+00,1.924062013626098633e+00,1.980664134025573730e+00,5.000000000000000000e+00,5.000000000000000000e+00,5.000000000000000000e+00,5.000000000000000000e+00,5.000000000000000000e+00,5.000000000000000000e+00,5.000000000000000000e+00,5.000000000000000000e+00,5.000000000000000000e+00,5.000000000000000000e+00,5.000000000000000000e+00,4.855585098266601562e+00,4.665171623229980469e+00,4.489129543304443359e+00,4.325889587402343750e+00,4.174105644226074219e+00,4.032611370086669922e+00,3.900396108627319336e+00,3.776575088500976562e+00,3.660373449325561523e+00,3.551109790802001953e+00,3.448179483413696289e+00,3.351048469543457031e+00,3.259239673614501953e+00,3.172327280044555664e+00,3.089929580688476562e+00,3.011704206466674805e+00,2.937341451644897461e+00,2.866562604904174805e+00,2.799114465713500977e+00,2.734767436981201172e+00,2.673312425613403320e+00,2.614558696746826172e+00,2.558331727981567383e+00,2.504472494125366211e+00,2.452834129333496094e+00,2.403282165527343750e+00,2.355692625045776367e+00,2.309951305389404297e+00,2.265952348709106445e+00,2.223598480224609375e+00,2.182798624038696289e+00,2.143469095230102539e+00,2.105531692504882812e+00,2.068913936614990234e+00,2.033548116683959961e+00,1.999370932579040527e+00,1.966323733329772949e+00,1.934351205825805664e+00,1.903401613235473633e+00,1.873426914215087891e+00,1.844381570816040039e+00
5.000000000000000000e+00,5.000000000000000000e+00,5.000000000000000000e+00,5.000000000000000000e+00,5.000000000000000000e+00,5.000000000000000000e+00,5.000000000000000000e+00,5.000000000000000000e+00,5.000000000000000000e+00,5.000000000000000000e+00,5.000000000000000000e+00,5.000000000000000000e+00,5.000000000000000000e+00,5.000000000000000000e+00,5.000000000000000000e+00,5.000000000000000000e+00,1.794582009315490723e+00,1.762428760528564453e+00,5.000000000000000000e+00,5.000000000000000000e+00,5.000000000000000000e+00,1.724320888519287109e+00,1.685174107551574707e+00,1.662051916122436523e+00,1.658185720443725586e+00,1.684934496879577637e+00,1.939133763313293457e+00,2.003930330276489258e+00,5.000000000000000000e+00,5.000000000000000000e+00,5.000000000000000000e+00,5.000000000000000000e+00,5.000000000000000000e+00,5.000000000000000000e+00,5.000000000000000000e+00,5.000000000000000000e+00,5.000000000000000000e+00,5.000000000000000000e+00,5.000000000000000000e+00,4.855723381042480469e+00,4.665299415588378906e+00,4.489247798919677734e+00,4.325999736785888672e+00,4.174207687377929688e+00,4.032707214355468750e+00,3.900485277175903320e+00,3.776658773422241211e+00,3.660452127456665039e+00,3.551183700561523438e+00,3.448249340057373047e+00,3.351114511489868164e+00,3.259301900863647461e+00,3.172386407852172852e+00,3.089985609054565430e+00,3.011757373809814453e+00,2.937392234802246094e+00,2.866611003875732422e+00,2.799160480499267578e+00,2.734811305999755859e+00,2.673354387283325195e+00,2.614598751068115234e+00,2.558370113372802734e+00,2.504509449005126953e+00,2.452869415283203125e+00,2.403316020965576172e+00,2.355725288391113281e+00,2.309982776641845703e+00,2.265982627868652344e+00,2.223627567291259766e+00,2.182826757431030273e+00,2.143496274948120117e+00,2.105557918548583984e+00,2.068939208984375000e+00,2.033572435379028320e+00,1.999394536018371582e+00,1.966346502304077148e+00,1.934373021125793457e+00,1.903422832489013672e+00,1.873447537422180176e+00,1.844401597976684570e+00
5.000000000000000000e+00,5.000000000000000000e+00,5.000000000000000000e+00,5.000000000000000000e+00,5.000000000000000000e+00,5.000000000000000000e+00,5.000000000000000000e+00,5.000000000000000000e+00,5.000000000000000000e+00,5.000000000000000000e+00,5.000000000000000000e+00,5.000000000000000000e+00,5.000000000000000000e+00,5.000000000000000000e+00,5.000000000000000000e+00,5.000000000000000000e+00,1.787908792495727539e+00,5.000000000000000000e+00,5.000000000000000000e+00,5.000000000000000000e+00,5.000000000000000000e+00,1.734254360198974609e+00,1.690611362457275391e+00,1.655989885330200195e+00,1.651476860046386719e+00,1.664176583290100098e+00,1.702462315559387207e+00,5.000000000000000000e+00,5.000000000000000000e+00,5.000000000000000000e+00,5.000000000000000000e+00,5.000000000000000000e+00,5.000000000000000000e+00,5.000000000000000000e+00,5.000000000000000000e+00,5.000000000000000000e+00,5.000000000000000000e+00,5.000000000000000000e+00,5.000000000000000000e+00,4.855861663818359375e+00,4.665427207946777344e+00,4.489366054534912109e+00,4.326109409332275391e+00,4.174310207366943359e+00,4.032802581787109375e+00,3.900574684143066406e+00,3.776742696762084961e+00,3.660530805587768555e+00,3.551257848739624023e+00,3.448319196701049805e+00,3.351180553436279297e+00,3.259364366531372070e+00,3.172445535659790039e+00,3.090041637420654297e+00,3.011810779571533203e+00,2.937442779541015625e+00,2.866659164428710938e+00,2.799206495285034180e+00,2.734855175018310547e+00,2.673396348953247070e+00,2.614639043807983398e+00,2.558408737182617188e+00,2.504546165466308594e+00,2.452904701232910156e+00,2.403350114822387695e+00,2.355757951736450195e+00,2.310014009475708008e+00,2.266012668609619141e+00,2.223656415939331055e+00,2.182854652404785156e+00,2.143523216247558594e+00,2.105583906173706055e+00,2.068964242935180664e+00,2.033596754074096680e+00,1.999417901039123535e+00,1.966369032859802246e+00,1.934395194053649902e+00,1.903444170951843262e+00,1.873468041419982910e+00,1.844421505928039551e+00
5.000000000000000000e+00,5.000000000000000000e+00,5.000000000000000000e+00,5.000000000000000000e+00,5.000000000000000000e+00,5.000000000000000000e+00,5.000000000000000000e+00,5.000000000000000000e+00,5.000000000000000000e+00,5.000000000000000000e+00,5.000000000000000000e+00,5.000000000000000000e+00,5.000000000000000000e+00,5.000000000000000000e+00,5.000000000000000000e+00,5.000000000000000000e+00,5.000000000000000000e+00,5.000000000000000000e+00,5.000000000000000000e+00,5.000000000000000000e+00,5.000000000000000000e+00,5.000000000000000000e+00,1.699883818626403809e+00,1.663099169731140137e+00,1.647578358650207520e+00,1.653782486915588379e+00,1.685008287429809570e+00,5.000000000000000000e+00,5.000000000000000000e+00,5.000000000000000000e+00,5.000000000000000000e+00,5.000000000000000000e+00,5.000000000000000000e+00,5.000000000000000000e+00,5.000000000000000000e+00,5.000000000000000000e+00,5.000000000000000000e+00,5.000000000000000000e+00,5.000000000000000000e+00,4.855999946594238281e+00,4.665554523468017578e+00,4.489483833312988281e+00,4.326219081878662109e+00,4.174412250518798828e+00,4.032897949218750000e+00,3.900664091110229492e+00,3.776825904846191406e+00,3.660609483718872070e+00,3.551331520080566406e+00,3.448389053344726562e+00,3.351246118545532227e+00,3.259426832199096680e+00,3.172504186630249023e+00,3.090097665786743164e+00,3.011863708496093750e+00,2.937493562698364258e+00,2.866707086563110352e+00,2.799252510070800781e+00,2.734899044036865234e+00,2.673438310623168945e+00,2.614678859710693359e+00,2.558447122573852539e+00,2.504582881927490234e+00,2.452939987182617188e+00,2.403383731842041016e+00,2.355790376663208008e+00,2.310045242309570312e+00,2.266042709350585938e+00,2.223685503005981445e+00,2.182882547378540039e+00,2.143549919128417969e+00,2.105609893798828125e+00,2.068989276885986328e+00,2.033621072769165039e+00,1.999441266059875488e+00,1.966391921043395996e+00,1.934417009353637695e+00,1.903465390205383301e+00,1.873488545417785645e+00,1.844441533088684082e+00
5.000000000000000000e+00,5.000000000000000000e+00,5.000000000000000000e+00,5.000000000000000000e+00,5.000000000000000000e+00,5.000000000000000000e+00,5.000000000000000000e+00,5.000000000000000000e+00,5.000000000000000000e+00,5.000000000000000000e+00,5.000000000000000000e+00,5.000000000000000000e+00,5.000000000000000000e+00,5.000000000000000000e+00,5.000000000000000000e+00,5.000000000000000000e+00,5.000000000000000000e+00,5.000000000000000000e+00,5.000000000000000000e+00,5.000000000000000000e+00,5.000000000000000000e+00,5.000000000000000000e+00,1.707530975341796875e+00,1.663781046867370605e+00,1.649531126022338867e+00,1.655460119247436523e+00,1.687567114830017090e+00,5.000000000000000000e+00,5.000000000000000000e+00,5.000000000000000000e+00,5.000000000000000000e+00,5.000000000000000000e+00,5.000000000000000000e+00,5.000000000000000000e+00,5.000000000000000000e+00,5.000000000000000000e+00,5.000000000000000000e+00,5.000000000000000000e+00,5.000000000000000000e+00,4.856138229370117188e+00,4.665682792663574219e+00,4.489602565765380859e+00,4.326328754425048828e+00,4.174514293670654297e+00,4.032993316650390625e+00,3.900753259658813477e+00,3.776909589767456055e+00,3.660688161849975586e+00,3.551405429840087891e+00,3.448458909988403320e+00,3.351311922073364258e+00,3.259489059448242188e+00,3.172563314437866211e+00,3.090153694152832031e+00,3.011916875839233398e+00,2.937544107437133789e+00,2.866755485534667969e+00,2.799298524856567383e+00,2.734942913055419922e+00,2.673480272293090820e+00,2.614718914031982422e+00,2.558485507965087891e+00,2.504619598388671875e+00,2.452975511550903320e+00,2.403417587280273438e+00,2.355823040008544922e+00,2.310076475143432617e+00,2.266072988510131836e+00,2.223714351654052734e+00,2.182910680770874023e+00,2.143576860427856445e+00,2.105635881423950195e+00,2.069014310836791992e+00,2.033645153045654297e+00,1.999464869499206543e+00,1.966414451599121094e+00,1.934438824653625488e+00,1.903486728668212891e+00,1.873509287834167480e+00,1.844461441040039062e+00
5.000000000000000000e+00,5.000000000000000000e+00,5.000000000000000000e+00,5.000000000000000000e+00,5.000000000000000000e+00,5.000000000000000000e+00,5.000000000000000000e+00,5.000000000000000000e+00,5.000000000000000000e+00,5.000000000000000000e+00,5.000000000000000000e+00,5.000000000000000000e+00,5.000000000000000000e+00,5.000000000000000000e+00,5.000000000000000000e+00,5.000000000000000000e+00,5.000000000000000000e+00,5.000000000000000000e+00,5.000000000000000000e+00,5.000000000000000000e+00,5.000000000000000000e+00,5.000000000000000000e+00,1.709045052528381348e+00,1.662509679794311523e+00,1.655649781227111816e+00,1.658823370933532715e+00,1.694724082946777344e+00,5.000000000000000000e+00,5.000000000000000000e+00,5.000000000000000000e+00,5.000000000000000000e+00,5.000000000000000000e+00,5.000000000000000000e+00,5.000000000000000000e+00,5.000000000000000000e+00,5.000000000000000000e+00,5.000000000000000000e+00,5.000000000000000000e+00,5.000000000000000000e+00,4.856276512145996094e+00,4.665810108184814453e+00,4.489720344543457031e+00,4.326438426971435547e+00,4.174616336822509766e+00,4.033088684082031250e+00,3.900842189788818359e+00,3.776993513107299805e+00,3.660766601562500000e+00,3.551479578018188477e+00,3.448528289794921875e+00,3.351377964019775391e+00,3.259551048278808594e+00,3.172622442245483398e+00,3.090209484100341797e+00,3.011970281600952148e+00,2.937594652175903320e+00,2.866803646087646484e+00,2.799344301223754883e+00,2.734986782073974609e+00,2.673521995544433594e+00,2.614759206771850586e+00,2.558523654937744141e+00,2.504656553268432617e+00,2.453010559082031250e+00,2.403451681137084961e+00,2.355855464935302734e+00,2.310107946395874023e+00,2.266103029251098633e+00,2.223743438720703125e+00,2.182938337326049805e+00,2.143604040145874023e+00,2.105661869049072266e+00,2.069039583206176758e+00,2.033669471740722656e+00,1.999488234519958496e+00,1.966437101364135742e+00,1.934460997581481934e+00,1.903507947921752930e+00,1.873529791831970215e+00,1.844481348991394043e+00
5.000000000000000000e+00,5.000000000000000000e+00,5.000000000000000000e+00,5.000000000000000000e+00,5.000000000000000000e+00,5.000000000000000000e+00,5.000000000000000000e+00,5.000000000000000000e+00,5.000000000000000000e+00,5.000000000000000000e+00,5.000000000000000000e+00,5.000000000000000000e+00,5.000000000000000000e+00,5.000000000000000000e+00,5.000000000000000000e+00,5.000000000000000000e+00,5.000000000000000000e+00,5.000000000000000000e+00,5.000000000000000000e+00,5.000000000000000000e+00,5.000000000000000000e+00,5.000000000000000000e+00,1.700306177139282227e+00,1.661724567413330078e+00,1.659017205238342285e+00,1.662200331687927246e+00,1.706405043601989746e+00,5.000000000000000000e+00,5.000000000000000000e+00,5.000000000000000000e+00,5.000000000000000000e+00,5.000000000000000000e+00,5.000000000000000000e+00,5.000000000000000000e+00,5.000000000000000000e+00,5.000000000000000000e+00,5.000000000000000000e+00,5.000000000000000000e+00,5.000000000000000000e+00,4.856414794921875000e+00,4.665937900543212891e+00,4.489838600158691406e+00,4.326548576354980469e+00,4.174718856811523438e+00,4.033184051513671875e+00,3.900931596755981445e+00,3.777077198028564453e+00,3.660845279693603516e+00,3.551553726196289062e+00,3.448598146438598633e+00,3.351443767547607422e+00,3.259613513946533203e+00,3.172681570053100586e+00,3.090265512466430664e+00,3.012023448944091797e+00,2.937645196914672852e+00,2.866852045059204102e+00,2.799390316009521484e+00,2.735030651092529297e+00,2.673563957214355469e+00,2.614799261093139648e+00,2.558562278747558594e+00,2.504693269729614258e+00,2.453045845031738281e+00,2.403485536575317383e+00,2.355888128280639648e+00,2.310139179229736328e+00,2.266133069992065430e+00,2.223772525787353516e+00,2.182966470718383789e+00,2.143630981445312500e+00,2.105687856674194336e+00,2.069064617156982422e+00,2.033693790435791016e+00,1.999511837959289551e+00,1.966459870338439941e+00,1.934482812881469727e+00,1.903529047966003418e+00,1.873550534248352051e+00,1.844501376152038574e+00
5.000000000000000000e+00,5.000000000000000000e+00,5.000000000000000000e+00,5.000000000000000000e+00,5.000000000000000000e+00,5.000000000000000000e+00,5.000000000000000000e+00,5.000000000000000000e+00,5.000000000000000000e+00,5.000000000000000000e+00,5.000000000000000000e+00,5.000000000000000000e+00,5.000000000000000000e+00,5.000000000000000000e+00,5.000000000000000000e+00,5.000000000000000000e+00,5.000000000000000000e+00,5.000000000000000000e+00,5.000000000000000000e+00,5.000000000000000000e+00,5.000000000000000000e+00,5.000000000000000000e+00,1.690294861793518066e+00,1.662616372108459473e+00,1.660296201705932617e+00,1.665591001510620117e+00,5.000000000000000000e+00,5.000000000000000000e+00,5.000000000000000000e+00,5.000000000000000000e+00,5.000000000000000000e+00,5.000000000000000000e+00,5.000000000000000000e+00,5.000000000000000000e+00,5.000000000000000000e+00,5.000000000000000000e+00,5.000000000000000000e+00,5.000000000000000000e+00,5.000000000000000000e+00,4.856553554534912109e+00,4.666065692901611328e+00,4.489956855773925781e+00,4.326658248901367188e+00,4.174821376800537109e+00,4.033279418945312500e+00,3.901021003723144531e+00,3.777160882949829102e+00,3.660923957824707031e+00,3.551627635955810547e+00,3.448668003082275391e+00,3.351509809494018555e+00,3.259675979614257812e+00,3.172740697860717773e+00,3.090321779251098633e+00,3.012076616287231445e+00,2.937695980072021484e+00,2.866900205612182617e+00,2.799436330795288086e+00,2.735074520111083984e+00,2.673605918884277344e+00,2.614839315414428711e+00,2.558600664138793945e+00,2.504730224609375000e+00,2.453081130981445312e+00,2.403519392013549805e+00,2.355920553207397461e+00,2.310170412063598633e+00,2.266163349151611328e+00,2.223801612854003906e+00,2.182994365692138672e+00,2.143657922744750977e+00,2.105713844299316406e+00,2.069089651107788086e+00,2.033717870712280273e+00,1.999535202980041504e+00,1.966482520103454590e+00,1.934504866600036621e+00,1.903550505638122559e+00,1.873571038246154785e+00,1.844521284103393555e+00
5.000000000000000000e+00,5.000000000000000000e+00,5.000000000000000000e+00,5.000000000000000000e+00,5.000000000000000000e+00,5.000000000000000000e+00,5.000000000000000000e+00,5.000000000000000000e+00,5.000000000000000000e+00,5.000000000000000000e+00,5.000000000000000000e+00,5.000000000000000000e+00,5.000000000000000000e+00,5.000000000000000000e+00,5.000000000000000000e+00,5.000000000000000000e+00,5.000000000000000000e+00,5.000000000000000000e+00,5.000000000000000000e+00,5.000000000000000000e+00,5.000000000000000000e+00,2.029798269271850586e+00,1.680400848388671875e+00,1.663483858108520508e+00,1.659548044204711914e+00,1.663674712181091309e+00,5.000000000000000000e+00,5.000000000000000000e+00,5.000000000000000000e+00,5.000000000000000000e+00,5.000000000000000000e+00,5.000000000000000000e+00,5.000000000000000000e+00,5.000000000000000000e+00,5.000000000000000000e+00,5.000000000000000000e+00,5.000000000000000000e+00,5.000000000000000000e+00,5.000000000000000000e+00,4.856691360473632812e+00,4.666193008422851562e+00,4.490075111389160156e+00,4.326767921447753906e+00,4.174923419952392578e+00,4.033374786376953125e+00,3.901110172271728516e+00,3.777244329452514648e+00,3.661002635955810547e+00,3.551701307296752930e+00,3.448737859725952148e+00,3.351575374603271484e+00,3.259738206863403320e+00,3.172799348831176758e+00,3.090377807617187500e+00,3.012129783630371094e+00,2.937746524810791016e+00,2.866948127746582031e+00,2.799482345581054688e+00,2.735118389129638672e+00,2.673647880554199219e+00,2.614879369735717773e+00,2.558639049530029297e+00,2.504766702651977539e+00,2.453116655349731445e+00,2.403553247451782227e+00,2.355953216552734375e+00,2.310201644897460938e+00,2.266193389892578125e+00,2.223830461502075195e+00,2.183022260665893555e+00,2.143684625625610352e+00,2.105739831924438477e+00,2.069114685058593750e+00,2.033742189407348633e+00,1.999558448791503906e+00,1.966505289077758789e+00,1.934526801109313965e+00,1.903571605682373047e+00,1.873591542243957520e+00,1.844541311264038086e+00
5.000000000000000000e+00,5.000000000000000000e+00,5.000000000000000000e+00,5.000000000000000000e+00,5.000000000000000000e+00,5.000000000000000000e+00,5.000000000000000000e+00,5.000000000000000000e+00,5.000000000000000000e+00,5.000000000000000000e+00,5.000000000000000000e+00,5.000000000000000000e+00,5.000000000000000000e+00,5.000000000000000000e+00,5.000000000000000000e+00,5.000000000000000000e+00,5.000000000000000000e+00,5.000000000000000000e+00,5.000000000000000000e+00,5.000000000000000000e+00,5.000000000000000000e+00,2.039911985397338867e+00,1.697654366493225098e+00,1.663523793220520020e+00,1.654112100601196289e+00,1.656825423240661621e+00,1.705727219581604004e+00,5.000000000000000000e+00,5.000000000000000000e+00,5.000000000000000000e+00,5.000000000000000000e+00,5.000000000000000000e+00,5.000000000000000000e+00,5.000000000000000000e+00,5.000000000000000000e+00,5.000000000000000000e+00,5.000000000000000000e+00,5.000000000000000000e+00,5.000000000000000000e+00,4.856829166412353516e+00,4.666320800781250000e+00,4.490193367004394531e+00,4.326878070831298828e+00,4.175025463104248047e+00,4.033470153808593750e+00,3.901199579238891602e+00,3.777328014373779297e+00,3.661081314086914062e+00,3.551775455474853516e+00,3.448807477951049805e+00,3.351641416549682617e+00,3.259800672531127930e+00,3.172858476638793945e+00,3.090433835983276367e+00,3.012182950973510742e+00,2.937797307968139648e+00,2.866996526718139648e+00,2.799528360366821289e+00,2.735162258148193359e+00,2.673689842224121094e+00,2.614919424057006836e+00,2.558677434921264648e+00,2.504803657531738281e+00,2.453151941299438477e+00,2.403587102890014648e+00,2.355985879898071289e+00,2.310233116149902344e+00,2.266223669052124023e+00,2.223859548568725586e+00,2.183050394058227539e+00,2.143711805343627930e+00,2.105766057968139648e+00,2.069139957427978516e+00,2.033766508102416992e+00,1.999582052230834961e+00,1.966527938842773438e+00,1.934548616409301758e+00,1.903593063354492188e+00,1.873612284660339355e+00,1.844561219215393066e+00
5.000000000000000000e+00,5.000000000000000000e+00,5.000000000000000000e+00,5.000000000000000000e+00,5.000000000000000000e+00,5.000000000000000000e+00,5.000000000000000000e+00,5.000000000000000000e+00,5.000000000000000000e+00,5.000000000000000000e+00,5.000000000000000000e+00,5.000000000000000000e+00,5.000000000000000000e+00,5.000000000000000000e+00,5.000000000000000000e+00,5.000000000000000000e+00,5.000000000000000000e+00,5.000000000000000000e+00,5.000000000000000000e+00,5.000000000000000000e+00,5.000000000000000000e+00,2.042992830276489258e+00,2.040632963180541992e+00,1.663563489913940430e+00,1.650929927825927734e+00,1.651407241821289062e+00,1.692135572433471680e+00,5.000000000000000000e+00,5.000000000000000000e+00,5.000000000000000000e+00,5.000000000000000000e+00,5.000000000000000000e+00,5.000000000000000000e+00,5.000000000000000000e+00,5.000000000000000000e+00,5.000000000000000000e+00,5.000000000000000000e+00,5.000000000000000000e+00,5.000000000000000000e+00,4.856966972351074219e+00,4.666449069976806641e+00,4.490312099456787109e+00,4.326987743377685547e+00,4.175127983093261719e+00,4.033565998077392578e+00,3.901288986206054688e+00,3.777411699295043945e+00,3.661159992218017578e+00,3.551849603652954102e+00,3.448877334594726562e+00,3.351707458496093750e+00,3.259863138198852539e+00,3.172917604446411133e+00,3.090489864349365234e+00,3.012236118316650391e+00,2.937847852706909180e+00,2.867044687271118164e+00,2.799574375152587891e+00,2.735206127166748047e+00,2.673731803894042969e+00,2.614959716796875000e+00,2.558715820312500000e+00,2.504840373992919922e+00,2.453187227249145508e+00,2.403620958328247070e+00,2.356018304824829102e+00,2.310264348983764648e+00,2.266253709793090820e+00,2.223888397216796875e+00,2.183078289031982422e+00,2.143738746643066406e+00,2.105792045593261719e+00,2.069164991378784180e+00,2.033790826797485352e+00,1.999605417251586914e+00,1.966550707817077637e+00,1.934570670127868652e+00,1.903614163398742676e+00,1.873632788658142090e+00,1.844581246376037598e+00
5.000000000000000000e+00,5.000000000000000000e+00,5.000000000000000000e+00,5.000000000000000000e+00,5.000000000000000000e+00,5.000000000000000000e+00,5.000000000000000000e+00,5.000000000000000000e+00,5.000000000000000000e+00,5.000000000000000000e+00,5.000000000000000000e+00,5.000000000000000000e+00,5.000000000000000000e+00,5.000000000000000000e+00,5.000000000000000000e+00,5.000000000000000000e+00,5.000000000000000000e+00,5.000000000000000000e+00,5.000000000000000000e+00,5.000000000000000000e+00,2.084649324417114258e+00,2.047785520553588867e+00,2.054287910461425781e+00,1.663603425025939941e+00,1.650130152702331543e+00,1.646038651466369629e+00,1.678758859634399414e+00,5.000000000000000000e+00,5.000000000000000000e+00,5.000000000000000000e+00,5.000000000000000000e+00,5.000000000000000000e+00,5.000000000000000000e+00,5.000000000000000000e+00,5.000000000000000000e+00,5.000000000000000000e+00,5.000000000000000000e+00,5.000000000000000000e+00,5.000000000000000000e+00,4.857105255126953125e+00,4.666575431823730469e+00,4.490429878234863281e+00,4.327097415924072266e+00,4.175230026245117188e+00,4.033660888671875000e+00,3.901377916336059570e+00,3.777495622634887695e+00,3.661238193511962891e+00,3.551923513412475586e+00,3.448946952819824219e+00,3.351773262023925781e+00,3.259925127029418945e+00,3.172976732254028320e+00,3.090545654296875000e+00,3.012289524078369141e+00,2.937898397445678711e+00,2.867093086242675781e+00,2.799620151519775391e+00,2.735249996185302734e+00,2.673773527145385742e+00,2.614999771118164062e+00,2.558754205703735352e+00,2.504877328872680664e+00,2.453222274780273438e+00,2.403655052185058594e+00,2.356050729751586914e+00,2.310295581817626953e+00,2.266283750534057617e+00,2.223917484283447266e+00,2.183106184005737305e+00,2.143765687942504883e+00,2.105817794799804688e+00,2.069190263748168945e+00,2.033814907073974609e+00,1.999629020690917969e+00,1.966573357582092285e+00,1.934592604637145996e+00,1.903635382652282715e+00,1.873653411865234375e+00,1.844601154327392578e+00
5.000000000000000000e+00,5.000000000000000000e+00,5.000000000000000000e+00,5.000000000000000000e+00,5.000000000000000000e+00,5.000000000000000000e+00,5.000000000000000000e+00,5.000000000000000000e+00,5.000000000000000000e+00,5.000000000000000000e+00,5.000000000000000000e+00,5.000000000000000000e+00,5.000000000000000000e+00,5.000000000000000000e+00,5.000000000000000000e+00,5.000000000000000000e+00,5.000000000000000000e+00,5.000000000000000000e+00,5.000000000000000000e+00,5.000000000000000000e+00,2.077317953109741211e+00,2.060074806213378906e+00,2.067824840545654297e+00,1.663643121719360352e+00,1.650227427482604980e+00,1.643102288246154785e+00,1.665763258934020996e+00,5.000000000000000000e+00,5.000000000000000000e+00,5.000000000000000000e+00,5.000000000000000000e+00,5.000000000000000000e+00,5.000000000000000000e+00,5.000000000000000000e+00,5.000000000000000000e+00,5.000000000000000000e+00,5.000000000000000000e+00,5.000000000000000000e+00,5.000000000000000000e+00,4.857243537902832031e+00,4.666702747344970703e+00,4.490547657012939453e+00,4.327207565307617188e+00,4.175332546234130859e+00,4.033756732940673828e+00,3.901467323303222656e+00,3.777579307556152344e+00,3.661316871643066406e+00,3.551997661590576172e+00,3.449016809463500977e+00,3.351839303970336914e+00,3.259987592697143555e+00,3.173035860061645508e+00,3.090601682662963867e+00,3.012342691421508789e+00,2.937948942184448242e+00,2.867141246795654297e+00,2.799666166305541992e+00,2.735294103622436523e+00,2.673815488815307617e+00,2.615040063858032227e+00,2.558792591094970703e+00,2.504914045333862305e+00,2.453257799148559570e+00,2.403688907623291016e+00,2.356083393096923828e+00,2.310327053070068359e+00,2.266313791275024414e+00,2.223946571350097656e+00,2.183134078979492188e+00,2.143792629241943359e+00,2.105844020843505859e+00,2.069215297698974609e+00,2.033839225769042969e+00,1.999652385711669922e+00,1.966595888137817383e+00,1.934614658355712891e+00,1.903656721115112305e+00,1.873673915863037109e+00,1.844621062278747559e+00
5.000000000000000000e+00,5.000000000000000000e+00,5.000000000000000000e+00,5.000000000000000000e+00,5.000000000000000000e+00,5.000000000000000000e+00,5.000000000000000000e+00,5.000000000000000000e+00,5.000000000000000000e+00,5.000000000000000000e+00,5.000000000000000000e+00,5.000000000000000000e+00,5.000000000000000000e+00,5.000000000000000000e+00,5.000000000000000000e+00,5.000000000000000000e+00,5.000000000000000000e+00,5.000000000000000000e+00,5.000000000000000000e+00,5.000000000000000000e+00,2.085655450820922852e+00,2.074193716049194336e+00,2.081575870513916016e+00,1.663705348968505859e+00,1.650809645652770996e+00,1.644105792045593262e+00,1.654683709144592285e+00,5.000000000000000000e+00,5.000000000000000000e+00,5.000000000000000000e+00,5.000000000000000000e+00,5.000000000000000000e+00,5.000000000000000000e+00,5.000000000000000000e+00,5.000000000000000000e+00,5.000000000000000000e+00,5.000000000000000000e+00,5.000000000000000000e+00,5.000000000000000000e+00,4.857381343841552734e+00,4.666830539703369141e+00,4.490665435791015625e+00,4.327316761016845703e+00,4.175434589385986328e+00,4.033852100372314453e+00,3.901556491851806641e+00,3.777663230895996094e+00,3.661395549774169922e+00,3.552071809768676758e+00,3.449086666107177734e+00,3.351905107498168945e+00,3.260049819946289062e+00,3.173094987869262695e+00,3.090657949447631836e+00,3.012396097183227539e+00,2.937999725341796875e+00,2.867189407348632812e+00,2.799712181091308594e+00,2.735337972640991211e+00,2.673857450485229492e+00,2.615080118179321289e+00,2.558830976486206055e+00,2.504951000213623047e+00,2.453293085098266602e+00,2.403722763061523438e+00,2.356116056442260742e+00,2.310358285903930664e+00,2.266344070434570312e+00,2.223975658416748047e+00,2.183162212371826172e+00,2.143819570541381836e+00,2.105870008468627930e+00,2.069240570068359375e+00,2.033863544464111328e+00,1.999675989151000977e+00,1.966618776321411133e+00,1.934636473655700684e+00,1.903677940368652344e+00,1.873694658279418945e+00,1.844641089439392090e+00
5.000000000000000000e+00,5.000000000000000000e+00,5.000000000000000000e+00,5.000000000000000000e+00,5.000000000000000000e+00,5.000000000000000000e+00,5.000000000000000000e+00,5.000000000000000000e+00,5.000000000000000000e+00,5.000000000000000000e+00,5.000000000000000000e+00,5.000000000000000000e+00,5.000000000000000000e+00,5.000000000000000000e+00,5.000000000000000000e+00,5.000000000000000000e+00,5.000000000000000000e+00,5.000000000000000000e+00,5.000000000000000000e+00,5.000000000000000000e+00,2.093848228454589844e+00,2.089015245437622070e+00,5.000000000000000000e+00,1.687472820281982422e+00,1.651847481727600098e+00,1.640417695045471191e+00,1.644477844238281250e+00,5.000000000000000000e+00,5.000000000000000000e+00,5.000000000000000000e+00,5.000000000000000000e+00,5.000000000000000000e+00,5.000000000000000000e+00,5.000000000000000000e+00,5.000000000000000000e+00,5.000000000000000000e+00,5.000000000000000000e+00,5.000000000000000000e+00,5.000000000000000000e+00,4.857519626617431641e+00,4.666957855224609375e+00,4.490783691406250000e+00,4.327426433563232422e+00,4.175536632537841797e+00,4.033947467803955078e+00,3.901645898818969727e+00,3.777746438980102539e+00,3.661474227905273438e+00,3.552145481109619141e+00,3.449156522750854492e+00,3.351970911026000977e+00,3.260112285614013672e+00,3.173153877258300781e+00,3.090713977813720703e+00,3.012449026107788086e+00,2.938050270080566406e+00,2.867237567901611328e+00,2.799758195877075195e+00,2.735381603240966797e+00,2.673899412155151367e+00,2.615119934082031250e+00,2.558869361877441406e+00,2.504987716674804688e+00,2.453328371047973633e+00,2.403756618499755859e+00,2.356148719787597656e+00,2.310389518737792969e+00,2.266374111175537109e+00,2.224004507064819336e+00,2.183190107345581055e+00,2.143846511840820312e+00,2.105895996093750000e+00,2.069265365600585938e+00,2.033887863159179688e+00,1.999699354171752930e+00,1.966641306877136230e+00,1.934658408164978027e+00,1.903699278831481934e+00,1.873715162277221680e+00,1.844660997390747070e+00
4.875614643096923828e+00,4.874403953552246094e+00,4.873193740844726562e+00,4.871984481811523438e+00,4.870775222778320312e+00,4.869566917419433594e+00,4.868359565734863281e+00,4.867152214050292969e+00,4.865945816040039062e+00,4.864739418029785156e+00,4.863533973693847656e+00,4.862329959869384766e+00,4.861125469207763672e+00,4.859921932220458984e+00,4.858718872070312500e+00,4.857516765594482422e+00,4.856315135955810547e+00,4.855113983154296875e+00,4.853913307189941406e+00,4.852713584899902344e+00,2.101816177368164062e+00,2.104049921035766602e+00,4.849117279052734375e+00,4.847919940948486328e+00,1.652886629104614258e+00,1.640766620635986328e+00,1.645858764648437500e+00,4.843135356903076172e+00,4.841940402984619141e+00,4.840746402740478516e+00,4.839552879333496094e+00,4.838360309600830078e+00,4.837167739868164062e+00,4.835976123809814453e+00,4.834784984588623047e+00,4.833594799041748047e+00,4.832404613494873047e+00,4.831215381622314453e+00,4.830026149749755859e+00,4.828838348388671875e+00,4.667085170745849609e+00,4.490901947021484375e+00,4.327536106109619141e+00,4.175638198852539062e+00,4.034042835235595703e+00,3.901735305786132812e+00,3.777830362319946289e+00,3.661553144454956055e+00,3.552219390869140625e+00,3.449226379394531250e+00,3.352036714553833008e+00,3.260174751281738281e+00,3.173213005065917969e+00,3.090770006179809570e+00,3.012502431869506836e+00,2.938101053237915039e+00,2.867285728454589844e+00,2.799804210662841797e+00,2.735425472259521484e+00,2.673941373825073242e+00,2.615160226821899414e+00,2.558907985687255859e+00,2.505024433135986328e+00,2.453363656997680664e+00,2.403790473937988281e+00,2.356181144714355469e+00,2.310420989990234375e+00,2.266404390335083008e+00,2.224033594131469727e+00,2.183218002319335938e+00,2.143873453140258789e+00,2.105921983718872070e+00,2.069290637969970703e+00,2.033912181854248047e+00,1.999722719192504883e+00,1.966664075851440430e+00,1.934680461883544922e+00,1.903720498085021973e+00,1.873735666275024414e+00,1.844681024551391602e+00
3.778447151184082031e+00,3.777719736099243164e+00,3.776993036270141602e+00,3.776266574859619141e+00,3.775539875030517578e+00,3.774814128875732422e+00,3.774087905883789062e+00,3.773362636566162109e+00,3.772637605667114258e+00,3.771912336349487305e+00,3.771188020706176758e+00,3.770463228225708008e+00,3.769739389419555664e+00,3.769015789031982422e+00,3.768291950225830078e+00,3.767568826675415039e+00,3.766845941543579102e+00,3.766123056411743164e+00,3.765400886535644531e+00,2.154840707778930664e+00,2.129761695861816406e+00,3.763235092163085938e+00,3.762513637542724609e+00,3.761792659759521484e+00,1.653927206993103027e+00,1.641859173774719238e+00,1.642948031425476074e+00,3.758911132812500000e+00,3.758191585540771484e+00,3.757472515106201172e+00,3.756752967834472656e+00,3.756034374237060547e+00,3.755316019058227539e+00,3.754597425460815430e+00,3.753879547119140625e+00,3.753161668777465820e+00,3.752444267272949219e+00,3.751727342605590820e+00,3.751009941101074219e+00,3.750293493270874023e+00,3.749577283859252930e+00,3.748861074447631836e+00,3.748145341873168945e+00,3.747429609298706055e+00,3.746714353561401367e+00,3.745999574661254883e+00,3.745284557342529297e+00,3.661631345748901367e+00,3.552293539047241211e+00,3.449295759201049805e+00,3.352102756500244141e+00,3.260236740112304688e+00,3.173272132873535156e+00,3.090825796127319336e+00,3.012555599212646484e+00,2.938151359558105469e+00,2.867334127426147461e+00,2.799849987030029297e+00,2.735469579696655273e+00,2.673983097076416016e+00,2.615200281143188477e+00,2.558946132659912109e+00,2.505061388015747070e+00,2.453398942947387695e+00,2.403824329376220703e+00,2.356213569641113281e+00,2.310452222824096680e+00,2.266434431076049805e+00,2.224062681198120117e+00,2.183245897293090820e+00,2.143900394439697266e+00,2.105947971343994141e+00,2.069315671920776367e+00,2.033936262130737305e+00,1.999746322631835938e+00,1.966686725616455078e+00,1.934702277183532715e+00,1.903741598129272461e+00,1.873756408691406250e+00,1.844700932502746582e+00
3.084366798400878906e+00,3.083882331848144531e+00,3.083397865295410156e+00,3.082913637161254883e+00,3.082429647445678711e+00,3.081945657730102539e+00,3.081461906433105469e+00,3.080977916717529297e+00,3.080494642257690430e+00,3.080011367797851562e+00,3.079528093338012695e+00,3.079045057296752930e+00,3.078562021255493164e+00,3.078079462051391602e+00,3.077596902847290039e+00,3.077114343643188477e+00,3.076632022857666016e+00,3.076149940490722656e+00,3.075667858123779297e+00,2.134844303131103516e+00,2.114276170730590820e+00,3.074222803115844727e+00,3.073741674423217773e+00,3.073260068893432617e+00,1.654969096183776855e+00,1.642952919006347656e+00,1.651967763900756836e+00,3.071336746215820312e+00,3.070856094360351562e+00,3.070375919342041016e+00,3.069895982742309570e+00,3.069415569305419922e+00,3.068935871124267578e+00,3.068456172943115234e+00,3.067976474761962891e+00,3.067497253417968750e+00,3.067017793655395508e+00,3.066538810729980469e+00,3.066059827804565430e+00,3.065580844879150391e+00,3.065102338790893555e+00,3.064624071121215820e+00,3.064145326614379883e+00,3.063667297363281250e+00,3.063189029693603516e+00,3.062711238861083984e+00,3.062233448028564453e+00,3.061755657196044922e+00,3.061278343200683594e+00,3.060800790786743164e+00,3.060323715209960938e+00,3.059846878051757812e+00,3.059369802474975586e+00,3.058892965316772461e+00,3.012609004974365234e+00,2.938202142715454102e+00,2.867382287979125977e+00,2.799896001815795898e+00,2.735513448715209961e+00,2.674025058746337891e+00,2.615240573883056641e+00,2.558984518051147461e+00,2.505098104476928711e+00,2.453434228897094727e+00,2.403858423233032227e+00,2.356246232986450195e+00,2.310483455657958984e+00,2.266464471817016602e+00,2.224091529846191406e+00,2.183273792266845703e+00,2.143927335739135742e+00,2.105973958969116211e+00,2.069340944290161133e+00,2.033960580825805664e+00,1.999769687652587891e+00,1.966709375381469727e+00,1.934724450111389160e+00,1.903763055801391602e+00,1.873776912689208984e+00,1.844720840454101562e+00
2.605711698532104492e+00,2.605365991592407227e+00,2.605020284652709961e+00,2.604674339294433594e+00,2.604328870773315430e+00,2.603983640670776367e+00,2.603637933731079102e+00,2.603292703628540039e+00,2.602947473526000977e+00,2.602602481842041016e+00,2.602257490158081055e+00,2.601912498474121094e+00,2.601567745208740234e+00,2.601222753524780273e+00,2.600878238677978516e+00,2.600533723831176758e+00,2.600189208984375000e+00,2.599844932556152344e+00,2.599500656127929688e+00,2.162862300872802734e+00,2.075784206390380859e+00,2.117431402206420898e+00,2.598124265670776367e+00,2.597780466079711914e+00,2.597436666488647461e+00,1.650472283363342285e+00,1.644205808639526367e+00,2.596405982971191406e+00,2.596062660217285156e+00,2.595719337463378906e+00,2.595376014709472656e+00,2.595033168792724609e+00,2.594689846038818359e+00,2.594347000122070312e+00,2.594004392623901367e+00,2.593661546707153320e+00,2.593318939208984375e+00,2.592976093292236328e+00,2.592633724212646484e+00,2.592291593551635742e+00,2.591948986053466797e+00,2.591606855392456055e+00,2.591264963150024414e+00,2.590922832489013672e+00,2.590580940246582031e+00,2.590238809585571289e+00,2.589897155761718750e+00,2.589555740356445312e+00,2.589213848114013672e+00,2.588872671127319336e+00,2.588531017303466797e+00,2.588189840316772461e+00,2.587848663330078125e+00,2.587507486343383789e+00,2.587166547775268555e+00,2.586825609207153320e+00,2.586484670639038086e+00,2.586143970489501953e+00,2.585803270339965820e+00,2.585462808609008789e+00,2.585122346878051758e+00,2.559023141860961914e+00,2.505135059356689453e+00,2.453469514846801758e+00,2.403892278671264648e+00,2.356278896331787109e+00,2.310514926910400391e+00,2.266494750976562500e+00,2.224120616912841797e+00,2.183301925659179688e+00,2.143954515457153320e+00,2.105999946594238281e+00,2.069365978240966797e+00,2.033984899520874023e+00,1.999793291091918945e+00,1.966732144355773926e+00,1.934746265411376953e+00,1.903784155845642090e+00,1.873797655105590820e+00,1.844740867614746094e+00
2.255666017532348633e+00,2.255406618118286133e+00,2.255147218704223633e+00,2.254888296127319336e+00,2.254628896713256836e+00,2.254369735717773438e+00,2.254110574722290039e+00,2.253851652145385742e+00,2.253592729568481445e+00,2.253333806991577148e+00,2.253074884414672852e+00,2.252816200256347656e+00,2.252557516098022461e+00,2.252298831939697266e+00,2.252040147781372070e+00,2.251781702041625977e+00,2.251523256301879883e+00,2.251264810562133789e+00,2.251006364822387695e+00,2.250747919082641602e+00,2.030033111572265625e+00,2.047789573669433594e+00,2.249973535537719727e+00,2.249715566635131836e+00,2.249457836151123047e+00,1.650449395179748535e+00,1.616016030311584473e+00,1.597524166107177734e+00,1.590923190116882324e+00,2.248169660568237305e+00,1.543299555778503418e+00,2.247654676437377930e+00,2.247397422790527344e+00,2.247140169143676758e+00,2.246882915496826172e+00,2.246625900268554688e+00,2.246368646621704102e+00,2.246111631393432617e+00,2.245854616165161133e+00,2.245597600936889648e+00,2.245340824127197266e+00,2.245084047317504883e+00,2.244827270507812500e+00,2.244570732116699219e+00,2.244313955307006836e+00,2.244057416915893555e+00,2.243800878524780273e+00,2.243544340133666992e+00,2.243288040161132812e+00,2.243031740188598633e+00,2.242775440216064453e+00,2.242519140243530273e+00,2.242263078689575195e+00,2.242007017135620117e+00,2.241750955581665039e+00,2.241494894027709961e+00,2.241239070892333984e+00,2.240983009338378906e+00,2.240727424621582031e+00,2.240471601486206055e+00,2.240215778350830078e+00,2.239960193634033203e+00,2.239704608917236328e+00,2.239449262619018555e+00,2.239193677902221680e+00,2.238938331604003906e+00,2.238682985305786133e+00,2.238427639007568359e+00,2.224149465560913086e+00,2.183329820632934570e+00,2.143981218338012695e+00,2.106026172637939453e+00,2.069391012191772461e+00,2.034009218215942383e+00,1.999816656112670898e+00,1.966754794120788574e+00,1.934768080711364746e+00,1.903805613517761230e+00,1.873818159103393555e+00,1.844760775566101074e+00
1.988540410995483398e+00,1.988338828086853027e+00,1.988137364387512207e+00,1.987935781478881836e+00,1.987734436988830566e+00,1.987532854080200195e+00,1.987331509590148926e+00,1.987130284309387207e+00,1.986928820610046387e+00,1.986727714538574219e+00,1.986526489257812500e+00,1.986325263977050781e+00,1.986124157905578613e+00,1.985922932624816895e+00,1.985721945762634277e+00,1.985521078109741211e+00,1.985319972038269043e+00,1.985119104385375977e+00,1.984918117523193359e+00,1.984717369079589844e+00,1.984516620635986328e+00,1.984315633773803711e+00,1.984115004539489746e+00,1.983914375305175781e+00,1.983713626861572266e+00,1.649922490119934082e+00,1.574707746505737305e+00,1.553988814353942871e+00,1.530380725860595703e+00,1.532137155532836914e+00,1.557926535606384277e+00,1.982310414314270020e+00,1.982109904289245605e+00,1.981909632682800293e+00,1.981709241867065430e+00,1.981509208679199219e+00,1.981309056282043457e+00,1.981108784675598145e+00,1.980908870697021484e+00,1.980708599090576172e+00,1.980508685111999512e+00,1.980308890342712402e+00,1.980108737945556641e+00,1.979908943176269531e+00,1.979709267616271973e+00,1.979509353637695312e+00,1.979309678077697754e+00,1.979109764099121094e+00,1.978910207748413086e+00,1.978710651397705078e+00,1.978510856628417969e+00,1.978311419486999512e+00,1.978111982345581055e+00,1.977912306785583496e+00,1.977712988853454590e+00,1.977513432502746582e+00,1.977314114570617676e+00,1.977114915847778320e+00,1.976915478706359863e+00,1.976716399192810059e+00,1.976516962051391602e+00,1.976317882537841797e+00,1.976118922233581543e+00,1.975919723510742188e+00,1.975720763206481934e+00,1.975521802902221680e+00,1.975322723388671875e+00,1.975123882293701172e+00,1.974924802780151367e+00,1.974726080894470215e+00,1.974527359008789062e+00,1.974328517913818359e+00,1.974129915237426758e+00,1.973931074142456055e+00,1.973732471466064453e+00,1.966777563095092773e+00,1.934790253639221191e+00,1.903826713562011719e+00,1.873838663101196289e+00,1.844780921936035156e+00
1.777983903884887695e+00,1.777822852134704590e+00,1.777661681175231934e+00,1.777500510215759277e+00,1.777339577674865723e+00,1.777178525924682617e+00,1.777017474174499512e+00,1.776856541633605957e+00,1.776695489883422852e+00,1.776534557342529297e+00,1.776373744010925293e+00,1.776212811470031738e+00,1.776051998138427734e+00,1.775891304016113281e+00,1.775730371475219727e+00,1.775569677352905273e+00,1.775408864021301270e+00,1.775248289108276367e+00,1.775087714195251465e+00,1.774926900863647461e+00,1.774766325950622559e+00,1.774605631828308105e+00,1.774445176124572754e+00,1.774284720420837402e+00,1.774124145507812500e+00,1.671671152114868164e+00,1.649385213851928711e+00,1.773642897605895996e+00,1.773482561111450195e+00,1.773322105407714844e+00,1.773161888122558594e+00,1.773001670837402344e+00,1.772841334342956543e+00,1.772681117057800293e+00,1.772521018981933594e+00,1.772360682487487793e+00,1.772200584411621094e+00,1.772040367126464844e+00,1.771880388259887695e+00,1.771720409393310547e+00,1.771560311317443848e+00,1.771400332450866699e+00,1.771240234375000000e+00,1.771080374717712402e+00,1.770920515060424805e+00,1.770760536193847656e+00,1.770600795745849609e+00,1.770441055297851562e+00,1.770281076431274414e+00,1.770121335983276367e+00,1.769961476325988770e+00,1.769801855087280273e+00,1.769642233848571777e+00,1.769482493400573730e+00,1.769322991371154785e+00,1.769163250923156738e+00,1.769003748893737793e+00,1.768844246864318848e+00,1.768684625625610352e+00,1.768525242805480957e+00,1.768365859985351562e+00,1.768206357955932617e+00,1.768046975135803223e+00,1.767887473106384277e+00,1.767728328704833984e+00,1.767569065093994141e+00,1.767409682273864746e+00,1.767250418663024902e+00,1.767091274261474609e+00,1.766932010650634766e+00,1.766772866249084473e+00,1.766613721847534180e+00,1.766454696655273438e+00,1.766295671463012695e+00,1.766136527061462402e+00,1.765977501869201660e+00,1.765818357467651367e+00,1.765659570693969727e+00,1.765500664710998535e+00,1.765341639518737793e+00
1.607747793197631836e+00,1.607615947723388672e+00,1.607484221458435059e+00,1.607352375984191895e+00,1.607220768928527832e+00,1.607089042663574219e+00,1.606957316398620605e+00,1.606825709342956543e+00,1.606694221496582031e+00,1.606562495231628418e+00,1.606431007385253906e+00,1.606299281120300293e+00,1.606167793273925781e+00,1.606036305427551270e+00,1.605904817581176758e+00,1.605773329734802246e+00,1.605641961097717285e+00,1.605510473251342773e+00,1.605379104614257812e+00,1.605247616767883301e+00,1.605116248130798340e+00,1.604984998703002930e+00,1.604853630065917969e+00,1.604722380638122559e+00,1.604590892791748047e+00,1.604459762573242188e+00,1.604328513145446777e+00,1.604197263717651367e+00,1.604066133499145508e+00,1.603935003280639648e+00,1.603803753852844238e+00,1.603672623634338379e+00,1.603541493415832520e+00,1.603410482406616211e+00,1.603279471397399902e+00,1.603148341178894043e+00,1.603017330169677734e+00,1.602886199951171875e+00,1.602755308151245117e+00,1.602624416351318359e+00,1.602493405342102051e+00,1.602362513542175293e+00,1.602231621742248535e+00,1.602100729942321777e+00,1.601969957351684570e+00,1.601838946342468262e+00,1.601708292961120605e+00,1.601577520370483398e+00,1.601446628570556641e+00,1.601315975189208984e+00,1.601185321807861328e+00,1.601054549217224121e+00,1.600923895835876465e+00,1.600793123245239258e+00,1.600662589073181152e+00,1.600531935691833496e+00,1.600401282310485840e+00,1.600270748138427734e+00,1.600140094757080078e+00,1.600009679794311523e+00,1.599879145622253418e+00,1.599748611450195312e+00,1.599618196487426758e+00,1.599487781524658203e+00,1.599357247352600098e+00,1.599226951599121094e+00,1.599096417427062988e+00,1.598966121673583984e+00,1.598835825920104980e+00,1.598705410957336426e+00,1.598575234413146973e+00,1.598444938659667969e+00,1.598314642906188965e+00,1.598184466361999512e+00,1.598054170608520508e+00,1.597923994064331055e+00,1.597793936729431152e+00,1.597663640975952148e+00,1.597533583641052246e+00,1.597403407096862793e+00
1.467262148857116699e+00,1.467152237892150879e+00,1.467042565345764160e+00,1.466932892799377441e+00,1.466823101043701172e+00,1.466713428497314453e+00,1.466603755950927734e+00,1.466494083404541016e+00,1.466384530067443848e+00,1.466274857521057129e+00,1.466165304183959961e+00,1.466055750846862793e+00,1.465946078300476074e+00,1.465836524963378906e+00,1.465726971626281738e+00,1.465617418289184570e+00,1.465507984161376953e+00,1.465398430824279785e+00,1.465288996696472168e+00,1.465179443359375000e+00,1.465070009231567383e+00,1.464960694313049316e+00,1.464851140975952148e+00,1.464741826057434082e+00,1.464632511138916016e+00,1.464523077011108398e+00,1.464413762092590332e+00,1.464304327964782715e+00,1.464195132255554199e+00,1.464085817337036133e+00,1.463976502418518066e+00,1.463867306709289551e+00,1.463758111000061035e+00,1.463648796081542969e+00,1.463539600372314453e+00,1.463430285453796387e+00,1.463321208953857422e+00,1.463212013244628906e+00,1.463102817535400391e+00,1.462993741035461426e+00,1.462884545326232910e+00,1.462775468826293945e+00,1.462666511535644531e+00,1.462557315826416016e+00,1.462448358535766602e+00,1.462339282035827637e+00,1.462230205535888672e+00,1.462121248245239258e+00,1.462012171745300293e+00,1.461903333663940430e+00,1.461794376373291016e+00,1.461685419082641602e+00,1.461576461791992188e+00,1.461467623710632324e+00,1.461358666419982910e+00,1.461249828338623047e+00,1.461140990257263184e+00,1.461032152175903320e+00,1.460923314094543457e+00,1.460814476013183594e+00,1.460705757141113281e+00,1.460596919059753418e+00,1.460488200187683105e+00,1.460379481315612793e+00,1.460270643234252930e+00,1.460162043571472168e+00,1.460053324699401855e+00,1.459944605827331543e+00,1.459836006164550781e+00,1.459727287292480469e+00,1.459618687629699707e+00,1.459510087966918945e+00,1.459401488304138184e+00,1.459292888641357422e+00,1.459184288978576660e+00,1.459075808525085449e+00,1.458967328071594238e+00,1.458858728408813477e+00,1.458750247955322266e+00,1.458641767501831055e+00
1.349354863166809082e+00,1.349261999130249023e+00,1.349169254302978516e+00,1.349076390266418457e+00,1.348983645439147949e+00,1.348890900611877441e+00,1.348798155784606934e+00,1.348705291748046875e+00,1.348612666130065918e+00,1.348519802093505859e+00,1.348427176475524902e+00,1.348334550857543945e+00,1.348241806030273438e+00,1.348149180412292480e+00,1.348056554794311523e+00,1.347963809967041016e+00,1.347871184349060059e+00,1.347778558731079102e+00,1.347685933113098145e+00,1.347593426704406738e+00,1.347500801086425781e+00,1.347408294677734375e+00,1.347315669059753418e+00,1.347223162651062012e+00,1.347130656242370605e+00,1.347038030624389648e+00,1.346945643424987793e+00,1.346853137016296387e+00,1.346760630607604980e+00,1.346668243408203125e+00,1.346575617790222168e+00,1.346483230590820312e+00,1.346390843391418457e+00,1.346298456192016602e+00,1.346206068992614746e+00,1.346113681793212891e+00,1.346021294593811035e+00,1.345928907394409180e+00,1.345836520195007324e+00,1.345744252204895020e+00,1.345651865005493164e+00,1.345559477806091309e+00,1.345467209815979004e+00,1.345374941825866699e+00,1.345282673835754395e+00,1.345190405845642090e+00,1.345098137855529785e+00,1.345005869865417480e+00,1.344913721084594727e+00,1.344821453094482422e+00,1.344729304313659668e+00,1.344637036323547363e+00,1.344544887542724609e+00,1.344452738761901855e+00,1.344360589981079102e+00,1.344268441200256348e+00,1.344176292419433594e+00,1.344084143638610840e+00,1.343992114067077637e+00,1.343899965286254883e+00,1.343807935714721680e+00,1.343715906143188477e+00,1.343623757362365723e+00,1.343531847000122070e+00,1.343439698219299316e+00,1.343347787857055664e+00,1.343255758285522461e+00,1.343163728713989258e+00,1.343071818351745605e+00,1.342979907989501953e+00,1.342887878417968750e+00,1.342795968055725098e+00,1.342703938484191895e+00,1.342612028121948242e+00,1.342520236968994141e+00,1.342428326606750488e+00,1.342336416244506836e+00,1.342244505882263184e+00,1.342152714729309082e+00,1.342060923576354980e+00
1.248987913131713867e+00,1.248908400535583496e+00,1.248828768730163574e+00,1.248749375343322754e+00,1.248669743537902832e+00,1.248590350151062012e+00,1.248510956764221191e+00,1.248431324958801270e+00,1.248351931571960449e+00,1.248272538185119629e+00,1.248193025588989258e+00,1.248113632202148438e+00,1.248034119606018066e+00,1.247954845428466797e+00,1.247875452041625977e+00,1.247795939445495605e+00,1.247716665267944336e+00,1.247637271881103516e+00,1.247557878494262695e+00,1.247478604316711426e+00,1.247399210929870605e+00,1.247319936752319336e+00,1.247240662574768066e+00,1.247161269187927246e+00,1.247081995010375977e+00,1.247002601623535156e+00,1.246923446655273438e+00,1.246844172477722168e+00,1.246764898300170898e+00,1.246685624122619629e+00,1.246606469154357910e+00,1.246527194976806641e+00,1.246448040008544922e+00,1.246368765830993652e+00,1.246289610862731934e+00,1.246210455894470215e+00,1.246131181716918945e+00,1.246052026748657227e+00,1.245972871780395508e+00,1.245893716812133789e+00,1.245814561843872070e+00,1.245735406875610352e+00,1.245656371116638184e+00,1.245577335357666016e+00,1.245498180389404297e+00,1.245419025421142578e+00,1.245339989662170410e+00,1.245260953903198242e+00,1.245181918144226074e+00,1.245102763175964355e+00,1.245023727416992188e+00,1.244944810867309570e+00,1.244865775108337402e+00,1.244786739349365234e+00,1.244707703590393066e+00,1.244628787040710449e+00,1.244549751281738281e+00,1.244470834732055664e+00,1.244391918182373047e+00,1.244312882423400879e+00,1.244233965873718262e+00,1.244155049324035645e+00,1.244076132774353027e+00,1.243997216224670410e+00,1.243918418884277344e+00,1.243839383125305176e+00,1.243760585784912109e+00,1.243681669235229492e+00,1.243602871894836426e+00,1.243524074554443359e+00,1.243445158004760742e+00,1.243366360664367676e+00,1.243287444114685059e+00,1.243208765983581543e+00,1.243129968643188477e+00,1.243051171302795410e+00,1.242972373962402344e+00,1.242893695831298828e+00,1.242814898490905762e+00,1.242736101150512695e+00
1.162518143653869629e+00,1.162449240684509277e+00,1.162380337715148926e+00,1.162311434745788574e+00,1.162242650985717773e+00,1.162173748016357422e+00,1.162104845046997070e+00,1.162035942077636719e+00,1.161967158317565918e+00,1.161898374557495117e+00,1.161829471588134766e+00,1.161760687828063965e+00,1.161691904067993164e+00,1.161623120307922363e+00,1.161554336547851562e+00,1.161485433578491211e+00,1.161416769027709961e+00,1.161347985267639160e+00,1.161279201507568359e+00,1.161210417747497559e+00,1.161141633987426758e+00,1.161072969436645508e+00,1.161004304885864258e+00,1.160935521125793457e+00,1.160866856575012207e+00,1.160798192024230957e+00,1.160729408264160156e+00,1.160660743713378906e+00,1.160591959953308105e+00,1.160523414611816406e+00,1.160454750061035156e+00,1.160385966300964355e+00,1.160317420959472656e+00,1.160248756408691406e+00,1.160180091857910156e+00,1.160111546516418457e+00,1.160042881965637207e+00,1.159974336624145508e+00,1.159905672073364258e+00,1.159837126731872559e+00,1.159768462181091309e+00,1.159699916839599609e+00,1.159631371498107910e+00,1.159562826156616211e+00,1.159494280815124512e+00,1.159425735473632812e+00,1.159357190132141113e+00,1.159288644790649414e+00,1.159220099449157715e+00,1.159151554107666016e+00,1.159083127975463867e+00,1.159014701843261719e+00,1.158946156501770020e+00,1.158877611160278320e+00,1.158809185028076172e+00,1.158740758895874023e+00,1.158672332763671875e+00,1.158603787422180176e+00,1.158535361289978027e+00,1.158466935157775879e+00,1.158398509025573730e+00,1.158330202102661133e+00,1.158261775970458984e+00,1.158193349838256836e+00,1.158125042915344238e+00,1.158056616783142090e+00,1.157988190650939941e+00,1.157919883728027344e+00,1.157851457595825195e+00,1.157783150672912598e+00,1.157714843750000000e+00,1.157646536827087402e+00,1.157578229904174805e+00,1.157509803771972656e+00,1.157441616058349609e+00,1.157373189926147461e+00,1.157305002212524414e+00,1.157236695289611816e+00,1.157168388366699219e+00,1.157100200653076172e+00
1.087246060371398926e+00,1.087185740470886230e+00,1.087125420570373535e+00,1.087065219879150391e+00,1.087005019187927246e+00,1.086944699287414551e+00,1.086884498596191406e+00,1.086824297904968262e+00,1.086764097213745117e+00,1.086703896522521973e+00,1.086643695831298828e+00,1.086583495140075684e+00,1.086523294448852539e+00,1.086463093757629395e+00,1.086402893066406250e+00,1.086342811584472656e+00,1.086282610893249512e+00,1.086222410202026367e+00,1.086162209510803223e+00,1.086102128028869629e+00,1.086042046546936035e+00,1.085981845855712891e+00,1.085921764373779297e+00,1.085861563682556152e+00,1.085801482200622559e+00,1.085741400718688965e+00,1.085681319236755371e+00,1.085621237754821777e+00,1.085561156272888184e+00,1.085501074790954590e+00,1.085440993309020996e+00,1.085380911827087402e+00,1.085320830345153809e+00,1.085260868072509766e+00,1.085200786590576172e+00,1.085140705108642578e+00,1.085080623626708984e+00,1.085020661354064941e+00,1.084960699081420898e+00,1.084900617599487305e+00,1.084840655326843262e+00,1.084780693054199219e+00,1.084720611572265625e+00,1.084660649299621582e+00,1.084600567817687988e+00,1.084540724754333496e+00,1.084480762481689453e+00,1.084420680999755859e+00,1.084360837936401367e+00,1.084300875663757324e+00,1.084240913391113281e+00,1.084180951118469238e+00,1.084120988845825195e+00,1.084061145782470703e+00,1.084001302719116211e+00,1.083941340446472168e+00,1.083881378173828125e+00,1.083821535110473633e+00,1.083761692047119141e+00,1.083701729774475098e+00,1.083641886711120605e+00,1.083582043647766113e+00,1.083522200584411621e+00,1.083462238311767578e+00,1.083402514457702637e+00,1.083342552185058594e+00,1.083282828330993652e+00,1.083222985267639160e+00,1.083163142204284668e+00,1.083103299140930176e+00,1.083043575286865234e+00,1.082983732223510742e+00,1.082923889160156250e+00,1.082864046096801758e+00,1.082804322242736816e+00,1.082744598388671875e+00,1.082684755325317383e+00,1.082625031471252441e+00,1.082565307617187500e+00,1.082505583763122559e+00
1.021128773689270020e+00,1.021075606346130371e+00,1.021022439002990723e+00,1.020969271659851074e+00,1.020916223526000977e+00,1.020863056182861328e+00,1.020809888839721680e+00,1.020756840705871582e+00,1.020703673362731934e+00,1.020650506019592285e+00,1.020597457885742188e+00,1.020544290542602539e+00,1.020491242408752441e+00,1.020438075065612793e+00,1.020385026931762695e+00,1.020331978797912598e+00,1.020278930664062500e+00,1.020225882530212402e+00,1.020172715187072754e+00,1.020119667053222656e+00,1.020066618919372559e+00,1.020013570785522461e+00,1.019960522651672363e+00,1.019907593727111816e+00,1.019854426383972168e+00,1.019801497459411621e+00,1.019748449325561523e+00,1.019695401191711426e+00,1.019642472267150879e+00,1.019589424133300781e+00,1.019536375999450684e+00,1.019483447074890137e+00,1.019430398941040039e+00,1.019377470016479492e+00,1.019324421882629395e+00,1.019271492958068848e+00,1.019218564033508301e+00,1.019165515899658203e+00,1.019112586975097656e+00,1.019059658050537109e+00,1.019006729125976562e+00,1.018953800201416016e+00,1.018900871276855469e+00,1.018847942352294922e+00,1.018795013427734375e+00,1.018742084503173828e+00,1.018689155578613281e+00,1.018636226654052734e+00,1.018583416938781738e+00,1.018530488014221191e+00,1.018477559089660645e+00,1.018424749374389648e+00,1.018371820449829102e+00,1.018319010734558105e+00,1.018266081809997559e+00,1.018213272094726562e+00,1.018160343170166016e+00,1.018107533454895020e+00,1.018054723739624023e+00,1.018001914024353027e+00,1.017948985099792480e+00,1.017896175384521484e+00,1.017843365669250488e+00,1.017790555953979492e+00,1.017737746238708496e+00,1.017684936523437500e+00,1.017632126808166504e+00,1.017579317092895508e+00,1.017526507377624512e+00,1.017473816871643066e+00,1.017421007156372070e+00,1.017368197441101074e+00,1.017315387725830078e+00,1.017262697219848633e+00,1.017209887504577637e+00,1.017157196998596191e+00,1.017104387283325195e+00,1.017051696777343750e+00,1.016999006271362305e+00,1.016946196556091309e+00
