5.000000000000000000e+00,5.000000000000000000e+00,5.000000000000000000e+00,5.000000000000000000e+00,5.000000000000000000e+00,5.000000000000000000e+00,5.000000000000000000e+00,5.000000000000000000e+00,5.000000000000000000e+00,5.000000000000000000e+00,5.000000000000000000e+00,5.000000000000000000e+00,5.000000000000000000e+00,5.000000000000000000e+00,5.000000000000000000e+00,5.000000000000000000e+00,5.000000000000000000e+00,5.000000000000000000e+00,5.000000000000000000e+00,5.000000000000000000e+00,5.000000000000000000e+00,5.000000000000000000e+00,5.000000000000000000e+00,5.000000000000000000e+00,5.000000000000000000e+00,5.000000000000000000e+00,5.000000000000000000e+00,5.000000000000000000e+00,5.000000000000000000e+00,5.000000000000000000e+00,5.000000000000000000e+00,1.938071846961975098e+00,1.918583631515502930e+00,1.920118331909179688e+00,1.942252635955810547e+00,1.944505691528320312e+00,1.930280447006225586e+00,1.925934553146362305e+00,1.930044054985046387e+00,1.940806388854980469e+00,1.959153890609741211e+00,1.999783873558044434e+00,2.132136583328247070e+00,2.153289794921875000e+00,4.036647319793701172e+00,3.904133796691894531e+00,3.780043363571166992e+00,3.663598299026489258e+00,3.554112672805786133e+00,3.450981616973876953e+00,3.353666782379150391e+00,3.261689901351928711e+00,3.174623250961303711e+00,3.092084169387817383e+00,3.013728380203247070e+00,2.939245462417602539e+00,2.868355274200439453e+00,2.800804138183593750e+00,2.736361503601074219e+00,2.674818038940429688e+00,2.615981578826904297e+00,2.559678077697753906e+00,2.505746841430664062e+00,2.454041481018066406e+00,2.404426813125610352e+00,2.356778621673583984e+00,2.310982227325439453e+00,2.266931533813476562e+00,2.224529027938842773e+00,2.183683633804321289e+00,2.144310951232910156e+00,2.106333017349243164e+00,2.069676637649536133e+00,2.034274816513061523e+00,2.000063419342041016e+00,1.966983914375305176e+00,1.934980511665344238e+00,1.904002189636230469e+00,1.873999834060668945e+00,1.844928503036499023e+00
5.000000000000000000e+00,5.000000000000000000e+00,5.000000000000000000e+00,5.000000000000000000e+00,5.000000000000000000e+00,5.000000000000000000e+00,5.000000000000000000e+00,5.000000000000000000e+00,5.000000000000000000e+00,5.000000000000000000e+00,5.000000000000000000e+00,5.000000000000000000e+00,5.000000000000000000e+00,5.000000000000000000e+00,5.000000000000000000e+00,5.000000000000000000e+00,5.000000000000000000e+00,5.000000000000000000e+00,5.000000000000000000e+00,5.000000000000000000e+00,5.000000000000000000e+00,5.000000000000000000e+00,5.000000000000000000e+00,5.000000000000000000e+00,5.000000000000000000e+00,5.000000000000000000e+00,5.000000000000000000e+00,5.000000000000000000e+00,5.000000000000000000e+00,5.000000000000000000e+00,5.000000000000000000e+00,1.939508080482482910e+00,1.918770194053649902e+00,1.919883608818054199e+00,1.953350901603698730e+00,1.955834746360778809e+00,1.933118939399719238e+00,1.928976655006408691e+00,1.932442545890808105e+00,1.943563699722290039e+00,1.961989521980285645e+00,1.994624018669128418e+00,2.131968498229980469e+00,2.160824060440063477e+00,4.036743164062500000e+00,3.904223203659057617e+00,3.780127286911010742e+00,3.663677215576171875e+00,3.554187297821044922e+00,3.451051712036132812e+00,3.353733062744140625e+00,3.261752605438232422e+00,3.174682617187500000e+00,3.092140436172485352e+00,3.013781547546386719e+00,2.939296245574951172e+00,2.868403673171997070e+00,2.800850391387939453e+00,2.736405849456787109e+00,2.674860239028930664e+00,2.616021871566772461e+00,2.559716463088989258e+00,2.505783796310424805e+00,2.454077005386352539e+00,2.404460906982421875e+00,2.356811523437500000e+00,2.311013698577880859e+00,2.266961812973022461e+00,2.224558115005493164e+00,2.183711528778076172e+00,2.144337892532348633e+00,2.106359004974365234e+00,2.069701910018920898e+00,2.034299135208129883e+00,2.000087022781372070e+00,1.967006802558898926e+00,1.935002684593200684e+00,1.904023408889770508e+00,1.874020576477050781e+00,1.844948410987854004e+00
5.000000000000000000e+00,5.000000000000000000e+00,5.000000000000000000e+00,5.000000000000000000e+00,5.000000000000000000e+00,5.000000000000000000e+00,5.000000000000000000e+00,5.000000000000000000e+00,5.000000000000000000e+00,5.000000000000000000e+00,5.000000000000000000e+00,5.000000000000000000e+00,5.000000000000000000e+00,5.000000000000000000e+00,5.000000000000000000e+00,5.000000000000000000e+00,5.000000000000000000e+00,5.000000000000000000e+00,5.000000000000000000e+00,5.000000000000000000e+00,5.000000000000000000e+00,5.000000000000000000e+00,5.000000000000000000e+00,5.000000000000000000e+00,5.000000000000000000e+00,5.000000000000000000e+00,5.000000000000000000e+00,5.000000000000000000e+00,5.000000000000000000e+00,5.000000000000000000e+00,5.000000000000000000e+00,1.943848371505737305e+00,1.917841434478759766e+00,1.923739671707153320e+00,1.966263055801391602e+00,1.950833439826965332e+00,1.925861954689025879e+00,1.921573162078857422e+00,1.929796576499938965e+00,1.948851704597473145e+00,1.965935707092285156e+00,2.002652645111083984e+00,2.134085416793823242e+00,2.173002958297729492e+00,4.036839008331298828e+00,3.904313087463378906e+00,3.780211687088012695e+00,3.663755893707275391e+00,3.554261445999145508e+00,3.451121807098388672e+00,3.353799104690551758e+00,3.261815071105957031e+00,3.174741983413696289e+00,3.092196702957153320e+00,3.013835191726684570e+00,2.939347028732299805e+00,2.868452072143554688e+00,2.800896644592285156e+00,2.736449718475341797e+00,2.674902200698852539e+00,2.616062164306640625e+00,2.559755086898803711e+00,2.505820751190185547e+00,2.454112291336059570e+00,2.404494762420654297e+00,2.356843948364257812e+00,2.311044931411743164e+00,2.266992092132568359e+00,2.224587202072143555e+00,2.183739662170410156e+00,2.144365072250366211e+00,2.106385231018066406e+00,2.069727182388305664e+00,2.034323453903198242e+00,2.000110626220703125e+00,1.967029333114624023e+00,1.935024738311767578e+00,1.904044747352600098e+00,1.874041318893432617e+00,1.844968557357788086e+00
5.000000000000000000e+00,5.000000000000000000e+00,5.000000000000000000e+00,5.000000000000000000e+00,5.000000000000000000e+00,5.000000000000000000e+00,5.000000000000000000e+00,5.000000000000000000e+00,5.000000000000000000e+00,5.000000000000000000e+00,5.000000000000000000e+00,5.000000000000000000e+00,5.000000000000000000e+00,5.000000000000000000e+00,5.000000000000000000e+00,5.000000000000000000e+00,5.000000000000000000e+00,5.000000000000000000e+00,5.000000000000000000e+00,5.000000000000000000e+00,5.000000000000000000e+00,5.000000000000000000e+00,5.000000000000000000e+00,5.000000000000000000e+00,5.000000000000000000e+00,5.000000000000000000e+00,5.000000000000000000e+00,5.000000000000000000e+00,5.000000000000000000e+00,5.000000000000000000e+00,5.000000000000000000e+00,1.941749453544616699e+00,1.915390849113464355e+00,1.929731130599975586e+00,1.974144458770751953e+00,1.941652655601501465e+00,1.920637845993041992e+00,1.914498090744018555e+00,1.924054145812988281e+00,1.944991707801818848e+00,1.957773089408874512e+00,1.983033537864685059e+00,2.145460605621337891e+00,2.188669443130493164e+00,4.036935329437255859e+00,3.904402732849121094e+00,3.780295610427856445e+00,3.663835048675537109e+00,3.554336071014404297e+00,3.451192140579223633e+00,3.353865623474121094e+00,3.261877536773681641e+00,3.174801111221313477e+00,3.092252969741821289e+00,3.013888597488403320e+00,2.939398050308227539e+00,2.868500709533691406e+00,2.800942897796630859e+00,2.736493825912475586e+00,2.674944162368774414e+00,2.616102457046508789e+00,2.559793472290039062e+00,2.505857706069946289e+00,2.454147815704345703e+00,2.404528856277465820e+00,2.356876850128173828e+00,2.311076402664184570e+00,2.267022132873535156e+00,2.224616289138793945e+00,2.183767557144165039e+00,2.144392013549804688e+00,2.106411218643188477e+00,2.069752454757690430e+00,2.034348011016845703e+00,2.000134229660034180e+00,1.967052221298217773e+00,1.935046672821044922e+00,1.904066205024719238e+00,1.874061822891235352e+00,1.844988584518432617e+00
5.000000000000000000e+00,5.000000000000000000e+00,5.000000000000000000e+00,5.000000000000000000e+00,5.000000000000000000e+00,5.000000000000000000e+00,5.000000000000000000e+00,5.000000000000000000e+00,5.000000000000000000e+00,5.000000000000000000e+00,5.000000000000000000e+00,5.000000000000000000e+00,5.000000000000000000e+00,5.000000000000000000e+00,5.000000000000000000e+00,5.000000000000000000e+00,5.000000000000000000e+00,5.000000000000000000e+00,5.000000000000000000e+00,5.000000000000000000e+00,5.000000000000000000e+00,5.000000000000000000e+00,5.000000000000000000e+00,5.000000000000000000e+00,5.000000000000000000e+00,5.000000000000000000e+00,5.000000000000000000e+00,5.000000000000000000e+00,5.000000000000000000e+00,5.000000000000000000e+00,5.000000000000000000e+00,1.942763447761535645e+00,1.884313106536865234e+00,1.894620060920715332e+00,1.966570854187011719e+00,1.939877867698669434e+00,1.933852434158325195e+00,1.931132674217224121e+00,1.921026349067687988e+00,1.936537981033325195e+00,1.954209923744201660e+00,1.979189038276672363e+00,2.160229682922363281e+00,2.206884622573852539e+00,4.037031173706054688e+00,3.904492616653442383e+00,3.780379295349121094e+00,3.663913965225219727e+00,3.554410219192504883e+00,3.451261997222900391e+00,3.353931665420532227e+00,3.261940479278564453e+00,3.174860715866088867e+00,3.092309236526489258e+00,3.013941764831542969e+00,2.939448595046997070e+00,2.868548870086669922e+00,2.800988912582397461e+00,2.736537933349609375e+00,2.674986362457275391e+00,2.616142749786376953e+00,2.559832334518432617e+00,2.505894660949707031e+00,2.454183101654052734e+00,2.404562950134277344e+00,2.356909513473510742e+00,2.311107873916625977e+00,2.267052650451660156e+00,2.224645376205444336e+00,2.183795690536499023e+00,2.144418954849243164e+00,2.106437444686889648e+00,2.069777488708496094e+00,2.034372329711914062e+00,2.000157594680786133e+00,1.967074990272521973e+00,1.935068726539611816e+00,1.904087543487548828e+00,1.874082446098327637e+00,1.845008492469787598e+00
5.000000000000000000e+00,5.000000000000000000e+00,5.000000000000000000e+00,5.000000000000000000e+00,5.000000000000000000e+00,5.000000000000000000e+00,5.000000000000000000e+00,5.000000000000000000e+00,5.000000000000000000e+00,5.000000000000000000e+00,5.000000000000000000e+00,5.000000000000000000e+00,5.000000000000000000e+00,5.000000000000000000e+00,5.000000000000000000e+00,5.000000000000000000e+00,5.000000000000000000e+00,5.000000000000000000e+00,5.000000000000000000e+00,5.000000000000000000e+00,5.000000000000000000e+00,5.000000000000000000e+00,5.000000000000000000e+00,5.000000000000000000e+00,5.000000000000000000e+00,5.000000000000000000e+00,5.000000000000000000e+00,5.000000000000000000e+00,5.000000000000000000e+00,5.000000000000000000e+00,5.000000000000000000e+00,5.000000000000000000e+00,1.865949630737304688e+00,1.865201234817504883e+00,1.928520679473876953e+00,1.934520959854125977e+00,1.928264021873474121e+00,1.927156805992126465e+00,1.934485673904418945e+00,1.941871404647827148e+00,1.967065572738647461e+00,2.011609554290771484e+00,2.173732042312622070e+00,4.178987026214599609e+00,4.037127017974853516e+00,3.904582023620605469e+00,3.780463695526123047e+00,3.663993120193481445e+00,3.554484844207763672e+00,3.451332330703735352e+00,3.353997707366943359e+00,3.262002944946289062e+00,3.174919843673706055e+00,3.092365503311157227e+00,3.013995409011840820e+00,2.939499616622924805e+00,2.868597507476806641e+00,2.801035165786743164e+00,2.736581802368164062e+00,2.675028324127197266e+00,2.616183042526245117e+00,2.559870719909667969e+00,2.505931615829467773e+00,2.454218864440917969e+00,2.404597043991088867e+00,2.356942176818847656e+00,2.311139345169067383e+00,2.267082691192626953e+00,2.224674463272094727e+00,2.183823823928833008e+00,2.144446134567260742e+00,2.106463670730590820e+00,2.069802761077880859e+00,2.034396648406982422e+00,2.000181198120117188e+00,1.967097640037536621e+00,1.935090780258178711e+00,1.904108762741088867e+00,1.874103188514709473e+00,1.845028519630432129e+00
5.000000000000000000e+00,5.000000000000000000e+00,5.000000000000000000e+00,5.000000000000000000e+00,5.000000000000000000e+00,5.000000000000000000e+00,5.000000000000000000e+00,5.000000000000000000e+00,5.000000000000000000e+00,5.000000000000000000e+00,5.000000000000000000e+00,5.000000000000000000e+00,5.000000000000000000e+00,5.000000000000000000e+00,5.000000000000000000e+00,5.000000000000000000e+00,5.000000000000000000e+00,5.000000000000000000e+00,5.000000000000000000e+00,5.000000000000000000e+00,5.000000000000000000e+00,5.000000000000000000e+00,5.000000000000000000e+00,5.000000000000000000e+00,5.000000000000000000e+00,5.000000000000000000e+00,5.000000000000000000e+00,5.000000000000000000e+00,5.000000000000000000e+00,5.000000000000000000e+00,5.000000000000000000e+00,5.000000000000000000e+00,1.848862648010253906e+00,1.832497239112854004e+00,1.892424464225769043e+00,1.932794570922851562e+00,1.930096149444580078e+00,1.931833386421203613e+00,1.936799168586730957e+00,1.949338078498840332e+00,1.980974435806274414e+00,2.018918991088867188e+00,2.163020133972167969e+00,4.179089546203613281e+00,4.037222862243652344e+00,3.904671907424926758e+00,3.780547618865966797e+00,3.664072036743164062e+00,3.554558992385864258e+00,3.451402187347412109e+00,3.354063987731933594e+00,3.262065649032592773e+00,3.174979209899902344e+00,3.092422008514404297e+00,3.014048814773559570e+00,2.939550399780273438e+00,2.868645668029785156e+00,2.801081180572509766e+00,2.736626148223876953e+00,2.675070524215698242e+00,2.616223335266113281e+00,2.559909343719482422e+00,2.505968570709228516e+00,2.454254150390625000e+00,2.404630899429321289e+00,2.356974840164184570e+00,2.311170816421508789e+00,2.267112970352172852e+00,2.224703788757324219e+00,2.183851957321166992e+00,2.144473075866699219e+00,2.106489658355712891e+00,2.069828033447265625e+00,2.034420967102050781e+00,2.000204801559448242e+00,1.967120409011840820e+00,1.935112953186035156e+00,1.904130101203918457e+00,1.874123692512512207e+00,1.845048666000366211e+00
5.000000000000000000e+00,5.000000000000000000e+00,5.000000000000000000e+00,5.000000000000000000e+00,5.000000000000000000e+00,5.000000000000000000e+00,5.000000000000000000e+00,5.000000000000000000e+00,5.000000000000000000e+00,5.000000000000000000e+00,5.000000000000000000e+00,5.000000000000000000e+00,5.000000000000000000e+00,5.000000000000000000e+00,5.000000000000000000e+00,5.000000000000000000e+00,5.000000000000000000e+00,5.000000000000000000e+00,5.000000000000000000e+00,5.000000000000000000e+00,5.000000000000000000e+00,5.000000000000000000e+00,5.000000000000000000e+00,5.000000000000000000e+00,5.000000000000000000e+00,5.000000000000000000e+00,5.000000000000000000e+00,5.000000000000000000e+00,5.000000000000000000e+00,5.000000000000000000e+00,5.000000000000000000e+00,5.000000000000000000e+00,1.827786684036254883e+00,1.812005400657653809e+00,1.842988252639770508e+00,1.933240294456481934e+00,1.931959867477416992e+00,1.945691466331481934e+00,1.958512187004089355e+00,1.973960518836975098e+00,1.999031305313110352e+00,2.025036334991455078e+00,2.156943559646606445e+00,2.175189256668090820e+00,4.037318706512451172e+00,3.904761552810668945e+00,3.780632019042968750e+00,3.664151191711425781e+00,3.554633378982543945e+00,3.451472043991088867e+00,3.354130029678344727e+00,3.262128114700317383e+00,3.175038576126098633e+00,3.092478036880493164e+00,3.014102458953857422e+00,2.939601421356201172e+00,2.868694305419921875e+00,2.801127195358276367e+00,2.736670017242431641e+00,2.675112724304199219e+00,2.616263628005981445e+00,2.559947967529296875e+00,2.506005525588989258e+00,2.454289674758911133e+00,2.404664993286132812e+00,2.357007503509521484e+00,2.311202049255371094e+00,2.267143249511718750e+00,2.224732875823974609e+00,2.183879852294921875e+00,2.144500255584716797e+00,2.106515884399414062e+00,2.069853305816650391e+00,2.034445285797119141e+00,2.000228166580200195e+00,1.967143297195434570e+00,1.935134768486022949e+00,1.904151558876037598e+00,1.874144434928894043e+00,1.845068693161010742e+00
5.000000000000000000e+00,5.000000000000000000e+00,5.000000000000000000e+00,5.000000000000000000e+00,5.000000000000000000e+00,5.000000000000000000e+00,5.000000000000000000e+00,5.000000000000000000e+00,5.000000000000000000e+00,5.000000000000000000e+00,5.000000000000000000e+00,5.000000000000000000e+00,5.000000000000000000e+00,5.000000000000000000e+00,5.000000000000000000e+00,5.000000000000000000e+00,5.000000000000000000e+00,5.000000000000000000e+00,5.000000000000000000e+00,5.000000000000000000e+00,5.000000000000000000e+00,5.000000000000000000e+00,5.000000000000000000e+00,5.000000000000000000e+00,5.000000000000000000e+00,5.000000000000000000e+00,5.000000000000000000e+00,5.000000000000000000e+00,5.000000000000000000e+00,5.000000000000000000e+00,5.000000000000000000e+00,5.000000000000000000e+00,1.823491334915161133e+00,1.803738474845886230e+00,1.831625342369079590e+00,1.936396479606628418e+00,1.936019897460937500e+00,1.959308028221130371e+00,1.973406553268432617e+00,1.981470584869384766e+00,1.960314512252807617e+00,1.940406441688537598e+00,1.985456585884094238e+00,2.168493747711181641e+00,4.037414550781250000e+00,3.904850959777832031e+00,3.780715942382812500e+00,3.664230108261108398e+00,3.554707765579223633e+00,3.451542377471923828e+00,3.354196310043334961e+00,3.262190818786621094e+00,3.175097942352294922e+00,3.092534065246582031e+00,3.014155626296997070e+00,2.939652204513549805e+00,2.868742704391479492e+00,2.801173686981201172e+00,2.736714124679565430e+00,2.675154924392700195e+00,2.616303920745849609e+00,2.559986352920532227e+00,2.506042480468750000e+00,2.454324960708618164e+00,2.404699087142944336e+00,2.357040166854858398e+00,2.311233520507812500e+00,2.267173528671264648e+00,2.224761962890625000e+00,2.183907985687255859e+00,2.144527196884155273e+00,2.106541872024536133e+00,2.069878339767456055e+00,2.034469604492187500e+00,2.000251770019531250e+00,1.967166185379028320e+00,1.935156822204589844e+00,1.904172658920288086e+00,1.874165177345275879e+00,1.845088601112365723e+00
5.000000000000000000e+00,5.000000000000000000e+00,5.000000000000000000e+00,5.000000000000000000e+00,5.000000000000000000e+00,5.000000000000000000e+00,5.000000000000000000e+00,5.000000000000000000e+00,5.000000000000000000e+00,5.000000000000000000e+00,5.000000000000000000e+00,5.000000000000000000e+00,5.000000000000000000e+00,5.000000000000000000e+00,5.000000000000000000e+00,5.000000000000000000e+00,5.000000000000000000e+00,5.000000000000000000e+00,5.000000000000000000e+00,5.000000000000000000e+00,5.000000000000000000e+00,5.000000000000000000e+00,5.000000000000000000e+00,5.000000000000000000e+00,5.000000000000000000e+00,5.000000000000000000e+00,5.000000000000000000e+00,5.000000000000000000e+00,5.000000000000000000e+00,5.000000000000000000e+00,5.000000000000000000e+00,5.000000000000000000e+00,5.000000000000000000e+00,1.774675846099853516e+00,1.768267035484313965e+00,1.936595320701599121e+00,1.938949584960937500e+00,1.959784507751464844e+00,2.003942966461181641e+00,1.951016902923583984e+00,1.929961442947387695e+00,1.922127604484558105e+00,1.941592812538146973e+00,2.156101703643798828e+00,4.037510871887207031e+00,3.904941082000732422e+00,3.780800342559814453e+00,3.664309263229370117e+00,3.554782152175903320e+00,3.451612472534179688e+00,3.354262590408325195e+00,3.262253284454345703e+00,3.175157070159912109e+00,3.092590570449829102e+00,3.014209270477294922e+00,2.939702987670898438e+00,2.868791341781616211e+00,2.801219701766967773e+00,2.736758232116699219e+00,2.675196886062622070e+00,2.616344213485717773e+00,2.560024976730346680e+00,2.506079435348510742e+00,2.454360485076904297e+00,2.404733180999755859e+00,2.357072830200195312e+00,2.311264991760253906e+00,2.267203807830810547e+00,2.224791049957275391e+00,2.183936119079589844e+00,2.144554376602172852e+00,2.106568098068237305e+00,2.069903612136840820e+00,2.034493923187255859e+00,2.000275373458862305e+00,1.967188715934753418e+00,1.935178995132446289e+00,1.904194116592407227e+00,1.874185919761657715e+00,1.845108747482299805e+00
5.000000000000000000e+00,5.000000000000000000e+00,5.000000000000000000e+00,5.000000000000000000e+00,5.000000000000000000e+00,5.000000000000000000e+00,5.000000000000000000e+00,5.000000000000000000e+00,5.000000000000000000e+00,5.000000000000000000e+00,5.000000000000000000e+00,5.000000000000000000e+00,5.000000000000000000e+00,5.000000000000000000e+00,5.000000000000000000e+00,5.000000000000000000e+00,5.000000000000000000e+00,5.000000000000000000e+00,5.000000000000000000e+00,5.000000000000000000e+00,5.000000000000000000e+00,5.000000000000000000e+00,5.000000000000000000e+00,5.000000000000000000e+00,5.000000000000000000e+00,5.000000000000000000e+00,5.000000000000000000e+00,5.000000000000000000e+00,5.000000000000000000e+00,5.000000000000000000e+00,5.000000000000000000e+00,5.000000000000000000e+00,5.000000000000000000e+00,1.751097083091735840e+00,1.735887408256530762e+00,1.756535053253173828e+00,1.940052747726440430e+00,1.957072496414184570e+00,1.994742631912231445e+00,1.949884533882141113e+00,1.916051506996154785e+00,1.909948945045471191e+00,1.908383607864379883e+00,1.965784668922424316e+00,4.037606239318847656e+00,3.905030488967895508e+00,3.780884265899658203e+00,3.664388179779052734e+00,3.554856538772583008e+00,3.451682567596435547e+00,3.354328870773315430e+00,3.262316226959228516e+00,3.175216436386108398e+00,3.092646837234497070e+00,3.014262676239013672e+00,2.939753770828247070e+00,2.868839502334594727e+00,2.801265954971313477e+00,2.736802339553833008e+00,2.675239086151123047e+00,2.616384267807006836e+00,2.560063600540161133e+00,2.506116390228271484e+00,2.454396009445190430e+00,2.404767036437988281e+00,2.357105731964111328e+00,2.311296463012695312e+00,2.267234086990356445e+00,2.224820137023925781e+00,2.183964014053344727e+00,2.144581556320190430e+00,2.106594085693359375e+00,2.069928884506225586e+00,2.034518480300903320e+00,2.000298976898193359e+00,1.967211604118347168e+00,1.935200810432434082e+00,1.904215455055236816e+00,1.874206423759460449e+00,1.845128774642944336e+00
5.000000000000000000e+00,5.000000000000000000e+00,5.000000000000000000e+00,5.000000000000000000e+00,5.000000000000000000e+00,5.000000000000000000e+00,5.000000000000000000e+00,5.000000000000000000e+00,5.000000000000000000e+00,5.000000000000000000e+00,5.000000000000000000e+00,5.000000000000000000e+00,5.000000000000000000e+00,5.000000000000000000e+00,5.000000000000000000e+00,5.000000000000000000e+00,5.000000000000000000e+00,5.000000000000000000e+00,5.000000000000000000e+00,5.000000000000000000e+00,5.000000000000000000e+00,5.000000000000000000e+00,5.000000000000000000e+00,5.000000000000000000e+00,5.000000000000000000e+00,5.000000000000000000e+00,5.000000000000000000e+00,5.000000000000000000e+00,5.000000000000000000e+00,5.000000000000000000e+00,5.000000000000000000e+00,5.000000000000000000e+00,1.788449525833129883e+00,1.737423658370971680e+00,1.719992995262145996e+00,1.947000265121459961e+00,1.947136998176574707e+00,1.961435914039611816e+00,2.025057315826416016e+00,1.950530648231506348e+00,1.905790925025939941e+00,1.897585511207580566e+00,1.892353534698486328e+00,1.933630943298339844e+00,4.037702560424804688e+00,3.905120611190795898e+00,3.780968427658081055e+00,3.664467334747314453e+00,3.554930686950683594e+00,3.451752662658691406e+00,3.354394912719726562e+00,3.262378692626953125e+00,3.175275802612304688e+00,3.092703104019165039e+00,3.014316320419311523e+00,2.939804792404174805e+00,2.868887901306152344e+00,2.801311969757080078e+00,2.736846446990966797e+00,2.675281047821044922e+00,2.616424798965454102e+00,2.560102224349975586e+00,2.506153345108032227e+00,2.454431533813476562e+00,2.404801130294799805e+00,2.357138156890869141e+00,2.311327934265136719e+00,2.267264366149902344e+00,2.224849224090576172e+00,2.183992147445678711e+00,2.144608497619628906e+00,2.106620311737060547e+00,2.069953918457031250e+00,2.034542798995971680e+00,2.000322341918945312e+00,1.967234373092651367e+00,1.935222983360290527e+00,1.904236912727355957e+00,1.874227166175842285e+00,1.845148921012878418e+00
5.000000000000000000e+00,5.000000000000000000e+00,5.000000000000000000e+00,5.000000000000000000e+00,5.000000000000000000e+00,5.000000000000000000e+00,5.000000000000000000e+00,5.000000000000000000e+00,5.000000000000000000e+00,5.000000000000000000e+00,5.000000000000000000e+00,5.000000000000000000e+00,5.000000000000000000e+00,5.000000000000000000e+00,5.000000000000000000e+00,5.000000000000000000e+00,5.000000000000000000e+00,5.000000000000000000e+00,5.000000000000000000e+00,5.000000000000000000e+00,5.000000000000000000e+00,5.000000000000000000e+00,5.000000000000000000e+00,5.000000000000000000e+00,5.000000000000000000e+00,5.000000000000000000e+00,5.000000000000000000e+00,5.000000000000000000e+00,5.000000000000000000e+00,5.000000000000000000e+00,5.000000000000000000e+00,5.000000000000000000e+00,5.000000000000000000e+00,1.737644314765930176e+00,1.960733890533447266e+00,1.956251859664916992e+00,1.955780148506164551e+00,1.971076369285583496e+00,2.057760238647460938e+00,1.950122952461242676e+00,1.905368924140930176e+00,1.882609844207763672e+00,1.879151105880737305e+00,1.902617454528808594e+00,4.037798404693603516e+00,3.905210018157958984e+00,3.781052350997924805e+00,3.664546251296997070e+00,3.555005073547363281e+00,3.451822996139526367e+00,3.354461431503295898e+00,3.262441158294677734e+00,3.175334930419921875e+00,3.092759370803833008e+00,3.014369726181030273e+00,2.939855575561523438e+00,2.868936538696289062e+00,2.801358461380004883e+00,2.736890554428100586e+00,2.675323247909545898e+00,2.616464853286743164e+00,2.560140609741210938e+00,2.506190299987792969e+00,2.454466819763183594e+00,2.404835224151611328e+00,2.357171058654785156e+00,2.311359405517578125e+00,2.267294406890869141e+00,2.224878311157226562e+00,2.184020280838012695e+00,2.144635677337646484e+00,2.106646299362182617e+00,2.069979190826416016e+00,2.034567117691040039e+00,2.000345945358276367e+00,1.967257022857666016e+00,1.935245037078857422e+00,1.904258012771606445e+00,1.874247908592224121e+00,1.845168828964233398e+00
5.000000000000000000e+00,5.000000000000000000e+00,5.000000000000000000e+00,5.000000000000000000e+00,5.000000000000000000e+00,5.000000000000000000e+00,5.000000000000000000e+00,5.000000000000000000e+00,5.000000000000000000e+00,5.000000000000000000e+00,5.000000000000000000e+00,5.000000000000000000e+00,5.000000000000000000e+00,5.000000000000000000e+00,5.000000000000000000e+00,5.000000000000000000e+00,5.000000000000000000e+00,5.000000000000000000e+00,5.000000000000000000e+00,5.000000000000000000e+00,5.000000000000000000e+00,5.000000000000000000e+00,5.000000000000000000e+00,5.000000000000000000e+00,5.000000000000000000e+00,5.000000000000000000e+00,5.000000000000000000e+00,5.000000000000000000e+00,5.000000000000000000e+00,5.000000000000000000e+00,5.000000000000000000e+00,5.000000000000000000e+00,5.000000000000000000e+00,2.058379173278808594e+00,1.976865410804748535e+00,1.966452836990356445e+00,1.965965151786804199e+00,1.986626863479614258e+00,5.000000000000000000e+00,1.965050101280212402e+00,1.904947042465209961e+00,1.867479920387268066e+00,1.865750432014465332e+00,1.862848758697509766e+00,4.037894248962402344e+00,3.905300140380859375e+00,3.781136751174926758e+00,3.664624929428100586e+00,3.555079460144042969e+00,3.451892852783203125e+00,3.354527473449707031e+00,3.262503862380981445e+00,3.175394535064697266e+00,3.092815876007080078e+00,3.014423370361328125e+00,2.939906358718872070e+00,2.868984699249267578e+00,2.801404476165771484e+00,2.736934423446655273e+00,2.675365447998046875e+00,2.616505384445190430e+00,2.560179233551025391e+00,2.506227493286132812e+00,2.454502105712890625e+00,2.404869079589843750e+00,2.357203722000122070e+00,2.311390876770019531e+00,2.267324686050415039e+00,2.224907636642456055e+00,2.184048414230346680e+00,2.144662618637084961e+00,2.106672286987304688e+00,2.070004463195800781e+00,2.034591436386108398e+00,2.000369548797607422e+00,1.967279911041259766e+00,1.935267210006713867e+00,1.904279470443725586e+00,1.874268651008605957e+00,1.845188856124877930e+00
5.000000000000000000e+00,5.000000000000000000e+00,5.000000000000000000e+00,5.000000000000000000e+00,5.000000000000000000e+00,5.000000000000000000e+00,5.000000000000000000e+00,5.000000000000000000e+00,5.000000000000000000e+00,5.000000000000000000e+00,5.000000000000000000e+00,5.000000000000000000e+00,5.000000000000000000e+00,5.000000000000000000e+00,5.000000000000000000e+00,5.000000000000000000e+00,5.000000000000000000e+00,5.000000000000000000e+00,5.000000000000000000e+00,5.000000000000000000e+00,5.000000000000000000e+00,5.000000000000000000e+00,5.000000000000000000e+00,5.000000000000000000e+00,5.000000000000000000e+00,5.000000000000000000e+00,5.000000000000000000e+00,5.000000000000000000e+00,5.000000000000000000e+00,5.000000000000000000e+00,5.000000000000000000e+00,5.000000000000000000e+00,5.000000000000000000e+00,5.000000000000000000e+00,1.993264555931091309e+00,1.977795004844665527e+00,1.976256370544433594e+00,2.002215623855590820e+00,5.000000000000000000e+00,1.993418216705322266e+00,1.902323126792907715e+00,1.861289501190185547e+00,1.850173115730285645e+00,1.849782466888427734e+00,1.899535059928894043e+00,3.905389547348022461e+00,3.781220674514770508e+00,3.664704322814941406e+00,3.555153846740722656e+00,3.451963186264038086e+00,3.354593753814697266e+00,3.262566328048706055e+00,3.175453662872314453e+00,3.092871904373168945e+00,3.014476537704467773e+00,2.939957380294799805e+00,2.869033336639404297e+00,2.801450729370117188e+00,2.736978769302368164e+00,2.675407409667968750e+00,2.616545438766479492e+00,2.560217857360839844e+00,2.506264209747314453e+00,2.454537868499755859e+00,2.404903173446655273e+00,2.357236385345458984e+00,2.311422348022460938e+00,2.267354965209960938e+00,2.224936723709106445e+00,2.184076309204101562e+00,2.144689798355102539e+00,2.106698513031005859e+00,2.070029735565185547e+00,2.034615755081176758e+00,2.000393152236938477e+00,1.967302680015563965e+00,1.935289025306701660e+00,1.904300808906555176e+00,1.874289155006408691e+00,1.845209002494812012e+00
5.000000000000000000e+00,5.000000000000000000e+00,5.000000000000000000e+00,5.000000000000000000e+00,5.000000000000000000e+00,5.000000000000000000e+00,5.000000000000000000e+00,5.000000000000000000e+00,5.000000000000000000e+00,5.000000000000000000e+00,5.000000000000000000e+00,5.000000000000000000e+00,5.000000000000000000e+00,5.000000000000000000e+00,5.000000000000000000e+00,5.000000000000000000e+00,5.000000000000000000e+00,5.000000000000000000e+00,5.000000000000000000e+00,5.000000000000000000e+00,5.000000000000000000e+00,5.000000000000000000e+00,5.000000000000000000e+00,5.000000000000000000e+00,5.000000000000000000e+00,5.000000000000000000e+00,5.000000000000000000e+00,5.000000000000000000e+00,5.000000000000000000e+00,5.000000000000000000e+00,5.000000000000000000e+00,5.000000000000000000e+00,5.000000000000000000e+00,5.000000000000000000e+00,2.010119199752807617e+00,1.989268898963928223e+00,1.986836552619934082e+00,2.014992237091064453e+00,5.000000000000000000e+00,4.863819122314453125e+00,1.898790359497070312e+00,1.858478665351867676e+00,1.831807971000671387e+00,1.833184003829956055e+00,1.848054766654968262e+00,3.905479669570922852e+00,3.781304597854614258e+00,3.664783239364624023e+00,3.555228233337402344e+00,3.452033042907714844e+00,3.354659795761108398e+00,3.262629270553588867e+00,3.175513267517089844e+00,3.092928409576416016e+00,3.014529943466186523e+00,2.940008163452148438e+00,2.869081735610961914e+00,2.801496744155883789e+00,2.737022638320922852e+00,2.675449609756469727e+00,2.616585969924926758e+00,2.560256481170654297e+00,2.506301164627075195e+00,2.454573154449462891e+00,2.404937267303466797e+00,2.357269048690795898e+00,2.311453580856323242e+00,2.267385244369506836e+00,2.224965810775756836e+00,2.184104442596435547e+00,2.144716739654541016e+00,2.106724739074707031e+00,2.070055007934570312e+00,2.034640073776245117e+00,2.000416755676269531e+00,1.967325568199157715e+00,1.935311079025268555e+00,1.904322266578674316e+00,1.874309897422790527e+00,1.845228910446166992e+00
5.000000000000000000e+00,5.000000000000000000e+00,5.000000000000000000e+00,5.000000000000000000e+00,5.000000000000000000e+00,5.000000000000000000e+00,5.000000000000000000e+00,5.000000000000000000e+00,5.000000000000000000e+00,5.000000000000000000e+00,5.000000000000000000e+00,5.000000000000000000e+00,5.000000000000000000e+00,5.000000000000000000e+00,5.000000000000000000e+00,5.000000000000000000e+00,5.000000000000000000e+00,5.000000000000000000e+00,5.000000000000000000e+00,5.000000000000000000e+00,5.000000000000000000e+00,5.000000000000000000e+00,5.000000000000000000e+00,5.000000000000000000e+00,5.000000000000000000e+00,5.000000000000000000e+00,5.000000000000000000e+00,5.000000000000000000e+00,5.000000000000000000e+00,5.000000000000000000e+00,5.000000000000000000e+00,5.000000000000000000e+00,5.000000000000000000e+00,5.000000000000000000e+00,2.029217243194580078e+00,1.997619390487670898e+00,1.995911240577697754e+00,2.028324127197265625e+00,5.000000000000000000e+00,4.863958358764648438e+00,1.944314837455749512e+00,1.855676293373107910e+00,1.824952125549316406e+00,1.819587230682373047e+00,1.823184609413146973e+00,3.905569314956665039e+00,3.781388998031616211e+00,3.664862394332885742e+00,3.555302858352661133e+00,3.452103376388549805e+00,3.354725837707519531e+00,3.262691736221313477e+00,3.175572395324707031e+00,3.092984676361083984e+00,3.014583587646484375e+00,2.940059185028076172e+00,2.869130134582519531e+00,2.801543235778808594e+00,2.737066745758056641e+00,2.675491571426391602e+00,2.616626024246215820e+00,2.560294866561889648e+00,2.506338119506835938e+00,2.454608678817749023e+00,2.404971361160278320e+00,2.357301950454711914e+00,2.311485052108764648e+00,2.267415523529052734e+00,2.224994897842407227e+00,2.184132575988769531e+00,2.144743919372558594e+00,2.106750726699829102e+00,2.070080280303955078e+00,2.034664630889892578e+00,2.000440120697021484e+00,1.967348098754882812e+00,1.935333251953125000e+00,1.904343485832214355e+00,1.874330639839172363e+00,1.845248937606811523e+00
5.000000000000000000e+00,5.000000000000000000e+00,5.000000000000000000e+00,5.000000000000000000e+00,5.000000000000000000e+00,5.000000000000000000e+00,5.000000000000000000e+00,5.000000000000000000e+00,5.000000000000000000e+00,5.000000000000000000e+00,5.000000000000000000e+00,5.000000000000000000e+00,5.000000000000000000e+00,5.000000000000000000e+00,5.000000000000000000e+00,5.000000000000000000e+00,5.000000000000000000e+00,5.000000000000000000e+00,5.000000000000000000e+00,5.000000000000000000e+00,5.000000000000000000e+00,5.000000000000000000e+00,5.000000000000000000e+00,5.000000000000000000e+00,5.000000000000000000e+00,5.000000000000000000e+00,5.000000000000000000e+00,5.000000000000000000e+00,5.000000000000000000e+00,5.000000000000000000e+00,5.000000000000000000e+00,5.000000000000000000e+00,5.000000000000000000e+00,5.000000000000000000e+00,2.048681497573852539e+00,2.007006168365478516e+00,2.003870725631713867e+00,2.039995431900024414e+00,5.000000000000000000e+00,4.864097595214843750e+00,4.672975063323974609e+00,1.852787375450134277e+00,1.826182603836059570e+00,1.817602515220642090e+00,1.821877241134643555e+00,3.905659198760986328e+00,3.781473159790039062e+00,3.664941310882568359e+00,3.555377006530761719e+00,3.452173471450805664e+00,3.354792356491088867e+00,3.262754440307617188e+00,3.175631999969482422e+00,3.093040943145751953e+00,3.014636993408203125e+00,2.940109729766845703e+00,2.869178533554077148e+00,2.801589250564575195e+00,2.737110853195190430e+00,2.675534009933471680e+00,2.616666555404663086e+00,2.560333728790283203e+00,2.506375074386596680e+00,2.454643964767456055e+00,2.405005216598510742e+00,2.357334375381469727e+00,2.311516523361206055e+00,2.267445802688598633e+00,2.225024223327636719e+00,2.184160709381103516e+00,2.144770860671997070e+00,2.106776952743530273e+00,2.070105314254760742e+00,2.034688949584960938e+00,2.000463724136352539e+00,1.967370986938476562e+00,1.935355305671691895e+00,1.904364824295043945e+00,1.874351143836975098e+00,1.845269083976745605e+00
5.000000000000000000e+00,5.000000000000000000e+00,5.000000000000000000e+00,5.000000000000000000e+00,5.000000000000000000e+00,5.000000000000000000e+00,5.000000000000000000e+00,5.000000000000000000e+00,5.000000000000000000e+00,5.000000000000000000e+00,5.000000000000000000e+00,5.000000000000000000e+00,5.000000000000000000e+00,5.000000000000000000e+00,5.000000000000000000e+00,5.000000000000000000e+00,5.000000000000000000e+00,5.000000000000000000e+00,5.000000000000000000e+00,5.000000000000000000e+00,5.000000000000000000e+00,5.000000000000000000e+00,5.000000000000000000e+00,5.000000000000000000e+00,5.000000000000000000e+00,5.000000000000000000e+00,5.000000000000000000e+00,5.000000000000000000e+00,5.000000000000000000e+00,5.000000000000000000e+00,5.000000000000000000e+00,5.000000000000000000e+00,5.000000000000000000e+00,5.000000000000000000e+00,2.071072578430175781e+00,2.019769668579101562e+00,2.012893676757812500e+00,2.049454450607299805e+00,5.000000000000000000e+00,4.864236831665039062e+00,4.673103332519531250e+00,1.859496831893920898e+00,1.833401441574096680e+00,1.822717547416687012e+00,1.827233910560607910e+00,3.905748844146728516e+00,3.781557321548461914e+00,3.665020465850830078e+00,3.555451631546020508e+00,3.452243328094482422e+00,3.354858398437500000e+00,3.262817144393920898e+00,3.175691127777099609e+00,3.093097209930419922e+00,3.014690637588500977e+00,2.940160751342773438e+00,2.869227170944213867e+00,2.801635265350341797e+00,2.737154960632324219e+00,2.675575971603393555e+00,2.616706609725952148e+00,2.560372114181518555e+00,2.506412267684936523e+00,2.454679727554321289e+00,2.405039548873901367e+00,2.357367038726806641e+00,2.311547994613647461e+00,2.267476081848144531e+00,2.225053310394287109e+00,2.184188604354858398e+00,2.144798040390014648e+00,2.106803178787231445e+00,2.070130586624145508e+00,2.034713268280029297e+00,2.000487327575683594e+00,1.967393875122070312e+00,1.935377240180969238e+00,1.904386281967163086e+00,1.874371886253356934e+00,1.845289111137390137e+00
5.000000000000000000e+00,5.000000000000000000e+00,5.000000000000000000e+00,5.000000000000000000e+00,5.000000000000000000e+00,5.000000000000000000e+00,5.000000000000000000e+00,5.000000000000000000e+00,5.000000000000000000e+00,5.000000000000000000e+00,5.000000000000000000e+00,5.000000000000000000e+00,5.000000000000000000e+00,5.000000000000000000e+00,5.000000000000000000e+00,5.000000000000000000e+00,5.000000000000000000e+00,5.000000000000000000e+00,5.000000000000000000e+00,5.000000000000000000e+00,5.000000000000000000e+00,5.000000000000000000e+00,5.000000000000000000e+00,5.000000000000000000e+00,5.000000000000000000e+00,5.000000000000000000e+00,5.000000000000000000e+00,5.000000000000000000e+00,5.000000000000000000e+00,5.000000000000000000e+00,5.000000000000000000e+00,5.000000000000000000e+00,5.000000000000000000e+00,5.000000000000000000e+00,2.092159748077392578e+00,2.031744003295898438e+00,2.025748491287231445e+00,2.059883356094360352e+00,5.000000000000000000e+00,4.864376068115234375e+00,4.673232078552246094e+00,1.869457483291625977e+00,1.840583562850952148e+00,1.829819440841674805e+00,1.832930684089660645e+00,3.905838251113891602e+00,3.781641483306884766e+00,3.665099382400512695e+00,3.555525779724121094e+00,3.452313661575317383e+00,3.354924917221069336e+00,3.262879848480224609e+00,3.175750732421875000e+00,3.093153476715087891e+00,3.014744043350219727e+00,2.940211534500122070e+00,2.869275569915771484e+00,2.801681518554687500e+00,2.737199068069458008e+00,2.675618171691894531e+00,2.616747140884399414e+00,2.560410499572753906e+00,2.506448984146118164e+00,2.454715013504028320e+00,2.405073404312133789e+00,2.357399940490722656e+00,2.311579465866088867e+00,2.267506361007690430e+00,2.225082397460937500e+00,2.184216737747192383e+00,2.144824981689453125e+00,2.106829166412353516e+00,2.070155858993530273e+00,2.034737586975097656e+00,2.000510931015014648e+00,1.967416644096374512e+00,1.935399293899536133e+00,1.904407382011413574e+00,1.874392628669738770e+00,1.845309019088745117e+00
5.000000000000000000e+00,5.000000000000000000e+00,5.000000000000000000e+00,5.000000000000000000e+00,5.000000000000000000e+00,5.000000000000000000e+00,5.000000000000000000e+00,5.000000000000000000e+00,5.000000000000000000e+00,5.000000000000000000e+00,5.000000000000000000e+00,5.000000000000000000e+00,5.000000000000000000e+00,5.000000000000000000e+00,5.000000000000000000e+00,5.000000000000000000e+00,5.000000000000000000e+00,5.000000000000000000e+00,5.000000000000000000e+00,5.000000000000000000e+00,5.000000000000000000e+00,5.000000000000000000e+00,5.000000000000000000e+00,5.000000000000000000e+00,5.000000000000000000e+00,5.000000000000000000e+00,5.000000000000000000e+00,5.000000000000000000e+00,5.000000000000000000e+00,5.000000000000000000e+00,5.000000000000000000e+00,5.000000000000000000e+00,5.000000000000000000e+00,5.000000000000000000e+00,2.093595504760742188e+00,2.051127433776855469e+00,2.047381162643432617e+00,5.000000000000000000e+00,5.000000000000000000e+00,4.864515304565429688e+00,4.673360347747802734e+00,1.879525303840637207e+00,1.846488952636718750e+00,1.839755654335021973e+00,1.849777936935424805e+00,3.905928373336791992e+00,3.781725883483886719e+00,3.665178537368774414e+00,3.555599927902221680e+00,3.452383756637573242e+00,3.354990959167480469e+00,3.262942314147949219e+00,3.175809860229492188e+00,3.093209743499755859e+00,3.014797687530517578e+00,2.940262556076049805e+00,2.869323730468750000e+00,2.801727771759033203e+00,2.737243175506591797e+00,2.675660133361816406e+00,2.616787195205688477e+00,2.560449361801147461e+00,2.506486177444458008e+00,2.454750537872314453e+00,2.405107259750366211e+00,2.357432603836059570e+00,2.311610937118530273e+00,2.267536640167236328e+00,2.225111484527587891e+00,2.184244871139526367e+00,2.144852161407470703e+00,2.106855392456054688e+00,2.070180892944335938e+00,2.034761905670166016e+00,2.000534296035766602e+00,1.967439293861389160e+00,1.935421466827392578e+00,1.904428839683532715e+00,1.874413371086120605e+00,1.845329165458679199e+00
5.000000000000000000e+00,5.000000000000000000e+00,5.000000000000000000e+00,5.000000000000000000e+00,5.000000000000000000e+00,5.000000000000000000e+00,5.000000000000000000e+00,5.000000000000000000e+00,5.000000000000000000e+00,5.000000000000000000e+00,5.000000000000000000e+00,5.000000000000000000e+00,5.000000000000000000e+00,5.000000000000000000e+00,5.000000000000000000e+00,5.000000000000000000e+00,5.000000000000000000e+00,5.000000000000000000e+00,5.000000000000000000e+00,5.000000000000000000e+00,5.000000000000000000e+00,5.000000000000000000e+00,5.000000000000000000e+00,5.000000000000000000e+00,5.000000000000000000e+00,5.000000000000000000e+00,5.000000000000000000e+00,5.000000000000000000e+00,5.000000000000000000e+00,5.000000000000000000e+00,5.000000000000000000e+00,5.000000000000000000e+00,5.000000000000000000e+00,5.000000000000000000e+00,2.100686073303222656e+00,2.079593181610107422e+00,2.086452960968017578e+00,5.000000000000000000e+00,5.000000000000000000e+00,4.864654541015625000e+00,4.673488616943359375e+00,1.889702200889587402e+00,1.850660204887390137e+00,1.844976067543029785e+00,1.847542762756347656e+00,3.906018018722534180e+00,3.781809806823730469e+00,3.665257453918457031e+00,3.555674552917480469e+00,3.452454090118408203e+00,3.355057239532470703e+00,3.263005256652832031e+00,3.175868988037109375e+00,3.093266010284423828e+00,3.014850854873657227e+00,2.940313339233398438e+00,2.869372367858886719e+00,2.801774024963378906e+00,2.737287282943725586e+00,2.675702571868896484e+00,2.616827487945556641e+00,2.560487747192382812e+00,2.506522893905639648e+00,2.454785823822021484e+00,2.405141592025756836e+00,2.357465267181396484e+00,2.311642408370971680e+00,2.267566919326782227e+00,2.225140571594238281e+00,2.184272766113281250e+00,2.144879102706909180e+00,2.106881380081176758e+00,2.070206165313720703e+00,2.034786462783813477e+00,2.000557899475097656e+00,1.967462062835693359e+00,1.935443282127380371e+00,1.904450178146362305e+00,1.874433875083923340e+00,1.845349192619323730e+00
5.000000000000000000e+00,5.000000000000000000e+00,5.000000000000000000e+00,5.000000000000000000e+00,5.000000000000000000e+00,5.000000000000000000e+00,5.000000000000000000e+00,5.000000000000000000e+00,5.000000000000000000e+00,5.000000000000000000e+00,5.000000000000000000e+00,5.000000000000000000e+00,5.000000000000000000e+00,5.000000000000000000e+00,5.000000000000000000e+00,5.000000000000000000e+00,5.000000000000000000e+00,5.000000000000000000e+00,5.000000000000000000e+00,5.000000000000000000e+00,5.000000000000000000e+00,5.000000000000000000e+00,5.000000000000000000e+00,5.000000000000000000e+00,5.000000000000000000e+00,5.000000000000000000e+00,5.000000000000000000e+00,5.000000000000000000e+00,5.000000000000000000e+00,5.000000000000000000e+00,5.000000000000000000e+00,5.000000000000000000e+00,5.000000000000000000e+00,5.000000000000000000e+00,2.119076013565063477e+00,2.107875108718872070e+00,2.148502111434936523e+00,5.000000000000000000e+00,5.000000000000000000e+00,4.864792823791503906e+00,4.673617362976074219e+00,4.496898651123046875e+00,1.850939035415649414e+00,1.841716408729553223e+00,1.835790634155273438e+00,3.906107902526855469e+00,3.781894207000732422e+00,3.665336847305297852e+00,3.555748939514160156e+00,3.452523946762084961e+00,3.355123519897460938e+00,3.263067722320556641e+00,3.175928592681884766e+00,3.093322515487670898e+00,3.014904499053955078e+00,2.940364360809326172e+00,2.869420766830444336e+00,2.801820039749145508e+00,2.737331390380859375e+00,2.675744533538818359e+00,2.616867780685424805e+00,2.560526371002197266e+00,2.506560087203979492e+00,2.454821586608886719e+00,2.405175447463989258e+00,2.357497930526733398e+00,2.311673641204833984e+00,2.267596960067749023e+00,2.225169658660888672e+00,2.184301137924194336e+00,2.144906282424926758e+00,2.106907606124877930e+00,2.070231437683105469e+00,2.034810543060302734e+00,2.000581502914428711e+00,1.967484951019287109e+00,1.935465455055236816e+00,1.904471635818481445e+00,1.874454617500305176e+00,1.845369338989257812e+00
5.000000000000000000e+00,5.000000000000000000e+00,5.000000000000000000e+00,5.000000000000000000e+00,5.000000000000000000e+00,5.000000000000000000e+00,5.000000000000000000e+00,5.000000000000000000e+00,5.000000000000000000e+00,5.000000000000000000e+00,5.000000000000000000e+00,5.000000000000000000e+00,5.000000000000000000e+00,5.000000000000000000e+00,5.000000000000000000e+00,5.000000000000000000e+00,5.000000000000000000e+00,5.000000000000000000e+00,5.000000000000000000e+00,5.000000000000000000e+00,5.000000000000000000e+00,5.000000000000000000e+00,5.000000000000000000e+00,5.000000000000000000e+00,5.000000000000000000e+00,5.000000000000000000e+00,5.000000000000000000e+00,5.000000000000000000e+00,5.000000000000000000e+00,5.000000000000000000e+00,5.000000000000000000e+00,5.000000000000000000e+00,5.000000000000000000e+00,5.000000000000000000e+00,2.137033462524414062e+00,2.128472805023193359e+00,2.175492525100708008e+00,5.000000000000000000e+00,5.000000000000000000e+00,4.864931583404541016e+00,4.673745155334472656e+00,4.497017860412597656e+00,1.851307630538940430e+00,1.837716698646545410e+00,1.832563042640686035e+00,3.906197547912597656e+00,3.781978130340576172e+00,3.665415763854980469e+00,3.555823564529418945e+00,3.452594280242919922e+00,3.355189800262451172e+00,3.263130187988281250e+00,3.175987958908081055e+00,3.093378543853759766e+00,3.014957904815673828e+00,2.940415143966674805e+00,2.869469404220581055e+00,2.801866531372070312e+00,2.737375497817993164e+00,2.675786495208740234e+00,2.616908073425292969e+00,2.560564994812011719e+00,2.506597042083740234e+00,2.454856872558593750e+00,2.405209541320800781e+00,2.357530832290649414e+00,2.311705350875854492e+00,2.267627239227294922e+00,2.225198745727539062e+00,2.184329032897949219e+00,2.144933462142944336e+00,2.106933593750000000e+00,2.070256710052490234e+00,2.034835100173950195e+00,2.000605106353759766e+00,1.967507600784301758e+00,1.935487508773803711e+00,1.904492855072021484e+00,1.874475359916687012e+00,1.845389246940612793e+00
5.000000000000000000e+00,5.000000000000000000e+00,5.000000000000000000e+00,5.000000000000000000e+00,5.000000000000000000e+00,5.000000000000000000e+00,5.000000000000000000e+00,5.000000000000000000e+00,5.000000000000000000e+00,5.000000000000000000e+00,5.000000000000000000e+00,5.000000000000000000e+00,5.000000000000000000e+00,5.000000000000000000e+00,5.000000000000000000e+00,5.000000000000000000e+00,5.000000000000000000e+00,5.000000000000000000e+00,5.000000000000000000e+00,5.000000000000000000e+00,5.000000000000000000e+00,5.000000000000000000e+00,5.000000000000000000e+00,5.000000000000000000e+00,5.000000000000000000e+00,5.000000000000000000e+00,5.000000000000000000e+00,5.000000000000000000e+00,5.000000000000000000e+00,5.000000000000000000e+00,5.000000000000000000e+00,5.000000000000000000e+00,5.000000000000000000e+00,2.233848333358764648e+00,2.154755115509033203e+00,2.142707347869873047e+00,5.000000000000000000e+00,5.000000000000000000e+00,5.000000000000000000e+00,4.865070343017578125e+00,4.673873424530029297e+00,4.497136592864990234e+00,1.851676464080810547e+00,1.833327174186706543e+00,1.829302072525024414e+00,3.906287670135498047e+00,3.782062530517578125e+00,3.665494441986083984e+00,3.555897712707519531e+00,3.452664375305175781e+00,3.355256080627441406e+00,3.263193130493164062e+00,3.176047325134277344e+00,3.093435049057006836e+00,3.015011548995971680e+00,2.940465927124023438e+00,2.869517564773559570e+00,2.801912546157836914e+00,2.737419605255126953e+00,2.675828695297241211e+00,2.616948604583740234e+00,2.560603618621826172e+00,2.506633996963500977e+00,2.454892158508300781e+00,2.405243635177612305e+00,2.357563257217407227e+00,2.311736583709716797e+00,2.267657518386840820e+00,2.225228071212768555e+00,2.184357166290283203e+00,2.144960403442382812e+00,2.106959819793701172e+00,2.070281744003295898e+00,2.034859418869018555e+00,2.000628471374511719e+00,1.967530369758605957e+00,1.935509562492370605e+00,1.904514193534851074e+00,1.874496102333068848e+00,1.845409274101257324e+00
5.000000000000000000e+00,5.000000000000000000e+00,5.000000000000000000e+00,5.000000000000000000e+00,5.000000000000000000e+00,5.000000000000000000e+00,5.000000000000000000e+00,5.000000000000000000e+00,5.000000000000000000e+00,5.000000000000000000e+00,5.000000000000000000e+00,5.000000000000000000e+00,5.000000000000000000e+00,5.000000000000000000e+00,5.000000000000000000e+00,5.000000000000000000e+00,5.000000000000000000e+00,5.000000000000000000e+00,5.000000000000000000e+00,5.000000000000000000e+00,5.000000000000000000e+00,5.000000000000000000e+00,5.000000000000000000e+00,5.000000000000000000e+00,5.000000000000000000e+00,5.000000000000000000e+00,5.000000000000000000e+00,5.000000000000000000e+00,5.000000000000000000e+00,5.000000000000000000e+00,5.000000000000000000e+00,5.000000000000000000e+00,5.000000000000000000e+00,2.247930765151977539e+00,2.172773599624633789e+00,2.157133340835571289e+00,5.000000000000000000e+00,5.000000000000000000e+00,5.000000000000000000e+00,4.865209102630615234e+00,4.674001693725585938e+00,4.497254848480224609e+00,1.852779984474182129e+00,1.829271435737609863e+00,1.825240254402160645e+00,3.906377077102661133e+00,3.782146453857421875e+00,3.665573835372924805e+00,3.555972337722778320e+00,3.452734708786010742e+00,3.355322360992431641e+00,3.263255596160888672e+00,3.176106691360473633e+00,3.093491315841674805e+00,3.015064954757690430e+00,2.940516948699951172e+00,2.869566202163696289e+00,2.801958799362182617e+00,2.737463712692260742e+00,2.675870895385742188e+00,2.616988658905029297e+00,2.560642242431640625e+00,2.506670951843261719e+00,2.454927921295166016e+00,2.405277729034423828e+00,2.357596158981323242e+00,2.311768293380737305e+00,2.267687797546386719e+00,2.225257158279418945e+00,2.184385299682617188e+00,2.144987583160400391e+00,2.106985807418823242e+00,2.070307254791259766e+00,2.034883737564086914e+00,2.000652313232421875e+00,1.967553257942199707e+00,1.935531497001647949e+00,1.904535651206970215e+00,1.874516606330871582e+00,1.845429420471191406e+00
5.000000000000000000e+00,5.000000000000000000e+00,5.000000000000000000e+00,5.000000000000000000e+00,5.000000000000000000e+00,5.000000000000000000e+00,5.000000000000000000e+00,5.000000000000000000e+00,5.000000000000000000e+00,5.000000000000000000e+00,5.000000000000000000e+00,5.000000000000000000e+00,5.000000000000000000e+00,5.000000000000000000e+00,5.000000000000000000e+00,5.000000000000000000e+00,5.000000000000000000e+00,5.000000000000000000e+00,5.000000000000000000e+00,5.000000000000000000e+00,5.000000000000000000e+00,5.000000000000000000e+00,5.000000000000000000e+00,5.000000000000000000e+00,5.000000000000000000e+00,5.000000000000000000e+00,5.000000000000000000e+00,5.000000000000000000e+00,5.000000000000000000e+00,5.000000000000000000e+00,5.000000000000000000e+00,5.000000000000000000e+00,5.000000000000000000e+00,5.000000000000000000e+00,2.191667556762695312e+00,2.174456119537353516e+00,5.000000000000000000e+00,5.000000000000000000e+00,5.000000000000000000e+00,4.865347862243652344e+00,4.674129486083984375e+00,4.497373580932617188e+00,1.856326937675476074e+00,1.825933098793029785e+00,1.821875691413879395e+00,3.906467199325561523e+00,3.782230377197265625e+00,3.665652751922607422e+00,3.556046485900878906e+00,3.452804803848266602e+00,3.355388402938842773e+00,3.263318538665771484e+00,3.176166057586669922e+00,3.093547821044921875e+00,3.015118360519409180e+00,2.940567731857299805e+00,2.869614601135253906e+00,2.802004814147949219e+00,2.737507820129394531e+00,2.675913095474243164e+00,2.617029190063476562e+00,2.560680866241455078e+00,2.506707906723022461e+00,2.454963207244873047e+00,2.405311584472656250e+00,2.357628822326660156e+00,2.311799526214599609e+00,2.267718076705932617e+00,2.225286245346069336e+00,2.184413433074951172e+00,2.145014524459838867e+00,2.107011795043945312e+00,2.070332288742065430e+00,2.034908056259155273e+00,2.000675678253173828e+00,1.967576026916503906e+00,1.935553669929504395e+00,1.904556989669799805e+00,1.874537348747253418e+00,1.845449328422546387e+00
5.000000000000000000e+00,5.000000000000000000e+00,5.000000000000000000e+00,5.000000000000000000e+00,5.000000000000000000e+00,5.000000000000000000e+00,5.000000000000000000e+00,5.000000000000000000e+00,5.000000000000000000e+00,5.000000000000000000e+00,5.000000000000000000e+00,5.000000000000000000e+00,5.000000000000000000e+00,5.000000000000000000e+00,5.000000000000000000e+00,5.000000000000000000e+00,5.000000000000000000e+00,5.000000000000000000e+00,5.000000000000000000e+00,5.000000000000000000e+00,5.000000000000000000e+00,5.000000000000000000e+00,5.000000000000000000e+00,5.000000000000000000e+00,5.000000000000000000e+00,5.000000000000000000e+00,5.000000000000000000e+00,5.000000000000000000e+00,5.000000000000000000e+00,5.000000000000000000e+00,5.000000000000000000e+00,5.000000000000000000e+00,5.000000000000000000e+00,5.000000000000000000e+00,2.212552309036254883e+00,2.198057413101196289e+00,5.000000000000000000e+00,5.000000000000000000e+00,5.000000000000000000e+00,4.865486621856689453e+00,4.674257755279541016e+00,4.497491836547851562e+00,1.872358798980712891e+00,1.824672460556030273e+00,1.818523526191711426e+00,3.906556844711303711e+00,3.782314777374267578e+00,3.665731906890869141e+00,3.556121110916137695e+00,3.452875137329101562e+00,3.355454683303833008e+00,3.263381004333496094e+00,3.176225423812866211e+00,3.093604087829589844e+00,3.015172004699707031e+00,2.940618753433227539e+00,2.869663238525390625e+00,2.802051305770874023e+00,2.737551689147949219e+00,2.675955057144165039e+00,2.617069244384765625e+00,2.560719251632690430e+00,2.506744861602783203e+00,2.454998731613159180e+00,2.405345678329467773e+00,2.357661485671997070e+00,2.311830997467041016e+00,2.267748355865478516e+00,2.225315332412719727e+00,2.184441328048706055e+00,2.145041704177856445e+00,2.107038021087646484e+00,2.070357561111450195e+00,2.034932613372802734e+00,2.000699281692504883e+00,1.967598676681518555e+00,1.935575723648071289e+00,1.904578208923339844e+00,1.874558091163635254e+00,1.845469355583190918e+00
4.875500679016113281e+00,4.874289512634277344e+00,4.873078823089599609e+00,4.871869087219238281e+00,4.870659828186035156e+00,4.869451045989990234e+00,4.868242740631103516e+00,4.867035388946533203e+00,4.865828514099121094e+00,4.864622116088867188e+00,4.863416671752929688e+00,4.862211227416992188e+00,4.861006736755371094e+00,4.859803199768066406e+00,4.858599662780761719e+00,4.857397079467773438e+00,4.856194972991943359e+00,4.854993820190429688e+00,4.853792667388916016e+00,4.852592468261718750e+00,4.851392745971679688e+00,4.850193500518798828e+00,4.848995208740234375e+00,4.847797393798828125e+00,4.846600055694580078e+00,4.845403194427490234e+00,4.844206809997558594e+00,4.843011379241943359e+00,4.841816425323486328e+00,4.840621948242187500e+00,4.839427947998046875e+00,4.838234901428222656e+00,4.837041854858398438e+00,4.835849761962890625e+00,2.234030723571777344e+00,2.224128961563110352e+00,4.832277297973632812e+00,4.831087589263916016e+00,4.829898357391357422e+00,4.828710079193115234e+00,4.674385547637939453e+00,4.497610569000244141e+00,4.333718776702880859e+00,1.827453970909118652e+00,1.815183639526367188e+00,3.906646490097045898e+00,3.782398939132690430e+00,3.665810823440551758e+00,3.556195497512817383e+00,3.452944993972778320e+00,3.355520963668823242e+00,3.263443708419799805e+00,3.176284790039062500e+00,3.093660116195678711e+00,3.015225410461425781e+00,2.940669536590576172e+00,2.869711637496948242e+00,2.802097320556640625e+00,2.737596035003662109e+00,2.675997257232666016e+00,2.617109775543212891e+00,2.560757875442504883e+00,2.506781816482543945e+00,2.455034255981445312e+00,2.405379772186279297e+00,2.357694149017333984e+00,2.311862468719482422e+00,2.267778635025024414e+00,2.225344657897949219e+00,2.184469461441040039e+00,2.145068645477294922e+00,2.107064247131347656e+00,2.070382833480834961e+00,2.034956932067871094e+00,2.000722885131835938e+00,1.967621564865112305e+00,1.935597777366638184e+00,1.904599666595458984e+00,1.874578595161437988e+00,1.845489501953125000e+00
3.778306245803833008e+00,3.777578830718994141e+00,3.776851892471313477e+00,3.776124954223632812e+00,3.775398492813110352e+00,3.774672269821166992e+00,3.773946285247802734e+00,3.773220539093017578e+00,3.772495031356811523e+00,3.771770477294921875e+00,3.771045446395874023e+00,3.770320892333984375e+00,3.769596576690673828e+00,3.768872737884521484e+00,3.768148899078369141e+00,3.767425537109375000e+00,3.766702175140380859e+00,3.765979290008544922e+00,3.765256643295288086e+00,3.764534235000610352e+00,3.763812303543090820e+00,3.763090372085571289e+00,3.762368917465209961e+00,3.761647701263427734e+00,3.760926723480224609e+00,3.760205984115600586e+00,3.759485721588134766e+00,3.758765459060668945e+00,3.758045673370361328e+00,3.757326126098632812e+00,3.756606817245483398e+00,3.755887746810913086e+00,3.755168914794921875e+00,3.754450321197509766e+00,2.268523931503295898e+00,2.269169807434082031e+00,3.752296447753906250e+00,3.751579046249389648e+00,3.750862121582031250e+00,3.750145196914672852e+00,3.749428510665893555e+00,3.748712301254272461e+00,3.747996330261230469e+00,1.830886602401733398e+00,1.812058448791503906e+00,3.745849847793579102e+00,3.745134830474853516e+00,3.665890216827392578e+00,3.556270122528076172e+00,3.453015089035034180e+00,3.355587244033813477e+00,3.263506412506103516e+00,3.176344156265258789e+00,3.093716621398925781e+00,3.015279054641723633e+00,2.940720558166503906e+00,2.869760036468505859e+00,2.802143573760986328e+00,2.737639904022216797e+00,2.676039457321166992e+00,2.617150068283081055e+00,2.560796499252319336e+00,2.506818771362304688e+00,2.455069780349731445e+00,2.405413866043090820e+00,2.357726812362670898e+00,2.311893939971923828e+00,2.267808914184570312e+00,2.225373744964599609e+00,2.184497594833374023e+00,2.145095825195312500e+00,2.107090473175048828e+00,2.070408105850219727e+00,2.034981250762939453e+00,2.000746250152587891e+00,1.967644333839416504e+00,1.935619711875915527e+00,1.904621005058288574e+00,1.874599337577819824e+00,1.845509529113769531e+00
3.084225177764892578e+00,3.083740472793579102e+00,3.083255767822265625e+00,3.082771778106689453e+00,3.082287549972534180e+00,3.081803560256958008e+00,3.081319570541381836e+00,3.080835819244384766e+00,3.080352067947387695e+00,3.079868555068969727e+00,3.079385280609130859e+00,3.078902006149291992e+00,3.078418970108032227e+00,3.077936172485351562e+00,3.077453374862670898e+00,3.076970815658569336e+00,3.076488494873046875e+00,3.076006174087524414e+00,3.075524091720581055e+00,3.075042247772216797e+00,3.074560403823852539e+00,3.074078559875488281e+00,3.073597192764282227e+00,3.073115825653076172e+00,3.072634458541870117e+00,3.072153568267822266e+00,3.071672439575195312e+00,3.071191787719726562e+00,3.070711135864257812e+00,3.070230722427368164e+00,3.069750308990478516e+00,3.069270372390747070e+00,3.068790197372436523e+00,3.068310260772705078e+00,2.269069910049438477e+00,2.247187852859497070e+00,3.066871643066406250e+00,3.066392421722412109e+00,3.065913438796997070e+00,3.065434455871582031e+00,3.064955711364746094e+00,3.064476966857910156e+00,3.063998460769653320e+00,1.842541456222534180e+00,1.817792654037475586e+00,3.062563896179199219e+00,3.062085866928100586e+00,3.061608076095581055e+00,3.061130523681640625e+00,3.060653209686279297e+00,3.060175895690917969e+00,3.059698581695556641e+00,3.059221506118774414e+00,3.058744668960571289e+00,3.015332460403442383e+00,2.940771341323852539e+00,2.869808435440063477e+00,2.802189826965332031e+00,2.737684249877929688e+00,2.676081657409667969e+00,2.617190361022949219e+00,2.560835123062133789e+00,2.506855726242065430e+00,2.455105066299438477e+00,2.405447959899902344e+00,2.357759714126586914e+00,2.311925411224365234e+00,2.267839193344116211e+00,2.225402832031250000e+00,2.184525489807128906e+00,2.145122766494750977e+00,2.107116460800170898e+00,2.070433139801025391e+00,2.035005569458007812e+00,2.000769853591918945e+00,1.967667222023010254e+00,1.935641765594482422e+00,1.904642224311828613e+00,1.874620079994201660e+00,1.845529437065124512e+00
2.605576515197753906e+00,2.605230569839477539e+00,2.604884862899780273e+00,2.604538917541503906e+00,2.604193449020385742e+00,2.603847742080688477e+00,2.603502273559570312e+00,2.603156805038452148e+00,2.602811574935913086e+00,2.602466344833374023e+00,2.602121353149414062e+00,2.601776361465454102e+00,2.601431369781494141e+00,2.601086616516113281e+00,2.600741863250732422e+00,2.600397109985351562e+00,2.600052595138549805e+00,2.599708080291748047e+00,2.599363803863525391e+00,2.599019527435302734e+00,2.598675251007080078e+00,2.598330974578857422e+00,2.597986936569213867e+00,2.597643136978149414e+00,2.597299337387084961e+00,2.596955537796020508e+00,2.596611976623535156e+00,2.596268415451049805e+00,2.595924854278564453e+00,2.595581531524658203e+00,2.595238208770751953e+00,2.594895124435424805e+00,2.594551801681518555e+00,2.594208955764770508e+00,2.241866588592529297e+00,2.216263055801391602e+00,2.215308427810668945e+00,2.592837810516357422e+00,2.592495203018188477e+00,2.592152595520019531e+00,2.591810226440429688e+00,2.591468095779418945e+00,2.591125726699829102e+00,1.837730169296264648e+00,1.790055871009826660e+00,1.750952959060668945e+00,2.589757919311523438e+00,2.589416265487670898e+00,2.589074611663818359e+00,2.588732957839965820e+00,2.588391542434692383e+00,2.588050127029418945e+00,2.587708711624145508e+00,2.587367534637451172e+00,2.587026357650756836e+00,2.586685657501220703e+00,2.586344718933105469e+00,2.586003780364990234e+00,2.585663080215454102e+00,2.585322380065917969e+00,2.584981918334960938e+00,2.560873746871948242e+00,2.506892919540405273e+00,2.455140590667724609e+00,2.405481815338134766e+00,2.357792377471923828e+00,2.311956882476806641e+00,2.267869472503662109e+00,2.225431919097900391e+00,2.184553623199462891e+00,2.145149946212768555e+00,2.107142686843872070e+00,2.070458412170410156e+00,2.035029888153076172e+00,2.000793457031250000e+00,1.967689871788024902e+00,1.935663938522338867e+00,1.904663681983947754e+00,1.874640822410583496e+00,1.845549583435058594e+00
2.255546092987060547e+00,2.255286216735839844e+00,2.255026578903198242e+00,2.254766941070556641e+00,2.254507541656494141e+00,2.254247903823852539e+00,2.253988504409790039e+00,2.253729104995727539e+00,2.253469705581665039e+00,2.253210544586181641e+00,2.252951145172119141e+00,2.252692222595214844e+00,2.252433061599731445e+00,2.252173900604248047e+00,2.251914978027343750e+00,2.251656055450439453e+00,2.251397132873535156e+00,2.251138448715209961e+00,2.250879764556884766e+00,2.250621080398559570e+00,2.250362396240234375e+00,2.250103950500488281e+00,2.249845504760742188e+00,2.249587059020996094e+00,2.249329090118408203e+00,2.249071359634399414e+00,2.248813629150390625e+00,2.248555898666381836e+00,2.248298168182373047e+00,2.248040676116943359e+00,2.247783184051513672e+00,2.247525691986083984e+00,2.247268438339233398e+00,2.247010946273803711e+00,2.246753692626953125e+00,2.174381732940673828e+00,2.164216995239257812e+00,2.167909860610961914e+00,2.245725154876708984e+00,2.245468139648437500e+00,2.245211124420166016e+00,2.244954347610473633e+00,2.244697570800781250e+00,1.842600822448730469e+00,1.794763684272766113e+00,1.719641804695129395e+00,1.684358716011047363e+00,1.726551771163940430e+00,2.243158102035522461e+00,2.242901563644409180e+00,2.242645263671875000e+00,2.242388963699340820e+00,2.242132902145385742e+00,2.241876602172851562e+00,2.241620540618896484e+00,2.241364479064941406e+00,2.241108417510986328e+00,2.240852594375610352e+00,2.240596771240234375e+00,2.240340948104858398e+00,2.240085124969482422e+00,2.239829540252685547e+00,2.239573717117309570e+00,2.239318132400512695e+00,2.239062786102294922e+00,2.238807201385498047e+00,2.238551855087280273e+00,2.238296508789062500e+00,2.225461006164550781e+00,2.184581756591796875e+00,2.145177125930786133e+00,2.107168674468994141e+00,2.070483684539794922e+00,2.035054445266723633e+00,2.000817060470581055e+00,1.967712640762329102e+00,1.935685873031616211e+00,1.904685020446777344e+00,1.874661326408386230e+00,1.845569610595703125e+00
1.988445878028869629e+00,1.988244175910949707e+00,1.988042235374450684e+00,1.987840414047241211e+00,1.987638831138610840e+00,1.987437009811401367e+00,1.987235307693481445e+00,1.987033843994140625e+00,1.986832141876220703e+00,1.986630558967590332e+00,1.986429214477539062e+00,1.986227631568908691e+00,1.986026167869567871e+00,1.985824942588806152e+00,1.985623478889465332e+00,1.985422134399414062e+00,1.985220789909362793e+00,1.985019803047180176e+00,1.984818458557128906e+00,1.984617233276367188e+00,1.984416365623474121e+00,1.984215140342712402e+00,1.984014153480529785e+00,1.983813285827636719e+00,1.983612298965454102e+00,1.983411312103271484e+00,1.983210563659667969e+00,1.983009696006774902e+00,1.982808947563171387e+00,1.982608318328857422e+00,1.982407569885253906e+00,1.982206821441650391e+00,1.982006192207336426e+00,1.981805682182312012e+00,1.981605172157287598e+00,1.981404542922973633e+00,1.981204271316528320e+00,1.981003761291503906e+00,1.980803370475769043e+00,1.980603218078613281e+00,1.980402827262878418e+00,1.980202555656433105e+00,1.980002403259277344e+00,1.979802250862121582e+00,1.979601979255676270e+00,1.979402065277099609e+00,1.979202032089233398e+00,1.979001879692077637e+00,1.978801846504211426e+00,1.978602051734924316e+00,1.978402137756347656e+00,1.978202223777770996e+00,1.978002548217773438e+00,1.977802753448486328e+00,1.977602958679199219e+00,1.977403402328491211e+00,1.977203726768493652e+00,1.977004051208496094e+00,1.976804614067077637e+00,1.976605057716369629e+00,1.976405501365661621e+00,1.976205945014953613e+00,1.976006746292114258e+00,1.975807309150695801e+00,1.975607872009277344e+00,1.975408792495727539e+00,1.975209474563598633e+00,1.975010156631469727e+00,1.974811196327209473e+00,1.974611997604370117e+00,1.974412798881530762e+00,1.974213957786560059e+00,1.974014878273010254e+00,1.973815798759460449e+00,1.973617076873779297e+00,1.967735528945922852e+00,1.935707926750183105e+00,1.904706478118896484e+00,1.874682068824768066e+00,1.845589756965637207e+00
1.777907609939575195e+00,1.777746081352233887e+00,1.777584671974182129e+00,1.777423501014709473e+00,1.777262091636657715e+00,1.777100801467895508e+00,1.776939749717712402e+00,1.776778459548950195e+00,1.776617169380187988e+00,1.776455998420715332e+00,1.776294946670532227e+00,1.776133775711059570e+00,1.775972723960876465e+00,1.775811791419982910e+00,1.775650739669799805e+00,1.775489687919616699e+00,1.775328874588012695e+00,1.775167822837829590e+00,1.775006890296936035e+00,1.774846196174621582e+00,1.774685263633728027e+00,1.774524450302124023e+00,1.774363756179809570e+00,1.774202942848205566e+00,1.774042129516601562e+00,1.773881435394287109e+00,1.773720860481262207e+00,1.773560166358947754e+00,1.773399591445922852e+00,1.773239135742187500e+00,1.773078441619873047e+00,1.772917866706848145e+00,1.772757530212402344e+00,1.772597074508666992e+00,1.772436499595642090e+00,1.772276282310485840e+00,1.772115826606750488e+00,1.771955490112304688e+00,1.771795272827148438e+00,1.771634936332702637e+00,1.771474599838256836e+00,1.771314263343811035e+00,1.771154284477233887e+00,1.770993947982788086e+00,1.770833849906921387e+00,1.770673871040344238e+00,1.770513653755187988e+00,1.770353555679321289e+00,1.770193696022033691e+00,1.770033597946166992e+00,1.769873619079589844e+00,1.769713759422302246e+00,1.769553780555725098e+00,1.769393920898437500e+00,1.769233942031860352e+00,1.769074201583862305e+00,1.768914461135864258e+00,1.768754601478576660e+00,1.768594980239868164e+00,1.768435239791870117e+00,1.768275499343872070e+00,1.768115997314453125e+00,1.767956256866455078e+00,1.767796635627746582e+00,1.767637133598327637e+00,1.767477631568908691e+00,1.767318010330200195e+00,1.767158746719360352e+00,1.766999244689941406e+00,1.766839742660522461e+00,1.766680240631103516e+00,1.766521096229553223e+00,1.766361594200134277e+00,1.766202330589294434e+00,1.766043186187744141e+00,1.765883803367614746e+00,1.765724539756774902e+00,1.765565514564514160e+00,1.765406370162963867e+00,1.765247106552124023e+00
1.607684493064880371e+00,1.607552409172058105e+00,1.607420444488525391e+00,1.607288599014282227e+00,1.607156634330749512e+00,1.607024788856506348e+00,1.606892943382263184e+00,1.606761097908020020e+00,1.606629252433776855e+00,1.606497526168823242e+00,1.606365680694580078e+00,1.606233954429626465e+00,1.606102347373962402e+00,1.605970501899719238e+00,1.605838775634765625e+00,1.605707287788391113e+00,1.605575561523437500e+00,1.605443954467773438e+00,1.605312228202819824e+00,1.605180740356445312e+00,1.605049133300781250e+00,1.604917645454406738e+00,1.604786157608032227e+00,1.604654669761657715e+00,1.604523062705993652e+00,1.604391813278198242e+00,1.604260325431823730e+00,1.604128837585449219e+00,1.603997588157653809e+00,1.603866100311279297e+00,1.603734731674194336e+00,1.603603601455688477e+00,1.603472232818603516e+00,1.603340864181518555e+00,1.603209614753723145e+00,1.603078484535217285e+00,1.602947235107421875e+00,1.602815985679626465e+00,1.602684855461120605e+00,1.602553725242614746e+00,1.602422475814819336e+00,1.602291464805603027e+00,1.602160334587097168e+00,1.602029323577880859e+00,1.601898312568664551e+00,1.601767301559448242e+00,1.601636171340942383e+00,1.601505398750305176e+00,1.601374387741088867e+00,1.601243376731872559e+00,1.601112365722656250e+00,1.600981593132019043e+00,1.600850701332092285e+00,1.600719809532165527e+00,1.600589156150817871e+00,1.600458264350891113e+00,1.600327372550964355e+00,1.600196719169616699e+00,1.600065946578979492e+00,1.599935173988342285e+00,1.599804520606994629e+00,1.599673867225646973e+00,1.599543094635009766e+00,1.599412441253662109e+00,1.599281907081604004e+00,1.599151253700256348e+00,1.599020719528198242e+00,1.598890304565429688e+00,1.598759651184082031e+00,1.598629117012023926e+00,1.598498702049255371e+00,1.598368287086486816e+00,1.598237752914428711e+00,1.598107457160949707e+00,1.597976922988891602e+00,1.597846508026123047e+00,1.597716331481933594e+00,1.597585916519165039e+00,1.597455501556396484e+00,1.597325205802917480e+00
1.467208743095397949e+00,1.467098712921142578e+00,1.466988921165466309e+00,1.466879010200500488e+00,1.466769099235534668e+00,1.466659426689147949e+00,1.466549515724182129e+00,1.466439604759216309e+00,1.466329932212829590e+00,1.466220140457153320e+00,1.466110348701477051e+00,1.466000556945800781e+00,1.465890884399414062e+00,1.465781092643737793e+00,1.465671300888061523e+00,1.465561747550964355e+00,1.465452075004577637e+00,1.465342402458190918e+00,1.465232849121093750e+00,1.465123176574707031e+00,1.465013504028320312e+00,1.464904069900512695e+00,1.464794397354125977e+00,1.464684844017028809e+00,1.464575409889221191e+00,1.464465737342834473e+00,1.464356303215026855e+00,1.464246749877929688e+00,1.464137315750122070e+00,1.464027881622314453e+00,1.463918328285217285e+00,1.463809013366699219e+00,1.463699579238891602e+00,1.463590145111083984e+00,1.463480830192565918e+00,1.463371515274047852e+00,1.463262081146240234e+00,1.463152885437011719e+00,1.463043451309204102e+00,1.462934136390686035e+00,1.462824940681457520e+00,1.462715744972229004e+00,1.462606430053710938e+00,1.462497115135192871e+00,1.462388038635253906e+00,1.462278842926025391e+00,1.462169647216796875e+00,1.462060570716857910e+00,1.461951375007629395e+00,1.461842179298400879e+00,1.461733102798461914e+00,1.461624026298522949e+00,1.461514949798583984e+00,1.461405873298645020e+00,1.461296796798706055e+00,1.461187720298767090e+00,1.461078763008117676e+00,1.460969805717468262e+00,1.460860729217529297e+00,1.460751771926879883e+00,1.460642933845520020e+00,1.460533976554870605e+00,1.460425019264221191e+00,1.460316181182861328e+00,1.460207223892211914e+00,1.460098385810852051e+00,1.459989547729492188e+00,1.459880709648132324e+00,1.459771871566772461e+00,1.459663152694702148e+00,1.459554314613342285e+00,1.459445476531982422e+00,1.459336757659912109e+00,1.459228038787841797e+00,1.459119319915771484e+00,1.459010601043701172e+00,1.458902001380920410e+00,1.458793282508850098e+00,1.458684563636779785e+00,1.458575963973999023e+00
1.349309206008911133e+00,1.349216341972351074e+00,1.349123358726501465e+00,1.349030375480651855e+00,1.348937392234802246e+00,1.348844528198242188e+00,1.348751664161682129e+00,1.348658680915832520e+00,1.348565936088562012e+00,1.348473072052001953e+00,1.348380088806152344e+00,1.348287343978881836e+00,1.348194479942321777e+00,1.348101735115051270e+00,1.348008990287780762e+00,1.347916126251220703e+00,1.347823381423950195e+00,1.347730636596679688e+00,1.347637891769409180e+00,1.347545146942138672e+00,1.347452402114868164e+00,1.347359776496887207e+00,1.347267031669616699e+00,1.347174406051635742e+00,1.347081780433654785e+00,1.346989035606384277e+00,1.346896409988403320e+00,1.346803903579711914e+00,1.346711158752441406e+00,1.346618533134460449e+00,1.346526026725769043e+00,1.346433401107788086e+00,1.346340894699096680e+00,1.346248388290405273e+00,1.346155762672424316e+00,1.346063256263732910e+00,1.345970749855041504e+00,1.345878243446350098e+00,1.345785737037658691e+00,1.345693230628967285e+00,1.345600843429565430e+00,1.345508337020874023e+00,1.345415949821472168e+00,1.345323562622070312e+00,1.345231056213378906e+00,1.345138669013977051e+00,1.345046401023864746e+00,1.344953894615173340e+00,1.344861507415771484e+00,1.344769239425659180e+00,1.344676971435546875e+00,1.344584584236145020e+00,1.344492197036743164e+00,1.344399929046630859e+00,1.344307661056518555e+00,1.344215393066406250e+00,1.344123125076293945e+00,1.344030857086181641e+00,1.343938589096069336e+00,1.343846440315246582e+00,1.343754172325134277e+00,1.343662023544311523e+00,1.343569874763488770e+00,1.343477725982666016e+00,1.343385457992553711e+00,1.343293309211730957e+00,1.343201279640197754e+00,1.343109130859375000e+00,1.343016982078552246e+00,1.342924952507019043e+00,1.342832803726196289e+00,1.342740654945373535e+00,1.342648744583129883e+00,1.342556595802307129e+00,1.342464566230773926e+00,1.342372655868530273e+00,1.342280626296997070e+00,1.342188596725463867e+00,1.342096686363220215e+00,1.342004656791687012e+00
1.248948216438293457e+00,1.248868703842163086e+00,1.248789072036743164e+00,1.248709440231323242e+00,1.248629808425903320e+00,1.248550176620483398e+00,1.248470544815063477e+00,1.248391032218933105e+00,1.248311400413513184e+00,1.248231887817382812e+00,1.248152375221252441e+00,1.248072743415832520e+00,1.247993230819702148e+00,1.247913718223571777e+00,1.247834205627441406e+00,1.247754693031311035e+00,1.247675180435180664e+00,1.247595787048339844e+00,1.247516274452209473e+00,1.247436761856079102e+00,1.247357368469238281e+00,1.247277855873107910e+00,1.247198462486267090e+00,1.247119069099426270e+00,1.247039675712585449e+00,1.246960163116455078e+00,1.246880888938903809e+00,1.246801495552062988e+00,1.246722102165222168e+00,1.246642708778381348e+00,1.246563315391540527e+00,1.246484041213989258e+00,1.246404647827148438e+00,1.246325373649597168e+00,1.246246099472045898e+00,1.246166706085205078e+00,1.246087431907653809e+00,1.246008157730102539e+00,1.245928883552551270e+00,1.245849728584289551e+00,1.245770335197448730e+00,1.245691180229187012e+00,1.245611906051635742e+00,1.245532751083374023e+00,1.245453476905822754e+00,1.245374202728271484e+00,1.245295166969299316e+00,1.245215892791748047e+00,1.245136737823486328e+00,1.245057582855224609e+00,1.244978427886962891e+00,1.244899272918701172e+00,1.244820237159729004e+00,1.244741082191467285e+00,1.244661927223205566e+00,1.244582891464233398e+00,1.244503736495971680e+00,1.244424581527709961e+00,1.244345545768737793e+00,1.244266510009765625e+00,1.244187474250793457e+00,1.244108438491821289e+00,1.244029402732849121e+00,1.243950366973876953e+00,1.243871331214904785e+00,1.243792414665222168e+00,1.243713378906250000e+00,1.243634343147277832e+00,1.243555426597595215e+00,1.243476510047912598e+00,1.243397474288940430e+00,1.243318676948547363e+00,1.243239641189575195e+00,1.243160724639892578e+00,1.243081808090209961e+00,1.243003010749816895e+00,1.242924094200134277e+00,1.242845177650451660e+00,1.242766380310058594e+00,1.242687463760375977e+00
1.162483453750610352e+00,1.162414431571960449e+00,1.162345409393310547e+00,1.162276506423950195e+00,1.162207484245300293e+00,1.162138581275939941e+00,1.162069559097290039e+00,1.162000656127929688e+00,1.161931633949279785e+00,1.161862730979919434e+00,1.161793828010559082e+00,1.161724925041198730e+00,1.161656022071838379e+00,1.161587119102478027e+00,1.161518216133117676e+00,1.161449313163757324e+00,1.161380529403686523e+00,1.161311626434326172e+00,1.161242723464965820e+00,1.161173939704895020e+00,1.161105036735534668e+00,1.161036133766174316e+00,1.160967350006103516e+00,1.160898566246032715e+00,1.160829663276672363e+00,1.160760879516601562e+00,1.160692095756530762e+00,1.160623311996459961e+00,1.160554528236389160e+00,1.160485744476318359e+00,1.160416960716247559e+00,1.160348176956176758e+00,1.160279512405395508e+00,1.160210728645324707e+00,1.160142064094543457e+00,1.160073280334472656e+00,1.160004615783691406e+00,1.159935832023620605e+00,1.159867167472839355e+00,1.159798502922058105e+00,1.159729838371276855e+00,1.159661054611206055e+00,1.159592509269714355e+00,1.159523844718933105e+00,1.159455180168151855e+00,1.159386515617370605e+00,1.159317851066589355e+00,1.159249186515808105e+00,1.159180641174316406e+00,1.159111976623535156e+00,1.159043431282043457e+00,1.158974885940551758e+00,1.158906221389770508e+00,1.158837676048278809e+00,1.158769011497497559e+00,1.158700585365295410e+00,1.158631920814514160e+00,1.158563375473022461e+00,1.158494949340820312e+00,1.158426403999328613e+00,1.158357858657836914e+00,1.158289432525634766e+00,1.158220887184143066e+00,1.158152341842651367e+00,1.158083915710449219e+00,1.158015370368957520e+00,1.157946944236755371e+00,1.157878398895263672e+00,1.157809972763061523e+00,1.157741546630859375e+00,1.157673120498657227e+00,1.157604694366455078e+00,1.157536268234252930e+00,1.157467842102050781e+00,1.157399535179138184e+00,1.157331109046936035e+00,1.157262682914733887e+00,1.157194375991821289e+00,1.157125949859619141e+00,1.157057523727416992e+00
1.087215423583984375e+00,1.087154984474182129e+00,1.087094664573669434e+00,1.087034344673156738e+00,1.086974024772644043e+00,1.086913585662841797e+00,1.086853384971618652e+00,1.086793065071105957e+00,1.086732625961303711e+00,1.086672425270080566e+00,1.086612105369567871e+00,1.086551785469055176e+00,1.086491584777832031e+00,1.086431264877319336e+00,1.086370944976806641e+00,1.086310744285583496e+00,1.086250543594360352e+00,1.086190223693847656e+00,1.086130023002624512e+00,1.086069822311401367e+00,1.086009502410888672e+00,1.085949301719665527e+00,1.085889101028442383e+00,1.085828900337219238e+00,1.085768699645996094e+00,1.085708498954772949e+00,1.085648298263549805e+00,1.085588097572326660e+00,1.085528016090393066e+00,1.085467815399169922e+00,1.085407614707946777e+00,1.085347414016723633e+00,1.085287332534790039e+00,1.085227251052856445e+00,1.085167050361633301e+00,1.085106968879699707e+00,1.085046768188476562e+00,1.084986686706542969e+00,1.084926605224609375e+00,1.084866523742675781e+00,1.084806442260742188e+00,1.084746360778808594e+00,1.084686279296875000e+00,1.084626078605651855e+00,1.084566116333007812e+00,1.084506034851074219e+00,1.084445953369140625e+00,1.084385871887207031e+00,1.084325909614562988e+00,1.084265828132629395e+00,1.084205746650695801e+00,1.084145784378051758e+00,1.084085822105407715e+00,1.084025740623474121e+00,1.083965778350830078e+00,1.083905816078186035e+00,1.083845734596252441e+00,1.083785891532897949e+00,1.083725810050964355e+00,1.083665847778320312e+00,1.083605885505676270e+00,1.083546042442321777e+00,1.083485960960388184e+00,1.083425998687744141e+00,1.083366155624389648e+00,1.083306193351745605e+00,1.083246231079101562e+00,1.083186388015747070e+00,1.083126425743103027e+00,1.083066582679748535e+00,1.083006739616394043e+00,1.082946777343750000e+00,1.082886934280395508e+00,1.082827091217041016e+00,1.082767128944396973e+00,1.082707285881042480e+00,1.082647442817687988e+00,1.082587599754333496e+00,1.082527756690979004e+00,1.082467913627624512e+00
1.021101355552673340e+00,1.021048188209533691e+00,1.020995020866394043e+00,1.020941734313964844e+00,1.020888447761535645e+00,1.020835280418395996e+00,1.020782113075256348e+00,1.020728826522827148e+00,1.020675659179687500e+00,1.020622491836547852e+00,1.020569324493408203e+00,1.020516037940979004e+00,1.020462989807128906e+00,1.020409703254699707e+00,1.020356535911560059e+00,1.020303487777709961e+00,1.020250320434570312e+00,1.020197153091430664e+00,1.020143985748291016e+00,1.020090818405151367e+00,1.020037651062011719e+00,1.019984602928161621e+00,1.019931435585021973e+00,1.019878387451171875e+00,1.019825220108032227e+00,1.019772171974182129e+00,1.019719004631042480e+00,1.019665956497192383e+00,1.019612908363342285e+00,1.019559741020202637e+00,1.019506692886352539e+00,1.019453644752502441e+00,1.019400596618652344e+00,1.019347548484802246e+00,1.019294500350952148e+00,1.019241452217102051e+00,1.019188404083251953e+00,1.019135355949401855e+00,1.019082307815551758e+00,1.019029259681701660e+00,1.018976211547851562e+00,1.018923282623291016e+00,1.018870234489440918e+00,1.018817186355590820e+00,1.018764257431030273e+00,1.018711209297180176e+00,1.018658161163330078e+00,1.018605232238769531e+00,1.018552303314208984e+00,1.018499255180358887e+00,1.018446326255798340e+00,1.018393397331237793e+00,1.018340468406677246e+00,1.018287420272827148e+00,1.018234491348266602e+00,1.018181562423706055e+00,1.018128633499145508e+00,1.018075704574584961e+00,1.018022775650024414e+00,1.017969846725463867e+00,1.017917037010192871e+00,1.017864108085632324e+00,1.017811179161071777e+00,1.017758250236511230e+00,1.017705440521240234e+00,1.017652511596679688e+00,1.017599701881408691e+00,1.017546772956848145e+00,1.017493844032287598e+00,1.017441034317016602e+00,1.017388224601745605e+00,1.017335295677185059e+00,1.017282485961914062e+00,1.017229676246643066e+00,1.017176747322082520e+00,1.017123937606811523e+00,1.017071127891540527e+00,1.017018318176269531e+00,1.016965508460998535e+00,1.016912698745727539e+00
9.625673890113830566e-01,9.625201225280761719e-01,9.624728560447692871e-01,9.624254703521728516e-01,9.623782038688659668e-01,9.623309373855590820e-01,9.622836112976074219e-01,9.622363448143005371e-01,9.621890783309936523e-01,9.621417522430419922e-01,9.620945453643798828e-01,9.620472788810729980e-01,9.619999527931213379e-01,9.619527459144592285e-01,9.619055390357971191e-01,9.618582129478454590e-01,9.618110656738281250e-01,9.617637395858764648e-01,9.617165327072143555e-01,9.616693854331970215e-01,9.616220593452453613e-01,9.615749120712280273e-01,9.615277051925659180e-01,9.614804387092590332e-01,9.614332914352416992e-01,9.613860845565795898e-01,9.613388180732727051e-01,9.612916707992553711e-01,9.612445235252380371e-01,9.611973166465759277e-01,9.611501693725585938e-01,9.611030220985412598e-01,9.610558152198791504e-01,9.610086679458618164e-01,9.609615802764892578e-01,9.609143137931823730e-01,9.608672261238098145e-01,9.608201384544372559e-01,9.607729315757751465e-01,9.607258439064025879e-01,9.606786966323852539e-01,9.606315493583679199e-01,9.605844616889953613e-01,9.605373740196228027e-01,9.604901671409606934e-01,9.604431390762329102e-01,9.603960514068603516e-01,9.603489041328430176e-01,9.603018164634704590e-01,9.602546691894531250e-01,9.602076411247253418e-01,9.601606130599975586e-01,9.601134657859802246e-01,9.600664377212524414e-01,9.600194096565246582e-01,9.599722623825073242e-01,9.599252343177795410e-01,9.598782062530517578e-01,9.598311185836791992e-01,9.597840905189514160e-01,9.597371220588684082e-01,9.596900343894958496e-01,9.596430063247680664e-01,9.595960378646850586e-01,9.595489501953125000e-01,9.595019817352294922e-01,9.594550132751464844e-01,9.594079256057739258e-01,9.593609571456909180e-01,9.593139886856079102e-01,9.592669606208801270e-01,9.592199921607971191e-01,9.591730833053588867e-01,9.591259956359863281e-01,9.590790867805480957e-01,9.590321183204650879e-01,9.589850902557373047e-01,9.589381814002990723e-01,9.588911533355712891e-01,9.588442444801330566e-01
9.103803634643554688e-01,9.103381037712097168e-01,9.102957248687744141e-01,9.102534651756286621e-01,9.102111458778381348e-01,9.101687669754028320e-01,9.101265072822570801e-01,9.100842475891113281e-01,9.100419282913208008e-01,9.099996685981750488e-01,9.099572896957397461e-01,9.099150896072387695e-01,9.098728299140930176e-01,9.098305106163024902e-01,9.097882509231567383e-01,9.097460508346557617e-01,9.097037315368652344e-01,9.096614718437194824e-01,9.096192717552185059e-01,9.095769524574279785e-01,9.095347523689270020e-01,9.094925522804260254e-01,9.094502329826354980e-01,9.094080328941345215e-01,9.093658328056335449e-01,9.093235731124877930e-01,9.092813730239868164e-01,9.092391729354858398e-01,9.091969132423400879e-01,9.091547131538391113e-01,9.091125726699829102e-01,9.090703129768371582e-01,9.090281128883361816e-01,9.089859724044799805e-01,9.089437127113342285e-01,9.089015722274780273e-01,9.088594317436218262e-01,9.088171720504760742e-01,9.087750315666198730e-01,9.087328910827636719e-01,9.086906909942626953e-01,9.086485505104064941e-01,9.086063504219055176e-01,9.085642099380493164e-01,9.085220694541931152e-01,9.084798693656921387e-01,9.084377884864807129e-01,9.083956480026245117e-01,9.083535075187683105e-01,9.083113670349121094e-01,9.082692861557006836e-01,9.082270860671997070e-01,9.081850051879882812e-01,9.081429243087768555e-01,9.081007838249206543e-01,9.080587029457092285e-01,9.080166220664978027e-01,9.079744815826416016e-01,9.079324007034301758e-01,9.078903198242187500e-01,9.078481793403625488e-01,9.078061580657958984e-01,9.077640771865844727e-01,9.077219367027282715e-01,9.076799154281616211e-01,9.076378941535949707e-01,9.075957536697387695e-01,9.075537323951721191e-01,9.075117111206054688e-01,9.074695706367492676e-01,9.074276089668273926e-01,9.073854684829711914e-01,9.073434472084045410e-01,9.073014855384826660e-01,9.072593450546264648e-01,9.072173833847045898e-01,9.071753621101379395e-01,9.071332812309265137e-01,9.070913195610046387e-01,9.070493578910827637e-01
8.635611534118652344e-01,8.635230064392089844e-01,8.634849786758422852e-01,8.634468317031860352e-01,8.634088039398193359e-01,8.633707761764526367e-01,8.633326292037963867e-01,8.632946014404296875e-01,8.632566332817077637e-01,8.632184863090515137e-01,8.631804585456848145e-01,8.631424903869628906e-01,8.631043434143066406e-01,8.630663752555847168e-01,8.630283474922180176e-01,8.629902601242065430e-01,8.629522919654846191e-01,8.629142642021179199e-01,8.628761768341064453e-01,8.628382086753845215e-01,8.628002405166625977e-01,8.627621531486511230e-01,8.627241849899291992e-01,8.626862168312072754e-01,8.626481294631958008e-01,8.626101613044738770e-01,8.625721931457519531e-01,8.625341653823852539e-01,8.624961972236633301e-01,8.624582290649414062e-01,8.624202013015747070e-01,8.623822927474975586e-01,8.623443245887756348e-01,8.623062968254089355e-01,8.622683882713317871e-01,8.622303605079650879e-01,8.621923923492431641e-01,8.621544837951660156e-01,8.621164560317993164e-01,8.620785474777221680e-01,8.620406389236450195e-01,8.620026111602783203e-01,8.619647026062011719e-01,8.619267940521240234e-01,8.618888258934020996e-01,8.618509173393249512e-01,8.618130087852478027e-01,8.617750406265258789e-01,8.617371320724487305e-01,8.616992831230163574e-01,8.616613149642944336e-01,8.616234064102172852e-01,8.615855574607849121e-01,8.615475893020629883e-01,8.615097403526306152e-01,8.614718317985534668e-01,8.614338636398315430e-01,8.613960146903991699e-01,8.613581657409667969e-01,8.613202571868896484e-01,8.612824082374572754e-01,8.612445592880249023e-01,8.612065911293029785e-01,8.611687421798706055e-01,8.611308336257934570e-01,8.610929846763610840e-01,8.610551953315734863e-01,8.610172867774963379e-01,8.609794378280639648e-01,8.609416484832763672e-01,8.609037399291992188e-01,8.608658909797668457e-01,8.608281016349792480e-01,8.607901930809020996e-01,8.607524037361145020e-01,8.607146143913269043e-01,8.606767058372497559e-01,8.606389164924621582e-01,8.606011271476745605e-01,8.605632781982421875e-01
8.213219642639160156e-01,8.212875127792358398e-01,8.212530612945556641e-01,8.212186098098754883e-01,8.211842179298400879e-01,8.211497664451599121e-01,8.211153149604797363e-01,8.210809230804443359e-01,8.210464715957641602e-01,8.210120797157287598e-01,8.209776878356933594e-01,8.209432363510131836e-01,8.209088444709777832e-01,8.208744525909423828e-01,8.208400011062622070e-01,8.208056092262268066e-01,8.207712769508361816e-01,8.207368254661560059e-01,8.207024335861206055e-01,8.206681013107299805e-01,8.206336498260498047e-01,8.205992579460144043e-01,8.205649256706237793e-01,8.205304741859436035e-01,8.204961419105529785e-01,8.204618096351623535e-01,8.204273581504821777e-01,8.203930258750915527e-01,8.203586339950561523e-01,8.203243017196655273e-01,8.202899694442749023e-01,8.202555179595947266e-01,8.202211856842041016e-01,8.201868534088134766e-01,8.201524615287780762e-01,8.201181888580322266e-01,8.200838565826416016e-01,8.200494647026062012e-01,8.200151324272155762e-01,8.199808597564697266e-01,8.199464678764343262e-01,8.199121356010437012e-01,8.198778629302978516e-01,8.198434710502624512e-01,8.198091983795166016e-01,8.197749257087707520e-01,8.197405338287353516e-01,8.197062611579895020e-01,8.196719884872436523e-01,8.196375966072082520e-01,8.196033239364624023e-01,8.195690512657165527e-01,8.195347189903259277e-01,8.195004463195800781e-01,8.194661736488342285e-01,8.194318413734436035e-01,8.193975687026977539e-01,8.193632364273071289e-01,8.193290233612060547e-01,8.192947506904602051e-01,8.192604184150695801e-01,8.192261457443237305e-01,8.191919326782226562e-01,8.191576004028320312e-01,8.191233873367309570e-01,8.190891742706298828e-01,8.190548419952392578e-01,8.190206289291381836e-01,8.189864158630371094e-01,8.189520835876464844e-01,8.189178705215454102e-01,8.188836574554443359e-01,8.188493847846984863e-01,8.188151717185974121e-01,8.187809586524963379e-01,8.187466859817504883e-01,8.187124729156494141e-01,8.186782598495483398e-01,8.186439871788024902e-01,8.186097741127014160e-01
7.830222249031066895e-01,7.829908728599548340e-01,7.829596400260925293e-01,7.829283475875854492e-01,7.828969955444335938e-01,7.828657031059265137e-01,7.828344702720642090e-01,7.828031182289123535e-01,7.827718257904052734e-01,7.827405929565429688e-01,7.827092409133911133e-01,7.826780080795288086e-01,7.826467156410217285e-01,7.826154232025146484e-01,7.825841903686523438e-01,7.825528979301452637e-01,7.825216054916381836e-01,7.824903726577758789e-01,7.824591398239135742e-01,7.824277877807617188e-01,7.823965549468994141e-01,7.823652625083923340e-01,7.823340296745300293e-01,7.823027968406677246e-01,7.822715044021606445e-01,7.822402715682983398e-01,7.822090983390808105e-01,7.821778059005737305e-01,7.821465730667114258e-01,7.821153402328491211e-01,7.820841073989868164e-01,7.820528745651245117e-01,7.820216417312622070e-01,7.819904088973999023e-01,7.819591760635375977e-01,7.819280028343200684e-01,7.818967103958129883e-01,7.818655371665954590e-01,7.818343639373779297e-01,7.818030714988708496e-01,7.817718982696533203e-01,7.817407250404357910e-01,7.817094922065734863e-01,7.816783189773559570e-01,7.816471457481384277e-01,7.816158533096313477e-01,7.815846800804138184e-01,7.815535664558410645e-01,7.815222740173339844e-01,7.814911603927612305e-01,7.814599871635437012e-01,7.814287543296813965e-01,7.813975811004638672e-01,7.813663482666015625e-01,7.813352346420288086e-01,7.813040614128112793e-01,7.812728285789489746e-01,7.812417149543762207e-01,7.812106013298034668e-01,7.811793684959411621e-01,7.811482548713684082e-01,7.811170816421508789e-01,7.810859084129333496e-01,7.810547947883605957e-01,7.810236215591430664e-01,7.809924483299255371e-01,7.809613347053527832e-01,7.809302210807800293e-01,7.808990478515625000e-01,7.808679342269897461e-01,7.808368206024169922e-01,7.808056473731994629e-01,7.807745337486267090e-01,7.807434201240539551e-01,7.807122468948364258e-01,7.806811332702636719e-01,7.806500792503356934e-01,7.806189060211181641e-01,7.805877923965454102e-01,7.805567383766174316e-01
