5.000000000000000000e+00,5.000000000000000000e+00,5.000000000000000000e+00,5.000000000000000000e+00,5.000000000000000000e+00,5.000000000000000000e+00,5.000000000000000000e+00,5.000000000000000000e+00,5.000000000000000000e+00,5.000000000000000000e+00,5.000000000000000000e+00,5.000000000000000000e+00,5.000000000000000000e+00,5.000000000000000000e+00,5.000000000000000000e+00,5.000000000000000000e+00,5.000000000000000000e+00,5.000000000000000000e+00,5.000000000000000000e+00,5.000000000000000000e+00,5.000000000000000000e+00,5.000000000000000000e+00,5.000000000000000000e+00,5.000000000000000000e+00,5.000000000000000000e+00,5.000000000000000000e+00,5.000000000000000000e+00,5.000000000000000000e+00,5.000000000000000000e+00,5.000000000000000000e+00,5.000000000000000000e+00,5.000000000000000000e+00,5.000000000000000000e+00,5.000000000000000000e+00,5.000000000000000000e+00,5.000000000000000000e+00,5.000000000000000000e+00,5.000000000000000000e+00,5.000000000000000000e+00,4.859998226165771484e+00,4.669206619262695312e+00,4.492829322814941406e+00,4.329291820526123047e+00,4.177241325378417969e+00,4.035509586334228516e+00,3.903079748153686523e+00,3.779065132141113281e+00,3.662688970565795898e+00,3.553266048431396484e+00,3.450191259384155273e+00,3.352928400039672852e+00,3.260998725891113281e+00,3.173975706100463867e+00,3.091476440429687500e+00,3.013157367706298828e+00,2.938708305358886719e+00,2.867849588394165039e+00,2.800327539443969727e+00,2.735911846160888672e+00,2.674393177032470703e+00,2.615580081939697266e+00,2.559298038482666016e+00,2.505387306213378906e+00,2.453700780868530273e+00,2.404103755950927734e+00,2.356472253799438477e+00,2.310691118240356445e+00,2.266655206680297852e+00,2.224266290664672852e+00,2.183433771133422852e+00,2.144073247909545898e+00,2.106106758117675781e+00,2.069461345672607422e+00,2.034069776535034180e+00,1.999867916107177734e+00,1.966797351837158203e+00,1.934802770614624023e+00,1.903832435607910156e+00,1.873837947845458984e+00,1.844773888587951660e+00
5.000000000000000000e+00,5.000000000000000000e+00,5.000000000000000000e+00,5.000000000000000000e+00,5.000000000000000000e+00,5.000000000000000000e+00,5.000000000000000000e+00,5.000000000000000000e+00,5.000000000000000000e+00,5.000000000000000000e+00,5.000000000000000000e+00,5.000000000000000000e+00,5.000000000000000000e+00,5.000000000000000000e+00,5.000000000000000000e+00,5.000000000000000000e+00,5.000000000000000000e+00,5.000000000000000000e+00,5.000000000000000000e+00,5.000000000000000000e+00,5.000000000000000000e+00,5.000000000000000000e+00,5.000000000000000000e+00,5.000000000000000000e+00,5.000000000000000000e+00,5.000000000000000000e+00,5.000000000000000000e+00,5.000000000000000000e+00,5.000000000000000000e+00,5.000000000000000000e+00,5.000000000000000000e+00,5.000000000000000000e+00,5.000000000000000000e+00,5.000000000000000000e+00,5.000000000000000000e+00,5.000000000000000000e+00,5.000000000000000000e+00,5.000000000000000000e+00,5.000000000000000000e+00,4.860137462615966797e+00,4.669334888458251953e+00,4.492948055267333984e+00,4.329401969909667969e+00,4.177344322204589844e+00,4.035604953765869141e+00,3.903169155120849609e+00,3.779149293899536133e+00,3.662767648696899414e+00,3.553340196609497070e+00,3.450261592864990234e+00,3.352994441986083984e+00,3.261061191558837891e+00,3.174035072326660156e+00,3.091532707214355469e+00,3.013210535049438477e+00,2.938759326934814453e+00,2.867897987365722656e+00,2.800373554229736328e+00,2.735955953598022461e+00,2.674435138702392578e+00,2.615620374679565430e+00,2.559336662292480469e+00,2.505424261093139648e+00,2.453736066818237305e+00,2.404137849807739258e+00,2.356504917144775391e+00,2.310722589492797852e+00,2.266685485839843750e+00,2.224295377731323242e+00,2.183461666107177734e+00,2.144100427627563477e+00,2.106132984161376953e+00,2.069486618041992188e+00,2.034094095230102539e+00,1.999891519546508789e+00,1.966820240020751953e+00,1.934824705123901367e+00,1.903853654861450195e+00,1.873858571052551270e+00,1.844793915748596191e+00
5.000000000000000000e+00,5.000000000000000000e+00,5.000000000000000000e+00,5.000000000000000000e+00,5.000000000000000000e+00,5.000000000000000000e+00,5.000000000000000000e+00,5.000000000000000000e+00,5.000000000000000000e+00,5.000000000000000000e+00,5.000000000000000000e+00,5.000000000000000000e+00,5.000000000000000000e+00,5.000000000000000000e+00,5.000000000000000000e+00,5.000000000000000000e+00,5.000000000000000000e+00,5.000000000000000000e+00,5.000000000000000000e+00,5.000000000000000000e+00,5.000000000000000000e+00,5.000000000000000000e+00,5.000000000000000000e+00,5.000000000000000000e+00,5.000000000000000000e+00,5.000000000000000000e+00,5.000000000000000000e+00,5.000000000000000000e+00,5.000000000000000000e+00,5.000000000000000000e+00,5.000000000000000000e+00,5.000000000000000000e+00,5.000000000000000000e+00,5.000000000000000000e+00,5.000000000000000000e+00,5.000000000000000000e+00,5.000000000000000000e+00,5.000000000000000000e+00,5.000000000000000000e+00,4.860276222229003906e+00,4.669463157653808594e+00,4.493066787719726562e+00,4.329512119293212891e+00,4.177446842193603516e+00,4.035700798034667969e+00,3.903258562088012695e+00,3.779233217239379883e+00,3.662846565246582031e+00,3.553414583206176758e+00,3.450331449508666992e+00,3.353060483932495117e+00,3.261123895645141602e+00,3.174094200134277344e+00,3.091588735580444336e+00,3.013264179229736328e+00,2.938809871673583984e+00,2.867946386337280273e+00,2.800419807434082031e+00,2.735999822616577148e+00,2.674477338790893555e+00,2.615660667419433594e+00,2.559375286102294922e+00,2.505460977554321289e+00,2.453771591186523438e+00,2.404171705245971680e+00,2.356537580490112305e+00,2.310754060745239258e+00,2.266715526580810547e+00,2.224324464797973633e+00,2.183489799499511719e+00,2.144127368927001953e+00,2.106158971786499023e+00,2.069511890411376953e+00,2.034118175506591797e+00,1.999914884567260742e+00,1.966843008995056152e+00,1.934846758842468262e+00,1.903874993324279785e+00,1.873879075050354004e+00,1.844813823699951172e+00
5.000000000000000000e+00,5.000000000000000000e+00,5.000000000000000000e+00,5.000000000000000000e+00,5.000000000000000000e+00,5.000000000000000000e+00,5.000000000000000000e+00,5.000000000000000000e+00,5.000000000000000000e+00,5.000000000000000000e+00,5.000000000000000000e+00,5.000000000000000000e+00,5.000000000000000000e+00,5.000000000000000000e+00,5.000000000000000000e+00,5.000000000000000000e+00,5.000000000000000000e+00,5.000000000000000000e+00,5.000000000000000000e+00,5.000000000000000000e+00,5.000000000000000000e+00,5.000000000000000000e+00,5.000000000000000000e+00,5.000000000000000000e+00,5.000000000000000000e+00,5.000000000000000000e+00,5.000000000000000000e+00,5.000000000000000000e+00,5.000000000000000000e+00,5.000000000000000000e+00,5.000000000000000000e+00,5.000000000000000000e+00,5.000000000000000000e+00,5.000000000000000000e+00,5.000000000000000000e+00,5.000000000000000000e+00,5.000000000000000000e+00,5.000000000000000000e+00,5.000000000000000000e+00,4.860414981842041016e+00,4.669591426849365234e+00,4.493185043334960938e+00,4.329622268676757812e+00,4.177549362182617188e+00,4.035796642303466797e+00,3.903348445892333984e+00,3.779317140579223633e+00,3.662925243377685547e+00,3.553488731384277344e+00,3.450401306152343750e+00,3.353126525878906250e+00,3.261186599731445312e+00,3.174153327941894531e+00,3.091645240783691406e+00,3.013317346572875977e+00,2.938860654830932617e+00,2.867994785308837891e+00,2.800465822219848633e+00,2.736043930053710938e+00,2.674519538879394531e+00,2.615700721740722656e+00,2.559413671493530273e+00,2.505498170852661133e+00,2.453807115554809570e+00,2.404205799102783203e+00,2.356570243835449219e+00,2.310785293579101562e+00,2.266745805740356445e+00,2.224353551864624023e+00,2.183517932891845703e+00,2.144154310226440430e+00,2.106185197830200195e+00,2.069536924362182617e+00,2.034142494201660156e+00,1.999938488006591797e+00,1.966865658760070801e+00,1.934868693351745605e+00,1.903896450996398926e+00,1.873899817466735840e+00,1.844833850860595703e+00
5.000000000000000000e+00,5.000000000000000000e+00,5.000000000000000000e+00,5.000000000000000000e+00,5.000000000000000000e+00,5.000000000000000000e+00,5.000000000000000000e+00,5.000000000000000000e+00,5.000000000000000000e+00,5.000000000000000000e+00,5.000000000000000000e+00,5.000000000000000000e+00,5.000000000000000000e+00,5.000000000000000000e+00,5.000000000000000000e+00,5.000000000000000000e+00,5.000000000000000000e+00,5.000000000000000000e+00,5.000000000000000000e+00,5.000000000000000000e+00,5.000000000000000000e+00,5.000000000000000000e+00,5.000000000000000000e+00,5.000000000000000000e+00,5.000000000000000000e+00,5.000000000000000000e+00,5.000000000000000000e+00,5.000000000000000000e+00,5.000000000000000000e+00,5.000000000000000000e+00,5.000000000000000000e+00,5.000000000000000000e+00,5.000000000000000000e+00,5.000000000000000000e+00,5.000000000000000000e+00,5.000000000000000000e+00,5.000000000000000000e+00,5.000000000000000000e+00,5.000000000000000000e+00,4.860553741455078125e+00,4.669719219207763672e+00,4.493304252624511719e+00,4.329732894897460938e+00,4.177651882171630859e+00,4.035892486572265625e+00,3.903437852859497070e+00,3.779400825500488281e+00,3.663004398345947266e+00,3.553562879562377930e+00,3.450471162796020508e+00,3.353192806243896484e+00,3.261248826980590820e+00,3.174212455749511719e+00,3.091701269149780273e+00,3.013370752334594727e+00,2.938911437988281250e+00,2.868043184280395508e+00,2.800512075424194336e+00,2.736088037490844727e+00,2.674561500549316406e+00,2.615741014480590820e+00,2.559452295303344727e+00,2.505534887313842773e+00,2.453842401504516602e+00,2.404239892959594727e+00,2.356602907180786133e+00,2.310816764831542969e+00,2.266776084899902344e+00,2.224382638931274414e+00,2.183545827865600586e+00,2.144181489944458008e+00,2.106211185455322266e+00,2.069561958312988281e+00,2.034167051315307617e+00,1.999962091445922852e+00,1.966888427734375000e+00,1.934890747070312500e+00,1.903917551040649414e+00,1.873920321464538574e+00,1.844853997230529785e+00
5.000000000000000000e+00,5.000000000000000000e+00,5.000000000000000000e+00,5.000000000000000000e+00,5.000000000000000000e+00,5.000000000000000000e+00,5.000000000000000000e+00,5.000000000000000000e+00,5.000000000000000000e+00,5.000000000000000000e+00,5.000000000000000000e+00,5.000000000000000000e+00,5.000000000000000000e+00,5.000000000000000000e+00,5.000000000000000000e+00,5.000000000000000000e+00,5.000000000000000000e+00,5.000000000000000000e+00,5.000000000000000000e+00,5.000000000000000000e+00,5.000000000000000000e+00,5.000000000000000000e+00,5.000000000000000000e+00,5.000000000000000000e+00,5.000000000000000000e+00,4.468063831329345703e+00,4.457868576049804688e+00,5.000000000000000000e+00,5.000000000000000000e+00,5.000000000000000000e+00,5.000000000000000000e+00,5.000000000000000000e+00,5.000000000000000000e+00,5.000000000000000000e+00,5.000000000000000000e+00,5.000000000000000000e+00,5.000000000000000000e+00,5.000000000000000000e+00,5.000000000000000000e+00,4.860692977905273438e+00,4.669847965240478516e+00,4.493422508239746094e+00,4.329842567443847656e+00,4.177754402160644531e+00,4.035987854003906250e+00,3.903527259826660156e+00,3.779485225677490234e+00,3.663083076477050781e+00,3.553637027740478516e+00,3.450541496276855469e+00,3.353258848190307617e+00,3.261311292648315430e+00,3.174272060394287109e+00,3.091757297515869141e+00,3.013424158096313477e+00,2.938962221145629883e+00,2.868091344833374023e+00,2.800558090209960938e+00,2.736131906509399414e+00,2.674603462219238281e+00,2.615781068801879883e+00,2.559490680694580078e+00,2.505571842193603516e+00,2.453877925872802734e+00,2.404273748397827148e+00,2.356635570526123047e+00,2.310848236083984375e+00,2.266806364059448242e+00,2.224411725997924805e+00,2.183573961257934570e+00,2.144208431243896484e+00,2.106237173080444336e+00,2.069587230682373047e+00,2.034191370010375977e+00,1.999985456466674805e+00,1.966911315917968750e+00,1.934912800788879395e+00,1.903939008712768555e+00,1.873941063880920410e+00,1.844873905181884766e+00
5.000000000000000000e+00,5.000000000000000000e+00,5.000000000000000000e+00,5.000000000000000000e+00,5.000000000000000000e+00,5.000000000000000000e+00,5.000000000000000000e+00,5.000000000000000000e+00,5.000000000000000000e+00,5.000000000000000000e+00,5.000000000000000000e+00,5.000000000000000000e+00,5.000000000000000000e+00,5.000000000000000000e+00,5.000000000000000000e+00,5.000000000000000000e+00,5.000000000000000000e+00,5.000000000000000000e+00,5.000000000000000000e+00,5.000000000000000000e+00,5.000000000000000000e+00,5.000000000000000000e+00,5.000000000000000000e+00,5.000000000000000000e+00,5.000000000000000000e+00,5.000000000000000000e+00,4.471701622009277344e+00,5.000000000000000000e+00,5.000000000000000000e+00,5.000000000000000000e+00,5.000000000000000000e+00,5.000000000000000000e+00,5.000000000000000000e+00,5.000000000000000000e+00,5.000000000000000000e+00,5.000000000000000000e+00,5.000000000000000000e+00,5.000000000000000000e+00,5.000000000000000000e+00,4.860831737518310547e+00,4.669975757598876953e+00,4.493541240692138672e+00,4.329953193664550781e+00,4.177856922149658203e+00,4.036083698272705078e+00,3.903617382049560547e+00,3.779569149017333984e+00,3.663161993026733398e+00,3.553711652755737305e+00,3.450611352920532227e+00,3.353324890136718750e+00,3.261374235153198242e+00,3.174331188201904297e+00,3.091813564300537109e+00,3.013477563858032227e+00,2.939013004302978516e+00,2.868139743804931641e+00,2.800604343414306641e+00,2.736176013946533203e+00,2.674645423889160156e+00,2.615821599960327148e+00,2.559529304504394531e+00,2.505608558654785156e+00,2.453913211822509766e+00,2.404307603836059570e+00,2.356667995452880859e+00,2.310879707336425781e+00,2.266836404800415039e+00,2.224440813064575195e+00,2.183601856231689453e+00,2.144235372543334961e+00,2.106263399124145508e+00,2.069612503051757812e+00,2.034215688705444336e+00,2.000009059906005859e+00,1.966933846473693848e+00,1.934934735298156738e+00,1.903960347175598145e+00,1.873961806297302246e+00,1.844893932342529297e+00
5.000000000000000000e+00,5.000000000000000000e+00,5.000000000000000000e+00,5.000000000000000000e+00,5.000000000000000000e+00,5.000000000000000000e+00,5.000000000000000000e+00,5.000000000000000000e+00,5.000000000000000000e+00,5.000000000000000000e+00,5.000000000000000000e+00,5.000000000000000000e+00,5.000000000000000000e+00,5.000000000000000000e+00,5.000000000000000000e+00,5.000000000000000000e+00,5.000000000000000000e+00,5.000000000000000000e+00,5.000000000000000000e+00,5.000000000000000000e+00,5.000000000000000000e+00,5.000000000000000000e+00,5.000000000000000000e+00,5.000000000000000000e+00,5.000000000000000000e+00,5.000000000000000000e+00,4.543541908264160156e+00,5.000000000000000000e+00,5.000000000000000000e+00,5.000000000000000000e+00,5.000000000000000000e+00,5.000000000000000000e+00,5.000000000000000000e+00,5.000000000000000000e+00,5.000000000000000000e+00,5.000000000000000000e+00,5.000000000000000000e+00,5.000000000000000000e+00,5.000000000000000000e+00,4.860970497131347656e+00,4.670104026794433594e+00,4.493660449981689453e+00,4.330063343048095703e+00,4.177959918975830078e+00,4.036179542541503906e+00,3.903706789016723633e+00,3.779652833938598633e+00,3.663241147994995117e+00,3.553785562515258789e+00,3.450681209564208984e+00,3.353391170501708984e+00,3.261436462402343750e+00,3.174390316009521484e+00,3.091869831085205078e+00,3.013530969619750977e+00,2.939063787460327148e+00,2.868188142776489258e+00,2.800650358200073242e+00,2.736219882965087891e+00,2.674687623977661133e+00,2.615861654281616211e+00,2.559567689895629883e+00,2.505645751953125000e+00,2.453948736190795898e+00,2.404341697692871094e+00,2.356700897216796875e+00,2.310910940170288086e+00,2.266866683959960938e+00,2.224469900131225586e+00,2.183629989624023438e+00,2.144262313842773438e+00,2.106289386749267578e+00,2.069637537002563477e+00,2.034240007400512695e+00,2.000032663345336914e+00,1.966956734657287598e+00,1.934956789016723633e+00,1.903981566429138184e+00,1.873982310295104980e+00,1.844914078712463379e+00
5.000000000000000000e+00,5.000000000000000000e+00,5.000000000000000000e+00,5.000000000000000000e+00,5.000000000000000000e+00,5.000000000000000000e+00,5.000000000000000000e+00,5.000000000000000000e+00,5.000000000000000000e+00,5.000000000000000000e+00,5.000000000000000000e+00,5.000000000000000000e+00,5.000000000000000000e+00,5.000000000000000000e+00,5.000000000000000000e+00,5.000000000000000000e+00,5.000000000000000000e+00,5.000000000000000000e+00,5.000000000000000000e+00,5.000000000000000000e+00,5.000000000000000000e+00,5.000000000000000000e+00,5.000000000000000000e+00,4.478475093841552734e+00,4.483895778656005859e+00,4.473092555999755859e+00,4.479140758514404297e+00,4.502184867858886719e+00,4.543413162231445312e+00,4.594087600708007812e+00,5.000000000000000000e+00,5.000000000000000000e+00,5.000000000000000000e+00,5.000000000000000000e+00,5.000000000000000000e+00,5.000000000000000000e+00,5.000000000000000000e+00,5.000000000000000000e+00,5.000000000000000000e+00,4.861109733581542969e+00,4.670232295989990234e+00,4.493778705596923828e+00,4.330173492431640625e+00,4.178062438964843750e+00,4.036275386810302734e+00,3.903796195983886719e+00,3.779737234115600586e+00,3.663320064544677734e+00,3.553859710693359375e+00,3.450751543045043945e+00,3.353457212448120117e+00,3.261498928070068359e+00,3.174449682235717773e+00,3.091926097869873047e+00,3.013584375381469727e+00,2.939114809036254883e+00,2.868236541748046875e+00,2.800696372985839844e+00,2.736263990402221680e+00,2.674729585647583008e+00,2.615901947021484375e+00,2.559606313705444336e+00,2.505682468414306641e+00,2.453984022140502930e+00,2.404375791549682617e+00,2.356733560562133789e+00,2.310942411422729492e+00,2.266896963119506836e+00,2.224498987197875977e+00,2.183657884597778320e+00,2.144289493560791016e+00,2.106315374374389648e+00,2.069662809371948242e+00,2.034264326095581055e+00,2.000056028366088867e+00,1.966979503631591797e+00,1.934978842735290527e+00,1.904002904891967773e+00,1.874003052711486816e+00,1.844933867454528809e+00
5.000000000000000000e+00,5.000000000000000000e+00,5.000000000000000000e+00,5.000000000000000000e+00,5.000000000000000000e+00,5.000000000000000000e+00,5.000000000000000000e+00,5.000000000000000000e+00,5.000000000000000000e+00,5.000000000000000000e+00,5.000000000000000000e+00,5.000000000000000000e+00,5.000000000000000000e+00,5.000000000000000000e+00,5.000000000000000000e+00,5.000000000000000000e+00,5.000000000000000000e+00,5.000000000000000000e+00,5.000000000000000000e+00,5.000000000000000000e+00,5.000000000000000000e+00,5.000000000000000000e+00,5.000000000000000000e+00,4.490743160247802734e+00,4.460066795349121094e+00,4.428916454315185547e+00,4.444762706756591797e+00,4.472740650177001953e+00,4.545863151550292969e+00,4.598002910614013672e+00,5.000000000000000000e+00,5.000000000000000000e+00,5.000000000000000000e+00,5.000000000000000000e+00,5.000000000000000000e+00,5.000000000000000000e+00,5.000000000000000000e+00,5.000000000000000000e+00,5.000000000000000000e+00,4.861248493194580078e+00,4.670360565185546875e+00,4.493897914886474609e+00,4.330283641815185547e+00,4.178164958953857422e+00,4.036371231079101562e+00,3.903885602951049805e+00,3.779821157455444336e+00,3.663398742675781250e+00,3.553934335708618164e+00,3.450821399688720703e+00,3.353523254394531250e+00,3.261561870574951172e+00,3.174508810043334961e+00,3.091982126235961914e+00,3.013637781143188477e+00,2.939165353775024414e+00,2.868284940719604492e+00,2.800742626190185547e+00,2.736308097839355469e+00,2.674771547317504883e+00,2.615942239761352539e+00,2.559644699096679688e+00,2.505719423294067383e+00,2.454019546508789062e+00,2.404409646987915039e+00,2.356765985488891602e+00,2.310973882675170898e+00,2.266927003860473633e+00,2.224528074264526367e+00,2.183686017990112305e+00,2.144316434860229492e+00,2.106341600418090820e+00,2.069688081741333008e+00,2.034288644790649414e+00,2.000079631805419922e+00,1.967002153396606445e+00,1.935000777244567871e+00,1.904024124145507812e+00,1.874023795127868652e+00,1.844954013824462891e+00
5.000000000000000000e+00,5.000000000000000000e+00,5.000000000000000000e+00,5.000000000000000000e+00,5.000000000000000000e+00,5.000000000000000000e+00,5.000000000000000000e+00,5.000000000000000000e+00,5.000000000000000000e+00,5.000000000000000000e+00,5.000000000000000000e+00,5.000000000000000000e+00,5.000000000000000000e+00,5.000000000000000000e+00,5.000000000000000000e+00,5.000000000000000000e+00,5.000000000000000000e+00,5.000000000000000000e+00,5.000000000000000000e+00,5.000000000000000000e+00,5.000000000000000000e+00,5.000000000000000000e+00,5.000000000000000000e+00,4.519247531890869141e+00,4.476028442382812500e+00,4.435404777526855469e+00,4.437551498413085938e+00,4.483983993530273438e+00,4.585033893585205078e+00,4.602318763732910156e+00,5.000000000000000000e+00,5.000000000000000000e+00,5.000000000000000000e+00,5.000000000000000000e+00,5.000000000000000000e+00,5.000000000000000000e+00,5.000000000000000000e+00,5.000000000000000000e+00,5.000000000000000000e+00,4.861387729644775391e+00,4.670488834381103516e+00,4.494016170501708984e+00,4.330393791198730469e+00,4.178267955780029297e+00,4.036467075347900391e+00,3.903975486755371094e+00,3.779905080795288086e+00,3.663477420806884766e+00,3.554008483886718750e+00,3.450891494750976562e+00,3.353589296340942383e+00,3.261624336242675781e+00,3.174568176269531250e+00,3.092038631439208984e+00,3.013691186904907227e+00,2.939216136932373047e+00,2.868333339691162109e+00,2.800788640975952148e+00,2.736351966857910156e+00,2.674813985824584961e+00,2.615982532501220703e+00,2.559683322906494141e+00,2.505756378173828125e+00,2.454054832458496094e+00,2.404443740844726562e+00,2.356798887252807617e+00,2.311005115509033203e+00,2.266957283020019531e+00,2.224557161331176758e+00,2.183714151382446289e+00,2.144343614578247070e+00,2.106367588043212891e+00,2.069713115692138672e+00,2.034312963485717773e+00,2.000103235244750977e+00,1.967025041580200195e+00,1.935022830963134766e+00,1.904045462608337402e+00,1.874044299125671387e+00,1.844973921775817871e+00
5.000000000000000000e+00,5.000000000000000000e+00,5.000000000000000000e+00,5.000000000000000000e+00,5.000000000000000000e+00,5.000000000000000000e+00,5.000000000000000000e+00,5.000000000000000000e+00,5.000000000000000000e+00,5.000000000000000000e+00,5.000000000000000000e+00,5.000000000000000000e+00,5.000000000000000000e+00,5.000000000000000000e+00,5.000000000000000000e+00,5.000000000000000000e+00,5.000000000000000000e+00,5.000000000000000000e+00,5.000000000000000000e+00,5.000000000000000000e+00,5.000000000000000000e+00,5.000000000000000000e+00,5.000000000000000000e+00,4.531887531280517578e+00,4.520160198211669922e+00,4.434813022613525391e+00,4.440087318420410156e+00,4.480420112609863281e+00,4.600093364715576172e+00,4.608482360839843750e+00,5.000000000000000000e+00,5.000000000000000000e+00,5.000000000000000000e+00,5.000000000000000000e+00,5.000000000000000000e+00,5.000000000000000000e+00,5.000000000000000000e+00,5.000000000000000000e+00,5.000000000000000000e+00,4.861526489257812500e+00,4.670617103576660156e+00,4.494134902954101562e+00,4.330504417419433594e+00,4.178370475769042969e+00,4.036562919616699219e+00,3.904065132141113281e+00,3.779988765716552734e+00,3.663556814193725586e+00,3.554082632064819336e+00,3.450961351394653320e+00,3.353655576705932617e+00,3.261686801910400391e+00,3.174627304077148438e+00,3.092094659805297852e+00,3.013744592666625977e+00,2.939266920089721680e+00,2.868381738662719727e+00,2.800834894180297852e+00,2.736396074295043945e+00,2.674855947494506836e+00,2.616022586822509766e+00,2.559721946716308594e+00,2.505793333053588867e+00,2.454090118408203125e+00,2.404477834701538086e+00,2.356831550598144531e+00,2.311036586761474609e+00,2.266987562179565430e+00,2.224586248397827148e+00,2.183742046356201172e+00,2.144370555877685547e+00,2.106393814086914062e+00,2.069738388061523438e+00,2.034337282180786133e+00,2.000126600265502930e+00,1.967047572135925293e+00,1.935044884681701660e+00,1.904066920280456543e+00,1.874065041542053223e+00,1.844993948936462402e+00
5.000000000000000000e+00,5.000000000000000000e+00,5.000000000000000000e+00,5.000000000000000000e+00,5.000000000000000000e+00,5.000000000000000000e+00,5.000000000000000000e+00,5.000000000000000000e+00,5.000000000000000000e+00,5.000000000000000000e+00,5.000000000000000000e+00,5.000000000000000000e+00,5.000000000000000000e+00,5.000000000000000000e+00,5.000000000000000000e+00,5.000000000000000000e+00,5.000000000000000000e+00,5.000000000000000000e+00,5.000000000000000000e+00,5.000000000000000000e+00,5.000000000000000000e+00,5.000000000000000000e+00,5.000000000000000000e+00,4.553291797637939453e+00,4.474068641662597656e+00,4.419413089752197266e+00,4.432132720947265625e+00,4.468026161193847656e+00,5.000000000000000000e+00,4.611658096313476562e+00,5.000000000000000000e+00,5.000000000000000000e+00,5.000000000000000000e+00,5.000000000000000000e+00,5.000000000000000000e+00,5.000000000000000000e+00,5.000000000000000000e+00,5.000000000000000000e+00,5.000000000000000000e+00,4.861665248870849609e+00,4.670745372772216797e+00,4.494253635406494141e+00,4.330614566802978516e+00,4.178472995758056641e+00,4.036658287048339844e+00,3.904154539108276367e+00,3.780073165893554688e+00,3.663635492324829102e+00,3.554156780242919922e+00,3.451031684875488281e+00,3.353721618652343750e+00,3.261749267578125000e+00,3.174686670303344727e+00,3.092150926589965820e+00,3.013797760009765625e+00,2.939317941665649414e+00,2.868429899215698242e+00,2.800880908966064453e+00,2.736440181732177734e+00,2.674897909164428711e+00,2.616062879562377930e+00,2.559760332107543945e+00,2.505830287933349609e+00,2.454125881195068359e+00,2.404511690139770508e+00,2.356863975524902344e+00,2.311068058013916016e+00,2.267017841339111328e+00,2.224615335464477539e+00,2.183770179748535156e+00,2.144397735595703125e+00,2.106419801712036133e+00,2.069763660430908203e+00,2.034361600875854492e+00,2.000150203704833984e+00,1.967070460319519043e+00,1.935066819190979004e+00,1.904088020324707031e+00,1.874085783958435059e+00,1.845014095306396484e+00
5.000000000000000000e+00,5.000000000000000000e+00,5.000000000000000000e+00,5.000000000000000000e+00,5.000000000000000000e+00,5.000000000000000000e+00,5.000000000000000000e+00,5.000000000000000000e+00,5.000000000000000000e+00,5.000000000000000000e+00,5.000000000000000000e+00,5.000000000000000000e+00,5.000000000000000000e+00,5.000000000000000000e+00,5.000000000000000000e+00,5.000000000000000000e+00,5.000000000000000000e+00,5.000000000000000000e+00,5.000000000000000000e+00,5.000000000000000000e+00,5.000000000000000000e+00,5.000000000000000000e+00,5.000000000000000000e+00,4.521728992462158203e+00,4.454291820526123047e+00,4.433178901672363281e+00,4.440898418426513672e+00,4.485847473144531250e+00,5.000000000000000000e+00,4.574798583984375000e+00,5.000000000000000000e+00,5.000000000000000000e+00,5.000000000000000000e+00,5.000000000000000000e+00,5.000000000000000000e+00,5.000000000000000000e+00,5.000000000000000000e+00,5.000000000000000000e+00,5.000000000000000000e+00,4.861804485321044922e+00,4.670873641967773438e+00,4.494372844696044922e+00,4.330724716186523438e+00,4.178575515747070312e+00,4.036754608154296875e+00,3.904244422912597656e+00,3.780157089233398438e+00,3.663714408874511719e+00,3.554231405258178711e+00,3.451101541519165039e+00,3.353787660598754883e+00,3.261811971664428711e+00,3.174745798110961914e+00,3.092206954956054688e+00,3.013851404190063477e+00,2.939368486404418945e+00,2.868478298187255859e+00,2.800927162170410156e+00,2.736484050750732422e+00,2.674939870834350586e+00,2.616103172302246094e+00,2.559798955917358398e+00,2.505867004394531250e+00,2.454161167144775391e+00,2.404545545578002930e+00,2.356896638870239258e+00,2.311099529266357422e+00,2.267047882080078125e+00,2.224644660949707031e+00,2.183798313140869141e+00,2.144424676895141602e+00,2.106446027755737305e+00,2.069788694381713867e+00,2.034385919570922852e+00,2.000173807144165039e+00,1.967093229293823242e+00,1.935088872909545898e+00,1.904109477996826172e+00,1.874106287956237793e+00,1.845033884048461914e+00
5.000000000000000000e+00,5.000000000000000000e+00,5.000000000000000000e+00,5.000000000000000000e+00,5.000000000000000000e+00,5.000000000000000000e+00,5.000000000000000000e+00,5.000000000000000000e+00,5.000000000000000000e+00,5.000000000000000000e+00,5.000000000000000000e+00,5.000000000000000000e+00,5.000000000000000000e+00,5.000000000000000000e+00,5.000000000000000000e+00,5.000000000000000000e+00,5.000000000000000000e+00,5.000000000000000000e+00,5.000000000000000000e+00,5.000000000000000000e+00,5.000000000000000000e+00,5.000000000000000000e+00,5.000000000000000000e+00,4.493478775024414062e+00,4.432300090789794922e+00,4.440155982971191406e+00,4.470052719116210938e+00,4.444984912872314453e+00,5.000000000000000000e+00,4.543152332305908203e+00,5.000000000000000000e+00,5.000000000000000000e+00,5.000000000000000000e+00,5.000000000000000000e+00,5.000000000000000000e+00,5.000000000000000000e+00,5.000000000000000000e+00,5.000000000000000000e+00,5.000000000000000000e+00,4.861943244934082031e+00,4.671001911163330078e+00,4.494491577148437500e+00,4.330834865570068359e+00,4.178678512573242188e+00,4.036850452423095703e+00,3.904334068298339844e+00,3.780241012573242188e+00,3.663793563842773438e+00,3.554305553436279297e+00,3.451171398162841797e+00,3.353854179382324219e+00,3.261874437332153320e+00,3.174805164337158203e+00,3.092263460159301758e+00,3.013904809951782227e+00,2.939419269561767578e+00,2.868526935577392578e+00,2.800973176956176758e+00,2.736528158187866211e+00,2.674982070922851562e+00,2.616143465042114258e+00,2.559837341308593750e+00,2.505904197692871094e+00,2.454196453094482422e+00,2.404579639434814453e+00,2.356929540634155273e+00,2.311130762100219727e+00,2.267078161239624023e+00,2.224673748016357422e+00,2.183826208114624023e+00,2.144451618194580078e+00,2.106472015380859375e+00,2.069813966751098633e+00,2.034410238265991211e+00,2.000197172164916992e+00,1.967115879058837891e+00,1.935111045837402344e+00,1.904130816459655762e+00,1.874127030372619629e+00,1.845054030418395996e+00
5.000000000000000000e+00,5.000000000000000000e+00,5.000000000000000000e+00,5.000000000000000000e+00,5.000000000000000000e+00,5.000000000000000000e+00,5.000000000000000000e+00,5.000000000000000000e+00,5.000000000000000000e+00,5.000000000000000000e+00,5.000000000000000000e+00,5.000000000000000000e+00,5.000000000000000000e+00,5.000000000000000000e+00,5.000000000000000000e+00,5.000000000000000000e+00,5.000000000000000000e+00,5.000000000000000000e+00,5.000000000000000000e+00,5.000000000000000000e+00,5.000000000000000000e+00,5.000000000000000000e+00,5.000000000000000000e+00,4.472345352172851562e+00,4.419858932495117188e+00,4.412414550781250000e+00,4.437453746795654297e+00,4.407200813293457031e+00,4.528102874755859375e+00,4.514129638671875000e+00,5.000000000000000000e+00,5.000000000000000000e+00,5.000000000000000000e+00,5.000000000000000000e+00,5.000000000000000000e+00,5.000000000000000000e+00,5.000000000000000000e+00,5.000000000000000000e+00,5.000000000000000000e+00,4.862082481384277344e+00,4.671130180358886719e+00,4.494610309600830078e+00,4.330945491790771484e+00,4.178781032562255859e+00,4.036945819854736328e+00,3.904423475265502930e+00,3.780325412750244141e+00,3.663872241973876953e+00,3.554379701614379883e+00,3.451241731643676758e+00,3.353920221328735352e+00,3.261936902999877930e+00,3.174864530563354492e+00,3.092319488525390625e+00,3.013958215713500977e+00,2.939470291137695312e+00,2.868575096130371094e+00,2.801019191741943359e+00,2.736572265625000000e+00,2.675024032592773438e+00,2.616183519363403320e+00,2.559875965118408203e+00,2.505940914154052734e+00,2.454231739044189453e+00,2.404613733291625977e+00,2.356961965560913086e+00,2.311162233352661133e+00,2.267108440399169922e+00,2.224702596664428711e+00,2.183854103088378906e+00,2.144478797912597656e+00,2.106498003005981445e+00,2.069839000701904297e+00,2.034434556961059570e+00,2.000220775604248047e+00,1.967138648033142090e+00,1.935132861137390137e+00,1.904152035713195801e+00,1.874147653579711914e+00,1.845074057579040527e+00
5.000000000000000000e+00,5.000000000000000000e+00,5.000000000000000000e+00,5.000000000000000000e+00,5.000000000000000000e+00,5.000000000000000000e+00,5.000000000000000000e+00,5.000000000000000000e+00,5.000000000000000000e+00,5.000000000000000000e+00,5.000000000000000000e+00,5.000000000000000000e+00,5.000000000000000000e+00,5.000000000000000000e+00,5.000000000000000000e+00,5.000000000000000000e+00,5.000000000000000000e+00,5.000000000000000000e+00,5.000000000000000000e+00,5.000000000000000000e+00,5.000000000000000000e+00,5.000000000000000000e+00,5.000000000000000000e+00,4.425661563873291016e+00,4.422928810119628906e+00,4.409811973571777344e+00,4.440258979797363281e+00,4.386096477508544922e+00,5.000000000000000000e+00,4.472795486450195312e+00,5.000000000000000000e+00,5.000000000000000000e+00,5.000000000000000000e+00,5.000000000000000000e+00,5.000000000000000000e+00,5.000000000000000000e+00,5.000000000000000000e+00,5.000000000000000000e+00,5.000000000000000000e+00,4.862221240997314453e+00,4.671258449554443359e+00,4.494729042053222656e+00,4.331055641174316406e+00,4.178883552551269531e+00,4.037042140960693359e+00,3.904513120651245117e+00,3.780409097671508789e+00,3.663951158523559570e+00,3.554453849792480469e+00,3.451311588287353516e+00,3.353986263275146484e+00,3.261999607086181641e+00,3.174923658370971680e+00,3.092375755310058594e+00,3.014011621475219727e+00,2.939521074295043945e+00,2.868623495101928711e+00,2.801065683364868164e+00,2.736616134643554688e+00,2.675066232681274414e+00,2.616224050521850586e+00,2.559914588928222656e+00,2.505977869033813477e+00,2.454267501831054688e+00,2.404647588729858398e+00,2.356994628906250000e+00,2.311193704605102539e+00,2.267138719558715820e+00,2.224731683731079102e+00,2.183882236480712891e+00,2.144505739212036133e+00,2.106524229049682617e+00,2.069864273071289062e+00,2.034458875656127930e+00,2.000244140625000000e+00,1.967161536216735840e+00,1.935155034065246582e+00,1.904173493385314941e+00,1.874168276786804199e+00,1.845093965530395508e+00
5.000000000000000000e+00,5.000000000000000000e+00,5.000000000000000000e+00,5.000000000000000000e+00,5.000000000000000000e+00,5.000000000000000000e+00,5.000000000000000000e+00,5.000000000000000000e+00,5.000000000000000000e+00,5.000000000000000000e+00,5.000000000000000000e+00,5.000000000000000000e+00,5.000000000000000000e+00,5.000000000000000000e+00,5.000000000000000000e+00,5.000000000000000000e+00,5.000000000000000000e+00,5.000000000000000000e+00,5.000000000000000000e+00,5.000000000000000000e+00,5.000000000000000000e+00,5.000000000000000000e+00,5.000000000000000000e+00,5.000000000000000000e+00,5.000000000000000000e+00,4.406183719635009766e+00,4.436778545379638672e+00,4.371021270751953125e+00,5.000000000000000000e+00,5.000000000000000000e+00,5.000000000000000000e+00,5.000000000000000000e+00,5.000000000000000000e+00,5.000000000000000000e+00,5.000000000000000000e+00,5.000000000000000000e+00,5.000000000000000000e+00,5.000000000000000000e+00,5.000000000000000000e+00,4.862360477447509766e+00,4.671386718750000000e+00,4.494847774505615234e+00,4.331165790557861328e+00,4.178986549377441406e+00,4.037137508392333984e+00,3.904603004455566406e+00,3.780493021011352539e+00,3.664030075073242188e+00,3.554528474807739258e+00,3.451381683349609375e+00,3.354052305221557617e+00,3.262062072753906250e+00,3.174983024597167969e+00,3.092431783676147461e+00,3.014065027236938477e+00,2.939571857452392578e+00,2.868672132492065430e+00,2.801111698150634766e+00,2.736660242080688477e+00,2.675108432769775391e+00,2.616264104843139648e+00,2.559952974319458008e+00,2.506014823913574219e+00,2.454302787780761719e+00,2.404681682586669922e+00,2.357027530670166016e+00,2.311224937438964844e+00,2.267168760299682617e+00,2.224761009216308594e+00,2.183910369873046875e+00,2.144532680511474609e+00,2.106550216674804688e+00,2.069889545440673828e+00,2.034483194351196289e+00,2.000267744064331055e+00,1.967184185981750488e+00,1.935176849365234375e+00,1.904194831848144531e+00,1.874188899993896484e+00,1.845114111900329590e+00
5.000000000000000000e+00,5.000000000000000000e+00,5.000000000000000000e+00,5.000000000000000000e+00,5.000000000000000000e+00,5.000000000000000000e+00,5.000000000000000000e+00,5.000000000000000000e+00,5.000000000000000000e+00,5.000000000000000000e+00,5.000000000000000000e+00,5.000000000000000000e+00,5.000000000000000000e+00,5.000000000000000000e+00,5.000000000000000000e+00,5.000000000000000000e+00,5.000000000000000000e+00,5.000000000000000000e+00,5.000000000000000000e+00,5.000000000000000000e+00,5.000000000000000000e+00,5.000000000000000000e+00,5.000000000000000000e+00,5.000000000000000000e+00,5.000000000000000000e+00,4.401299476623535156e+00,4.496609687805175781e+00,4.353358268737792969e+00,5.000000000000000000e+00,5.000000000000000000e+00,5.000000000000000000e+00,5.000000000000000000e+00,5.000000000000000000e+00,5.000000000000000000e+00,5.000000000000000000e+00,5.000000000000000000e+00,5.000000000000000000e+00,5.000000000000000000e+00,5.000000000000000000e+00,4.862499237060546875e+00,4.671514987945556641e+00,4.494966506958007812e+00,4.331275939941406250e+00,4.179089069366455078e+00,4.037233352661132812e+00,3.904692411422729492e+00,3.780576944351196289e+00,3.664109230041503906e+00,3.554602622985839844e+00,3.451451539993286133e+00,3.354118585586547852e+00,3.262124538421630859e+00,3.175042152404785156e+00,3.092488288879394531e+00,3.014118432998657227e+00,2.939622402191162109e+00,2.868720293045043945e+00,2.801157712936401367e+00,2.736704111099243164e+00,2.675150394439697266e+00,2.616304397583007812e+00,2.559991598129272461e+00,2.506051778793334961e+00,2.454338073730468750e+00,2.404715776443481445e+00,2.357060194015502930e+00,2.311256408691406250e+00,2.267199039459228516e+00,2.224790096282958984e+00,2.183938264846801758e+00,2.144559860229492188e+00,2.106576442718505859e+00,2.069914579391479492e+00,2.034507751464843750e+00,2.000291347503662109e+00,1.967206954956054688e+00,1.935198903083801270e+00,1.904216051101684570e+00,1.874209523200988770e+00,1.845134139060974121e+00
5.000000000000000000e+00,5.000000000000000000e+00,5.000000000000000000e+00,5.000000000000000000e+00,5.000000000000000000e+00,5.000000000000000000e+00,5.000000000000000000e+00,5.000000000000000000e+00,5.000000000000000000e+00,5.000000000000000000e+00,5.000000000000000000e+00,5.000000000000000000e+00,5.000000000000000000e+00,5.000000000000000000e+00,5.000000000000000000e+00,5.000000000000000000e+00,5.000000000000000000e+00,5.000000000000000000e+00,5.000000000000000000e+00,5.000000000000000000e+00,5.000000000000000000e+00,5.000000000000000000e+00,5.000000000000000000e+00,5.000000000000000000e+00,5.000000000000000000e+00,4.406992912292480469e+00,4.499417304992675781e+00,4.363897800445556641e+00,5.000000000000000000e+00,5.000000000000000000e+00,5.000000000000000000e+00,5.000000000000000000e+00,5.000000000000000000e+00,5.000000000000000000e+00,5.000000000000000000e+00,5.000000000000000000e+00,5.000000000000000000e+00,5.000000000000000000e+00,5.000000000000000000e+00,4.862637042999267578e+00,4.671643733978271484e+00,4.495085239410400391e+00,4.331386566162109375e+00,4.179191589355468750e+00,4.037329196929931641e+00,3.904782056808471680e+00,3.780661344528198242e+00,3.664187908172607422e+00,3.554676771163940430e+00,3.451521873474121094e+00,3.354184627532958984e+00,3.262187004089355469e+00,3.175101518630981445e+00,3.092544555664062500e+00,3.014171600341796875e+00,2.939673423767089844e+00,2.868768692016601562e+00,2.801203727722167969e+00,2.736748456954956055e+00,2.675192356109619141e+00,2.616344451904296875e+00,2.560029983520507812e+00,2.506088733673095703e+00,2.454373598098754883e+00,2.404749631881713867e+00,2.357092618942260742e+00,2.311287879943847656e+00,2.267229318618774414e+00,2.224819183349609375e+00,2.183966398239135742e+00,2.144587039947509766e+00,2.106602430343627930e+00,2.069940090179443359e+00,2.034532070159912109e+00,2.000314712524414062e+00,1.967229843139648438e+00,1.935221076011657715e+00,1.904237389564514160e+00,1.874230146408081055e+00,1.845154047012329102e+00
5.000000000000000000e+00,5.000000000000000000e+00,5.000000000000000000e+00,5.000000000000000000e+00,5.000000000000000000e+00,5.000000000000000000e+00,5.000000000000000000e+00,5.000000000000000000e+00,5.000000000000000000e+00,5.000000000000000000e+00,5.000000000000000000e+00,5.000000000000000000e+00,5.000000000000000000e+00,5.000000000000000000e+00,5.000000000000000000e+00,5.000000000000000000e+00,5.000000000000000000e+00,5.000000000000000000e+00,5.000000000000000000e+00,5.000000000000000000e+00,5.000000000000000000e+00,5.000000000000000000e+00,5.000000000000000000e+00,5.000000000000000000e+00,5.000000000000000000e+00,4.460420608520507812e+00,4.553348541259765625e+00,4.459285736083984375e+00,5.000000000000000000e+00,5.000000000000000000e+00,5.000000000000000000e+00,5.000000000000000000e+00,5.000000000000000000e+00,5.000000000000000000e+00,5.000000000000000000e+00,5.000000000000000000e+00,5.000000000000000000e+00,5.000000000000000000e+00,5.000000000000000000e+00,4.862775325775146484e+00,4.671771049499511719e+00,4.495203971862792969e+00,4.331497192382812500e+00,4.179294109344482422e+00,4.037425041198730469e+00,3.904871940612792969e+00,3.780745267868041992e+00,3.664266824722290039e+00,3.554751396179199219e+00,3.451591730117797852e+00,3.354250669479370117e+00,3.262249946594238281e+00,3.175160884857177734e+00,3.092600584030151367e+00,3.014225244522094727e+00,2.939724206924438477e+00,2.868817090988159180e+00,2.801249980926513672e+00,2.736792325973510742e+00,2.675234317779541016e+00,2.616384983062744141e+00,2.560068607330322266e+00,2.506125450134277344e+00,2.454409122467041016e+00,2.404783725738525391e+00,2.357125282287597656e+00,2.311319351196289062e+00,2.267259597778320312e+00,2.224848031997680664e+00,2.183994531631469727e+00,2.144613981246948242e+00,2.106628656387329102e+00,2.069965124130249023e+00,2.034556150436401367e+00,2.000338315963745117e+00,1.967252373695373535e+00,1.935242891311645508e+00,1.904258847236633301e+00,1.874250888824462891e+00,1.845174193382263184e+00
5.000000000000000000e+00,5.000000000000000000e+00,5.000000000000000000e+00,5.000000000000000000e+00,5.000000000000000000e+00,5.000000000000000000e+00,5.000000000000000000e+00,5.000000000000000000e+00,5.000000000000000000e+00,5.000000000000000000e+00,5.000000000000000000e+00,5.000000000000000000e+00,5.000000000000000000e+00,5.000000000000000000e+00,5.000000000000000000e+00,5.000000000000000000e+00,5.000000000000000000e+00,5.000000000000000000e+00,5.000000000000000000e+00,5.000000000000000000e+00,5.000000000000000000e+00,5.000000000000000000e+00,5.000000000000000000e+00,5.000000000000000000e+00,5.000000000000000000e+00,4.487384319305419922e+00,4.543396949768066406e+00,4.537280559539794922e+00,5.000000000000000000e+00,5.000000000000000000e+00,5.000000000000000000e+00,5.000000000000000000e+00,5.000000000000000000e+00,5.000000000000000000e+00,5.000000000000000000e+00,5.000000000000000000e+00,5.000000000000000000e+00,5.000000000000000000e+00,5.000000000000000000e+00,4.862913608551025391e+00,4.671898365020751953e+00,4.495322704315185547e+00,4.331607341766357422e+00,4.179397106170654297e+00,4.037521362304687500e+00,3.904961585998535156e+00,3.780829191207885742e+00,3.664345979690551758e+00,3.554825544357299805e+00,3.451661825180053711e+00,3.354317188262939453e+00,3.262312412261962891e+00,3.175220012664794922e+00,3.092657089233398438e+00,3.014278650283813477e+00,2.939774990081787109e+00,2.868865489959716797e+00,2.801296234130859375e+00,2.736836194992065430e+00,2.675276756286621094e+00,2.616425037384033203e+00,2.560106992721557617e+00,2.506162643432617188e+00,2.454444408416748047e+00,2.404817581176757812e+00,2.357158184051513672e+00,2.311350584030151367e+00,2.267289638519287109e+00,2.224877357482910156e+00,2.184022426605224609e+00,2.144640922546386719e+00,2.106654644012451172e+00,2.069990396499633789e+00,2.034580469131469727e+00,2.000361919403076172e+00,1.967275261878967285e+00,1.935265064239501953e+00,1.904279947280883789e+00,1.874271392822265625e+00,1.845194220542907715e+00
5.000000000000000000e+00,5.000000000000000000e+00,5.000000000000000000e+00,5.000000000000000000e+00,5.000000000000000000e+00,5.000000000000000000e+00,5.000000000000000000e+00,5.000000000000000000e+00,5.000000000000000000e+00,5.000000000000000000e+00,5.000000000000000000e+00,5.000000000000000000e+00,5.000000000000000000e+00,5.000000000000000000e+00,5.000000000000000000e+00,5.000000000000000000e+00,5.000000000000000000e+00,5.000000000000000000e+00,5.000000000000000000e+00,5.000000000000000000e+00,5.000000000000000000e+00,5.000000000000000000e+00,5.000000000000000000e+00,5.000000000000000000e+00,5.000000000000000000e+00,4.517796516418457031e+00,4.543339252471923828e+00,4.608918190002441406e+00,5.000000000000000000e+00,5.000000000000000000e+00,5.000000000000000000e+00,5.000000000000000000e+00,5.000000000000000000e+00,5.000000000000000000e+00,5.000000000000000000e+00,5.000000000000000000e+00,5.000000000000000000e+00,5.000000000000000000e+00,5.000000000000000000e+00,4.863051891326904297e+00,4.672026157379150391e+00,4.495440483093261719e+00,4.331717491149902344e+00,4.179499626159667969e+00,4.037616729736328125e+00,3.905050992965698242e+00,3.780913114547729492e+00,3.664424896240234375e+00,3.554899692535400391e+00,3.451731920242309570e+00,3.354383230209350586e+00,3.262374877929687500e+00,3.175279378890991211e+00,3.092713117599487305e+00,3.014332056045532227e+00,2.939826011657714844e+00,2.868913888931274414e+00,2.801342248916625977e+00,2.736880540847778320e+00,2.675318717956542969e+00,2.616465330123901367e+00,2.560145616531372070e+00,2.506199598312377930e+00,2.454479694366455078e+00,2.404851675033569336e+00,2.357190847396850586e+00,2.311382055282592773e+00,2.267319917678833008e+00,2.224906444549560547e+00,2.184050559997558594e+00,2.144668102264404297e+00,2.106680631637573242e+00,2.070015430450439453e+00,2.034605026245117188e+00,2.000385522842407227e+00,1.967297792434692383e+00,1.935287117958068848e+00,1.904301404953002930e+00,1.874292135238647461e+00,1.845214128494262695e+00
5.000000000000000000e+00,5.000000000000000000e+00,5.000000000000000000e+00,5.000000000000000000e+00,5.000000000000000000e+00,5.000000000000000000e+00,5.000000000000000000e+00,5.000000000000000000e+00,5.000000000000000000e+00,5.000000000000000000e+00,5.000000000000000000e+00,5.000000000000000000e+00,5.000000000000000000e+00,5.000000000000000000e+00,5.000000000000000000e+00,5.000000000000000000e+00,5.000000000000000000e+00,5.000000000000000000e+00,5.000000000000000000e+00,5.000000000000000000e+00,5.000000000000000000e+00,5.000000000000000000e+00,5.000000000000000000e+00,5.000000000000000000e+00,5.000000000000000000e+00,4.569862365722656250e+00,4.551856994628906250e+00,4.683393955230712891e+00,5.000000000000000000e+00,5.000000000000000000e+00,5.000000000000000000e+00,5.000000000000000000e+00,5.000000000000000000e+00,5.000000000000000000e+00,5.000000000000000000e+00,5.000000000000000000e+00,5.000000000000000000e+00,5.000000000000000000e+00,5.000000000000000000e+00,4.863190174102783203e+00,4.672153472900390625e+00,4.495558738708496094e+00,4.331826686859130859e+00,4.179602622985839844e+00,4.037713050842285156e+00,3.905140638351440430e+00,3.780997514724731445e+00,3.664503812789916992e+00,3.554973840713500977e+00,3.451802015304565430e+00,3.354449272155761719e+00,3.262437343597412109e+00,3.175338745117187500e+00,3.092769384384155273e+00,3.014385700225830078e+00,2.939876794815063477e+00,2.868962287902832031e+00,2.801388502120971680e+00,2.736924409866333008e+00,2.675360679626464844e+00,2.616505622863769531e+00,2.560184240341186523e+00,2.506236314773559570e+00,2.454515218734741211e+00,2.404885768890380859e+00,2.357223272323608398e+00,2.311413526535034180e+00,2.267350196838378906e+00,2.224935531616210938e+00,2.184078693389892578e+00,2.144695043563842773e+00,2.106706857681274414e+00,2.070040702819824219e+00,2.034629344940185547e+00,2.000408887863159180e+00,1.967320680618286133e+00,1.935309052467346191e+00,1.904322624206542969e+00,1.874312877655029297e+00,1.845234274864196777e+00
5.000000000000000000e+00,5.000000000000000000e+00,5.000000000000000000e+00,5.000000000000000000e+00,5.000000000000000000e+00,5.000000000000000000e+00,5.000000000000000000e+00,5.000000000000000000e+00,5.000000000000000000e+00,5.000000000000000000e+00,5.000000000000000000e+00,5.000000000000000000e+00,5.000000000000000000e+00,5.000000000000000000e+00,5.000000000000000000e+00,5.000000000000000000e+00,5.000000000000000000e+00,5.000000000000000000e+00,5.000000000000000000e+00,5.000000000000000000e+00,5.000000000000000000e+00,5.000000000000000000e+00,5.000000000000000000e+00,5.000000000000000000e+00,5.000000000000000000e+00,5.000000000000000000e+00,4.574131965637207031e+00,4.656463623046875000e+00,5.000000000000000000e+00,5.000000000000000000e+00,5.000000000000000000e+00,5.000000000000000000e+00,5.000000000000000000e+00,5.000000000000000000e+00,5.000000000000000000e+00,5.000000000000000000e+00,5.000000000000000000e+00,5.000000000000000000e+00,5.000000000000000000e+00,4.863328456878662109e+00,4.672281265258789062e+00,4.495676517486572266e+00,4.331936359405517578e+00,4.179704189300537109e+00,4.037808418273925781e+00,3.905230522155761719e+00,3.781081438064575195e+00,3.664582490921020508e+00,3.555048465728759766e+00,3.451871871948242188e+00,3.354515314102172852e+00,3.262500047683715820e+00,3.175397872924804688e+00,3.092825412750244141e+00,3.014438867568969727e+00,2.939927339553833008e+00,2.869010686874389648e+00,2.801434516906738281e+00,2.736968517303466797e+00,2.675402879714965820e+00,2.616545915603637695e+00,2.560222625732421875e+00,2.506273508071899414e+00,2.454550743103027344e+00,2.404919624328613281e+00,2.357256174087524414e+00,2.311444997787475586e+00,2.267380475997924805e+00,2.224964618682861328e+00,2.184106588363647461e+00,2.144721984863281250e+00,2.106732845306396484e+00,2.070065975189208984e+00,2.034653663635253906e+00,2.000432491302490234e+00,1.967343568801879883e+00,1.935331106185913086e+00,1.904343962669372559e+00,1.874333381652832031e+00,1.845254063606262207e+00
4.875202655792236328e+00,4.873991489410400391e+00,4.872780799865722656e+00,4.871571063995361328e+00,4.870361804962158203e+00,4.869153022766113281e+00,4.867945194244384766e+00,4.866737842559814453e+00,4.865530490875244141e+00,4.864324569702148438e+00,4.863119125366210938e+00,4.861914157867431641e+00,4.860709190368652344e+00,4.859505653381347656e+00,4.858302593231201172e+00,4.857100009918212891e+00,4.855897426605224609e+00,4.854696273803710938e+00,4.853495597839355469e+00,4.852294921875000000e+00,4.851095676422119141e+00,4.849896430969238281e+00,4.848698139190673828e+00,4.847499847412109375e+00,4.846302509307861328e+00,4.845106124877929688e+00,4.457412242889404297e+00,4.842714309692382812e+00,4.841519355773925781e+00,4.840324878692626953e+00,4.839130878448486328e+00,4.837937831878662109e+00,4.836745262145996094e+00,4.835553169250488281e+00,4.834361553192138672e+00,4.833170890808105469e+00,4.831980705261230469e+00,4.830790996551513672e+00,4.829601764678955078e+00,4.828413486480712891e+00,4.672409057617187500e+00,4.495794773101806641e+00,4.332046031951904297e+00,4.179806709289550781e+00,4.037904739379882812e+00,3.905320167541503906e+00,3.781165361404418945e+00,3.664661884307861328e+00,3.555122613906860352e+00,3.451941967010498047e+00,3.354581832885742188e+00,3.262562513351440430e+00,3.175457000732421875e+00,3.092881917953491211e+00,3.014492273330688477e+00,2.939978122711181641e+00,2.869059085845947266e+00,2.801480770111083984e+00,2.737012386322021484e+00,2.675444841384887695e+00,2.616585969924926758e+00,2.560261249542236328e+00,2.506310224533081055e+00,2.454586029052734375e+00,2.404953718185424805e+00,2.357288837432861328e+00,2.311476230621337891e+00,2.267410755157470703e+00,2.224993705749511719e+00,2.184134721755981445e+00,2.144749164581298828e+00,2.106759071350097656e+00,2.070091009140014648e+00,2.034677982330322266e+00,2.000456094741821289e+00,1.967366099357604980e+00,1.935353159904479980e+00,1.904365420341491699e+00,1.874354124069213867e+00,1.845274209976196289e+00
3.778003454208374023e+00,3.777276277542114258e+00,3.776549100875854492e+00,3.775822401046752930e+00,3.775095939636230469e+00,3.774369478225708008e+00,3.773643732070922852e+00,3.772917985916137695e+00,3.772192716598510742e+00,3.771467685699462891e+00,3.770742893218994141e+00,3.770018577575683594e+00,3.769293785095214844e+00,3.768569946289062500e+00,3.767846345901489258e+00,3.767122983932495117e+00,3.766399860382080078e+00,3.765677213668823242e+00,3.764954566955566406e+00,3.764231920242309570e+00,3.763509988784790039e+00,3.762788295745849609e+00,3.762066841125488281e+00,3.761345863342285156e+00,3.760624885559082031e+00,3.759904384613037109e+00,3.759183645248413086e+00,3.758463621139526367e+00,3.757743835449218750e+00,3.757024288177490234e+00,3.756305217742919922e+00,3.755586147308349609e+00,3.754867553710937500e+00,3.754148721694946289e+00,3.753430604934692383e+00,3.752712965011596680e+00,3.751995325088500977e+00,3.751277923583984375e+00,3.750560998916625977e+00,3.749844312667846680e+00,3.749127388000488281e+00,3.748411178588867188e+00,3.747695207595825195e+00,3.746979713439941406e+00,3.746264219284057617e+00,3.745549201965332031e+00,3.744834423065185547e+00,3.664740800857543945e+00,3.555197000503540039e+00,3.452012300491333008e+00,3.354647874832153320e+00,3.262625217437744141e+00,3.175516605377197266e+00,3.092938184738159180e+00,3.014545679092407227e+00,2.940029144287109375e+00,2.869107484817504883e+00,2.801526784896850586e+00,2.737056732177734375e+00,2.675487041473388672e+00,2.616626262664794922e+00,2.560299873352050781e+00,2.506347179412841797e+00,2.454621553421020508e+00,2.404987812042236328e+00,2.357321500778198242e+00,2.311507701873779297e+00,2.267441034317016602e+00,2.225022792816162109e+00,2.184162855148315430e+00,2.144776344299316406e+00,2.106785058975219727e+00,2.070116281509399414e+00,2.034702301025390625e+00,2.000479459762573242e+00,1.967388987541198730e+00,1.935375094413757324e+00,1.904386520385742188e+00,1.874374866485595703e+00,1.845294237136840820e+00
3.083940744400024414e+00,3.083455801010131836e+00,3.082971572875976562e+00,3.082487106323242188e+00,3.082003116607666016e+00,3.081519126892089844e+00,3.081035137176513672e+00,3.080551385879516602e+00,3.080067634582519531e+00,3.079584360122680664e+00,3.079101085662841797e+00,3.078617811203002930e+00,3.078135013580322266e+00,3.077652215957641602e+00,3.077169656753540039e+00,3.076687097549438477e+00,3.076204538345336914e+00,3.075722217559814453e+00,3.075240135192871094e+00,3.074758291244506836e+00,3.074276685714721680e+00,3.073795080184936523e+00,3.073313713073730469e+00,3.072832107543945312e+00,3.072350978851318359e+00,3.071869850158691406e+00,3.071389198303222656e+00,3.070908546447753906e+00,3.070427894592285156e+00,3.069947481155395508e+00,3.069467067718505859e+00,3.068986892700195312e+00,3.068507194519042969e+00,3.068027257919311523e+00,3.067547798156738281e+00,3.067068338394165039e+00,3.066588878631591797e+00,3.066109418869018555e+00,3.065630435943603516e+00,3.065151691436767578e+00,3.064672946929931641e+00,3.064194440841674805e+00,3.063715934753417969e+00,3.063237667083740234e+00,3.062759160995483398e+00,3.062281370162963867e+00,3.061803579330444336e+00,3.061325788497924805e+00,3.060848236083984375e+00,3.060370922088623047e+00,3.059893608093261719e+00,3.059416294097900391e+00,3.058939456939697266e+00,3.058462619781494141e+00,3.014599323272705078e+00,2.940079927444458008e+00,2.869155645370483398e+00,2.801573038101196289e+00,2.737100601196289062e+00,2.675529003143310547e+00,2.616666793823242188e+00,2.560338258743286133e+00,2.506384134292602539e+00,2.454657077789306641e+00,2.405021667480468750e+00,2.357353925704956055e+00,2.311539173126220703e+00,2.267471075057983398e+00,2.225051879882812500e+00,2.184190750122070312e+00,2.144803285598754883e+00,2.106811285018920898e+00,2.070141553878784180e+00,2.034726619720458984e+00,2.000503063201904297e+00,1.967411756515502930e+00,1.935397148132324219e+00,1.904407978057861328e+00,1.874395370483398438e+00,1.845314145088195801e+00
2.605314254760742188e+00,2.604968547821044922e+00,2.604622602462768555e+00,2.604276895523071289e+00,2.603931427001953125e+00,2.603585720062255859e+00,2.603240251541137695e+00,2.602895021438598633e+00,2.602549791336059570e+00,2.602204561233520508e+00,2.601859569549560547e+00,2.601514577865600586e+00,2.601169586181640625e+00,2.600824832916259766e+00,2.600480079650878906e+00,2.600135564804077148e+00,2.599791049957275391e+00,2.599446773529052734e+00,2.599102258682250977e+00,2.598757982254028320e+00,2.598413705825805664e+00,2.598069667816162109e+00,2.597725868225097656e+00,2.597381830215454102e+00,2.597038269042968750e+00,2.596694469451904297e+00,2.596350669860839844e+00,2.596007108688354492e+00,2.595663785934448242e+00,2.595320463180541992e+00,2.594977378845214844e+00,2.594634056091308594e+00,2.594291210174560547e+00,2.593947887420654297e+00,2.593605041503906250e+00,2.593262434005737305e+00,2.592919588088989258e+00,2.592576980590820312e+00,2.592234611511230469e+00,2.591892242431640625e+00,2.591549634933471680e+00,2.591207504272460938e+00,2.590865373611450195e+00,2.590523242950439453e+00,2.590181350708007812e+00,2.589839458465576172e+00,2.589497804641723633e+00,2.589155912399291992e+00,2.588814258575439453e+00,2.588472843170166016e+00,2.588131427764892578e+00,2.587790012359619141e+00,2.587448835372924805e+00,2.587107658386230469e+00,2.586766719818115234e+00,2.586425542831420898e+00,2.586084604263305664e+00,2.585743904113769531e+00,2.585403203964233398e+00,2.585062503814697266e+00,2.584722042083740234e+00,2.560376882553100586e+00,2.506421089172363281e+00,2.454692363739013672e+00,2.405055522918701172e+00,2.357386827468872070e+00,2.311570644378662109e+00,2.267501354217529297e+00,2.225080966949462891e+00,2.184218883514404297e+00,2.144830226898193359e+00,2.106837272644042969e+00,2.070166587829589844e+00,2.034750938415527344e+00,2.000526666641235352e+00,1.967434406280517578e+00,1.935419321060180664e+00,1.904429316520690918e+00,1.874416112899780273e+00,1.845334291458129883e+00
2.255320310592651367e+00,2.255059957504272461e+00,2.254799604415893555e+00,2.254539489746093750e+00,2.254279136657714844e+00,2.254019021987915039e+00,2.253758907318115234e+00,2.253499031066894531e+00,2.253239154815673828e+00,2.252979278564453125e+00,2.252719402313232422e+00,2.252459526062011719e+00,2.252199888229370117e+00,2.251940250396728516e+00,2.251680612564086914e+00,2.251420974731445312e+00,2.251161575317382812e+00,2.250901937484741211e+00,2.250642538070678711e+00,2.250383377075195312e+00,2.250124216079711914e+00,2.249865055084228516e+00,2.249605894088745117e+00,2.249347209930419922e+00,2.249089241027832031e+00,2.248831510543823242e+00,2.248573780059814453e+00,2.248316287994384766e+00,2.248058557510375977e+00,2.247801065444946289e+00,2.247543573379516602e+00,2.247286081314086914e+00,2.247028827667236328e+00,2.246771574020385742e+00,2.246514320373535156e+00,2.246257066726684570e+00,2.246000051498413086e+00,2.245742797851562500e+00,2.245485782623291016e+00,2.245228767395019531e+00,2.244971990585327148e+00,2.244715213775634766e+00,2.244458436965942383e+00,2.244201660156250000e+00,2.243944883346557617e+00,2.243688344955444336e+00,2.243431806564331055e+00,2.243175268173217773e+00,2.242918968200683594e+00,2.242662668228149414e+00,2.242406368255615234e+00,2.242149829864501953e+00,2.241893768310546875e+00,2.241637706756591797e+00,2.241381645202636719e+00,2.241125583648681641e+00,2.240869760513305664e+00,2.240613698959350586e+00,2.240357875823974609e+00,2.240102052688598633e+00,2.239846229553222656e+00,2.239590644836425781e+00,2.239335060119628906e+00,2.239079475402832031e+00,2.238824129104614258e+00,2.238568544387817383e+00,2.238313198089599609e+00,2.238057851791381836e+00,2.225110054016113281e+00,2.184246778488159180e+00,2.144857406616210938e+00,2.106863498687744141e+00,2.070191860198974609e+00,2.034775257110595703e+00,2.000550031661987305e+00,1.967457294464111328e+00,1.935441136360168457e+00,1.904450535774230957e+00,1.874436616897583008e+00,1.845354318618774414e+00
1.988277316093444824e+00,1.988075017929077148e+00,1.987872600555419922e+00,1.987670302391052246e+00,1.987468123435974121e+00,1.987265825271606445e+00,1.987063646316528320e+00,1.986861586570739746e+00,1.986659407615661621e+00,1.986457347869873047e+00,1.986255407333374023e+00,1.986053466796875000e+00,1.985851526260375977e+00,1.985649585723876953e+00,1.985447764396667480e+00,1.985245943069458008e+00,1.985044121742248535e+00,1.984842419624328613e+00,1.984640717506408691e+00,1.984439134597778320e+00,1.984237670898437500e+00,1.984036207199096680e+00,1.983834624290466309e+00,1.983633160591125488e+00,1.983431696891784668e+00,1.983230352401733398e+00,1.983029007911682129e+00,1.982827663421630859e+00,1.982626318931579590e+00,1.982425093650817871e+00,1.982223868370056152e+00,1.982022762298583984e+00,1.981821656227111816e+00,1.981620550155639648e+00,1.981419563293457031e+00,1.981218576431274414e+00,1.981017589569091797e+00,1.980816721916198730e+00,1.980615854263305664e+00,1.980414986610412598e+00,1.980214238166809082e+00,1.980013489723205566e+00,1.979812741279602051e+00,1.979612112045288086e+00,1.979411482810974121e+00,1.979210853576660156e+00,1.979010343551635742e+00,1.978810071945190430e+00,1.978609561920166016e+00,1.978409171104431152e+00,1.978208780288696289e+00,1.978008389472961426e+00,1.977808117866516113e+00,1.977607846260070801e+00,1.977407574653625488e+00,1.977207422256469727e+00,1.977007269859313965e+00,1.976807236671447754e+00,1.976607084274291992e+00,1.976407051086425781e+00,1.976207137107849121e+00,1.976007223129272461e+00,1.975807309150695801e+00,1.975607395172119141e+00,1.975407600402832031e+00,1.975207805633544922e+00,1.975008130073547363e+00,1.974808335304260254e+00,1.974608778953552246e+00,1.974409103393554688e+00,1.974209547042846680e+00,1.974009990692138672e+00,1.973810553550720215e+00,1.973611235618591309e+00,1.973411917686462402e+00,1.967480063438415527e+00,1.935463309288024902e+00,1.904471993446350098e+00,1.874457359313964844e+00,1.845374226570129395e+00
1.777777910232543945e+00,1.777616143226623535e+00,1.777454376220703125e+00,1.777292609214782715e+00,1.777130961418151855e+00,1.776969194412231445e+00,1.776807546615600586e+00,1.776646137237548828e+00,1.776484608650207520e+00,1.776322960853576660e+00,1.776161432266235352e+00,1.775999903678894043e+00,1.775838494300842285e+00,1.775676965713500977e+00,1.775515556335449219e+00,1.775354266166687012e+00,1.775192856788635254e+00,1.775031566619873047e+00,1.774870157241821289e+00,1.774708867073059082e+00,1.774547696113586426e+00,1.774386525154113770e+00,1.774225234985351562e+00,1.774064183235168457e+00,1.773903012275695801e+00,1.773741841316223145e+00,1.773580789566040039e+00,1.773419737815856934e+00,1.773258805274963379e+00,1.773097753524780273e+00,1.772936820983886719e+00,1.772775888442993164e+00,1.772614955902099609e+00,1.772454380989074707e+00,1.772293448448181152e+00,1.772132635116577148e+00,1.771971940994262695e+00,1.771811127662658691e+00,1.771650433540344238e+00,1.771489739418029785e+00,1.771329045295715332e+00,1.771168470382690430e+00,1.771007776260375977e+00,1.770847320556640625e+00,1.770686745643615723e+00,1.770526170730590820e+00,1.770365715026855469e+00,1.770205259323120117e+00,1.770044803619384766e+00,1.769884467124938965e+00,1.769724011421203613e+00,1.769563674926757812e+00,1.769403338432312012e+00,1.769243121147155762e+00,1.769082784652709961e+00,1.768922567367553711e+00,1.768762469291687012e+00,1.768602252006530762e+00,1.768442153930664062e+00,1.768282055854797363e+00,1.768122076988220215e+00,1.767962098121643066e+00,1.767802000045776367e+00,1.767642021179199219e+00,1.767482042312622070e+00,1.767322182655334473e+00,1.767162203788757324e+00,1.767002344131469727e+00,1.766842484474182129e+00,1.766682744026184082e+00,1.766522884368896484e+00,1.766363143920898438e+00,1.766203403472900391e+00,1.766043663024902344e+00,1.765884041786193848e+00,1.765724420547485352e+00,1.765564799308776855e+00,1.765405178070068359e+00,1.765245676040649414e+00,1.765086174011230469e+00
1.607582926750183105e+00,1.607450604438781738e+00,1.607318401336669922e+00,1.607186079025268555e+00,1.607053875923156738e+00,1.606921672821044922e+00,1.606789469718933105e+00,1.606657266616821289e+00,1.606525063514709473e+00,1.606392979621887207e+00,1.606260895729064941e+00,1.606128811836242676e+00,1.605996727943420410e+00,1.605864644050598145e+00,1.605732560157775879e+00,1.605600595474243164e+00,1.605468630790710449e+00,1.605336666107177734e+00,1.605204701423645020e+00,1.605072855949401855e+00,1.604941129684448242e+00,1.604809165000915527e+00,1.604677319526672363e+00,1.604545474052429199e+00,1.604413747787475586e+00,1.604281902313232422e+00,1.604150176048278809e+00,1.604018449783325195e+00,1.603886723518371582e+00,1.603754997253417969e+00,1.603623270988464355e+00,1.603491663932800293e+00,1.603360056877136230e+00,1.603228449821472168e+00,1.603096842765808105e+00,1.602965235710144043e+00,1.602833747863769531e+00,1.602702140808105469e+00,1.602570652961730957e+00,1.602439165115356445e+00,1.602307677268981934e+00,1.602176308631896973e+00,1.602044820785522461e+00,1.601913452148437500e+00,1.601782083511352539e+00,1.601650714874267578e+00,1.601519465446472168e+00,1.601388216018676758e+00,1.601256966590881348e+00,1.601125717163085938e+00,1.600994467735290527e+00,1.600863218307495117e+00,1.600732088088989258e+00,1.600600838661193848e+00,1.600469708442687988e+00,1.600338578224182129e+00,1.600207448005676270e+00,1.600076317787170410e+00,1.599945187568664551e+00,1.599814176559448242e+00,1.599683165550231934e+00,1.599552154541015625e+00,1.599421143531799316e+00,1.599290132522583008e+00,1.599159240722656250e+00,1.599028348922729492e+00,1.598897457122802734e+00,1.598766565322875977e+00,1.598635673522949219e+00,1.598504781723022461e+00,1.598374009132385254e+00,1.598243236541748047e+00,1.598112463951110840e+00,1.597981810569763184e+00,1.597851157188415527e+00,1.597720384597778320e+00,1.597589731216430664e+00,1.597459077835083008e+00,1.597328424453735352e+00,1.597197771072387695e+00
1.467127799987792969e+00,1.467017531394958496e+00,1.466907382011413574e+00,1.466797232627868652e+00,1.466687083244323730e+00,1.466576933860778809e+00,1.466466784477233887e+00,1.466356873512268066e+00,1.466246724128723145e+00,1.466136693954467773e+00,1.466026663780212402e+00,1.465916633605957031e+00,1.465806603431701660e+00,1.465696573257446289e+00,1.465586543083190918e+00,1.465476632118225098e+00,1.465366721153259277e+00,1.465256690979003906e+00,1.465146780014038086e+00,1.465036869049072266e+00,1.464927077293395996e+00,1.464817166328430176e+00,1.464707255363464355e+00,1.464597463607788086e+00,1.464487671852111816e+00,1.464377880096435547e+00,1.464268088340759277e+00,1.464158296585083008e+00,1.464048504829406738e+00,1.463938832283020020e+00,1.463829040527343750e+00,1.463719367980957031e+00,1.463609695434570312e+00,1.463500142097473145e+00,1.463390469551086426e+00,1.463280797004699707e+00,1.463171243667602539e+00,1.463061571121215820e+00,1.462952017784118652e+00,1.462842464447021484e+00,1.462732911109924316e+00,1.462623357772827148e+00,1.462513804435729980e+00,1.462404370307922363e+00,1.462294816970825195e+00,1.462185382843017578e+00,1.462075948715209961e+00,1.461966514587402344e+00,1.461857080459594727e+00,1.461747646331787109e+00,1.461638331413269043e+00,1.461528897285461426e+00,1.461419582366943359e+00,1.461310148239135742e+00,1.461200833320617676e+00,1.461091518402099609e+00,1.460982322692871094e+00,1.460873007774353027e+00,1.460763692855834961e+00,1.460654497146606445e+00,1.460545420646667480e+00,1.460436224937438965e+00,1.460327029228210449e+00,1.460217833518981934e+00,1.460108637809753418e+00,1.459999442100524902e+00,1.459890365600585938e+00,1.459781289100646973e+00,1.459672212600708008e+00,1.459563016891479492e+00,1.459454059600830078e+00,1.459344983100891113e+00,1.459235906600952148e+00,1.459126949310302734e+00,1.459017872810363770e+00,1.458908915519714355e+00,1.458799958229064941e+00,1.458691000938415527e+00,1.458582043647766113e+00,1.458473205566406250e+00
1.349243879318237305e+00,1.349150657653808594e+00,1.349057435989379883e+00,1.348964333534240723e+00,1.348871111869812012e+00,1.348778009414672852e+00,1.348684787750244141e+00,1.348591685295104980e+00,1.348498582839965820e+00,1.348405480384826660e+00,1.348312377929687500e+00,1.348219394683837891e+00,1.348126292228698730e+00,1.348033189773559570e+00,1.347940206527709961e+00,1.347847223281860352e+00,1.347754120826721191e+00,1.347661137580871582e+00,1.347568154335021973e+00,1.347475171089172363e+00,1.347382426261901855e+00,1.347289443016052246e+00,1.347196578979492188e+00,1.347103595733642578e+00,1.347010731697082520e+00,1.346917867660522461e+00,1.346825003623962402e+00,1.346732020378112793e+00,1.346639275550842285e+00,1.346546411514282227e+00,1.346453547477722168e+00,1.346360683441162109e+00,1.346267938613891602e+00,1.346175193786621094e+00,1.346082329750061035e+00,1.345989584922790527e+00,1.345896840095520020e+00,1.345804095268249512e+00,1.345711350440979004e+00,1.345618605613708496e+00,1.345525979995727539e+00,1.345433235168457031e+00,1.345340609550476074e+00,1.345247983932495117e+00,1.345155239105224609e+00,1.345062613487243652e+00,1.344969987869262695e+00,1.344877481460571289e+00,1.344784855842590332e+00,1.344692349433898926e+00,1.344599723815917969e+00,1.344507217407226562e+00,1.344414591789245605e+00,1.344322085380554199e+00,1.344229578971862793e+00,1.344137072563171387e+00,1.344044566154479980e+00,1.343952059745788574e+00,1.343859553337097168e+00,1.343767166137695312e+00,1.343674659729003906e+00,1.343582272529602051e+00,1.343489885330200195e+00,1.343397378921508789e+00,1.343304991722106934e+00,1.343212604522705078e+00,1.343120217323303223e+00,1.343027949333190918e+00,1.342935562133789062e+00,1.342843294143676758e+00,1.342750906944274902e+00,1.342658638954162598e+00,1.342566370964050293e+00,1.342474102973937988e+00,1.342381834983825684e+00,1.342289566993713379e+00,1.342197418212890625e+00,1.342105150222778320e+00,1.342012882232666016e+00,1.341920733451843262e+00
1.248894929885864258e+00,1.248815059661865234e+00,1.248735189437866211e+00,1.248655438423156738e+00,1.248575568199157715e+00,1.248495817184448242e+00,1.248415946960449219e+00,1.248336315155029297e+00,1.248256444931030273e+00,1.248176693916320801e+00,1.248096942901611328e+00,1.248017191886901855e+00,1.247937440872192383e+00,1.247857689857482910e+00,1.247777938842773438e+00,1.247698307037353516e+00,1.247618556022644043e+00,1.247538924217224121e+00,1.247459173202514648e+00,1.247379541397094727e+00,1.247299909591674805e+00,1.247220277786254883e+00,1.247140526771545410e+00,1.247060894966125488e+00,1.246981382369995117e+00,1.246901750564575195e+00,1.246822118759155273e+00,1.246742486953735352e+00,1.246662974357604980e+00,1.246583342552185059e+00,1.246503829956054688e+00,1.246424317359924316e+00,1.246344685554504395e+00,1.246265292167663574e+00,1.246185779571533203e+00,1.246106266975402832e+00,1.246026754379272461e+00,1.245947241783142090e+00,1.245867848396301270e+00,1.245788335800170898e+00,1.245708823204040527e+00,1.245629429817199707e+00,1.245550036430358887e+00,1.245470523834228516e+00,1.245391130447387695e+00,1.245311737060546875e+00,1.245232343673706055e+00,1.245152950286865234e+00,1.245073556900024414e+00,1.244994163513183594e+00,1.244914889335632324e+00,1.244835495948791504e+00,1.244756221771240234e+00,1.244676828384399414e+00,1.244597554206848145e+00,1.244518280029296875e+00,1.244438886642456055e+00,1.244359612464904785e+00,1.244280338287353516e+00,1.244201064109802246e+00,1.244121909141540527e+00,1.244042754173278809e+00,1.243963479995727539e+00,1.243884205818176270e+00,1.243805050849914551e+00,1.243725776672363281e+00,1.243646621704101562e+00,1.243567466735839844e+00,1.243488311767578125e+00,1.243409156799316406e+00,1.243330001831054688e+00,1.243250846862792969e+00,1.243171691894531250e+00,1.243092536926269531e+00,1.243013501167297363e+00,1.242934346199035645e+00,1.242855310440063477e+00,1.242776155471801758e+00,1.242697119712829590e+00,1.242618083953857422e+00
1.162439465522766113e+00,1.162370324134826660e+00,1.162301182746887207e+00,1.162232041358947754e+00,1.162162899971008301e+00,1.162093639373779297e+00,1.162024497985839844e+00,1.161955475807189941e+00,1.161886334419250488e+00,1.161817193031311035e+00,1.161748051643371582e+00,1.161679029464721680e+00,1.161609888076782227e+00,1.161540746688842773e+00,1.161471724510192871e+00,1.161402702331542969e+00,1.161333560943603516e+00,1.161264538764953613e+00,1.161195516586303711e+00,1.161126494407653809e+00,1.161057591438293457e+00,1.160988569259643555e+00,1.160919547080993652e+00,1.160850524902343750e+00,1.160781502723693848e+00,1.160712480545043945e+00,1.160643577575683594e+00,1.160574555397033691e+00,1.160505652427673340e+00,1.160436630249023438e+00,1.160367727279663086e+00,1.160298824310302734e+00,1.160229802131652832e+00,1.160160899162292480e+00,1.160091996192932129e+00,1.160023093223571777e+00,1.159954190254211426e+00,1.159885287284851074e+00,1.159816503524780273e+00,1.159747600555419922e+00,1.159678697586059570e+00,1.159609913825988770e+00,1.159541010856628418e+00,1.159472227096557617e+00,1.159403324127197266e+00,1.159334540367126465e+00,1.159265756607055664e+00,1.159196972846984863e+00,1.159128189086914062e+00,1.159059405326843262e+00,1.158990621566772461e+00,1.158921837806701660e+00,1.158853054046630859e+00,1.158784389495849609e+00,1.158715605735778809e+00,1.158646821975708008e+00,1.158578157424926758e+00,1.158509373664855957e+00,1.158440709114074707e+00,1.158371925354003906e+00,1.158303260803222656e+00,1.158234596252441406e+00,1.158165931701660156e+00,1.158097267150878906e+00,1.158028602600097656e+00,1.157959938049316406e+00,1.157891273498535156e+00,1.157822608947753906e+00,1.157754063606262207e+00,1.157685399055480957e+00,1.157616734504699707e+00,1.157548189163208008e+00,1.157479524612426758e+00,1.157411098480224609e+00,1.157342433929443359e+00,1.157273888587951660e+00,1.157205343246459961e+00,1.157136797904968262e+00,1.157068252563476562e+00,1.156999707221984863e+00
1.087178826332092285e+00,1.087118387222290039e+00,1.087057828903198242e+00,1.086997389793395996e+00,1.086936831474304199e+00,1.086876392364501953e+00,1.086815834045410156e+00,1.086755514144897461e+00,1.086695075035095215e+00,1.086634516716003418e+00,1.086574077606201172e+00,1.086513638496398926e+00,1.086453199386596680e+00,1.086392760276794434e+00,1.086332321166992188e+00,1.086272001266479492e+00,1.086211562156677246e+00,1.086151123046875000e+00,1.086090683937072754e+00,1.086030364036560059e+00,1.085969924926757812e+00,1.085909605026245117e+00,1.085849165916442871e+00,1.085788846015930176e+00,1.085728526115417480e+00,1.085668087005615234e+00,1.085607767105102539e+00,1.085547447204589844e+00,1.085487127304077148e+00,1.085426807403564453e+00,1.085366487503051758e+00,1.085306167602539062e+00,1.085245847702026367e+00,1.085185647010803223e+00,1.085125327110290527e+00,1.085065126419067383e+00,1.085004806518554688e+00,1.084944486618041992e+00,1.084884285926818848e+00,1.084823966026306152e+00,1.084763765335083008e+00,1.084703445434570312e+00,1.084643244743347168e+00,1.084583044052124023e+00,1.084522843360900879e+00,1.084462523460388184e+00,1.084402322769165039e+00,1.084342122077941895e+00,1.084281921386718750e+00,1.084221720695495605e+00,1.084161639213562012e+00,1.084101438522338867e+00,1.084041237831115723e+00,1.083981037139892578e+00,1.083920955657958984e+00,1.083860754966735840e+00,1.083800673484802246e+00,1.083740472793579102e+00,1.083680391311645508e+00,1.083620190620422363e+00,1.083560228347778320e+00,1.083500027656555176e+00,1.083439946174621582e+00,1.083379864692687988e+00,1.083319783210754395e+00,1.083259701728820801e+00,1.083199620246887207e+00,1.083139538764953613e+00,1.083079457283020020e+00,1.083019375801086426e+00,1.082959413528442383e+00,1.082899332046508789e+00,1.082839250564575195e+00,1.082779288291931152e+00,1.082719206809997559e+00,1.082659244537353516e+00,1.082599163055419922e+00,1.082539200782775879e+00,1.082479238510131836e+00,1.082419157028198242e+00
1.021071076393127441e+00,1.021017670631408691e+00,1.020964264869689941e+00,1.020910859107971191e+00,1.020857572555541992e+00,1.020804166793823242e+00,1.020750880241394043e+00,1.020697474479675293e+00,1.020644187927246094e+00,1.020590782165527344e+00,1.020537495613098145e+00,1.020484209060668945e+00,1.020430803298950195e+00,1.020377516746520996e+00,1.020324230194091797e+00,1.020270943641662598e+00,1.020217657089233398e+00,1.020164370536804199e+00,1.020111083984375000e+00,1.020057797431945801e+00,1.020004630088806152e+00,1.019951343536376953e+00,1.019898056983947754e+00,1.019844770431518555e+00,1.019791603088378906e+00,1.019738316535949707e+00,1.019685029983520508e+00,1.019631862640380859e+00,1.019578576087951660e+00,1.019525408744812012e+00,1.019472241401672363e+00,1.019418954849243164e+00,1.019365787506103516e+00,1.019312620162963867e+00,1.019259333610534668e+00,1.019206166267395020e+00,1.019152998924255371e+00,1.019099831581115723e+00,1.019046664237976074e+00,1.018993496894836426e+00,1.018940329551696777e+00,1.018887162208557129e+00,1.018833994865417480e+00,1.018780827522277832e+00,1.018727779388427734e+00,1.018674612045288086e+00,1.018621444702148438e+00,1.018568396568298340e+00,1.018515348434448242e+00,1.018462181091308594e+00,1.018409132957458496e+00,1.018355965614318848e+00,1.018302917480468750e+00,1.018249750137329102e+00,1.018196702003479004e+00,1.018143653869628906e+00,1.018090605735778809e+00,1.018037557601928711e+00,1.017984390258789062e+00,1.017931342124938965e+00,1.017878293991088867e+00,1.017825245857238770e+00,1.017772197723388672e+00,1.017719268798828125e+00,1.017666220664978027e+00,1.017613172531127930e+00,1.017560124397277832e+00,1.017507195472717285e+00,1.017454147338867188e+00,1.017401099205017090e+00,1.017348170280456543e+00,1.017295122146606445e+00,1.017242193222045898e+00,1.017189264297485352e+00,1.017136335372924805e+00,1.017083287239074707e+00,1.017030358314514160e+00,1.016977429389953613e+00,1.016924500465393066e+00,1.016871452331542969e+00
9.625419974327087402e-01,9.624944925308227539e-01,9.624471068382263184e-01,9.623996019363403320e-01,9.623522162437438965e-01,9.623047709465026855e-01,9.622574448585510254e-01,9.622100591659545898e-01,9.621626138687133789e-01,9.621152877807617188e-01,9.620678424835205078e-01,9.620205163955688477e-01,9.619730710983276367e-01,9.619257450103759766e-01,9.618782997131347656e-01,9.618309736251831055e-01,9.617835879325866699e-01,9.617362618446350098e-01,9.616888761520385742e-01,9.616415500640869141e-01,9.615941643714904785e-01,9.615468978881835938e-01,9.614995121955871582e-01,9.614522457122802734e-01,9.614048600196838379e-01,9.613575935363769531e-01,9.613102078437805176e-01,9.612629413604736328e-01,9.612155556678771973e-01,9.611683487892150879e-01,9.611209630966186523e-01,9.610737562179565430e-01,9.610264301300048828e-01,9.609791636466979980e-01,9.609319567680358887e-01,9.608846306800842285e-01,9.608374238014221191e-01,9.607900977134704590e-01,9.607428908348083496e-01,9.606955647468566895e-01,9.606483578681945801e-01,9.606010317802429199e-01,9.605538845062255859e-01,9.605065584182739258e-01,9.604594111442565918e-01,9.604121446609497070e-01,9.603649377822875977e-01,9.603176712989807129e-01,9.602705240249633789e-01,9.602232575416564941e-01,9.601761102676391602e-01,9.601288437843322754e-01,9.600816965103149414e-01,9.600344300270080566e-01,9.599873423576354980e-01,9.599400758743286133e-01,9.598929286003112793e-01,9.598457217216491699e-01,9.597986340522766113e-01,9.597513675689697266e-01,9.597042798995971680e-01,9.596571922302246094e-01,9.596099853515625000e-01,9.595628976821899414e-01,9.595156908035278320e-01,9.594686031341552734e-01,9.594213962554931641e-01,9.593743681907653809e-01,9.593271613121032715e-01,9.592801332473754883e-01,9.592329263687133789e-01,9.591858983039855957e-01,9.591387510299682617e-01,9.590916633605957031e-01,9.590445160865783691e-01,9.589974880218505859e-01,9.589503407478332520e-01,9.589033126831054688e-01,9.588562250137329102e-01,9.588091969490051270e-01
9.103590250015258789e-01,9.103165268898010254e-01,9.102741479873657227e-01,9.102317094802856445e-01,9.101893305778503418e-01,9.101468920707702637e-01,9.101045131683349609e-01,9.100620746612548828e-01,9.100196957588195801e-01,9.099772572517395020e-01,9.099348783493041992e-01,9.098924398422241211e-01,9.098501205444335938e-01,9.098076820373535156e-01,9.097653627395629883e-01,9.097229242324829102e-01,9.096806049346923828e-01,9.096382260322570801e-01,9.095959067344665527e-01,9.095534682273864746e-01,9.095111489295959473e-01,9.094688892364501953e-01,9.094264507293701172e-01,9.093841910362243652e-01,9.093418121337890625e-01,9.092994928359985352e-01,9.092571139335632324e-01,9.092148542404174805e-01,9.091724753379821777e-01,9.091302156448364258e-01,9.090878367424011230e-01,9.090455770492553711e-01,9.090031981468200684e-01,9.089609384536743164e-01,9.089186191558837891e-01,9.088763594627380371e-01,9.088340401649475098e-01,9.087917804718017578e-01,9.087494611740112305e-01,9.087072014808654785e-01,9.086648821830749512e-01,9.086226820945739746e-01,9.085803627967834473e-01,9.085381627082824707e-01,9.084958434104919434e-01,9.084536433219909668e-01,9.084113240242004395e-01,9.083691239356994629e-01,9.083269238471984863e-01,9.082846641540527344e-01,9.082424640655517578e-01,9.082001447677612305e-01,9.081580042839050293e-01,9.081156849861145020e-01,9.080735445022583008e-01,9.080312848091125488e-01,9.079890847206115723e-01,9.079468250274658203e-01,9.079046845436096191e-01,9.078624248504638672e-01,9.078202843666076660e-01,9.077780246734619141e-01,9.077358841896057129e-01,9.076936841011047363e-01,9.076515436172485352e-01,9.076092839241027832e-01,9.075672030448913574e-01,9.075249433517456055e-01,9.074828624725341797e-01,9.074406623840332031e-01,9.073985219001770020e-01,9.073563218116760254e-01,9.073142409324645996e-01,9.072721004486083984e-01,9.072299599647521973e-01,9.071878194808959961e-01,9.071456789970397949e-01,9.071035981178283691e-01,9.070613980293273926e-01,9.070193171501159668e-01
8.635430932044982910e-01,8.635049462318420410e-01,8.634667396545410156e-01,8.634286522865295410e-01,8.633903861045837402e-01,8.633522987365722656e-01,8.633140921592712402e-01,8.632759451866149902e-01,8.632378578186035156e-01,8.631996512413024902e-01,8.631615638732910156e-01,8.631233572959899902e-01,8.630852699279785156e-01,8.630470633506774902e-01,8.630089759826660156e-01,8.629708290100097656e-01,8.629327416419982910e-01,8.628945946693420410e-01,8.628565073013305664e-01,8.628183007240295410e-01,8.627802729606628418e-01,8.627421259880065918e-01,8.627040386199951172e-01,8.626658916473388672e-01,8.626278638839721680e-01,8.625897169113159180e-01,8.625516295433044434e-01,8.625134825706481934e-01,8.624754548072814941e-01,8.624373078346252441e-01,8.623992800712585449e-01,8.623611927032470703e-01,8.623231649398803711e-01,8.622851371765136719e-01,8.622469902038574219e-01,8.622089624404907227e-01,8.621708750724792480e-01,8.621328473091125488e-01,8.620947599411010742e-01,8.620567321777343750e-01,8.620186448097229004e-01,8.619806766510009766e-01,8.619425892829895020e-01,8.619046211242675781e-01,8.618665337562561035e-01,8.618285059928894043e-01,8.617904782295227051e-01,8.617524504661560059e-01,8.617144227027893066e-01,8.616764545440673828e-01,8.616383671760559082e-01,8.616003990173339844e-01,8.615623712539672852e-01,8.615244030952453613e-01,8.614863753318786621e-01,8.614484071731567383e-01,8.614103794097900391e-01,8.613724112510681152e-01,8.613343834877014160e-01,8.612964153289794922e-01,8.612585067749023438e-01,8.612204790115356445e-01,8.611825704574584961e-01,8.611445426940917969e-01,8.611066341400146484e-01,8.610686063766479492e-01,8.610306978225708008e-01,8.609926700592041016e-01,8.609547615051269531e-01,8.609167933464050293e-01,8.608788847923278809e-01,8.608409166336059570e-01,8.608030080795288086e-01,8.607650399208068848e-01,8.607271313667297363e-01,8.606891632080078125e-01,8.606512546539306641e-01,8.606132864952087402e-01,8.605754375457763672e-01,8.605374693870544434e-01
8.213068246841430664e-01,8.212723135948181152e-01,8.212377429008483887e-01,8.212032914161682129e-01,8.211687207221984863e-01,8.211342096328735352e-01,8.210996985435485840e-01,8.210651874542236328e-01,8.210306167602539062e-01,8.209961652755737305e-01,8.209615945816040039e-01,8.209271430969238281e-01,8.208926320075988770e-01,8.208581209182739258e-01,8.208236098289489746e-01,8.207891583442687988e-01,8.207546472549438477e-01,8.207201957702636719e-01,8.206856250762939453e-01,8.206512331962585449e-01,8.206167817115783691e-01,8.205822706222534180e-01,8.205478191375732422e-01,8.205133080482482910e-01,8.204789161682128906e-01,8.204444050788879395e-01,8.204099535942077637e-01,8.203754425048828125e-01,8.203410506248474121e-01,8.203065395355224609e-01,8.202721476554870605e-01,8.202376365661621094e-01,8.202032446861267090e-01,8.201687335968017578e-01,8.201343417167663574e-01,8.200998902320861816e-01,8.200654983520507812e-01,8.200309872627258301e-01,8.199966549873352051e-01,8.199621438980102539e-01,8.199277520179748535e-01,8.198933005332946777e-01,8.198589682579040527e-01,8.198245167732238770e-01,8.197901248931884766e-01,8.197556734085083008e-01,8.197212815284729004e-01,8.196869492530822754e-01,8.196524977684020996e-01,8.196181654930114746e-01,8.195837140083312988e-01,8.195493817329406738e-01,8.195149302482604980e-01,8.194805979728698730e-01,8.194461464881896973e-01,8.194118142127990723e-01,8.193774223327636719e-01,8.193430900573730469e-01,8.193086981773376465e-01,8.192743659019470215e-01,8.192399144172668457e-01,8.192056417465209961e-01,8.191711902618408203e-01,8.191369175910949707e-01,8.191025257110595703e-01,8.190681934356689453e-01,8.190338015556335449e-01,8.189995288848876953e-01,8.189651370048522949e-01,8.189308047294616699e-01,8.188964724540710449e-01,8.188621401786804199e-01,8.188278079032897949e-01,8.187934756278991699e-01,8.187592029571533203e-01,8.187248706817626953e-01,8.186905980110168457e-01,8.186562061309814453e-01,8.186219334602355957e-01,8.185876011848449707e-01
7.830095291137695312e-01,7.829781174659729004e-01,7.829467654228210449e-01,7.829153537750244141e-01,7.828840017318725586e-01,7.828525900840759277e-01,7.828212380409240723e-01,7.827898859977722168e-01,7.827584743499755859e-01,7.827271223068237305e-01,7.826957106590270996e-01,7.826644182205200195e-01,7.826330065727233887e-01,7.826017141342163086e-01,7.825703024864196777e-01,7.825389504432678223e-01,7.825075984001159668e-01,7.824762463569641113e-01,7.824448943138122559e-01,7.824136018753051758e-01,7.823821902275085449e-01,7.823508977890014648e-01,7.823195457458496094e-01,7.822882533073425293e-01,7.822568416595458984e-01,7.822255492210388184e-01,7.821941971778869629e-01,7.821629047393798828e-01,7.821315526962280273e-01,7.821002602577209473e-01,7.820689082145690918e-01,7.820376157760620117e-01,7.820062637329101562e-01,7.819750308990478516e-01,7.819437384605407715e-01,7.819123864173889160e-01,7.818811535835266113e-01,7.818498015403747559e-01,7.818185091018676758e-01,7.817872166633605957e-01,7.817559242248535156e-01,7.817246317863464355e-01,7.816933989524841309e-01,7.816620469093322754e-01,7.816308140754699707e-01,7.815994620323181152e-01,7.815682291984558105e-01,7.815369367599487305e-01,7.815057039260864258e-01,7.814744114875793457e-01,7.814431786537170410e-01,7.814118862152099609e-01,7.813806533813476562e-01,7.813493609428405762e-01,7.813181281089782715e-01,7.812868356704711914e-01,7.812556028366088867e-01,7.812243103981018066e-01,7.811931371688842773e-01,7.811618447303771973e-01,7.811306118965148926e-01,7.810994386672973633e-01,7.810681462287902832e-01,7.810369729995727539e-01,7.810056805610656738e-01,7.809745073318481445e-01,7.809432148933410645e-01,7.809120416641235352e-01,7.808807492256164551e-01,7.808495759963989258e-01,7.808183431625366211e-01,7.807871699333190918e-01,7.807559370994567871e-01,7.807247638702392578e-01,7.806934714317321777e-01,7.806623578071594238e-01,7.806310653686523438e-01,7.805999517440795898e-01,7.805687189102172852e-01,7.805375456809997559e-01
7.481246590614318848e-01,7.480959892272949219e-01,7.480673789978027344e-01,7.480386495590209961e-01,7.480100393295288086e-01,7.479813694953918457e-01,7.479527592658996582e-01,7.479240894317626953e-01,7.478954792022705078e-01,7.478668093681335449e-01,7.478381991386413574e-01,7.478095293045043945e-01,7.477809190750122070e-01,7.477523088455200195e-01,7.477236986160278320e-01,7.476950287818908691e-01,7.476664185523986816e-01,7.476378083229064941e-01,7.476091980934143066e-01,7.475805282592773438e-01,7.475519776344299316e-01,7.475233674049377441e-01,7.474947571754455566e-01,7.474662065505981445e-01,7.474375367164611816e-01,7.474089860916137695e-01,7.473803162574768066e-01,7.473517656326293945e-01,7.473231554031372070e-01,7.472946047782897949e-01,7.472659349441528320e-01,7.472373843193054199e-01,7.472087740898132324e-01,7.471802234649658203e-01,7.471516132354736328e-01,7.471230626106262207e-01,7.470944523811340332e-01,7.470659017562866211e-01,7.470372915267944336e-01,7.470087409019470215e-01,7.469801306724548340e-01,7.469516396522521973e-01,7.469230294227600098e-01,7.468944787979125977e-01,7.468658685684204102e-01,7.468373775482177734e-01,7.468087673187255859e-01,7.467802762985229492e-01,7.467517256736755371e-01,7.467231750488281250e-01,7.466946244239807129e-01,7.466660737991333008e-01,7.466375231742858887e-01,7.466089725494384766e-01,7.465804815292358398e-01,7.465518712997436523e-01,7.465233802795410156e-01,7.464948296546936035e-01,7.464663386344909668e-01,7.464377880096435547e-01,7.464092969894409180e-01,7.463807463645935059e-01,7.463522553443908691e-01,7.463237047195434570e-01,7.462952136993408203e-01,7.462666630744934082e-01,7.462381720542907715e-01,7.462096214294433594e-01,7.461811304092407227e-01,7.461525797843933105e-01,7.461241483688354492e-01,7.460955977439880371e-01,7.460671067237854004e-01,7.460386753082275391e-01,7.460101246833801270e-01,7.459816932678222656e-01,7.459531426429748535e-01,7.459247112274169922e-01,7.458961606025695801e-01,7.458677291870117188e-01
7.162155508995056152e-01,7.161893248558044434e-01,7.161630392074584961e-01,7.161368131637573242e-01,7.161105275154113770e-01,7.160843014717102051e-01,7.160580158233642578e-01,7.160317897796630859e-01,7.160055637359619141e-01,7.159792780876159668e-01,7.159530520439147949e-01,7.159267663955688477e-01,7.159005999565124512e-01,7.158743143081665039e-01,7.158480882644653320e-01,7.158218622207641602e-01,7.157956361770629883e-01,7.157693505287170410e-01,7.157431840896606445e-01,7.157168984413146973e-01,7.156907320022583008e-01,7.156644463539123535e-01,7.156382799148559570e-01,7.156119942665100098e-01,7.155858278274536133e-01,7.155596017837524414e-01,7.155333757400512695e-01,7.155071496963500977e-01,7.154809832572937012e-01,7.154547572135925293e-01,7.154285907745361328e-01,7.154023051261901855e-01,7.153761386871337891e-01,7.153499722480773926e-01,7.153237462043762207e-01,7.152975797653198242e-01,7.152713537216186523e-01,7.152451872825622559e-01,7.152189612388610840e-01,7.151927947998046875e-01,7.151665687561035156e-01,7.151404619216918945e-01,7.151142358779907227e-01,7.150880694389343262e-01,7.150618433952331543e-01,7.150357365608215332e-01,7.150095105171203613e-01,7.149833440780639648e-01,7.149571776390075684e-01,7.149310111999511719e-01,7.149048447608947754e-01,7.148786783218383789e-01,7.148525118827819824e-01,7.148263454437255859e-01,7.148001790046691895e-01,7.147740125656127930e-01,7.147478461265563965e-01,7.147217392921447754e-01,7.146955728530883789e-01,7.146694064140319824e-01,7.146432995796203613e-01,7.146171331405639648e-01,7.145910263061523438e-01,7.145648598670959473e-01,7.145387530326843262e-01,7.145125269889831543e-01,7.144864201545715332e-01,7.144602537155151367e-01,7.144341468811035156e-01,7.144080400466918945e-01,7.143819332122802734e-01,7.143557667732238770e-01,7.143296599388122559e-01,7.143034934997558594e-01,7.142773866653442383e-01,7.142512798309326172e-01,7.142251729965209961e-01,7.141990065574645996e-01,7.141729593276977539e-01,7.141467928886413574e-01
6.869171261787414551e-01,6.868929862976074219e-01,6.868688464164733887e-01,6.868447065353393555e-01,6.868205070495605469e-01,6.867964267730712891e-01,6.867722272872924805e-01,6.867480874061584473e-01,6.867239475250244141e-01,6.866998076438903809e-01,6.866756081581115723e-01,6.866515278816223145e-01,6.866273283958435059e-01,6.866032481193542480e-01,6.865791082382202148e-01,6.865549683570861816e-01,6.865308284759521484e-01,6.865066885948181152e-01,6.864825487136840820e-01,6.864584684371948242e-01,6.864343285560607910e-01,6.864101886749267578e-01,6.863861083984375000e-01,6.863619685173034668e-01,6.863378882408142090e-01,6.863137483596801758e-01,6.862896084785461426e-01,6.862654685974121094e-01,6.862413883209228516e-01,6.862172484397888184e-01,6.861931681632995605e-01,6.861690282821655273e-01,6.861449480056762695e-01,6.861208677291870117e-01,6.860967874526977539e-01,6.860726475715637207e-01,6.860485672950744629e-01,6.860244274139404297e-01,6.860003471374511719e-01,6.859762668609619141e-01,6.859521865844726562e-01,6.859280467033386230e-01,6.859040260314941406e-01,6.858798861503601074e-01,6.858558654785156250e-01,6.858317255973815918e-01,6.858076453208923340e-01,6.857836246490478516e-01,6.857594847679138184e-01,6.857354640960693359e-01,6.857113838195800781e-01,6.856873035430908203e-01,6.856632232666015625e-01,6.856391429901123047e-01,6.856150627136230469e-01,6.855910420417785645e-01,6.855669617652893066e-01,6.855428814888000488e-01,6.855188012123107910e-01,6.854947805404663086e-01,6.854707002639770508e-01,6.854466795921325684e-01,6.854225993156433105e-01,6.853985786437988281e-01,6.853744983673095703e-01,6.853504776954650879e-01,6.853263974189758301e-01,6.853023767471313477e-01,6.852782964706420898e-01,6.852542757987976074e-01,6.852301955223083496e-01,6.852061748504638672e-01,6.851821541786193848e-01,6.851581335067749023e-01,6.851341128349304199e-01,6.851100325584411621e-01,6.850860714912414551e-01,6.850619912147521973e-01,6.850379705429077148e-01,6.850139498710632324e-01
