5.000000000000000000e+00,5.000000000000000000e+00,5.000000000000000000e+00,5.000000000000000000e+00,5.000000000000000000e+00,5.000000000000000000e+00,5.000000000000000000e+00,5.000000000000000000e+00,5.000000000000000000e+00,5.000000000000000000e+00,5.000000000000000000e+00,5.000000000000000000e+00,5.000000000000000000e+00,5.000000000000000000e+00,5.000000000000000000e+00,5.000000000000000000e+00,5.000000000000000000e+00,5.000000000000000000e+00,5.000000000000000000e+00,5.000000000000000000e+00,5.000000000000000000e+00,5.000000000000000000e+00,5.000000000000000000e+00,5.000000000000000000e+00,5.000000000000000000e+00,5.000000000000000000e+00,5.000000000000000000e+00,5.000000000000000000e+00,5.000000000000000000e+00,5.000000000000000000e+00,5.000000000000000000e+00,5.000000000000000000e+00,5.000000000000000000e+00,5.000000000000000000e+00,5.000000000000000000e+00,5.000000000000000000e+00,5.000000000000000000e+00,5.000000000000000000e+00,5.000000000000000000e+00,5.000000000000000000e+00,5.000000000000000000e+00,4.493992328643798828e+00,4.330361843109130859e+00,4.178227901458740234e+00,4.036420822143554688e+00,3.903923749923706055e+00,3.779848814010620117e+00,3.663417100906372070e+00,3.553944587707519531e+00,3.450824737548828125e+00,3.353520154953002930e+00,3.261552572250366211e+00,3.174494743347167969e+00,3.091963768005371094e+00,3.013615131378173828e+00,2.939138889312744141e+00,2.868255138397216797e+00,2.800709962844848633e+00,2.736272811889648438e+00,2.674733877182006836e+00,2.615902423858642578e+00,2.559602975845336914e+00,2.505676031112670898e+00,2.453974246978759766e+00,2.404363155364990234e+00,2.356718301773071289e+00,2.310925006866455078e+00,2.266877174377441406e+00,2.224477291107177734e+00,2.183634519577026367e+00,2.144264221191406250e+00,2.106288671493530273e+00,2.069634675979614258e+00,2.034234762191772461e+00,2.000025272369384766e+00,8.754038214683532715e-01,8.569404482841491699e-01,8.386690020561218262e-01,8.228864073753356934e-01,8.108512163162231445e-01
5.000000000000000000e+00,5.000000000000000000e+00,5.000000000000000000e+00,5.000000000000000000e+00,5.000000000000000000e+00,5.000000000000000000e+00,5.000000000000000000e+00,5.000000000000000000e+00,5.000000000000000000e+00,5.000000000000000000e+00,5.000000000000000000e+00,5.000000000000000000e+00,5.000000000000000000e+00,5.000000000000000000e+00,5.000000000000000000e+00,5.000000000000000000e+00,5.000000000000000000e+00,5.000000000000000000e+00,5.000000000000000000e+00,5.000000000000000000e+00,5.000000000000000000e+00,5.000000000000000000e+00,5.000000000000000000e+00,5.000000000000000000e+00,5.000000000000000000e+00,5.000000000000000000e+00,5.000000000000000000e+00,5.000000000000000000e+00,5.000000000000000000e+00,5.000000000000000000e+00,5.000000000000000000e+00,5.000000000000000000e+00,5.000000000000000000e+00,5.000000000000000000e+00,5.000000000000000000e+00,5.000000000000000000e+00,5.000000000000000000e+00,5.000000000000000000e+00,5.000000000000000000e+00,5.000000000000000000e+00,4.670603275299072266e+00,4.494110584259033203e+00,4.330471515655517578e+00,4.178329944610595703e+00,4.036516189575195312e+00,3.904012918472290039e+00,3.779932260513305664e+00,3.663496017456054688e+00,3.554018735885620117e+00,3.450894355773925781e+00,3.353585958480834961e+00,3.261615037918090820e+00,3.174553871154785156e+00,3.092019557952880859e+00,3.013668298721313477e+00,2.939189672470092773e+00,2.868303537368774414e+00,2.800755739212036133e+00,2.736316442489624023e+00,2.674775838851928711e+00,2.615942478179931641e+00,2.559641361236572266e+00,2.505712747573852539e+00,2.454009532928466797e+00,2.404397010803222656e+00,2.356750726699829102e+00,2.310956239700317383e+00,2.266907453536987305e+00,2.224506378173828125e+00,2.183662414550781250e+00,2.144291162490844727e+00,2.106314659118652344e+00,2.069659709930419922e+00,2.034258842468261719e+00,2.000048637390136719e+00,8.783577084541320801e-01,8.599426746368408203e-01,8.416063189506530762e-01,8.262599706649780273e-01,8.140403032302856445e-01
5.000000000000000000e+00,5.000000000000000000e+00,5.000000000000000000e+00,5.000000000000000000e+00,5.000000000000000000e+00,5.000000000000000000e+00,5.000000000000000000e+00,5.000000000000000000e+00,5.000000000000000000e+00,5.000000000000000000e+00,5.000000000000000000e+00,5.000000000000000000e+00,5.000000000000000000e+00,5.000000000000000000e+00,5.000000000000000000e+00,5.000000000000000000e+00,5.000000000000000000e+00,5.000000000000000000e+00,5.000000000000000000e+00,5.000000000000000000e+00,5.000000000000000000e+00,5.000000000000000000e+00,5.000000000000000000e+00,5.000000000000000000e+00,5.000000000000000000e+00,5.000000000000000000e+00,5.000000000000000000e+00,5.000000000000000000e+00,5.000000000000000000e+00,5.000000000000000000e+00,5.000000000000000000e+00,5.000000000000000000e+00,5.000000000000000000e+00,5.000000000000000000e+00,5.000000000000000000e+00,5.000000000000000000e+00,5.000000000000000000e+00,5.000000000000000000e+00,5.000000000000000000e+00,4.861662387847900391e+00,4.670730590820312500e+00,4.494228839874267578e+00,4.330581188201904297e+00,4.178431987762451172e+00,4.036611557006835938e+00,3.904102325439453125e+00,3.780015707015991211e+00,3.663574218750000000e+00,3.554092407226562500e+00,3.450964212417602539e+00,3.353651762008666992e+00,3.261677265167236328e+00,3.174612760543823242e+00,3.092075586318969727e+00,3.013721227645874023e+00,2.939240217208862305e+00,2.868351459503173828e+00,2.800801753997802734e+00,2.736360311508178711e+00,2.674817800521850586e+00,2.615982532501220703e+00,2.559679746627807617e+00,2.505749464035034180e+00,2.454044818878173828e+00,2.404430866241455078e+00,2.356783390045166016e+00,2.310987472534179688e+00,2.266937255859375000e+00,2.224535226821899414e+00,2.183690309524536133e+00,2.144318103790283203e+00,2.106340646743774414e+00,2.069684743881225586e+00,2.034283161163330078e+00,2.000072002410888672e+00,8.813316822052001953e-01,8.627929687500000000e-01,8.445643186569213867e-01,8.296614289283752441e-01,8.169816136360168457e-01
5.000000000000000000e+00,5.000000000000000000e+00,5.000000000000000000e+00,5.000000000000000000e+00,5.000000000000000000e+00,5.000000000000000000e+00,5.000000000000000000e+00,5.000000000000000000e+00,5.000000000000000000e+00,5.000000000000000000e+00,5.000000000000000000e+00,5.000000000000000000e+00,5.000000000000000000e+00,5.000000000000000000e+00,5.000000000000000000e+00,5.000000000000000000e+00,5.000000000000000000e+00,5.000000000000000000e+00,5.000000000000000000e+00,5.000000000000000000e+00,5.000000000000000000e+00,5.000000000000000000e+00,5.000000000000000000e+00,5.000000000000000000e+00,5.000000000000000000e+00,5.000000000000000000e+00,5.000000000000000000e+00,5.000000000000000000e+00,5.000000000000000000e+00,5.000000000000000000e+00,5.000000000000000000e+00,5.000000000000000000e+00,5.000000000000000000e+00,5.000000000000000000e+00,5.000000000000000000e+00,5.000000000000000000e+00,5.000000000000000000e+00,5.000000000000000000e+00,5.000000000000000000e+00,4.861800670623779297e+00,4.670858383178710938e+00,4.494347095489501953e+00,4.330690860748291016e+00,4.178534030914306641e+00,4.036706924438476562e+00,3.904191493988037109e+00,3.780099630355834961e+00,3.663652658462524414e+00,3.554166316986083984e+00,3.451033830642700195e+00,3.353717803955078125e+00,3.261739253997802734e+00,3.174671649932861328e+00,3.092131614685058594e+00,3.013774633407592773e+00,2.939290523529052734e+00,2.868399620056152344e+00,2.800847768783569336e+00,2.736404180526733398e+00,2.674859523773193359e+00,2.616022348403930664e+00,2.559718132019042969e+00,2.505786180496215820e+00,2.454080104827880859e+00,2.404464721679687500e+00,2.356815814971923828e+00,2.311018705368041992e+00,2.266967296600341797e+00,2.224564313888549805e+00,2.183718204498291016e+00,2.144345045089721680e+00,2.106366395950317383e+00,2.069709777832031250e+00,2.034307241439819336e+00,2.000095605850219727e+00,8.843257427215576172e-01,8.656623363494873047e-01,8.475431203842163086e-01,8.330194950103759766e-01,8.199442625045776367e-01
5.000000000000000000e+00,5.000000000000000000e+00,5.000000000000000000e+00,5.000000000000000000e+00,5.000000000000000000e+00,5.000000000000000000e+00,5.000000000000000000e+00,5.000000000000000000e+00,5.000000000000000000e+00,5.000000000000000000e+00,5.000000000000000000e+00,5.000000000000000000e+00,5.000000000000000000e+00,5.000000000000000000e+00,5.000000000000000000e+00,5.000000000000000000e+00,5.000000000000000000e+00,5.000000000000000000e+00,5.000000000000000000e+00,5.000000000000000000e+00,5.000000000000000000e+00,5.000000000000000000e+00,5.000000000000000000e+00,5.000000000000000000e+00,5.000000000000000000e+00,5.000000000000000000e+00,5.000000000000000000e+00,5.000000000000000000e+00,5.000000000000000000e+00,5.000000000000000000e+00,5.000000000000000000e+00,5.000000000000000000e+00,5.000000000000000000e+00,5.000000000000000000e+00,5.000000000000000000e+00,5.000000000000000000e+00,5.000000000000000000e+00,5.000000000000000000e+00,5.000000000000000000e+00,4.861938953399658203e+00,4.670986175537109375e+00,4.494465351104736328e+00,4.330800533294677734e+00,4.178636550903320312e+00,4.036802291870117188e+00,3.904280424118041992e+00,3.780183076858520508e+00,3.663731575012207031e+00,3.554240465164184570e+00,3.451103210449218750e+00,3.353783369064331055e+00,3.261801719665527344e+00,3.174730777740478516e+00,3.092187404632568359e+00,3.013827562332153320e+00,2.939341306686401367e+00,2.868447780609130859e+00,2.800893545150756836e+00,2.736448049545288086e+00,2.674901485443115234e+00,2.616062641143798828e+00,2.559756278991699219e+00,2.505822896957397461e+00,2.454115390777587891e+00,2.404498577117919922e+00,2.356848239898681641e+00,2.311049938201904297e+00,2.266997575759887695e+00,2.224593162536621094e+00,2.183746099472045898e+00,2.144371986389160156e+00,2.106392621994018555e+00,2.069734811782836914e+00,2.034331560134887695e+00,2.000118970870971680e+00,8.873403072357177734e-01,8.685507178306579590e-01,8.505403399467468262e-01,8.360998630523681641e-01,8.229284882545471191e-01
5.000000000000000000e+00,5.000000000000000000e+00,5.000000000000000000e+00,5.000000000000000000e+00,5.000000000000000000e+00,5.000000000000000000e+00,5.000000000000000000e+00,5.000000000000000000e+00,5.000000000000000000e+00,5.000000000000000000e+00,5.000000000000000000e+00,5.000000000000000000e+00,5.000000000000000000e+00,5.000000000000000000e+00,5.000000000000000000e+00,5.000000000000000000e+00,5.000000000000000000e+00,5.000000000000000000e+00,5.000000000000000000e+00,5.000000000000000000e+00,5.000000000000000000e+00,5.000000000000000000e+00,5.000000000000000000e+00,5.000000000000000000e+00,5.000000000000000000e+00,5.000000000000000000e+00,5.000000000000000000e+00,5.000000000000000000e+00,5.000000000000000000e+00,5.000000000000000000e+00,5.000000000000000000e+00,5.000000000000000000e+00,5.000000000000000000e+00,5.000000000000000000e+00,5.000000000000000000e+00,5.000000000000000000e+00,5.000000000000000000e+00,5.000000000000000000e+00,5.000000000000000000e+00,4.862077713012695312e+00,4.671113491058349609e+00,4.494583606719970703e+00,4.330910205841064453e+00,4.178738594055175781e+00,4.036897659301757812e+00,3.904369831085205078e+00,3.780266523361206055e+00,3.663810014724731445e+00,3.554314136505126953e+00,3.451173305511474609e+00,3.353849172592163086e+00,3.261863946914672852e+00,3.174789667129516602e+00,3.092243432998657227e+00,3.013880729675292969e+00,2.939391851425170898e+00,2.868495941162109375e+00,2.800939559936523438e+00,2.736491680145263672e+00,2.674943208694458008e+00,2.616102695465087891e+00,2.559794664382934570e+00,2.505859613418579102e+00,2.454150438308715820e+00,2.404532432556152344e+00,2.356880903244018555e+00,2.311081171035766602e+00,2.267027616500854492e+00,2.224622249603271484e+00,2.183773994445800781e+00,2.144398689270019531e+00,2.106418371200561523e+00,2.069759845733642578e+00,2.034355878829956055e+00,2.000142335891723633e+00,8.904400467872619629e-01,8.716659545898437500e-01,8.536671400070190430e-01,8.393942117691040039e-01,8.261436820030212402e-01
5.000000000000000000e+00,5.000000000000000000e+00,5.000000000000000000e+00,5.000000000000000000e+00,5.000000000000000000e+00,5.000000000000000000e+00,5.000000000000000000e+00,5.000000000000000000e+00,5.000000000000000000e+00,5.000000000000000000e+00,5.000000000000000000e+00,5.000000000000000000e+00,5.000000000000000000e+00,5.000000000000000000e+00,5.000000000000000000e+00,5.000000000000000000e+00,5.000000000000000000e+00,5.000000000000000000e+00,5.000000000000000000e+00,5.000000000000000000e+00,5.000000000000000000e+00,5.000000000000000000e+00,5.000000000000000000e+00,5.000000000000000000e+00,5.000000000000000000e+00,5.000000000000000000e+00,5.000000000000000000e+00,5.000000000000000000e+00,5.000000000000000000e+00,5.000000000000000000e+00,5.000000000000000000e+00,5.000000000000000000e+00,5.000000000000000000e+00,5.000000000000000000e+00,5.000000000000000000e+00,5.000000000000000000e+00,5.000000000000000000e+00,5.000000000000000000e+00,5.000000000000000000e+00,4.862215518951416016e+00,4.671241283416748047e+00,4.494701385498046875e+00,4.331019878387451172e+00,4.178840637207031250e+00,4.036993026733398438e+00,3.904458999633789062e+00,3.780350446701049805e+00,3.663888454437255859e+00,3.554388046264648438e+00,3.451242685317993164e+00,3.353915214538574219e+00,3.261926174163818359e+00,3.174848556518554688e+00,3.092299461364746094e+00,3.013933897018432617e+00,2.939442157745361328e+00,2.868544101715087891e+00,2.800985336303710938e+00,2.736535549163818359e+00,2.674985170364379883e+00,2.616142511367797852e+00,2.559833049774169922e+00,2.505896568298339844e+00,2.454185724258422852e+00,2.404566049575805664e+00,2.356913328170776367e+00,2.311112403869628906e+00,2.267057657241821289e+00,2.224651098251342773e+00,2.183801889419555664e+00,2.144425868988037109e+00,2.106444358825683594e+00,2.069784879684448242e+00,2.034379959106445312e+00,2.000165700912475586e+00,8.943287730216979980e-01,8.753920197486877441e-01,8.572406172752380371e-01,8.428826928138732910e-01,8.295227289199829102e-01
5.000000000000000000e+00,5.000000000000000000e+00,5.000000000000000000e+00,5.000000000000000000e+00,5.000000000000000000e+00,5.000000000000000000e+00,5.000000000000000000e+00,5.000000000000000000e+00,5.000000000000000000e+00,5.000000000000000000e+00,5.000000000000000000e+00,5.000000000000000000e+00,5.000000000000000000e+00,5.000000000000000000e+00,5.000000000000000000e+00,5.000000000000000000e+00,5.000000000000000000e+00,5.000000000000000000e+00,5.000000000000000000e+00,5.000000000000000000e+00,5.000000000000000000e+00,5.000000000000000000e+00,5.000000000000000000e+00,5.000000000000000000e+00,5.000000000000000000e+00,5.000000000000000000e+00,5.000000000000000000e+00,5.000000000000000000e+00,5.000000000000000000e+00,5.000000000000000000e+00,5.000000000000000000e+00,5.000000000000000000e+00,5.000000000000000000e+00,5.000000000000000000e+00,5.000000000000000000e+00,5.000000000000000000e+00,5.000000000000000000e+00,5.000000000000000000e+00,5.000000000000000000e+00,4.862354278564453125e+00,4.671369075775146484e+00,4.494820117950439453e+00,4.331130027770996094e+00,4.178943157196044922e+00,4.037088394165039062e+00,3.904547929763793945e+00,3.780433893203735352e+00,3.663967132568359375e+00,3.554462194442749023e+00,3.451312303543090820e+00,3.353980779647827148e+00,3.261988639831542969e+00,3.174907922744750977e+00,3.092355251312255859e+00,3.013987064361572266e+00,2.939492940902709961e+00,2.868592262268066406e+00,2.801031112670898438e+00,2.736579418182373047e+00,2.675027132034301758e+00,2.616182804107666016e+00,2.559871196746826172e+00,2.505933046340942383e+00,2.454221010208129883e+00,2.404600143432617188e+00,2.356945753097534180e+00,2.311143636703491211e+00,2.267087697982788086e+00,2.224680185317993164e+00,2.183829784393310547e+00,2.144452571868896484e+00,2.106470346450805664e+00,2.069810152053833008e+00,2.034404039382934570e+00,2.000189065933227539e+00,8.982515931129455566e-01,8.791500926017761230e-01,8.608440756797790527e-01,8.464002013206481934e-01,8.329293131828308105e-01
5.000000000000000000e+00,5.000000000000000000e+00,5.000000000000000000e+00,5.000000000000000000e+00,5.000000000000000000e+00,5.000000000000000000e+00,5.000000000000000000e+00,5.000000000000000000e+00,5.000000000000000000e+00,5.000000000000000000e+00,5.000000000000000000e+00,5.000000000000000000e+00,5.000000000000000000e+00,5.000000000000000000e+00,5.000000000000000000e+00,5.000000000000000000e+00,5.000000000000000000e+00,5.000000000000000000e+00,5.000000000000000000e+00,5.000000000000000000e+00,5.000000000000000000e+00,5.000000000000000000e+00,5.000000000000000000e+00,5.000000000000000000e+00,5.000000000000000000e+00,5.000000000000000000e+00,5.000000000000000000e+00,5.000000000000000000e+00,5.000000000000000000e+00,5.000000000000000000e+00,5.000000000000000000e+00,5.000000000000000000e+00,5.000000000000000000e+00,5.000000000000000000e+00,5.000000000000000000e+00,5.000000000000000000e+00,5.000000000000000000e+00,5.000000000000000000e+00,5.000000000000000000e+00,4.862492561340332031e+00,4.671496391296386719e+00,4.494938373565673828e+00,4.331239700317382812e+00,4.179045200347900391e+00,4.037183761596679688e+00,3.904637575149536133e+00,3.780517339706420898e+00,3.664045572280883789e+00,3.554535865783691406e+00,3.451382398605346680e+00,3.354046583175659180e+00,3.262050628662109375e+00,3.174966573715209961e+00,3.092411279678344727e+00,3.014040231704711914e+00,2.939543485641479492e+00,2.868640422821044922e+00,2.801077365875244141e+00,2.736623048782348633e+00,2.675068855285644531e+00,2.616222620010375977e+00,2.559909820556640625e+00,2.505969762802124023e+00,2.454256296157836914e+00,2.404633760452270508e+00,2.356978416442871094e+00,2.311174869537353516e+00,2.267117738723754883e+00,2.224709033966064453e+00,2.183857679367065430e+00,2.144479513168334961e+00,2.106496334075927734e+00,2.069835186004638672e+00,2.034428358078002930e+00,2.000212430953979492e+00,9.014313220977783203e-01,8.829405903816223145e-01,8.644779920578002930e-01,8.499471545219421387e-01,8.363640904426574707e-01
5.000000000000000000e+00,5.000000000000000000e+00,5.000000000000000000e+00,5.000000000000000000e+00,5.000000000000000000e+00,5.000000000000000000e+00,5.000000000000000000e+00,5.000000000000000000e+00,5.000000000000000000e+00,5.000000000000000000e+00,5.000000000000000000e+00,5.000000000000000000e+00,5.000000000000000000e+00,5.000000000000000000e+00,5.000000000000000000e+00,5.000000000000000000e+00,5.000000000000000000e+00,5.000000000000000000e+00,5.000000000000000000e+00,5.000000000000000000e+00,5.000000000000000000e+00,5.000000000000000000e+00,5.000000000000000000e+00,5.000000000000000000e+00,5.000000000000000000e+00,5.000000000000000000e+00,5.000000000000000000e+00,5.000000000000000000e+00,5.000000000000000000e+00,5.000000000000000000e+00,5.000000000000000000e+00,5.000000000000000000e+00,5.000000000000000000e+00,5.000000000000000000e+00,5.000000000000000000e+00,5.000000000000000000e+00,5.000000000000000000e+00,5.000000000000000000e+00,5.000000000000000000e+00,4.862630844116210938e+00,4.671624183654785156e+00,4.495056152343750000e+00,4.331349372863769531e+00,4.179147243499755859e+00,4.037279129028320312e+00,3.904726505279541016e+00,3.780601263046264648e+00,3.664124011993408203e+00,3.554609775543212891e+00,3.451451778411865234e+00,3.354112625122070312e+00,3.262112855911254883e+00,3.175025463104248047e+00,3.092467308044433594e+00,3.014093399047851562e+00,2.939593791961669922e+00,2.868688583374023438e+00,2.801123142242431641e+00,2.736667156219482422e+00,2.675110816955566406e+00,2.616262674331665039e+00,2.559947967529296875e+00,2.506006717681884766e+00,2.454291343688964844e+00,2.404667615890502930e+00,2.357010841369628906e+00,2.311206340789794922e+00,2.267147779464721680e+00,2.224737882614135742e+00,2.183885574340820312e+00,2.144506454467773438e+00,2.106522321701049805e+00,2.069860219955444336e+00,2.034452676773071289e+00,2.000236034393310547e+00,9.046298265457153320e-01,8.867638111114501953e-01,8.681427836418151855e-01,8.535240888595581055e-01,8.398273587226867676e-01
5.000000000000000000e+00,5.000000000000000000e+00,5.000000000000000000e+00,5.000000000000000000e+00,5.000000000000000000e+00,5.000000000000000000e+00,5.000000000000000000e+00,5.000000000000000000e+00,5.000000000000000000e+00,5.000000000000000000e+00,5.000000000000000000e+00,5.000000000000000000e+00,5.000000000000000000e+00,5.000000000000000000e+00,5.000000000000000000e+00,5.000000000000000000e+00,5.000000000000000000e+00,5.000000000000000000e+00,5.000000000000000000e+00,5.000000000000000000e+00,5.000000000000000000e+00,5.000000000000000000e+00,5.000000000000000000e+00,5.000000000000000000e+00,5.000000000000000000e+00,5.000000000000000000e+00,5.000000000000000000e+00,5.000000000000000000e+00,5.000000000000000000e+00,5.000000000000000000e+00,5.000000000000000000e+00,5.000000000000000000e+00,5.000000000000000000e+00,5.000000000000000000e+00,5.000000000000000000e+00,5.000000000000000000e+00,5.000000000000000000e+00,5.000000000000000000e+00,5.000000000000000000e+00,4.862769126892089844e+00,4.671751976013183594e+00,4.495174407958984375e+00,4.331459045410156250e+00,4.179249763488769531e+00,4.037374496459960938e+00,3.904815673828125000e+00,3.780684709548950195e+00,3.664202928543090820e+00,3.554683923721313477e+00,3.451521396636962891e+00,3.354178428649902344e+00,3.262175321578979492e+00,3.175084829330444336e+00,3.092523097991943359e+00,3.014146566390991211e+00,2.939644575119018555e+00,2.868736743927001953e+00,2.801168918609619141e+00,2.736710786819458008e+00,2.675152778625488281e+00,2.616302967071533203e+00,2.559986352920532227e+00,2.506043434143066406e+00,2.454326868057250977e+00,2.404701709747314453e+00,2.357043266296386719e+00,2.311237335205078125e+00,2.267178058624267578e+00,2.224766969680786133e+00,2.183913469314575195e+00,2.144533395767211914e+00,2.106548309326171875e+00,2.069885253906250000e+00,2.034476757049560547e+00,2.000259399414062500e+00,9.078510403633117676e-01,8.906204104423522949e-01,8.718386888504028320e-01,8.571311831474304199e-01,8.430395722389221191e-01
5.000000000000000000e+00,5.000000000000000000e+00,5.000000000000000000e+00,5.000000000000000000e+00,5.000000000000000000e+00,5.000000000000000000e+00,5.000000000000000000e+00,5.000000000000000000e+00,5.000000000000000000e+00,5.000000000000000000e+00,5.000000000000000000e+00,5.000000000000000000e+00,5.000000000000000000e+00,5.000000000000000000e+00,5.000000000000000000e+00,5.000000000000000000e+00,5.000000000000000000e+00,5.000000000000000000e+00,5.000000000000000000e+00,5.000000000000000000e+00,5.000000000000000000e+00,5.000000000000000000e+00,5.000000000000000000e+00,5.000000000000000000e+00,5.000000000000000000e+00,5.000000000000000000e+00,5.000000000000000000e+00,5.000000000000000000e+00,5.000000000000000000e+00,5.000000000000000000e+00,5.000000000000000000e+00,5.000000000000000000e+00,5.000000000000000000e+00,5.000000000000000000e+00,5.000000000000000000e+00,5.000000000000000000e+00,5.000000000000000000e+00,5.000000000000000000e+00,5.000000000000000000e+00,4.862907409667968750e+00,4.671879768371582031e+00,4.495293140411376953e+00,4.331568717956542969e+00,4.179351806640625000e+00,4.037469863891601562e+00,3.904905080795288086e+00,3.780768394470214844e+00,3.664281368255615234e+00,3.554757833480834961e+00,3.451591491699218750e+00,3.354243993759155273e+00,3.262237548828125000e+00,3.175143718719482422e+00,3.092579126358032227e+00,3.014199495315551758e+00,2.939695119857788086e+00,2.868784904479980469e+00,2.801214933395385742e+00,2.736754655838012695e+00,2.675194501876831055e+00,2.616342782974243164e+00,2.560024738311767578e+00,2.506080150604248047e+00,2.454361915588378906e+00,2.404735326766967773e+00,2.357075929641723633e+00,2.311268568038940430e+00,2.267208099365234375e+00,2.224795818328857422e+00,2.183941602706909180e+00,2.144560098648071289e+00,2.106574296951293945e+00,2.069910287857055664e+00,2.034501075744628906e+00,2.000282764434814453e+00,9.110953211784362793e-01,8.940872550010681152e-01,8.755663037300109863e-01,8.607689142227172852e-01,8.461549878120422363e-01
5.000000000000000000e+00,5.000000000000000000e+00,5.000000000000000000e+00,5.000000000000000000e+00,5.000000000000000000e+00,5.000000000000000000e+00,5.000000000000000000e+00,5.000000000000000000e+00,5.000000000000000000e+00,5.000000000000000000e+00,5.000000000000000000e+00,5.000000000000000000e+00,5.000000000000000000e+00,5.000000000000000000e+00,5.000000000000000000e+00,5.000000000000000000e+00,5.000000000000000000e+00,5.000000000000000000e+00,5.000000000000000000e+00,5.000000000000000000e+00,5.000000000000000000e+00,5.000000000000000000e+00,5.000000000000000000e+00,5.000000000000000000e+00,5.000000000000000000e+00,5.000000000000000000e+00,5.000000000000000000e+00,5.000000000000000000e+00,5.000000000000000000e+00,5.000000000000000000e+00,5.000000000000000000e+00,5.000000000000000000e+00,5.000000000000000000e+00,5.000000000000000000e+00,5.000000000000000000e+00,5.000000000000000000e+00,5.000000000000000000e+00,5.000000000000000000e+00,5.000000000000000000e+00,4.863045692443847656e+00,4.672007560729980469e+00,4.495410919189453125e+00,4.331678867340087891e+00,4.179453849792480469e+00,4.037565231323242188e+00,3.904994249343872070e+00,3.780852317810058594e+00,3.664359807968139648e+00,3.554831504821777344e+00,3.451661109924316406e+00,3.354310035705566406e+00,3.262299776077270508e+00,3.175202608108520508e+00,3.092635154724121094e+00,3.014252901077270508e+00,2.939745664596557617e+00,2.868832826614379883e+00,2.801260948181152344e+00,2.736798524856567383e+00,2.675236225128173828e+00,2.616382837295532227e+00,2.560063123703002930e+00,2.506116867065429688e+00,2.454397201538085938e+00,2.404769182205200195e+00,2.357108354568481445e+00,2.311300039291381836e+00,2.267238140106201172e+00,2.224824905395507812e+00,2.183969259262084961e+00,2.144587278366088867e+00,2.106600284576416016e+00,2.069935321807861328e+00,2.034525394439697266e+00,2.000306129455566406e+00,9.143627882003784180e-01,8.972336053848266602e-01,8.793258666992187500e-01,8.643611669540405273e-01,8.492935299873352051e-01
5.000000000000000000e+00,5.000000000000000000e+00,5.000000000000000000e+00,5.000000000000000000e+00,5.000000000000000000e+00,5.000000000000000000e+00,5.000000000000000000e+00,5.000000000000000000e+00,5.000000000000000000e+00,5.000000000000000000e+00,5.000000000000000000e+00,5.000000000000000000e+00,5.000000000000000000e+00,5.000000000000000000e+00,5.000000000000000000e+00,5.000000000000000000e+00,5.000000000000000000e+00,5.000000000000000000e+00,5.000000000000000000e+00,5.000000000000000000e+00,5.000000000000000000e+00,5.000000000000000000e+00,5.000000000000000000e+00,5.000000000000000000e+00,5.000000000000000000e+00,5.000000000000000000e+00,5.000000000000000000e+00,5.000000000000000000e+00,5.000000000000000000e+00,5.000000000000000000e+00,5.000000000000000000e+00,5.000000000000000000e+00,5.000000000000000000e+00,5.000000000000000000e+00,5.000000000000000000e+00,5.000000000000000000e+00,5.000000000000000000e+00,5.000000000000000000e+00,5.000000000000000000e+00,4.863184452056884766e+00,4.672134876251220703e+00,4.495529174804687500e+00,4.331788063049316406e+00,4.179556369781494141e+00,4.037660598754882812e+00,3.905083417892456055e+00,3.780935764312744141e+00,3.664438486099243164e+00,3.554905414581298828e+00,3.451730489730834961e+00,3.354375839233398438e+00,3.262362241744995117e+00,3.175261497497558594e+00,3.092690944671630859e+00,3.014306068420410156e+00,2.939796447753906250e+00,2.868880987167358398e+00,2.801306724548339844e+00,2.736842393875122070e+00,2.675278425216674805e+00,2.616422891616821289e+00,2.560101270675659180e+00,2.506153583526611328e+00,2.454432487487792969e+00,2.404803037643432617e+00,2.357140779495239258e+00,2.311331272125244141e+00,2.267268180847167969e+00,2.224853754043579102e+00,2.183997154235839844e+00,2.144613981246948242e+00,2.106626272201538086e+00,2.069960355758666992e+00,2.034549474716186523e+00,2.000329494476318359e+00,9.176539182662963867e-01,9.004023671150207520e-01,8.831177353858947754e-01,8.676363825798034668e-01,8.524553179740905762e-01
5.000000000000000000e+00,5.000000000000000000e+00,5.000000000000000000e+00,5.000000000000000000e+00,5.000000000000000000e+00,5.000000000000000000e+00,5.000000000000000000e+00,5.000000000000000000e+00,5.000000000000000000e+00,5.000000000000000000e+00,5.000000000000000000e+00,5.000000000000000000e+00,5.000000000000000000e+00,5.000000000000000000e+00,5.000000000000000000e+00,5.000000000000000000e+00,5.000000000000000000e+00,5.000000000000000000e+00,5.000000000000000000e+00,5.000000000000000000e+00,5.000000000000000000e+00,5.000000000000000000e+00,5.000000000000000000e+00,5.000000000000000000e+00,5.000000000000000000e+00,5.000000000000000000e+00,5.000000000000000000e+00,5.000000000000000000e+00,5.000000000000000000e+00,5.000000000000000000e+00,5.000000000000000000e+00,5.000000000000000000e+00,5.000000000000000000e+00,5.000000000000000000e+00,5.000000000000000000e+00,5.000000000000000000e+00,5.000000000000000000e+00,5.000000000000000000e+00,5.000000000000000000e+00,4.863322734832763672e+00,4.672262668609619141e+00,4.495647907257080078e+00,4.331898212432861328e+00,4.179658412933349609e+00,4.037755966186523438e+00,3.905172824859619141e+00,3.781019210815429688e+00,3.664516925811767578e+00,3.554979562759399414e+00,3.451800584793090820e+00,3.354441642761230469e+00,3.262424230575561523e+00,3.175320625305175781e+00,3.092747211456298828e+00,3.014358997344970703e+00,2.939846754074096680e+00,2.868929386138916016e+00,2.801352739334106445e+00,2.736886024475097656e+00,2.675320148468017578e+00,2.616462945938110352e+00,2.560139894485473633e+00,2.506190299987792969e+00,2.454467773437500000e+00,2.404836893081665039e+00,2.357173442840576172e+00,2.311362504959106445e+00,2.267298221588134766e+00,2.224882841110229492e+00,2.184025287628173828e+00,2.144640922546386719e+00,2.106652259826660156e+00,2.069985628128051758e+00,2.034573793411254883e+00,9.397481083869934082e-01,9.212852120399475098e-01,9.037002921104431152e-01,8.868616819381713867e-01,8.709365725517272949e-01,8.556535840034484863e-01
5.000000000000000000e+00,5.000000000000000000e+00,5.000000000000000000e+00,5.000000000000000000e+00,5.000000000000000000e+00,5.000000000000000000e+00,5.000000000000000000e+00,5.000000000000000000e+00,5.000000000000000000e+00,5.000000000000000000e+00,5.000000000000000000e+00,5.000000000000000000e+00,5.000000000000000000e+00,5.000000000000000000e+00,5.000000000000000000e+00,5.000000000000000000e+00,5.000000000000000000e+00,5.000000000000000000e+00,5.000000000000000000e+00,5.000000000000000000e+00,5.000000000000000000e+00,5.000000000000000000e+00,5.000000000000000000e+00,5.000000000000000000e+00,5.000000000000000000e+00,5.000000000000000000e+00,5.000000000000000000e+00,5.000000000000000000e+00,5.000000000000000000e+00,5.000000000000000000e+00,5.000000000000000000e+00,5.000000000000000000e+00,5.000000000000000000e+00,5.000000000000000000e+00,5.000000000000000000e+00,5.000000000000000000e+00,5.000000000000000000e+00,5.000000000000000000e+00,5.000000000000000000e+00,4.863461017608642578e+00,4.672390460968017578e+00,4.495765686035156250e+00,4.332007884979248047e+00,4.179760456085205078e+00,4.037851333618164062e+00,3.905261993408203125e+00,3.781103134155273438e+00,3.664595365524291992e+00,3.555053472518920898e+00,3.451870203018188477e+00,3.354507684707641602e+00,3.262486457824707031e+00,3.175379514694213867e+00,3.092803001403808594e+00,3.014412403106689453e+00,2.939897298812866211e+00,2.868977308273315430e+00,2.801398515701293945e+00,2.736930131912231445e+00,2.675361871719360352e+00,2.616503000259399414e+00,2.560178041458129883e+00,2.506227254867553711e+00,2.454502820968627930e+00,2.404870748519897461e+00,2.357205867767333984e+00,2.311393737792968750e+00,2.267328262329101562e+00,2.224911689758300781e+00,2.184053182601928711e+00,2.144667863845825195e+00,2.106678009033203125e+00,2.070010662078857422e+00,2.034597873687744141e+00,9.435050487518310547e-01,9.255664944648742676e-01,9.076331853866577148e-01,8.906123042106628418e-01,8.746639490127563477e-01,8.593637943267822266e-01
5.000000000000000000e+00,5.000000000000000000e+00,5.000000000000000000e+00,5.000000000000000000e+00,5.000000000000000000e+00,5.000000000000000000e+00,5.000000000000000000e+00,5.000000000000000000e+00,5.000000000000000000e+00,5.000000000000000000e+00,5.000000000000000000e+00,5.000000000000000000e+00,5.000000000000000000e+00,5.000000000000000000e+00,5.000000000000000000e+00,5.000000000000000000e+00,5.000000000000000000e+00,5.000000000000000000e+00,5.000000000000000000e+00,5.000000000000000000e+00,5.000000000000000000e+00,5.000000000000000000e+00,5.000000000000000000e+00,5.000000000000000000e+00,5.000000000000000000e+00,5.000000000000000000e+00,5.000000000000000000e+00,5.000000000000000000e+00,5.000000000000000000e+00,5.000000000000000000e+00,5.000000000000000000e+00,5.000000000000000000e+00,5.000000000000000000e+00,5.000000000000000000e+00,5.000000000000000000e+00,5.000000000000000000e+00,5.000000000000000000e+00,5.000000000000000000e+00,5.000000000000000000e+00,4.863599300384521484e+00,4.672518253326416016e+00,4.495883941650390625e+00,4.332117557525634766e+00,4.179862976074218750e+00,4.037946701049804688e+00,3.905350923538208008e+00,3.781186580657958984e+00,3.664674282073974609e+00,3.555127143859863281e+00,3.451939821243286133e+00,3.354573249816894531e+00,3.262548923492431641e+00,3.175438404083251953e+00,3.092858791351318359e+00,3.014465570449829102e+00,2.939948081970214844e+00,2.869025468826293945e+00,2.801444530487060547e+00,2.736973762512207031e+00,2.675404071807861328e+00,2.616543054580688477e+00,2.560216426849365234e+00,2.506263971328735352e+00,2.454538345336914062e+00,2.404904365539550781e+00,2.357238531112670898e+00,2.311424970626831055e+00,2.267358541488647461e+00,2.224940538406372070e+00,2.184080839157104492e+00,2.144694805145263672e+00,2.106704235076904297e+00,2.070035696029663086e+00,2.034622192382812500e+00,9.433950781822204590e-01,9.252720475196838379e-01,9.093326926231384277e-01,8.938602805137634277e-01,8.785969018936157227e-01,8.631637096405029297e-01
5.000000000000000000e+00,5.000000000000000000e+00,5.000000000000000000e+00,5.000000000000000000e+00,5.000000000000000000e+00,5.000000000000000000e+00,5.000000000000000000e+00,5.000000000000000000e+00,5.000000000000000000e+00,5.000000000000000000e+00,5.000000000000000000e+00,5.000000000000000000e+00,5.000000000000000000e+00,5.000000000000000000e+00,5.000000000000000000e+00,5.000000000000000000e+00,5.000000000000000000e+00,5.000000000000000000e+00,5.000000000000000000e+00,5.000000000000000000e+00,5.000000000000000000e+00,5.000000000000000000e+00,5.000000000000000000e+00,5.000000000000000000e+00,5.000000000000000000e+00,5.000000000000000000e+00,5.000000000000000000e+00,5.000000000000000000e+00,5.000000000000000000e+00,5.000000000000000000e+00,5.000000000000000000e+00,5.000000000000000000e+00,5.000000000000000000e+00,5.000000000000000000e+00,5.000000000000000000e+00,5.000000000000000000e+00,5.000000000000000000e+00,5.000000000000000000e+00,5.000000000000000000e+00,4.863738059997558594e+00,4.672646045684814453e+00,4.496002674102783203e+00,4.332227706909179688e+00,4.179965019226074219e+00,4.038042068481445312e+00,3.905440568923950195e+00,3.781270265579223633e+00,3.664752721786499023e+00,3.555201530456542969e+00,3.452009677886962891e+00,3.354639053344726562e+00,3.262611150741577148e+00,3.175497531890869141e+00,3.092915058135986328e+00,3.014518499374389648e+00,2.939998626708984375e+00,2.869073867797851562e+00,2.801490545272827148e+00,2.737017631530761719e+00,2.675445795059204102e+00,2.616583108901977539e+00,2.560254812240600586e+00,2.506300687789916992e+00,2.454573392868041992e+00,2.404938459396362305e+00,2.357270956039428711e+00,2.311456203460693359e+00,2.267388582229614258e+00,2.224969625473022461e+00,2.184108972549438477e+00,2.144721746444702148e+00,2.106729984283447266e+00,2.070060729980468750e+00,9.609487652778625488e-01,9.424581527709960938e-01,9.246656298637390137e-01,9.078754186630249023e-01,8.934676051139831543e-01,8.798694014549255371e-01,8.677536249160766602e-01
5.000000000000000000e+00,5.000000000000000000e+00,5.000000000000000000e+00,5.000000000000000000e+00,5.000000000000000000e+00,5.000000000000000000e+00,5.000000000000000000e+00,5.000000000000000000e+00,5.000000000000000000e+00,5.000000000000000000e+00,5.000000000000000000e+00,5.000000000000000000e+00,5.000000000000000000e+00,5.000000000000000000e+00,5.000000000000000000e+00,5.000000000000000000e+00,5.000000000000000000e+00,5.000000000000000000e+00,5.000000000000000000e+00,5.000000000000000000e+00,5.000000000000000000e+00,5.000000000000000000e+00,5.000000000000000000e+00,5.000000000000000000e+00,5.000000000000000000e+00,5.000000000000000000e+00,5.000000000000000000e+00,5.000000000000000000e+00,5.000000000000000000e+00,5.000000000000000000e+00,5.000000000000000000e+00,5.000000000000000000e+00,5.000000000000000000e+00,5.000000000000000000e+00,5.000000000000000000e+00,5.000000000000000000e+00,5.000000000000000000e+00,5.000000000000000000e+00,5.000000000000000000e+00,4.863876342773437500e+00,4.672773838043212891e+00,4.496120452880859375e+00,4.332337379455566406e+00,4.180067062377929688e+00,4.038137435913085938e+00,3.905529737472534180e+00,3.781354188919067383e+00,3.664831161499023438e+00,3.555275201797485352e+00,3.452079296112060547e+00,3.354705095291137695e+00,3.262673377990722656e+00,3.175556421279907227e+00,3.092970848083496094e+00,3.014571905136108398e+00,2.940048933029174805e+00,2.869121789932250977e+00,2.801536321640014648e+00,2.737061500549316406e+00,2.675487518310546875e+00,2.616623163223266602e+00,2.560293197631835938e+00,2.506337404251098633e+00,2.454608678817749023e+00,2.404972314834594727e+00,2.357303619384765625e+00,2.311487674713134766e+00,2.267418622970581055e+00,2.224998712539672852e+00,2.184136867523193359e+00,2.144748687744140625e+00,2.106755971908569336e+00,9.828564524650573730e-01,9.594008922576904297e-01,9.409691095352172852e-01,9.237466454505920410e-01,9.097362756729125977e-01,8.961445689201354980e-01,8.841997981071472168e-01,8.748221397399902344e-01
5.000000000000000000e+00,5.000000000000000000e+00,5.000000000000000000e+00,5.000000000000000000e+00,5.000000000000000000e+00,5.000000000000000000e+00,5.000000000000000000e+00,5.000000000000000000e+00,5.000000000000000000e+00,5.000000000000000000e+00,5.000000000000000000e+00,5.000000000000000000e+00,5.000000000000000000e+00,5.000000000000000000e+00,5.000000000000000000e+00,5.000000000000000000e+00,5.000000000000000000e+00,5.000000000000000000e+00,5.000000000000000000e+00,5.000000000000000000e+00,5.000000000000000000e+00,5.000000000000000000e+00,5.000000000000000000e+00,5.000000000000000000e+00,5.000000000000000000e+00,5.000000000000000000e+00,5.000000000000000000e+00,5.000000000000000000e+00,5.000000000000000000e+00,5.000000000000000000e+00,5.000000000000000000e+00,5.000000000000000000e+00,5.000000000000000000e+00,5.000000000000000000e+00,5.000000000000000000e+00,5.000000000000000000e+00,5.000000000000000000e+00,5.000000000000000000e+00,5.000000000000000000e+00,4.864014625549316406e+00,4.672901630401611328e+00,4.496238708496093750e+00,4.332447052001953125e+00,4.180169582366943359e+00,4.038232803344726562e+00,3.905618667602539062e+00,3.781437635421752930e+00,3.664910078048706055e+00,3.555349111557006836e+00,3.452148914337158203e+00,3.354770898818969727e+00,3.262735843658447266e+00,3.175615549087524414e+00,3.093026876449584961e+00,3.014625072479248047e+00,2.940099716186523438e+00,2.869169950485229492e+00,2.801582098007202148e+00,2.737105369567871094e+00,2.675529718399047852e+00,2.616663217544555664e+00,2.560331583023071289e+00,2.506374120712280273e+00,2.454643964767456055e+00,2.405005931854248047e+00,2.357336044311523438e+00,2.311518907546997070e+00,2.267448663711547852e+00,2.225027561187744141e+00,2.184164762496948242e+00,2.144775629043579102e+00,2.106781959533691406e+00,9.769639372825622559e-01,9.578579068183898926e-01,9.399907588958740234e-01,9.254871606826782227e-01,9.116499423980712891e-01,9.001533389091491699e-01,8.937801122665405273e-01,8.833253383636474609e-01
5.000000000000000000e+00,5.000000000000000000e+00,5.000000000000000000e+00,5.000000000000000000e+00,5.000000000000000000e+00,5.000000000000000000e+00,5.000000000000000000e+00,5.000000000000000000e+00,5.000000000000000000e+00,5.000000000000000000e+00,5.000000000000000000e+00,5.000000000000000000e+00,5.000000000000000000e+00,5.000000000000000000e+00,5.000000000000000000e+00,5.000000000000000000e+00,5.000000000000000000e+00,5.000000000000000000e+00,5.000000000000000000e+00,5.000000000000000000e+00,5.000000000000000000e+00,5.000000000000000000e+00,5.000000000000000000e+00,5.000000000000000000e+00,5.000000000000000000e+00,5.000000000000000000e+00,5.000000000000000000e+00,5.000000000000000000e+00,5.000000000000000000e+00,5.000000000000000000e+00,5.000000000000000000e+00,5.000000000000000000e+00,5.000000000000000000e+00,5.000000000000000000e+00,5.000000000000000000e+00,5.000000000000000000e+00,5.000000000000000000e+00,5.000000000000000000e+00,5.000000000000000000e+00,4.864153385162353516e+00,4.673029422760009766e+00,4.496357440948486328e+00,4.332557201385498047e+00,4.180272102355957031e+00,4.038328170776367188e+00,3.905708312988281250e+00,3.781521081924438477e+00,3.664988517761230469e+00,3.555423259735107422e+00,3.452219009399414062e+00,3.354836702346801758e+00,3.262798070907592773e+00,3.175674676895141602e+00,3.093082904815673828e+00,3.014678239822387695e+00,2.940150260925292969e+00,2.869218349456787109e+00,2.801628351211547852e+00,2.737149000167846680e+00,2.675571441650390625e+00,2.616703510284423828e+00,2.560369968414306641e+00,2.506410837173461914e+00,2.454679250717163086e+00,2.405040025711059570e+00,2.357368707656860352e+00,2.311549901962280273e+00,2.267478704452514648e+00,2.225056648254394531e+00,2.184192657470703125e+00,2.144802331924438477e+00,1.002847909927368164e+00,9.753640890121459961e-01,9.568163752555847168e-01,9.417930245399475098e-01,9.290317893028259277e-01,9.170954823493957520e-01,9.093458056449890137e-01,9.026577472686767578e-01,8.919955492019653320e-01
5.000000000000000000e+00,5.000000000000000000e+00,5.000000000000000000e+00,5.000000000000000000e+00,5.000000000000000000e+00,5.000000000000000000e+00,5.000000000000000000e+00,5.000000000000000000e+00,5.000000000000000000e+00,5.000000000000000000e+00,5.000000000000000000e+00,5.000000000000000000e+00,5.000000000000000000e+00,5.000000000000000000e+00,5.000000000000000000e+00,5.000000000000000000e+00,5.000000000000000000e+00,5.000000000000000000e+00,5.000000000000000000e+00,5.000000000000000000e+00,5.000000000000000000e+00,5.000000000000000000e+00,5.000000000000000000e+00,5.000000000000000000e+00,5.000000000000000000e+00,5.000000000000000000e+00,5.000000000000000000e+00,5.000000000000000000e+00,5.000000000000000000e+00,5.000000000000000000e+00,5.000000000000000000e+00,5.000000000000000000e+00,5.000000000000000000e+00,5.000000000000000000e+00,5.000000000000000000e+00,5.000000000000000000e+00,5.000000000000000000e+00,5.000000000000000000e+00,5.000000000000000000e+00,4.864291667938232422e+00,4.673157215118408203e+00,4.496475219726562500e+00,4.332666873931884766e+00,4.180374145507812500e+00,4.038424015045166016e+00,3.905797481536865234e+00,3.781605243682861328e+00,3.665066957473754883e+00,3.555497169494628906e+00,3.452288627624511719e+00,3.354902744293212891e+00,3.262860298156738281e+00,3.175733566284179688e+00,3.093138933181762695e+00,3.014731407165527344e+00,2.940200805664062500e+00,2.869266510009765625e+00,2.801674127578735352e+00,2.737193107604980469e+00,2.675613164901733398e+00,2.616743326187133789e+00,2.560408353805541992e+00,2.506447792053222656e+00,2.454714536666870117e+00,2.405073642730712891e+00,2.357401132583618164e+00,2.311581373214721680e+00,2.267508745193481445e+00,2.225085496902465820e+00,2.184220552444458008e+00,1.033108353614807129e+00,9.966463446617126465e-01,9.742553234100341797e-01,9.598246216773986816e-01,9.470893740653991699e-01,9.346876740455627441e-01,9.253692030906677246e-01,9.195747971534729004e-01,9.117135405540466309e-01,9.008376002311706543e-01
5.000000000000000000e+00,5.000000000000000000e+00,5.000000000000000000e+00,5.000000000000000000e+00,5.000000000000000000e+00,5.000000000000000000e+00,5.000000000000000000e+00,5.000000000000000000e+00,5.000000000000000000e+00,5.000000000000000000e+00,5.000000000000000000e+00,5.000000000000000000e+00,5.000000000000000000e+00,5.000000000000000000e+00,5.000000000000000000e+00,5.000000000000000000e+00,5.000000000000000000e+00,5.000000000000000000e+00,5.000000000000000000e+00,5.000000000000000000e+00,5.000000000000000000e+00,5.000000000000000000e+00,5.000000000000000000e+00,5.000000000000000000e+00,5.000000000000000000e+00,5.000000000000000000e+00,5.000000000000000000e+00,5.000000000000000000e+00,5.000000000000000000e+00,5.000000000000000000e+00,5.000000000000000000e+00,5.000000000000000000e+00,5.000000000000000000e+00,5.000000000000000000e+00,5.000000000000000000e+00,5.000000000000000000e+00,5.000000000000000000e+00,5.000000000000000000e+00,5.000000000000000000e+00,4.864429950714111328e+00,4.673284530639648438e+00,4.496593952178955078e+00,4.332776546478271484e+00,4.180476188659667969e+00,4.038518905639648438e+00,3.905886411666870117e+00,3.781688690185546875e+00,3.665145874023437500e+00,3.555571079254150391e+00,3.452358245849609375e+00,3.354968547821044922e+00,3.262922763824462891e+00,3.175792455673217773e+00,3.093194723129272461e+00,3.014784574508666992e+00,2.940251588821411133e+00,2.869314432144165039e+00,2.801719903945922852e+00,2.737236738204956055e+00,2.675655364990234375e+00,2.616783380508422852e+00,2.560446500778198242e+00,2.506484508514404297e+00,2.454749822616577148e+00,2.405107498168945312e+00,2.357433557510375977e+00,2.311612606048583984e+00,2.267539024353027344e+00,2.225114345550537109e+00,2.184248447418212891e+00,1.031231760978698730e+00,9.927285909652709961e-01,9.791114330291748047e-01,9.658628702163696289e-01,9.529679417610168457e-01,9.419674277305603027e-01,9.359639883041381836e-01,9.300365447998046875e-01,9.209528565406799316e-01,1.845336675643920898e+00
5.000000000000000000e+00,5.000000000000000000e+00,5.000000000000000000e+00,5.000000000000000000e+00,5.000000000000000000e+00,5.000000000000000000e+00,5.000000000000000000e+00,5.000000000000000000e+00,5.000000000000000000e+00,5.000000000000000000e+00,5.000000000000000000e+00,5.000000000000000000e+00,5.000000000000000000e+00,5.000000000000000000e+00,5.000000000000000000e+00,5.000000000000000000e+00,5.000000000000000000e+00,5.000000000000000000e+00,5.000000000000000000e+00,5.000000000000000000e+00,5.000000000000000000e+00,5.000000000000000000e+00,5.000000000000000000e+00,5.000000000000000000e+00,5.000000000000000000e+00,5.000000000000000000e+00,5.000000000000000000e+00,5.000000000000000000e+00,5.000000000000000000e+00,5.000000000000000000e+00,5.000000000000000000e+00,5.000000000000000000e+00,5.000000000000000000e+00,5.000000000000000000e+00,5.000000000000000000e+00,5.000000000000000000e+00,5.000000000000000000e+00,5.000000000000000000e+00,5.000000000000000000e+00,4.864568710327148438e+00,4.673412799835205078e+00,4.496712207794189453e+00,4.332886695861816406e+00,4.180578708648681641e+00,4.038614749908447266e+00,3.905976057052612305e+00,3.781772136688232422e+00,3.665224313735961914e+00,3.555645227432250977e+00,3.452428102493286133e+00,3.355034112930297852e+00,3.262984991073608398e+00,3.175851583480834961e+00,3.093250989913940430e+00,3.014837741851806641e+00,2.940302133560180664e+00,2.869362831115722656e+00,2.801766157150268555e+00,2.737280607223510742e+00,2.675697088241577148e+00,2.616823673248291016e+00,2.560485124588012695e+00,2.506521224975585938e+00,2.454785108566284180e+00,2.405141592025756836e+00,2.357466220855712891e+00,2.311643838882446289e+00,2.267569065093994141e+00,2.225143432617187500e+00,2.184276342391967773e+00,1.029271841049194336e+00,9.987261891365051270e-01,9.850648045539855957e-01,9.717720746994018555e-01,9.588453769683837891e-01,9.528313875198364258e-01,9.468041658401489258e-01,9.407390952110290527e-01,1.874441027641296387e+00,1.845356583595275879e+00
5.000000000000000000e+00,5.000000000000000000e+00,5.000000000000000000e+00,5.000000000000000000e+00,5.000000000000000000e+00,5.000000000000000000e+00,5.000000000000000000e+00,5.000000000000000000e+00,5.000000000000000000e+00,5.000000000000000000e+00,5.000000000000000000e+00,5.000000000000000000e+00,5.000000000000000000e+00,5.000000000000000000e+00,5.000000000000000000e+00,5.000000000000000000e+00,5.000000000000000000e+00,5.000000000000000000e+00,5.000000000000000000e+00,5.000000000000000000e+00,5.000000000000000000e+00,5.000000000000000000e+00,5.000000000000000000e+00,5.000000000000000000e+00,5.000000000000000000e+00,5.000000000000000000e+00,5.000000000000000000e+00,5.000000000000000000e+00,5.000000000000000000e+00,5.000000000000000000e+00,5.000000000000000000e+00,5.000000000000000000e+00,5.000000000000000000e+00,5.000000000000000000e+00,5.000000000000000000e+00,5.000000000000000000e+00,5.000000000000000000e+00,5.000000000000000000e+00,5.000000000000000000e+00,4.864706993103027344e+00,4.673540592193603516e+00,4.496830463409423828e+00,4.332996368408203125e+00,4.180680751800537109e+00,4.038710117340087891e+00,3.906065225601196289e+00,3.781856298446655273e+00,3.665302753448486328e+00,3.555719137191772461e+00,3.452497720718383789e+00,3.355100393295288086e+00,3.263046979904174805e+00,3.175910472869873047e+00,3.093306779861450195e+00,3.014890909194946289e+00,2.940352439880371094e+00,2.869410991668701172e+00,2.801811933517456055e+00,2.737324476242065430e+00,2.675739049911499023e+00,2.616863489151000977e+00,2.560523271560668945e+00,2.506557941436767578e+00,2.454820156097412109e+00,2.405175209045410156e+00,2.357498645782470703e+00,2.311675071716308594e+00,2.267599105834960938e+00,2.225172519683837891e+00,1.066476821899414062e+00,1.027319431304931641e+00,1.004796862602233887e+00,9.909700751304626465e-01,9.775185585021972656e-01,9.656235575675964355e-01,9.597560167312622070e-01,9.542238116264343262e-01,9.620031714439392090e-01,1.874461650848388672e+00,1.845376372337341309e+00
5.000000000000000000e+00,5.000000000000000000e+00,5.000000000000000000e+00,5.000000000000000000e+00,5.000000000000000000e+00,5.000000000000000000e+00,5.000000000000000000e+00,5.000000000000000000e+00,5.000000000000000000e+00,5.000000000000000000e+00,5.000000000000000000e+00,5.000000000000000000e+00,5.000000000000000000e+00,5.000000000000000000e+00,5.000000000000000000e+00,5.000000000000000000e+00,5.000000000000000000e+00,5.000000000000000000e+00,5.000000000000000000e+00,5.000000000000000000e+00,5.000000000000000000e+00,5.000000000000000000e+00,5.000000000000000000e+00,5.000000000000000000e+00,5.000000000000000000e+00,5.000000000000000000e+00,5.000000000000000000e+00,5.000000000000000000e+00,5.000000000000000000e+00,5.000000000000000000e+00,5.000000000000000000e+00,5.000000000000000000e+00,5.000000000000000000e+00,5.000000000000000000e+00,5.000000000000000000e+00,5.000000000000000000e+00,5.000000000000000000e+00,5.000000000000000000e+00,5.000000000000000000e+00,4.864844799041748047e+00,4.673668384552001953e+00,4.496948719024658203e+00,4.333106040954589844e+00,4.180783271789550781e+00,4.038805484771728516e+00,3.906154394149780273e+00,3.781939744949340820e+00,3.665381669998168945e+00,3.555793046951293945e+00,3.452567338943481445e+00,3.355165958404541016e+00,3.263109683990478516e+00,3.175969600677490234e+00,3.093362808227539062e+00,3.014944076538085938e+00,2.940403223037719727e+00,2.869458913803100586e+00,2.801857709884643555e+00,2.737368345260620117e+00,2.675781011581420898e+00,2.616903543472290039e+00,2.560561656951904297e+00,2.506594657897949219e+00,2.454855680465698242e+00,2.405209064483642578e+00,2.357531070709228516e+00,2.311706304550170898e+00,2.267629146575927734e+00,2.225201368331909180e+00,1.065747022628784180e+00,1.025374293327331543e+00,1.010941624641418457e+00,9.969463944435119629e-01,9.835263490676879883e-01,9.727534651756286621e-01,9.667819142341613770e-01,9.611687660217285156e-01,1.004683256149291992e+00,1.874482274055480957e+00,1.845396518707275391e+00
5.000000000000000000e+00,5.000000000000000000e+00,5.000000000000000000e+00,5.000000000000000000e+00,5.000000000000000000e+00,5.000000000000000000e+00,5.000000000000000000e+00,5.000000000000000000e+00,5.000000000000000000e+00,5.000000000000000000e+00,5.000000000000000000e+00,5.000000000000000000e+00,5.000000000000000000e+00,5.000000000000000000e+00,5.000000000000000000e+00,5.000000000000000000e+00,5.000000000000000000e+00,5.000000000000000000e+00,5.000000000000000000e+00,5.000000000000000000e+00,5.000000000000000000e+00,5.000000000000000000e+00,5.000000000000000000e+00,5.000000000000000000e+00,5.000000000000000000e+00,5.000000000000000000e+00,5.000000000000000000e+00,5.000000000000000000e+00,5.000000000000000000e+00,5.000000000000000000e+00,5.000000000000000000e+00,5.000000000000000000e+00,5.000000000000000000e+00,5.000000000000000000e+00,5.000000000000000000e+00,5.000000000000000000e+00,5.000000000000000000e+00,5.000000000000000000e+00,5.000000000000000000e+00,4.864983081817626953e+00,4.673795223236083984e+00,4.497066974639892578e+00,4.333216190338134766e+00,4.180885314941406250e+00,4.038900852203369141e+00,3.906243801116943359e+00,3.782023191452026367e+00,3.665460109710693359e+00,3.555867195129394531e+00,3.452637434005737305e+00,3.355231761932373047e+00,3.263171911239624023e+00,3.176028728485107422e+00,3.093418836593627930e+00,3.014997243881225586e+00,2.940453767776489258e+00,2.869507312774658203e+00,2.801903963088989258e+00,2.737412214279174805e+00,2.675822734832763672e+00,2.616943836212158203e+00,2.560600042343139648e+00,2.506631374359130859e+00,2.454890727996826172e+00,2.405242919921875000e+00,2.357563734054565430e+00,2.311737537384033203e+00,2.267659187316894531e+00,2.225230455398559570e+00,1.065018177032470703e+00,1.031734943389892578e+00,1.017162203788757324e+00,1.003165721893310547e+00,9.896250367164611816e-01,9.799895286560058594e-01,9.739115834236145020e-01,9.708518981933593750e-01,1.904520750045776367e+00,1.874502778053283691e+00,1.845416426658630371e+00
5.000000000000000000e+00,5.000000000000000000e+00,5.000000000000000000e+00,5.000000000000000000e+00,5.000000000000000000e+00,5.000000000000000000e+00,5.000000000000000000e+00,5.000000000000000000e+00,5.000000000000000000e+00,5.000000000000000000e+00,5.000000000000000000e+00,5.000000000000000000e+00,5.000000000000000000e+00,5.000000000000000000e+00,5.000000000000000000e+00,5.000000000000000000e+00,5.000000000000000000e+00,5.000000000000000000e+00,5.000000000000000000e+00,5.000000000000000000e+00,5.000000000000000000e+00,5.000000000000000000e+00,5.000000000000000000e+00,5.000000000000000000e+00,5.000000000000000000e+00,5.000000000000000000e+00,5.000000000000000000e+00,5.000000000000000000e+00,5.000000000000000000e+00,5.000000000000000000e+00,5.000000000000000000e+00,5.000000000000000000e+00,5.000000000000000000e+00,5.000000000000000000e+00,5.000000000000000000e+00,5.000000000000000000e+00,5.000000000000000000e+00,5.000000000000000000e+00,5.000000000000000000e+00,4.865121364593505859e+00,4.673923492431640625e+00,4.497185230255126953e+00,4.333326339721679688e+00,4.180987834930419922e+00,4.038996696472167969e+00,3.906332969665527344e+00,3.782107353210449219e+00,3.665538549423217773e+00,3.555941104888916016e+00,3.452707052230834961e+00,3.355297803878784180e+00,3.263233900070190430e+00,3.176087617874145508e+00,3.093474864959716797e+00,3.015050649642944336e+00,2.940504312515258789e+00,2.869555473327636719e+00,2.801949739456176758e+00,2.737456083297729492e+00,2.675864696502685547e+00,2.616983890533447266e+00,2.560638427734375000e+00,2.506668329238891602e+00,2.454926013946533203e+00,2.405276775360107422e+00,2.357596158981323242e+00,2.311769008636474609e+00,2.267689228057861328e+00,2.225259304046630859e+00,1.064290404319763184e+00,1.038214802742004395e+00,1.023605704307556152e+00,1.009511232376098633e+00,9.958777427673339844e-01,9.873339533805847168e-01,9.811471700668334961e-01,1.013826847076416016e+00,1.904541850090026855e+00,1.874523282051086426e+00,1.845436334609985352e+00
5.000000000000000000e+00,5.000000000000000000e+00,5.000000000000000000e+00,5.000000000000000000e+00,5.000000000000000000e+00,5.000000000000000000e+00,5.000000000000000000e+00,5.000000000000000000e+00,5.000000000000000000e+00,5.000000000000000000e+00,5.000000000000000000e+00,5.000000000000000000e+00,5.000000000000000000e+00,5.000000000000000000e+00,5.000000000000000000e+00,5.000000000000000000e+00,5.000000000000000000e+00,5.000000000000000000e+00,5.000000000000000000e+00,5.000000000000000000e+00,5.000000000000000000e+00,5.000000000000000000e+00,5.000000000000000000e+00,5.000000000000000000e+00,5.000000000000000000e+00,5.000000000000000000e+00,5.000000000000000000e+00,5.000000000000000000e+00,5.000000000000000000e+00,5.000000000000000000e+00,5.000000000000000000e+00,5.000000000000000000e+00,5.000000000000000000e+00,5.000000000000000000e+00,5.000000000000000000e+00,5.000000000000000000e+00,5.000000000000000000e+00,5.000000000000000000e+00,5.000000000000000000e+00,4.865260124206542969e+00,4.674050807952880859e+00,4.497303009033203125e+00,4.333436012268066406e+00,4.181089878082275391e+00,4.039091587066650391e+00,3.906422138214111328e+00,3.782190799713134766e+00,3.665617465972900391e+00,3.556014776229858398e+00,3.452776670455932617e+00,3.355363607406616211e+00,3.263296604156494141e+00,3.176146507263183594e+00,3.093530654907226562e+00,3.015103578567504883e+00,2.940555095672607422e+00,2.869603633880615234e+00,2.801995515823364258e+00,2.737499952316284180e+00,2.675906658172607422e+00,2.617023706436157227e+00,2.560676813125610352e+00,2.506705045700073242e+00,2.454961299896240234e+00,2.405310630798339844e+00,2.357628583908081055e+00,2.311800241470336914e+00,2.267719507217407227e+00,1.103133797645568848e+00,1.063535213470458984e+00,1.044895887374877930e+00,1.030213356018066406e+00,1.015937685966491699e+00,1.003463029861450195e+00,9.947894215583801270e-01,9.884909391403198242e-01,1.935559391975402832e+00,1.904563069343566895e+00,1.874543786048889160e+00,1.845456242561340332e+00
5.000000000000000000e+00,5.000000000000000000e+00,5.000000000000000000e+00,5.000000000000000000e+00,5.000000000000000000e+00,5.000000000000000000e+00,5.000000000000000000e+00,5.000000000000000000e+00,5.000000000000000000e+00,5.000000000000000000e+00,5.000000000000000000e+00,5.000000000000000000e+00,5.000000000000000000e+00,5.000000000000000000e+00,5.000000000000000000e+00,5.000000000000000000e+00,5.000000000000000000e+00,5.000000000000000000e+00,5.000000000000000000e+00,5.000000000000000000e+00,5.000000000000000000e+00,5.000000000000000000e+00,5.000000000000000000e+00,5.000000000000000000e+00,5.000000000000000000e+00,5.000000000000000000e+00,5.000000000000000000e+00,5.000000000000000000e+00,5.000000000000000000e+00,5.000000000000000000e+00,5.000000000000000000e+00,5.000000000000000000e+00,5.000000000000000000e+00,5.000000000000000000e+00,5.000000000000000000e+00,5.000000000000000000e+00,5.000000000000000000e+00,5.000000000000000000e+00,5.000000000000000000e+00,4.865398406982421875e+00,4.674179077148437500e+00,4.497421264648437500e+00,4.333545207977294922e+00,4.181192398071289062e+00,4.039187431335449219e+00,3.906511783599853516e+00,3.782274484634399414e+00,3.665695905685424805e+00,3.556089162826538086e+00,3.452846527099609375e+00,3.355429410934448242e+00,3.263358831405639648e+00,3.176205873489379883e+00,3.093586921691894531e+00,3.015156745910644531e+00,2.940605640411376953e+00,2.869651794433593750e+00,2.802041769027709961e+00,2.737543582916259766e+00,2.675948381423950195e+00,2.617063999176025391e+00,2.560715198516845703e+00,2.506741762161254883e+00,2.454996585845947266e+00,2.405344486236572266e+00,2.357661247253417969e+00,2.311831474304199219e+00,2.267749547958374023e+00,1.104328036308288574e+00,1.067231178283691406e+00,1.051782131195068359e+00,1.036906719207763672e+00,1.022446274757385254e+00,1.011165022850036621e+00,1.002358078956604004e+00,1.023138523101806641e+00,1.935581564903259277e+00,1.904584527015686035e+00,1.874564290046691895e+00,1.845476031303405762e+00
5.000000000000000000e+00,5.000000000000000000e+00,5.000000000000000000e+00,5.000000000000000000e+00,5.000000000000000000e+00,5.000000000000000000e+00,5.000000000000000000e+00,5.000000000000000000e+00,5.000000000000000000e+00,5.000000000000000000e+00,5.000000000000000000e+00,5.000000000000000000e+00,5.000000000000000000e+00,5.000000000000000000e+00,5.000000000000000000e+00,5.000000000000000000e+00,5.000000000000000000e+00,5.000000000000000000e+00,5.000000000000000000e+00,5.000000000000000000e+00,5.000000000000000000e+00,5.000000000000000000e+00,5.000000000000000000e+00,5.000000000000000000e+00,5.000000000000000000e+00,5.000000000000000000e+00,5.000000000000000000e+00,5.000000000000000000e+00,5.000000000000000000e+00,5.000000000000000000e+00,5.000000000000000000e+00,5.000000000000000000e+00,5.000000000000000000e+00,5.000000000000000000e+00,5.000000000000000000e+00,5.000000000000000000e+00,5.000000000000000000e+00,5.000000000000000000e+00,5.000000000000000000e+00,4.865537166595458984e+00,4.674306869506835938e+00,4.497539997100830078e+00,4.333655357360839844e+00,4.181293964385986328e+00,4.039282798767089844e+00,3.906600952148437500e+00,3.782358407974243164e+00,3.665774345397949219e+00,3.556163072586059570e+00,3.452916145324707031e+00,3.355495452880859375e+00,3.263420820236206055e+00,3.176264762878417969e+00,3.093642711639404297e+00,3.015210151672363281e+00,2.940655946731567383e+00,2.869699954986572266e+00,2.802087545394897461e+00,2.737587690353393555e+00,2.675990343093872070e+00,2.617104053497314453e+00,2.560753583908081055e+00,2.506778717041015625e+00,2.455031871795654297e+00,2.405378341674804688e+00,2.357693672180175781e+00,2.311862707138061523e+00,2.267779588699340820e+00,1.105524897575378418e+00,1.075093388557434082e+00,1.059394240379333496e+00,1.044147372245788574e+00,1.029364943504333496e+00,1.019643306732177734e+00,1.010043025016784668e+00,1.967626810073852539e+00,1.935603380203247070e+00,1.904605627059936523e+00,1.874585032463073730e+00,1.845495939254760742e+00
4.875865459442138672e+00,4.874654293060302734e+00,4.873443603515625000e+00,4.872233867645263672e+00,4.871024608612060547e+00,4.869815826416015625e+00,4.868607997894287109e+00,4.867400646209716797e+00,4.866193771362304688e+00,4.864987373352050781e+00,4.863781929016113281e+00,4.862576961517333984e+00,4.861372470855712891e+00,4.860168457031250000e+00,4.858965396881103516e+00,4.857762813568115234e+00,4.856560707092285156e+00,4.855359077453613281e+00,4.854158401489257812e+00,4.852958202362060547e+00,4.851758480072021484e+00,4.850559234619140625e+00,4.849360942840576172e+00,4.848162651062011719e+00,4.846965789794921875e+00,4.845768928527832031e+00,4.844572544097900391e+00,4.843377113342285156e+00,4.842182159423828125e+00,4.840987682342529297e+00,4.839794158935546875e+00,4.838601112365722656e+00,4.837408065795898438e+00,4.836216449737548828e+00,4.835024833679199219e+00,4.833833694458007812e+00,4.832643508911132812e+00,4.831454277038574219e+00,4.830264568328857422e+00,4.829076290130615234e+00,4.674434661865234375e+00,4.497658252716064453e+00,4.333765029907226562e+00,4.181396484375000000e+00,4.039378166198730469e+00,3.906690120697021484e+00,3.782441854476928711e+00,3.665853261947631836e+00,3.556236982345581055e+00,3.452986001968383789e+00,3.355561256408691406e+00,3.263483524322509766e+00,3.176323652267456055e+00,3.093698740005493164e+00,3.015263319015502930e+00,2.940706729888916016e+00,2.869748115539550781e+00,2.802133321762084961e+00,2.737631559371948242e+00,2.676032304763793945e+00,2.617144107818603516e+00,2.560791730880737305e+00,2.506815433502197266e+00,2.455067157745361328e+00,2.405412197113037109e+00,2.357726097106933594e+00,2.311893939971923828e+00,2.267809867858886719e+00,1.106724381446838379e+00,1.083072185516357422e+00,1.067141056060791016e+00,1.051719427108764648e+00,1.039107084274291992e+00,1.030831933021545410e+00,1.038703560829162598e+00,1.967649459838867188e+00,1.935625314712524414e+00,1.904626846313476562e+00,1.874605536460876465e+00,1.845516085624694824e+00
3.778684139251708984e+00,3.777956724166870117e+00,3.777229309082031250e+00,3.776502847671508789e+00,3.775776147842407227e+00,3.775049686431884766e+00,3.774323940277099609e+00,3.773598194122314453e+00,3.772872686386108398e+00,3.772147893905639648e+00,3.771422863006591797e+00,3.770698070526123047e+00,3.769973993301391602e+00,3.769249916076660156e+00,3.768526077270507812e+00,3.767802715301513672e+00,3.767079591751098633e+00,3.766356468200683594e+00,3.765634059906005859e+00,3.764911651611328125e+00,3.764189243316650391e+00,3.763467788696289062e+00,3.762746095657348633e+00,3.762024641036987305e+00,3.761304140090942383e+00,3.760583162307739258e+00,3.759862661361694336e+00,3.759142875671386719e+00,3.758422851562500000e+00,3.757703065872192383e+00,3.756983995437622070e+00,3.756264925003051758e+00,3.755545854568481445e+00,3.754827737808227539e+00,3.754109382629394531e+00,3.753391265869140625e+00,3.752673864364624023e+00,3.751956224441528320e+00,3.751239061355590820e+00,3.750522375106811523e+00,3.749805688858032227e+00,3.749089241027832031e+00,3.748373508453369141e+00,3.747657537460327148e+00,3.746942043304443359e+00,3.746227025985717773e+00,3.745512008666992188e+00,3.665931940078735352e+00,3.556311130523681641e+00,3.453055858612060547e+00,3.355627059936523438e+00,3.263545751571655273e+00,3.176383018493652344e+00,3.093754768371582031e+00,3.015316486358642578e+00,2.940757274627685547e+00,2.869796514511108398e+00,2.802179574966430664e+00,2.737675189971923828e+00,2.676074266433715820e+00,2.617184162139892578e+00,2.560830354690551758e+00,2.506851911544799805e+00,2.455102443695068359e+00,2.405446052551269531e+00,2.357758760452270508e+00,2.311925172805786133e+00,1.149116277694702148e+00,1.107926487922668457e+00,1.091170310974121094e+00,1.075066328048706055e+00,1.059615015983581543e+00,1.051475167274475098e+00,1.042268872261047363e+00,2.000774383544921875e+00,1.967672109603881836e+00,1.935647130012512207e+00,1.904648065567016602e+00,1.874626159667968750e+00,1.845535993576049805e+00
3.084582328796386719e+00,3.084097862243652344e+00,3.083613157272338867e+00,3.083128690719604492e+00,3.082644701004028320e+00,3.082160472869873047e+00,3.081676483154296875e+00,3.081192731857299805e+00,3.080708980560302734e+00,3.080225467681884766e+00,3.079742193222045898e+00,3.079258918762207031e+00,3.078775882720947266e+00,3.078293085098266602e+00,3.077810287475585938e+00,3.077327728271484375e+00,3.076845407485961914e+00,3.076363086700439453e+00,3.075880765914916992e+00,3.075398921966552734e+00,3.074917078018188477e+00,3.074435234069824219e+00,3.073953866958618164e+00,3.073472499847412109e+00,3.072991132736206055e+00,3.072510242462158203e+00,3.072029113769531250e+00,3.071548223495483398e+00,3.071067810058593750e+00,3.070587158203125000e+00,3.070106744766235352e+00,3.069626808166503906e+00,3.069146633148193359e+00,3.068666696548461914e+00,3.068187236785888672e+00,3.067707538604736328e+00,3.067228078842163086e+00,3.066748857498168945e+00,3.066269636154174805e+00,3.065790653228759766e+00,3.065312147140502930e+00,3.064833402633666992e+00,3.064354658126831055e+00,3.063876628875732422e+00,3.063398122787475586e+00,3.062920093536376953e+00,3.062442302703857422e+00,3.061964511871337891e+00,3.061486721038818359e+00,3.061009407043457031e+00,3.060531854629516602e+00,3.060054779052734375e+00,3.059577703475952148e+00,3.059100866317749023e+00,3.015369653701782227e+00,2.940807819366455078e+00,2.869844675064086914e+00,2.802225351333618164e+00,2.737719297409057617e+00,2.676115989685058594e+00,2.617224216461181641e+00,2.560868740081787109e+00,2.506888866424560547e+00,2.455137729644775391e+00,2.405479907989501953e+00,2.357791423797607422e+00,2.311956644058227539e+00,1.150975942611694336e+00,1.116306662559509277e+00,1.099473357200622559e+00,1.083317756652832031e+00,1.067630052566528320e+00,1.064141273498535156e+00,1.056133270263671875e+00,2.000797986984252930e+00,1.967694640159606934e+00,1.935669064521789551e+00,1.904669284820556641e+00,1.874646663665771484e+00,1.845555901527404785e+00
2.605906724929809570e+00,2.605560779571533203e+00,2.605215072631835938e+00,2.604869127273559570e+00,2.604523420333862305e+00,2.604177951812744141e+00,2.603832483291625977e+00,2.603487014770507812e+00,2.603141784667968750e+00,2.602796554565429688e+00,2.602451324462890625e+00,2.602106332778930664e+00,2.601761341094970703e+00,2.601416349411010742e+00,2.601071834564208984e+00,2.600727081298828125e+00,2.600382328033447266e+00,2.600038051605224609e+00,2.599693536758422852e+00,2.599349260330200195e+00,2.599005222320556641e+00,2.598660945892333984e+00,2.598316669464111328e+00,2.597972869873046875e+00,2.597629070281982422e+00,2.597285270690917969e+00,2.596941709518432617e+00,2.596598148345947266e+00,2.596254587173461914e+00,2.595911264419555664e+00,2.595567941665649414e+00,2.595224618911743164e+00,2.594881534576416016e+00,2.594538450241088867e+00,2.594195365905761719e+00,2.593852758407592773e+00,2.593509912490844727e+00,2.593167066574096680e+00,2.592824697494506836e+00,2.592482089996337891e+00,2.592139720916748047e+00,2.591797590255737305e+00,2.591455221176147461e+00,2.591113090515136719e+00,2.590771198272705078e+00,2.590429067611694336e+00,2.590087175369262695e+00,2.589745521545410156e+00,2.589403867721557617e+00,2.589062213897705078e+00,2.588720798492431641e+00,2.588379383087158203e+00,2.588037967681884766e+00,2.587696790695190430e+00,2.587355613708496094e+00,2.587014436721801758e+00,2.586673736572265625e+00,2.586332798004150391e+00,2.585991859436035156e+00,2.585651397705078125e+00,2.585310697555541992e+00,2.560906887054443359e+00,2.506925582885742188e+00,2.455173015594482422e+00,2.405513763427734375e+00,2.357823848724365234e+00,2.311987876892089844e+00,2.267899990081787109e+00,1.125014424324035645e+00,1.108105301856994629e+00,1.091696977615356445e+00,1.077136397361755371e+00,1.076858162879943848e+00,2.035058259963989258e+00,2.000821352005004883e+00,1.967717528343200684e+00,1.935690999031066895e+00,1.904690384864807129e+00,1.874667167663574219e+00,1.845575809478759766e+00
2.255835056304931641e+00,2.255575895309448242e+00,2.255316972732543945e+00,2.255057811737060547e+00,2.254798889160156250e+00,2.254540205001831055e+00,2.254281282424926758e+00,2.254022598266601562e+00,2.253763914108276367e+00,2.253505229949951172e+00,2.253246784210205078e+00,2.252988338470458984e+00,2.252729892730712891e+00,2.252471446990966797e+00,2.252213001251220703e+00,2.251954793930053711e+00,2.251696586608886719e+00,2.251438379287719727e+00,2.251180410385131836e+00,2.250922441482543945e+00,2.250664472579956055e+00,2.250406503677368164e+00,2.250148773193359375e+00,2.249890565872192383e+00,2.249632835388183594e+00,2.249374866485595703e+00,2.249117136001586914e+00,2.248859405517578125e+00,2.248601675033569336e+00,2.248344182968139648e+00,2.248086690902709961e+00,2.247829198837280273e+00,2.247571706771850586e+00,2.247314453125000000e+00,2.247056961059570312e+00,2.246799707412719727e+00,2.246542692184448242e+00,2.246285438537597656e+00,2.246028423309326172e+00,2.245771408081054688e+00,2.245514392852783203e+00,2.245257377624511719e+00,2.245000839233398438e+00,2.244744062423706055e+00,2.244487285614013672e+00,2.244230747222900391e+00,2.243973970413208008e+00,2.243717432022094727e+00,2.243461132049560547e+00,2.243204593658447266e+00,2.242948055267333984e+00,2.242691993713378906e+00,2.242435693740844727e+00,2.242179393768310547e+00,2.241923332214355469e+00,2.241667270660400391e+00,2.241411209106445312e+00,2.241155385971069336e+00,2.240899324417114258e+00,2.240643501281738281e+00,2.240387916564941406e+00,2.240132093429565430e+00,2.239876508712768555e+00,2.239620923995971680e+00,2.239365339279174805e+00,2.239109754562377930e+00,2.238854408264160156e+00,1.188749551773071289e+00,1.145339727401733398e+00,1.127042055130004883e+00,1.100206613540649414e+00,1.090432167053222656e+00,1.089345335960388184e+00,2.035082578659057617e+00,2.000844717025756836e+00,1.967740178108215332e+00,1.935713052749633789e+00,1.904711842536926270e+00,1.874687671661376953e+00,1.845595598220825195e+00
1.988673329353332520e+00,1.988471984863281250e+00,1.988270521163940430e+00,1.988069295883178711e+00,1.987868189811706543e+00,1.987666845321655273e+00,1.987465739250183105e+00,1.987264633178710938e+00,1.987063407897949219e+00,1.986862540245056152e+00,1.986661553382873535e+00,1.986460685729980469e+00,1.986259579658508301e+00,1.986058831214904785e+00,1.985858082771301270e+00,1.985657095909118652e+00,1.985456466674804688e+00,1.985255837440490723e+00,1.985054969787597656e+00,1.984854459762573242e+00,1.984653949737548828e+00,1.984453201293945312e+00,1.984252691268920898e+00,1.984052300453186035e+00,1.983851790428161621e+00,1.983651399612426758e+00,1.983451128005981445e+00,1.983250737190246582e+00,1.983050465583801270e+00,1.982850313186645508e+00,1.982650041580200195e+00,1.982450008392333984e+00,1.982249975204467773e+00,1.982049703598022461e+00,1.981849789619445801e+00,1.981649875640869141e+00,1.981449723243713379e+00,1.981249928474426270e+00,1.981050133705139160e+00,1.980850100517272949e+00,1.980650424957275391e+00,1.980450749397277832e+00,1.980250954627990723e+00,1.980051279067993164e+00,1.979851722717285156e+00,1.979652047157287598e+00,1.979452490806579590e+00,1.979253053665161133e+00,1.979053497314453125e+00,1.978854179382324219e+00,1.978654861450195312e+00,1.978455305099487305e+00,1.978256106376647949e+00,1.978056907653808594e+00,1.977857470512390137e+00,1.977658390998840332e+00,1.977459311485290527e+00,1.977260112762451172e+00,1.977061152458190918e+00,1.976862192153930664e+00,1.976662993431091309e+00,1.976464152336120605e+00,1.976265311241149902e+00,1.976066350936889648e+00,1.975867509841918945e+00,1.975668787956237793e+00,1.975470185279846191e+00,1.179787993431091309e+00,1.149963259696960449e+00,1.134440183639526367e+00,1.122710585594177246e+00,1.117785334587097168e+00,1.974278569221496582e+00,1.974079966545104980e+00,1.973881602287292480e+00,1.967762827873229980e+00,1.935734987258911133e+00,1.904733061790466309e+00,1.874708414077758789e+00,1.845615506172180176e+00
1.778091430664062500e+00,1.777930617332458496e+00,1.777769446372985840e+00,1.777608633041381836e+00,1.777447819709777832e+00,1.777286767959594727e+00,1.777126073837280273e+00,1.776965260505676270e+00,1.776804447174072266e+00,1.776643753051757812e+00,1.776483058929443359e+00,1.776322245597839355e+00,1.776161670684814453e+00,1.776001095771789551e+00,1.775840401649475098e+00,1.775679826736450195e+00,1.775519371032714844e+00,1.775358676910400391e+00,1.775198340415954590e+00,1.775037884712219238e+00,1.774877309799194336e+00,1.774716973304748535e+00,1.774556756019592285e+00,1.774396181106567383e+00,1.774235963821411133e+00,1.774075746536254883e+00,1.773915410041809082e+00,1.773755192756652832e+00,1.773595094680786133e+00,1.773434758186340332e+00,1.773274660110473633e+00,1.773114681243896484e+00,1.772954463958740234e+00,1.772794485092163086e+00,1.772634506225585938e+00,1.772474408149719238e+00,1.772314429283142090e+00,1.772154569625854492e+00,1.771994590759277344e+00,1.771834731101989746e+00,1.771674990653991699e+00,1.771515130996704102e+00,1.771355271339416504e+00,1.771195530891418457e+00,1.771035909652709961e+00,1.770876049995422363e+00,1.770716428756713867e+00,1.770556807518005371e+00,1.770397067070007324e+00,1.770237565040588379e+00,1.770078063011169434e+00,1.769918441772460938e+00,1.769758939743041992e+00,1.769599556922912598e+00,1.769439935684204102e+00,1.769280552864074707e+00,1.769121289253234863e+00,1.768961787223815918e+00,1.768802523612976074e+00,1.768643260002136230e+00,1.768483877182006836e+00,1.768324732780456543e+00,1.768165469169616699e+00,1.768006205558776855e+00,1.767847061157226562e+00,1.767688035964965820e+00,1.767528772354125977e+00,1.180094122886657715e+00,1.150077342987060547e+00,1.133183479309082031e+00,1.122240900993347168e+00,1.118772149085998535e+00,1.766574740409851074e+00,1.766415953636169434e+00,1.766257166862487793e+00,1.766098141670227051e+00,1.765939474105834961e+00,1.765780687332153320e+00,1.765621781349182129e+00,1.765463232994079590e+00
1.607836723327636719e+00,1.607704997062683105e+00,1.607573390007019043e+00,1.607441902160644531e+00,1.607310175895690918e+00,1.607178688049316406e+00,1.607047200202941895e+00,1.606915593147277832e+00,1.606784224510192871e+00,1.606652736663818359e+00,1.606521248817443848e+00,1.606389880180358887e+00,1.606258511543273926e+00,1.606127023696899414e+00,1.605995774269104004e+00,1.605864524841308594e+00,1.605733036994934082e+00,1.605601787567138672e+00,1.605470657348632812e+00,1.605339407920837402e+00,1.605208158493041992e+00,1.605076909065246582e+00,1.604945778846740723e+00,1.604814529418945312e+00,1.604683518409729004e+00,1.604552388191223145e+00,1.604421257972717285e+00,1.604290246963500977e+00,1.604159235954284668e+00,1.604028105735778809e+00,1.603897094726562500e+00,1.603766202926635742e+00,1.603635072708129883e+00,1.603504180908203125e+00,1.603373408317565918e+00,1.603242397308349609e+00,1.603111505508422852e+00,1.602980732917785645e+00,1.602849841117858887e+00,1.602719068527221680e+00,1.602588295936584473e+00,1.602457404136657715e+00,1.602326750755310059e+00,1.602195978164672852e+00,1.602065205574035645e+00,1.601934552192687988e+00,1.601804018020629883e+00,1.601673245429992676e+00,1.601542711257934570e+00,1.601412057876586914e+00,1.601281404495239258e+00,1.601150870323181152e+00,1.601020455360412598e+00,1.600889801979064941e+00,1.600759387016296387e+00,1.600628972053527832e+00,1.600498437881469727e+00,1.600368022918701172e+00,1.600237607955932617e+00,1.600107192993164062e+00,1.599976778030395508e+00,1.599846482276916504e+00,1.599716067314147949e+00,1.599585890769958496e+00,1.599455595016479492e+00,1.599325299263000488e+00,1.599195003509521484e+00,1.177579760551452637e+00,1.146718144416809082e+00,1.127846837043762207e+00,1.114195466041564941e+00,1.105752229690551758e+00,1.105143427848815918e+00,1.598284006118774414e+00,1.598154067993164062e+00,1.598023891448974609e+00,1.597893834114074707e+00,1.597763895988464355e+00,1.597633838653564453e+00,1.597503900527954102e+00
1.467337012290954590e+00,1.467227339744567871e+00,1.467117786407470703e+00,1.467008233070373535e+00,1.466898560523986816e+00,1.466789007186889648e+00,1.466679453849792480e+00,1.466569900512695312e+00,1.466460347175598145e+00,1.466350913047790527e+00,1.466241359710693359e+00,1.466131925582885742e+00,1.466022491455078125e+00,1.465913057327270508e+00,1.465803623199462891e+00,1.465694308280944824e+00,1.465584754943847656e+00,1.465475440025329590e+00,1.465366125106811523e+00,1.465256690979003906e+00,1.465147495269775391e+00,1.465038180351257324e+00,1.464928865432739258e+00,1.464819550514221191e+00,1.464710354804992676e+00,1.464601039886474609e+00,1.464491844177246094e+00,1.464382767677307129e+00,1.464273452758789062e+00,1.464164257049560547e+00,1.464055180549621582e+00,1.463945984840393066e+00,1.463836908340454102e+00,1.463727831840515137e+00,1.463618636131286621e+00,1.463509559631347656e+00,1.463400602340698242e+00,1.463291406631469727e+00,1.463182449340820312e+00,1.463073492050170898e+00,1.462964415550231934e+00,1.462855458259582520e+00,1.462746500968933105e+00,1.462637543678283691e+00,1.462528586387634277e+00,1.462419748306274414e+00,1.462310791015625000e+00,1.462201952934265137e+00,1.462093114852905273e+00,1.461984276771545410e+00,1.461875438690185547e+00,1.461766600608825684e+00,1.461657881736755371e+00,1.461549043655395508e+00,1.461440324783325195e+00,1.461331605911254883e+00,1.461222767829895020e+00,1.461114048957824707e+00,1.461005449295043945e+00,1.460896611213684082e+00,1.460788011550903320e+00,1.460679411888122559e+00,1.460570693016052246e+00,1.460462093353271484e+00,1.460353493690490723e+00,1.460244894027709961e+00,1.460136294364929199e+00,1.460027813911437988e+00,1.141075968742370605e+00,1.120519757270812988e+00,1.107472658157348633e+00,1.098329424858093262e+00,1.092792510986328125e+00,1.096334338188171387e+00,1.459268331527709961e+00,1.459159851074218750e+00,1.459051489830017090e+00,1.458943009376525879e+00,1.458834767341613770e+00,1.458726406097412109e+00
1.349418878555297852e+00,1.349326252937316895e+00,1.349233508110046387e+00,1.349140763282775879e+00,1.349048137664794922e+00,1.348955512046813965e+00,1.348862767219543457e+00,1.348770141601562500e+00,1.348677515983581543e+00,1.348584890365600586e+00,1.348492264747619629e+00,1.348399758338928223e+00,1.348307132720947266e+00,1.348214626312255859e+00,1.348122000694274902e+00,1.348029494285583496e+00,1.347936987876892090e+00,1.347844481468200684e+00,1.347751855850219727e+00,1.347659468650817871e+00,1.347566962242126465e+00,1.347474455833435059e+00,1.347382068634033203e+00,1.347289681434631348e+00,1.347197294235229492e+00,1.347104787826538086e+00,1.347012400627136230e+00,1.346920132637023926e+00,1.346827626228332520e+00,1.346735358238220215e+00,1.346642971038818359e+00,1.346550583839416504e+00,1.346458315849304199e+00,1.346366047859191895e+00,1.346273660659790039e+00,1.346181392669677734e+00,1.346089124679565430e+00,1.345996856689453125e+00,1.345904588699340820e+00,1.345812439918518066e+00,1.345720171928405762e+00,1.345627903938293457e+00,1.345535755157470703e+00,1.345443487167358398e+00,1.345351338386535645e+00,1.345259308815002441e+00,1.345167040824890137e+00,1.345074892044067383e+00,1.344982862472534180e+00,1.344890713691711426e+00,1.344798564910888672e+00,1.344706535339355469e+00,1.344614386558532715e+00,1.344522356986999512e+00,1.344430327415466309e+00,1.344338297843933105e+00,1.344246268272399902e+00,1.344154238700866699e+00,1.344062209129333496e+00,1.343970298767089844e+00,1.343878388404846191e+00,1.343786358833312988e+00,1.343694448471069336e+00,1.343602538108825684e+00,1.343510508537292480e+00,1.343418598175048828e+00,1.343326807022094727e+00,1.343234777450561523e+00,1.343142986297607422e+00,1.110126256942749023e+00,1.097209334373474121e+00,1.089006900787353516e+00,1.081883788108825684e+00,1.079387784004211426e+00,1.080704450607299805e+00,1.342500209808349609e+00,1.342408418655395508e+00,1.342316627502441406e+00,1.342224955558776855e+00,1.342133283615112305e+00
1.249043345451354980e+00,1.248963952064514160e+00,1.248884558677673340e+00,1.248805046081542969e+00,1.248725771903991699e+00,1.248646378517150879e+00,1.248566985130310059e+00,1.248487591743469238e+00,1.248408198356628418e+00,1.248328804969787598e+00,1.248249530792236328e+00,1.248170256614685059e+00,1.248090863227844238e+00,1.248011469841003418e+00,1.247932195663452148e+00,1.247852921485900879e+00,1.247773647308349609e+00,1.247694373130798340e+00,1.247615098953247070e+00,1.247535824775695801e+00,1.247456550598144531e+00,1.247377276420593262e+00,1.247298121452331543e+00,1.247218966484069824e+00,1.247139692306518555e+00,1.247060537338256836e+00,1.246981382369995117e+00,1.246902108192443848e+00,1.246822953224182129e+00,1.246743798255920410e+00,1.246664643287658691e+00,1.246585488319396973e+00,1.246506452560424805e+00,1.246427178382873535e+00,1.246348142623901367e+00,1.246269106864929199e+00,1.246189951896667480e+00,1.246110916137695312e+00,1.246031880378723145e+00,1.245952725410461426e+00,1.245873689651489258e+00,1.245794773101806641e+00,1.245715618133544922e+00,1.245636701583862305e+00,1.245557665824890137e+00,1.245478630065917969e+00,1.245399713516235352e+00,1.245320677757263184e+00,1.245241641998291016e+00,1.245162725448608398e+00,1.245083808898925781e+00,1.245004892349243164e+00,1.244925975799560547e+00,1.244847059249877930e+00,1.244768142700195312e+00,1.244689226150512695e+00,1.244610428810119629e+00,1.244531512260437012e+00,1.244452595710754395e+00,1.244373798370361328e+00,1.244295001029968262e+00,1.244216084480285645e+00,1.244137287139892578e+00,1.244058489799499512e+00,1.243979573249816895e+00,1.243900895118713379e+00,1.243822097778320312e+00,1.243743300437927246e+00,1.243664503097534180e+00,1.104416966438293457e+00,1.084252715110778809e+00,1.077665805816650391e+00,1.071743011474609375e+00,1.068692445755004883e+00,1.068913578987121582e+00,1.243113517761230469e+00,1.243034720420837402e+00,1.242956042289733887e+00,1.242877483367919922e+00,1.242798686027526855e+00
1.162566781044006348e+00,1.162497997283935547e+00,1.162429094314575195e+00,1.162360310554504395e+00,1.162291526794433594e+00,1.162222743034362793e+00,1.162153959274291992e+00,1.162085294723510742e+00,1.162016391754150391e+00,1.161947727203369141e+00,1.161878943443298340e+00,1.161810159683227539e+00,1.161741495132446289e+00,1.161672830581665039e+00,1.161604046821594238e+00,1.161535382270812988e+00,1.161466717720031738e+00,1.161397933959960938e+00,1.161329269409179688e+00,1.161260604858398438e+00,1.161191940307617188e+00,1.161123275756835938e+00,1.161054611206054688e+00,1.160985946655273438e+00,1.160917282104492188e+00,1.160848736763000488e+00,1.160780072212219238e+00,1.160711526870727539e+00,1.160642862319946289e+00,1.160574316978454590e+00,1.160505652427673340e+00,1.160437107086181641e+00,1.160368561744689941e+00,1.160300016403198242e+00,1.160231471061706543e+00,1.160162925720214844e+00,1.160094380378723145e+00,1.160025835037231445e+00,1.159957408905029297e+00,1.159888744354248047e+00,1.159820318222045898e+00,1.159751892089843750e+00,1.159683346748352051e+00,1.159614801406860352e+00,1.159546375274658203e+00,1.159477829933166504e+00,1.159409403800964355e+00,1.159340977668762207e+00,1.159272551536560059e+00,1.159204125404357910e+00,1.159135699272155762e+00,1.159067273139953613e+00,1.158998847007751465e+00,1.158930540084838867e+00,1.158862113952636719e+00,1.158793687820434570e+00,1.158725380897521973e+00,1.158656954765319824e+00,1.158588647842407227e+00,1.158520221710205078e+00,1.158451914787292480e+00,1.158383607864379883e+00,1.158315300941467285e+00,1.158246874809265137e+00,1.158178687095642090e+00,1.158110380172729492e+00,1.158042073249816895e+00,1.157973766326904297e+00,1.157905459403991699e+00,1.157837152481079102e+00,1.081649422645568848e+00,1.066740751266479492e+00,1.059799313545227051e+00,1.052142143249511719e+00,1.048145055770874023e+00,1.048747062683105469e+00,1.040025591850280762e+00,1.157291412353515625e+00,1.157223105430603027e+00,1.157154917716979980e+00
1.087289094924926758e+00,1.087228775024414062e+00,1.087168693542480469e+00,1.087108492851257324e+00,1.087048292160034180e+00,1.086988091468811035e+00,1.086928009986877441e+00,1.086867809295654297e+00,1.086807608604431152e+00,1.086747527122497559e+00,1.086687445640563965e+00,1.086627244949340820e+00,1.086567163467407227e+00,1.086507081985473633e+00,1.086446881294250488e+00,1.086386799812316895e+00,1.086326718330383301e+00,1.086266636848449707e+00,1.086206555366516113e+00,1.086146473884582520e+00,1.086086392402648926e+00,1.086026310920715332e+00,1.085966348648071289e+00,1.085906267166137695e+00,1.085846185684204102e+00,1.085786223411560059e+00,1.085726141929626465e+00,1.085666060447692871e+00,1.085606098175048828e+00,1.085546016693115234e+00,1.085486054420471191e+00,1.085426092147827148e+00,1.085366010665893555e+00,1.085306048393249512e+00,1.085246205329895020e+00,1.085186123847961426e+00,1.085126161575317383e+00,1.085066318511962891e+00,1.085006237030029297e+00,1.084946393966674805e+00,1.084886431694030762e+00,1.084826469421386719e+00,1.084766507148742676e+00,1.084706664085388184e+00,1.084646701812744141e+00,1.084586858749389648e+00,1.084526896476745605e+00,1.084466934204101562e+00,1.084407091140747070e+00,1.084347248077392578e+00,1.084287405014038086e+00,1.084227561950683594e+00,1.084167718887329102e+00,1.084107756614685059e+00,1.084047913551330566e+00,1.083988189697265625e+00,1.083928227424621582e+00,1.083868503570556641e+00,1.083808660507202148e+00,1.083748817443847656e+00,1.083689093589782715e+00,1.083629250526428223e+00,1.083569407463073730e+00,1.083509683609008789e+00,1.083449959754943848e+00,1.083390116691589355e+00,1.083330392837524414e+00,1.083270668983459473e+00,1.083210825920104980e+00,1.083151102066040039e+00,1.083091378211975098e+00,1.065940976142883301e+00,1.047324299812316895e+00,1.039321899414062500e+00,1.030773282051086426e+00,1.027068495750427246e+00,1.025362849235534668e+00,1.016940832138061523e+00,1.082613706588745117e+00,1.082553982734680176e+00
1.021167159080505371e+00,1.021113991737365723e+00,1.021060943603515625e+00,1.021007895469665527e+00,1.020954728126525879e+00,1.020901679992675781e+00,1.020848631858825684e+00,1.020795583724975586e+00,1.020742535591125488e+00,1.020689487457275391e+00,1.020636439323425293e+00,1.020583391189575195e+00,1.020530343055725098e+00,1.020477294921875000e+00,1.020424246788024902e+00,1.020371317863464355e+00,1.020318269729614258e+00,1.020265221595764160e+00,1.020212292671203613e+00,1.020159244537353516e+00,1.020106196403503418e+00,1.020053267478942871e+00,1.020000219345092773e+00,1.019947290420532227e+00,1.019894361495971680e+00,1.019841313362121582e+00,1.019788384437561035e+00,1.019735455513000488e+00,1.019682526588439941e+00,1.019629597663879395e+00,1.019576668739318848e+00,1.019523620605468750e+00,1.019470810890197754e+00,1.019417881965637207e+00,1.019364953041076660e+00,1.019312024116516113e+00,1.019259095191955566e+00,1.019206285476684570e+00,1.019153356552124023e+00,1.019100427627563477e+00,1.019047617912292480e+00,1.018994688987731934e+00,1.018941760063171387e+00,1.018888950347900391e+00,1.018836021423339844e+00,1.018783211708068848e+00,1.018730401992797852e+00,1.018677473068237305e+00,1.018624663352966309e+00,1.018571853637695312e+00,1.018519043922424316e+00,1.018466234207153320e+00,1.018413424491882324e+00,1.018360614776611328e+00,1.018307805061340332e+00,1.018254995346069336e+00,1.018202185630798340e+00,1.018149375915527344e+00,1.018096685409545898e+00,1.018043756484985352e+00,1.017991065979003906e+00,1.017938256263732910e+00,1.017885446548461914e+00,1.017832756042480469e+00,1.017780065536499023e+00,1.017727255821228027e+00,1.017674565315246582e+00,1.017621755599975586e+00,1.017569065093994141e+00,1.017516374588012695e+00,1.017463684082031250e+00,1.017410874366760254e+00,1.017358183860778809e+00,1.017305493354797363e+00,1.017252802848815918e+00,1.017200112342834473e+00,1.017147421836853027e+00,1.017094731330871582e+00,1.017042040824890137e+00,1.016989469528198242e+00
9.626264572143554688e-01,9.625793099403381348e-01,9.625321626663208008e-01,9.624848961830139160e-01,9.624377489089965820e-01,9.623905420303344727e-01,9.623433947563171387e-01,9.622962474822998047e-01,9.622491598129272461e-01,9.622018933296203613e-01,9.621548056602478027e-01,9.621076583862304688e-01,9.620605707168579102e-01,9.620134234428405762e-01,9.619663357734680176e-01,9.619192481040954590e-01,9.618720412254333496e-01,9.618249535560607910e-01,9.617778658866882324e-01,9.617307782173156738e-01,9.616836905479431152e-01,9.616366028785705566e-01,9.615894556045532227e-01,9.615423679351806641e-01,9.614953398704528809e-01,9.614482522010803223e-01,9.614012241363525391e-01,9.613541364669799805e-01,9.613069891929626465e-01,9.612599611282348633e-01,9.612129330635070801e-01,9.611659049987792969e-01,9.611188769340515137e-01,9.610718488693237305e-01,9.610247611999511719e-01,9.609777331352233887e-01,9.609307646751403809e-01,9.608837366104125977e-01,9.608367085456848145e-01,9.607897400856018066e-01,9.607426524162292480e-01,9.606956839561462402e-01,9.606487154960632324e-01,9.606016874313354492e-01,9.605547785758972168e-01,9.605078101158142090e-01,9.604607224464416504e-01,9.604137539863586426e-01,9.603668451309204102e-01,9.603198766708374023e-01,9.602729082107543945e-01,9.602259993553161621e-01,9.601789712905883789e-01,9.601320028305053711e-01,9.600850939750671387e-01,9.600381851196289062e-01,9.599912762641906738e-01,9.599443674087524414e-01,9.598973393440246582e-01,9.598504304885864258e-01,9.598035812377929688e-01,9.597566723823547363e-01,9.597097635269165039e-01,9.596629142761230469e-01,9.596158862113952637e-01,9.595690369606018066e-01,9.595221877098083496e-01,9.594752788543701172e-01,9.594284296035766602e-01,9.593815803527832031e-01,9.593347311019897461e-01,9.592877626419067383e-01,9.592409729957580566e-01,9.591941237449645996e-01,9.591472744941711426e-01,9.591004252433776855e-01,9.590536355972290039e-01,9.590067267417907715e-01,9.589598774909973145e-01,9.589130878448486328e-01
9.104337096214294434e-01,9.103915691375732422e-01,9.103493690490722656e-01,9.103071689605712891e-01,9.102649688720703125e-01,9.102228283882141113e-01,9.101805686950683594e-01,9.101383686065673828e-01,9.100962281227111816e-01,9.100540280342102051e-01,9.100118875503540039e-01,9.099697470664978027e-01,9.099274873733520508e-01,9.098853468894958496e-01,9.098432064056396484e-01,9.098010659217834473e-01,9.097589254379272461e-01,9.097168445587158203e-01,9.096745848655700684e-01,9.096325039863586426e-01,9.095903635025024414e-01,9.095482230186462402e-01,9.095061421394348145e-01,9.094640612602233887e-01,9.094218611717224121e-01,9.093797206878662109e-01,9.093376398086547852e-01,9.092955589294433594e-01,9.092534780502319336e-01,9.092113971710205078e-01,9.091691970825195312e-01,9.091271162033081055e-01,9.090850949287414551e-01,9.090430140495300293e-01,9.090009331703186035e-01,9.089589118957519531e-01,9.089167118072509766e-01,9.088746905326843262e-01,9.088326692581176758e-01,9.087905883789062500e-01,9.087485671043395996e-01,9.087065458297729492e-01,9.086644053459167480e-01,9.086223840713500977e-01,9.085803627967834473e-01,9.085383415222167969e-01,9.084963202476501465e-01,9.084542989730834961e-01,9.084122776985168457e-01,9.083701968193054199e-01,9.083281755447387695e-01,9.082862138748168945e-01,9.082441926002502441e-01,9.082022309303283691e-01,9.081602692604064941e-01,9.081181883811950684e-01,9.080761671066284180e-01,9.080342054367065430e-01,9.079922437667846680e-01,9.079502820968627930e-01,9.079083204269409180e-01,9.078662991523742676e-01,9.078243374824523926e-01,9.077823758125305176e-01,9.077404141426086426e-01,9.076984524726867676e-01,9.076565504074096680e-01,9.076145291328430176e-01,9.075725674629211426e-01,9.075306653976440430e-01,9.074887633323669434e-01,9.074468016624450684e-01,9.074048995971679688e-01,9.073628783226013184e-01,9.073209762573242188e-01,9.072790741920471191e-01,9.072371721267700195e-01,9.071952700614929199e-01,9.071534276008605957e-01,9.071114063262939453e-01
