5.000000000000000000e+00,5.000000000000000000e+00,5.000000000000000000e+00,5.000000000000000000e+00,5.000000000000000000e+00,5.000000000000000000e+00,5.000000000000000000e+00,5.000000000000000000e+00,5.000000000000000000e+00,5.000000000000000000e+00,5.000000000000000000e+00,5.000000000000000000e+00,5.000000000000000000e+00,5.000000000000000000e+00,5.000000000000000000e+00,5.000000000000000000e+00,5.000000000000000000e+00,5.000000000000000000e+00,5.000000000000000000e+00,5.000000000000000000e+00,5.000000000000000000e+00,5.000000000000000000e+00,5.000000000000000000e+00,5.000000000000000000e+00,5.000000000000000000e+00,5.000000000000000000e+00,5.000000000000000000e+00,5.000000000000000000e+00,5.000000000000000000e+00,5.000000000000000000e+00,5.000000000000000000e+00,5.000000000000000000e+00,5.000000000000000000e+00,5.000000000000000000e+00,5.000000000000000000e+00,5.000000000000000000e+00,5.000000000000000000e+00,5.000000000000000000e+00,5.000000000000000000e+00,4.860572338104248047e+00,4.669732093811035156e+00,4.493311405181884766e+00,4.329735755920410156e+00,4.177651405334472656e+00,4.035888195037841797e+00,3.903431177139282227e+00,3.779391527175903320e+00,3.662992715835571289e+00,3.553549289703369141e+00,3.450456380844116211e+00,3.353176116943359375e+00,3.261231184005737305e+00,3.174193620681762695e+00,3.091681003570556641e+00,3.013350009918212891e+00,2.938889741897583008e+00,2.868020772933959961e+00,2.800489187240600586e+00,2.736064672470092773e+00,2.674537658691406250e+00,2.615716695785522461e+00,2.559427738189697266e+00,2.505510091781616211e+00,2.453817367553710938e+00,2.404214620590209961e+00,2.356577634811401367e+00,2.310791254043579102e+00,2.266750574111938477e+00,2.224356889724731445e+00,2.183520078659057617e+00,2.144155740737915039e+00,2.106185436248779297e+00,2.069536447525024414e+00,2.034141302108764648e+00,1.999936342239379883e+00,1.966862916946411133e+00,1.934865236282348633e+00,1.903892159461975098e+00,1.873895168304443359e+00,1.844828724861145020e+00
5.000000000000000000e+00,5.000000000000000000e+00,5.000000000000000000e+00,5.000000000000000000e+00,5.000000000000000000e+00,5.000000000000000000e+00,5.000000000000000000e+00,5.000000000000000000e+00,5.000000000000000000e+00,5.000000000000000000e+00,5.000000000000000000e+00,5.000000000000000000e+00,5.000000000000000000e+00,5.000000000000000000e+00,5.000000000000000000e+00,5.000000000000000000e+00,5.000000000000000000e+00,5.000000000000000000e+00,5.000000000000000000e+00,5.000000000000000000e+00,5.000000000000000000e+00,5.000000000000000000e+00,5.000000000000000000e+00,5.000000000000000000e+00,5.000000000000000000e+00,5.000000000000000000e+00,5.000000000000000000e+00,5.000000000000000000e+00,5.000000000000000000e+00,5.000000000000000000e+00,5.000000000000000000e+00,5.000000000000000000e+00,5.000000000000000000e+00,5.000000000000000000e+00,5.000000000000000000e+00,5.000000000000000000e+00,5.000000000000000000e+00,5.000000000000000000e+00,5.000000000000000000e+00,4.860712051391601562e+00,4.669860839843750000e+00,4.493430614471435547e+00,4.329846382141113281e+00,4.177754402160644531e+00,4.035984516143798828e+00,3.903521060943603516e+00,3.779476165771484375e+00,3.663071870803833008e+00,3.553623914718627930e+00,3.450526714324951172e+00,3.353242397308349609e+00,3.261293888092041016e+00,3.174252986907958984e+00,3.091737747192382812e+00,3.013403415679931641e+00,2.938940763473510742e+00,2.868069410324096680e+00,2.800535440444946289e+00,2.736108779907226562e+00,2.674579858779907227e+00,2.615757226943969727e+00,2.559466361999511719e+00,2.505547285079956055e+00,2.453852891921997070e+00,2.404248714447021484e+00,2.356610298156738281e+00,2.310822725296020508e+00,2.266780853271484375e+00,2.224386215209960938e+00,2.183548450469970703e+00,2.144182682037353516e+00,2.106211423873901367e+00,2.069561719894409180e+00,2.034165620803833008e+00,1.999959945678710938e+00,1.966885685920715332e+00,1.934887528419494629e+00,1.903913617134094238e+00,1.873915910720825195e+00,1.844848871231079102e+00
5.000000000000000000e+00,5.000000000000000000e+00,5.000000000000000000e+00,5.000000000000000000e+00,5.000000000000000000e+00,5.000000000000000000e+00,5.000000000000000000e+00,5.000000000000000000e+00,5.000000000000000000e+00,5.000000000000000000e+00,5.000000000000000000e+00,5.000000000000000000e+00,5.000000000000000000e+00,5.000000000000000000e+00,5.000000000000000000e+00,5.000000000000000000e+00,5.000000000000000000e+00,5.000000000000000000e+00,5.000000000000000000e+00,5.000000000000000000e+00,5.000000000000000000e+00,5.000000000000000000e+00,5.000000000000000000e+00,5.000000000000000000e+00,5.000000000000000000e+00,5.000000000000000000e+00,5.000000000000000000e+00,5.000000000000000000e+00,5.000000000000000000e+00,5.000000000000000000e+00,5.000000000000000000e+00,5.000000000000000000e+00,5.000000000000000000e+00,5.000000000000000000e+00,5.000000000000000000e+00,5.000000000000000000e+00,5.000000000000000000e+00,5.000000000000000000e+00,5.000000000000000000e+00,4.860851764678955078e+00,4.669989585876464844e+00,4.493550300598144531e+00,4.329957008361816406e+00,4.177857398986816406e+00,4.036080837249755859e+00,3.903610944747924805e+00,3.779560565948486328e+00,3.663151264190673828e+00,3.553698778152465820e+00,3.450596809387207031e+00,3.353308677673339844e+00,3.261356592178344727e+00,3.174312591552734375e+00,3.091794252395629883e+00,3.013457059860229492e+00,2.938992023468017578e+00,2.868117809295654297e+00,2.800581932067871094e+00,2.736152887344360352e+00,2.674622058868408203e+00,2.615797758102416992e+00,2.559504985809326172e+00,2.505584239959716797e+00,2.453888416290283203e+00,2.404282808303833008e+00,2.356642961502075195e+00,2.310854434967041016e+00,2.266811132431030273e+00,2.224415302276611328e+00,2.183576583862304688e+00,2.144209861755371094e+00,2.106237888336181641e+00,2.069586992263793945e+00,2.034190177917480469e+00,1.999983549118041992e+00,1.966908574104309082e+00,1.934909582138061523e+00,1.903934955596923828e+00,1.873936653137207031e+00,1.844868898391723633e+00
5.000000000000000000e+00,5.000000000000000000e+00,5.000000000000000000e+00,5.000000000000000000e+00,5.000000000000000000e+00,5.000000000000000000e+00,5.000000000000000000e+00,5.000000000000000000e+00,5.000000000000000000e+00,5.000000000000000000e+00,5.000000000000000000e+00,5.000000000000000000e+00,5.000000000000000000e+00,5.000000000000000000e+00,5.000000000000000000e+00,5.000000000000000000e+00,5.000000000000000000e+00,5.000000000000000000e+00,5.000000000000000000e+00,5.000000000000000000e+00,5.000000000000000000e+00,5.000000000000000000e+00,5.000000000000000000e+00,5.000000000000000000e+00,5.000000000000000000e+00,5.000000000000000000e+00,5.000000000000000000e+00,5.000000000000000000e+00,5.000000000000000000e+00,5.000000000000000000e+00,5.000000000000000000e+00,5.000000000000000000e+00,5.000000000000000000e+00,5.000000000000000000e+00,5.000000000000000000e+00,5.000000000000000000e+00,5.000000000000000000e+00,5.000000000000000000e+00,5.000000000000000000e+00,4.860991001129150391e+00,4.670118331909179688e+00,4.493669509887695312e+00,4.330068111419677734e+00,4.177960395812988281e+00,4.036177158355712891e+00,3.903700828552246094e+00,3.779644727706909180e+00,3.663230419158935547e+00,3.553773164749145508e+00,3.450667142868041992e+00,3.353375434875488281e+00,3.261419534683227539e+00,3.174372196197509766e+00,3.091850519180297852e+00,3.013510704040527344e+00,2.939042806625366211e+00,2.868166446685791016e+00,2.800628185272216797e+00,2.736197233200073242e+00,2.674664497375488281e+00,2.615838050842285156e+00,2.559543609619140625e+00,2.505621433258056641e+00,2.453923940658569336e+00,2.404316902160644531e+00,2.356675863265991211e+00,2.310885906219482422e+00,2.266841411590576172e+00,2.224444627761840820e+00,2.183604717254638672e+00,2.144237041473388672e+00,2.106264114379882812e+00,2.069612264633178711e+00,2.034214496612548828e+00,2.000007152557373047e+00,1.966931343078613281e+00,1.934931635856628418e+00,1.903956413269042969e+00,1.873957276344299316e+00,1.844889044761657715e+00
5.000000000000000000e+00,5.000000000000000000e+00,5.000000000000000000e+00,5.000000000000000000e+00,5.000000000000000000e+00,5.000000000000000000e+00,5.000000000000000000e+00,5.000000000000000000e+00,5.000000000000000000e+00,5.000000000000000000e+00,5.000000000000000000e+00,5.000000000000000000e+00,5.000000000000000000e+00,5.000000000000000000e+00,5.000000000000000000e+00,5.000000000000000000e+00,5.000000000000000000e+00,5.000000000000000000e+00,5.000000000000000000e+00,5.000000000000000000e+00,5.000000000000000000e+00,5.000000000000000000e+00,5.000000000000000000e+00,5.000000000000000000e+00,5.000000000000000000e+00,5.000000000000000000e+00,5.000000000000000000e+00,5.000000000000000000e+00,5.000000000000000000e+00,5.000000000000000000e+00,5.000000000000000000e+00,5.000000000000000000e+00,5.000000000000000000e+00,5.000000000000000000e+00,5.000000000000000000e+00,5.000000000000000000e+00,5.000000000000000000e+00,5.000000000000000000e+00,5.000000000000000000e+00,4.861130237579345703e+00,4.670247077941894531e+00,4.493788242340087891e+00,4.330178737640380859e+00,4.178063392639160156e+00,4.036273002624511719e+00,3.903791189193725586e+00,3.779729127883911133e+00,3.663309574127197266e+00,3.553847789764404297e+00,3.450737476348876953e+00,3.353441953659057617e+00,3.261482238769531250e+00,3.174431800842285156e+00,3.091907024383544922e+00,3.013564586639404297e+00,2.939093828201293945e+00,2.868214845657348633e+00,2.800674438476562500e+00,2.736241340637207031e+00,2.674706697463989258e+00,2.615878343582153320e+00,2.559582471847534180e+00,2.505658388137817383e+00,2.453959465026855469e+00,2.404351234436035156e+00,2.356708526611328125e+00,2.310917615890502930e+00,2.266871929168701172e+00,2.224473953247070312e+00,2.183632850646972656e+00,2.144264221191406250e+00,2.106290102005004883e+00,2.069637537002563477e+00,2.034239053726196289e+00,2.000030755996704102e+00,1.966954231262207031e+00,1.934953808784484863e+00,1.903977990150451660e+00,1.873978018760681152e+00,1.844909071922302246e+00
5.000000000000000000e+00,5.000000000000000000e+00,5.000000000000000000e+00,5.000000000000000000e+00,5.000000000000000000e+00,5.000000000000000000e+00,5.000000000000000000e+00,5.000000000000000000e+00,5.000000000000000000e+00,5.000000000000000000e+00,5.000000000000000000e+00,5.000000000000000000e+00,5.000000000000000000e+00,5.000000000000000000e+00,5.000000000000000000e+00,5.000000000000000000e+00,5.000000000000000000e+00,5.000000000000000000e+00,5.000000000000000000e+00,5.000000000000000000e+00,5.000000000000000000e+00,5.000000000000000000e+00,5.000000000000000000e+00,5.000000000000000000e+00,5.000000000000000000e+00,5.000000000000000000e+00,5.000000000000000000e+00,5.000000000000000000e+00,5.000000000000000000e+00,5.000000000000000000e+00,5.000000000000000000e+00,5.000000000000000000e+00,5.000000000000000000e+00,5.000000000000000000e+00,5.000000000000000000e+00,5.000000000000000000e+00,5.000000000000000000e+00,5.000000000000000000e+00,5.000000000000000000e+00,4.861270427703857422e+00,4.670376300811767578e+00,4.493907928466796875e+00,4.330289363861083984e+00,4.178166389465332031e+00,4.036369323730468750e+00,3.903881072998046875e+00,3.779813528060913086e+00,3.663389205932617188e+00,3.553922414779663086e+00,3.450808048248291016e+00,3.353508234024047852e+00,3.261544942855834961e+00,3.174491167068481445e+00,3.091963291168212891e+00,3.013618230819702148e+00,2.939144849777221680e+00,2.868263721466064453e+00,2.800720691680908203e+00,2.736285448074340820e+00,2.674748897552490234e+00,2.615918874740600586e+00,2.559621095657348633e+00,2.505695581436157227e+00,2.453995227813720703e+00,2.404385328292846680e+00,2.356741666793823242e+00,2.310949087142944336e+00,2.266902208328247070e+00,2.224503040313720703e+00,2.183660984039306641e+00,2.144291400909423828e+00,2.106316328048706055e+00,2.069662809371948242e+00,2.034263372421264648e+00,2.000054359436035156e+00,1.966977000236511230e+00,1.934975862503051758e+00,1.903999328613281250e+00,1.873998761177062988e+00,1.844929099082946777e+00
5.000000000000000000e+00,5.000000000000000000e+00,5.000000000000000000e+00,5.000000000000000000e+00,5.000000000000000000e+00,5.000000000000000000e+00,5.000000000000000000e+00,5.000000000000000000e+00,5.000000000000000000e+00,5.000000000000000000e+00,5.000000000000000000e+00,5.000000000000000000e+00,5.000000000000000000e+00,5.000000000000000000e+00,5.000000000000000000e+00,5.000000000000000000e+00,5.000000000000000000e+00,5.000000000000000000e+00,5.000000000000000000e+00,5.000000000000000000e+00,5.000000000000000000e+00,5.000000000000000000e+00,5.000000000000000000e+00,5.000000000000000000e+00,5.000000000000000000e+00,5.000000000000000000e+00,5.000000000000000000e+00,5.000000000000000000e+00,5.000000000000000000e+00,5.000000000000000000e+00,5.000000000000000000e+00,5.000000000000000000e+00,5.000000000000000000e+00,5.000000000000000000e+00,5.000000000000000000e+00,5.000000000000000000e+00,5.000000000000000000e+00,5.000000000000000000e+00,5.000000000000000000e+00,4.861409664154052734e+00,4.670505046844482422e+00,4.494027137756347656e+00,4.330399990081787109e+00,4.178269863128662109e+00,4.036465644836425781e+00,3.903971195220947266e+00,3.779897689819335938e+00,3.663468360900878906e+00,3.553996801376342773e+00,3.450878143310546875e+00,3.353574514389038086e+00,3.261608123779296875e+00,3.174550771713256836e+00,3.092019796371459961e+00,3.013671636581420898e+00,2.939195871353149414e+00,2.868312358856201172e+00,2.800766944885253906e+00,2.736329793930053711e+00,2.674791097640991211e+00,2.615959405899047852e+00,2.559659719467163086e+00,2.505732536315917969e+00,2.454030752182006836e+00,2.404419422149658203e+00,2.356774330139160156e+00,2.310980558395385742e+00,2.266932725906372070e+00,2.224532365798950195e+00,2.183689117431640625e+00,2.144318580627441406e+00,2.106342554092407227e+00,2.069688081741333008e+00,2.034287929534912109e+00,2.000078201293945312e+00,1.966999888420104980e+00,1.934998035430908203e+00,1.904020786285400391e+00,1.874019503593444824e+00,1.844949245452880859e+00
5.000000000000000000e+00,5.000000000000000000e+00,5.000000000000000000e+00,5.000000000000000000e+00,5.000000000000000000e+00,5.000000000000000000e+00,5.000000000000000000e+00,5.000000000000000000e+00,5.000000000000000000e+00,5.000000000000000000e+00,5.000000000000000000e+00,5.000000000000000000e+00,5.000000000000000000e+00,5.000000000000000000e+00,5.000000000000000000e+00,5.000000000000000000e+00,5.000000000000000000e+00,5.000000000000000000e+00,5.000000000000000000e+00,5.000000000000000000e+00,5.000000000000000000e+00,5.000000000000000000e+00,5.000000000000000000e+00,5.000000000000000000e+00,5.000000000000000000e+00,5.000000000000000000e+00,5.000000000000000000e+00,5.000000000000000000e+00,5.000000000000000000e+00,5.000000000000000000e+00,5.000000000000000000e+00,5.000000000000000000e+00,5.000000000000000000e+00,5.000000000000000000e+00,5.000000000000000000e+00,5.000000000000000000e+00,5.000000000000000000e+00,5.000000000000000000e+00,5.000000000000000000e+00,4.861549377441406250e+00,4.670633792877197266e+00,4.494146347045898438e+00,4.330510616302490234e+00,4.178372859954833984e+00,4.036561965942382812e+00,3.904061079025268555e+00,3.779982566833496094e+00,3.663547515869140625e+00,3.554071426391601562e+00,3.450948476791381836e+00,3.353641033172607422e+00,3.261670827865600586e+00,3.174610137939453125e+00,3.092076539993286133e+00,3.013725280761718750e+00,2.939246892929077148e+00,2.868360757827758789e+00,2.800813198089599609e+00,2.736374139785766602e+00,2.674833297729492188e+00,2.615999698638916016e+00,2.559698581695556641e+00,2.505769729614257812e+00,2.454066276550292969e+00,2.404453516006469727e+00,2.356807231903076172e+00,2.311012029647827148e+00,2.266963005065917969e+00,2.224561452865600586e+00,2.183717250823974609e+00,2.144345760345458984e+00,2.106368780136108398e+00,2.069713354110717773e+00,2.034312248229980469e+00,2.000101804733276367e+00,1.967022657394409180e+00,1.935020089149475098e+00,1.904042124748229980e+00,1.874040484428405762e+00,1.844969272613525391e+00
5.000000000000000000e+00,5.000000000000000000e+00,5.000000000000000000e+00,5.000000000000000000e+00,5.000000000000000000e+00,5.000000000000000000e+00,5.000000000000000000e+00,5.000000000000000000e+00,5.000000000000000000e+00,5.000000000000000000e+00,5.000000000000000000e+00,5.000000000000000000e+00,5.000000000000000000e+00,5.000000000000000000e+00,5.000000000000000000e+00,5.000000000000000000e+00,5.000000000000000000e+00,5.000000000000000000e+00,5.000000000000000000e+00,5.000000000000000000e+00,5.000000000000000000e+00,5.000000000000000000e+00,5.000000000000000000e+00,5.000000000000000000e+00,5.000000000000000000e+00,5.000000000000000000e+00,5.000000000000000000e+00,5.000000000000000000e+00,5.000000000000000000e+00,5.000000000000000000e+00,5.000000000000000000e+00,5.000000000000000000e+00,5.000000000000000000e+00,5.000000000000000000e+00,5.000000000000000000e+00,5.000000000000000000e+00,5.000000000000000000e+00,5.000000000000000000e+00,5.000000000000000000e+00,4.861689090728759766e+00,4.670762538909912109e+00,4.494265556335449219e+00,4.330621719360351562e+00,4.178475856781005859e+00,4.036657810211181641e+00,3.904150962829589844e+00,3.780066728591918945e+00,3.663626670837402344e+00,3.554146289825439453e+00,3.451018810272216797e+00,3.353707313537597656e+00,3.261733531951904297e+00,3.174669504165649414e+00,3.092132806777954102e+00,3.013778924942016602e+00,2.939298152923583984e+00,2.868409395217895508e+00,2.800859928131103516e+00,2.736418247222900391e+00,2.674875497817993164e+00,2.616040229797363281e+00,2.559737205505371094e+00,2.505806922912597656e+00,2.454101800918579102e+00,2.404487848281860352e+00,2.356839895248413086e+00,2.311043500900268555e+00,2.266993284225463867e+00,2.224590778350830078e+00,2.183745384216308594e+00,2.144372940063476562e+00,2.106395006179809570e+00,2.069738864898681641e+00,2.034336805343627930e+00,2.000125408172607422e+00,1.967045545578002930e+00,1.935042142868041992e+00,1.904063582420349121e+00,1.874061107635498047e+00,1.844989418983459473e+00
5.000000000000000000e+00,5.000000000000000000e+00,5.000000000000000000e+00,5.000000000000000000e+00,5.000000000000000000e+00,5.000000000000000000e+00,5.000000000000000000e+00,5.000000000000000000e+00,5.000000000000000000e+00,5.000000000000000000e+00,5.000000000000000000e+00,5.000000000000000000e+00,5.000000000000000000e+00,5.000000000000000000e+00,5.000000000000000000e+00,5.000000000000000000e+00,5.000000000000000000e+00,5.000000000000000000e+00,5.000000000000000000e+00,5.000000000000000000e+00,5.000000000000000000e+00,5.000000000000000000e+00,5.000000000000000000e+00,5.000000000000000000e+00,5.000000000000000000e+00,5.000000000000000000e+00,5.000000000000000000e+00,5.000000000000000000e+00,5.000000000000000000e+00,5.000000000000000000e+00,5.000000000000000000e+00,5.000000000000000000e+00,5.000000000000000000e+00,5.000000000000000000e+00,5.000000000000000000e+00,5.000000000000000000e+00,5.000000000000000000e+00,5.000000000000000000e+00,5.000000000000000000e+00,4.861828327178955078e+00,4.670891284942626953e+00,4.494384765625000000e+00,4.330732345581054688e+00,4.178579330444335938e+00,4.036754608154296875e+00,3.904240846633911133e+00,3.780151128768920898e+00,3.663705825805664062e+00,3.554220914840698242e+00,3.451089143753051758e+00,3.353774070739746094e+00,3.261796474456787109e+00,3.174729347229003906e+00,3.092189311981201172e+00,3.013832569122314453e+00,2.939348936080932617e+00,2.868458032608032227e+00,2.800906181335449219e+00,2.736462354660034180e+00,2.674917936325073242e+00,2.616080522537231445e+00,2.559775829315185547e+00,2.505843877792358398e+00,2.454137325286865234e+00,2.404521942138671875e+00,2.356872558593750000e+00,2.311075210571289062e+00,2.267023563385009766e+00,2.224620103836059570e+00,2.183773517608642578e+00,2.144399881362915039e+00,2.106421232223510742e+00,2.069764137268066406e+00,2.034361124038696289e+00,2.000149011611938477e+00,1.967068552970886230e+00,1.935064315795898438e+00,1.904084920883178711e+00,1.874081850051879883e+00,1.845009446144104004e+00
5.000000000000000000e+00,5.000000000000000000e+00,5.000000000000000000e+00,5.000000000000000000e+00,5.000000000000000000e+00,5.000000000000000000e+00,5.000000000000000000e+00,5.000000000000000000e+00,5.000000000000000000e+00,5.000000000000000000e+00,5.000000000000000000e+00,5.000000000000000000e+00,5.000000000000000000e+00,5.000000000000000000e+00,5.000000000000000000e+00,5.000000000000000000e+00,5.000000000000000000e+00,5.000000000000000000e+00,5.000000000000000000e+00,5.000000000000000000e+00,5.000000000000000000e+00,5.000000000000000000e+00,5.000000000000000000e+00,5.000000000000000000e+00,5.000000000000000000e+00,5.000000000000000000e+00,5.000000000000000000e+00,5.000000000000000000e+00,5.000000000000000000e+00,5.000000000000000000e+00,5.000000000000000000e+00,5.000000000000000000e+00,5.000000000000000000e+00,5.000000000000000000e+00,5.000000000000000000e+00,5.000000000000000000e+00,5.000000000000000000e+00,5.000000000000000000e+00,5.000000000000000000e+00,4.861968517303466797e+00,4.671020030975341797e+00,4.494503974914550781e+00,4.330842971801757812e+00,4.178682327270507812e+00,4.036850452423095703e+00,3.904331207275390625e+00,3.780235528945922852e+00,3.663785457611083984e+00,3.554295301437377930e+00,3.451159477233886719e+00,3.353840351104736328e+00,3.261859178543090820e+00,3.174788951873779297e+00,3.092245817184448242e+00,3.013886451721191406e+00,2.939399957656860352e+00,2.868506431579589844e+00,2.800952434539794922e+00,2.736506700515747070e+00,2.674960136413574219e+00,2.616121053695678711e+00,2.559814691543579102e+00,2.505880832672119141e+00,2.454173088073730469e+00,2.404556035995483398e+00,2.356905460357666016e+00,2.311106681823730469e+00,2.267053842544555664e+00,2.224649190902709961e+00,2.183801651000976562e+00,2.144427299499511719e+00,2.106447458267211914e+00,2.069789409637451172e+00,2.034385681152343750e+00,2.000172615051269531e+00,1.967091441154479980e+00,1.935086369514465332e+00,1.904106378555297852e+00,1.874102592468261719e+00,1.845029830932617188e+00
5.000000000000000000e+00,5.000000000000000000e+00,5.000000000000000000e+00,5.000000000000000000e+00,5.000000000000000000e+00,5.000000000000000000e+00,5.000000000000000000e+00,5.000000000000000000e+00,5.000000000000000000e+00,5.000000000000000000e+00,5.000000000000000000e+00,5.000000000000000000e+00,5.000000000000000000e+00,5.000000000000000000e+00,5.000000000000000000e+00,5.000000000000000000e+00,5.000000000000000000e+00,5.000000000000000000e+00,5.000000000000000000e+00,5.000000000000000000e+00,5.000000000000000000e+00,5.000000000000000000e+00,5.000000000000000000e+00,5.000000000000000000e+00,5.000000000000000000e+00,5.000000000000000000e+00,5.000000000000000000e+00,5.000000000000000000e+00,5.000000000000000000e+00,5.000000000000000000e+00,5.000000000000000000e+00,5.000000000000000000e+00,5.000000000000000000e+00,5.000000000000000000e+00,5.000000000000000000e+00,5.000000000000000000e+00,5.000000000000000000e+00,5.000000000000000000e+00,5.000000000000000000e+00,4.862107753753662109e+00,4.671149253845214844e+00,4.494623661041259766e+00,4.330953598022460938e+00,4.178785324096679688e+00,4.036946773529052734e+00,3.904421329498291016e+00,3.780319690704345703e+00,3.663864850997924805e+00,3.554369926452636719e+00,3.451230049133300781e+00,3.353906869888305664e+00,3.261921882629394531e+00,3.174848318099975586e+00,3.092302083969116211e+00,3.013939857482910156e+00,2.939450979232788086e+00,2.868555307388305664e+00,2.800998687744140625e+00,2.736550807952880859e+00,2.675002336502075195e+00,2.616161346435546875e+00,2.559853315353393555e+00,2.505918025970458984e+00,2.454208612442016602e+00,2.404590129852294922e+00,2.356938362121582031e+00,2.311138391494750977e+00,2.267084360122680664e+00,2.224678516387939453e+00,2.183830022811889648e+00,2.144454479217529297e+00,2.106473684310913086e+00,2.069814682006835938e+00,2.034409999847412109e+00,2.000196218490600586e+00,1.967114210128784180e+00,1.935108423233032227e+00,1.904127717018127441e+00,1.874123334884643555e+00,1.845049858093261719e+00
5.000000000000000000e+00,5.000000000000000000e+00,5.000000000000000000e+00,5.000000000000000000e+00,5.000000000000000000e+00,5.000000000000000000e+00,5.000000000000000000e+00,5.000000000000000000e+00,5.000000000000000000e+00,5.000000000000000000e+00,5.000000000000000000e+00,5.000000000000000000e+00,5.000000000000000000e+00,5.000000000000000000e+00,5.000000000000000000e+00,5.000000000000000000e+00,5.000000000000000000e+00,5.000000000000000000e+00,5.000000000000000000e+00,5.000000000000000000e+00,5.000000000000000000e+00,5.000000000000000000e+00,5.000000000000000000e+00,5.000000000000000000e+00,5.000000000000000000e+00,5.000000000000000000e+00,5.000000000000000000e+00,5.000000000000000000e+00,5.000000000000000000e+00,5.000000000000000000e+00,5.000000000000000000e+00,5.000000000000000000e+00,5.000000000000000000e+00,5.000000000000000000e+00,5.000000000000000000e+00,5.000000000000000000e+00,5.000000000000000000e+00,5.000000000000000000e+00,5.000000000000000000e+00,4.862247467041015625e+00,4.671277999877929688e+00,4.494742870330810547e+00,4.331064701080322266e+00,4.178888797760009766e+00,4.037043094635009766e+00,3.904511213302612305e+00,3.780404090881347656e+00,3.663944005966186523e+00,3.554444551467895508e+00,3.451300382614135742e+00,3.353973150253295898e+00,3.261985063552856445e+00,3.174907922744750977e+00,3.092358589172363281e+00,3.013993501663208008e+00,2.939502000808715820e+00,2.868603944778442383e+00,2.801044940948486328e+00,2.736595153808593750e+00,2.675044536590576172e+00,2.616201877593994141e+00,2.559891939163208008e+00,2.505954980850219727e+00,2.454244136810302734e+00,2.404624223709106445e+00,2.356971263885498047e+00,2.311169862747192383e+00,2.267114639282226562e+00,2.224707603454589844e+00,2.183858156204223633e+00,2.144481420516967773e+00,2.106499671936035156e+00,2.069839954376220703e+00,2.034434556961059570e+00,2.000219821929931641e+00,1.967137098312377930e+00,1.935130715370178223e+00,1.904149174690246582e+00,1.874144077301025391e+00,1.845070004463195801e+00
5.000000000000000000e+00,5.000000000000000000e+00,5.000000000000000000e+00,5.000000000000000000e+00,5.000000000000000000e+00,5.000000000000000000e+00,5.000000000000000000e+00,5.000000000000000000e+00,5.000000000000000000e+00,5.000000000000000000e+00,5.000000000000000000e+00,5.000000000000000000e+00,5.000000000000000000e+00,5.000000000000000000e+00,5.000000000000000000e+00,5.000000000000000000e+00,5.000000000000000000e+00,5.000000000000000000e+00,5.000000000000000000e+00,5.000000000000000000e+00,5.000000000000000000e+00,5.000000000000000000e+00,5.000000000000000000e+00,5.000000000000000000e+00,5.000000000000000000e+00,5.000000000000000000e+00,5.000000000000000000e+00,5.000000000000000000e+00,5.000000000000000000e+00,5.000000000000000000e+00,5.000000000000000000e+00,5.000000000000000000e+00,5.000000000000000000e+00,5.000000000000000000e+00,5.000000000000000000e+00,5.000000000000000000e+00,5.000000000000000000e+00,5.000000000000000000e+00,5.000000000000000000e+00,4.862387180328369141e+00,4.671406745910644531e+00,4.494862079620361328e+00,4.331175327301025391e+00,4.178991794586181641e+00,4.037139415740966797e+00,3.904601097106933594e+00,3.780488967895507812e+00,3.664023160934448242e+00,3.554518938064575195e+00,3.451370477676391602e+00,3.354039430618286133e+00,3.262047767639160156e+00,3.174967288970947266e+00,3.092415332794189453e+00,3.014047145843505859e+00,2.939553260803222656e+00,2.868652343750000000e+00,2.801091194152832031e+00,2.736639499664306641e+00,2.675086736679077148e+00,2.616242408752441406e+00,2.559930801391601562e+00,2.505992174148559570e+00,2.454279661178588867e+00,2.404658317565917969e+00,2.357003927230834961e+00,2.311201333999633789e+00,2.267145156860351562e+00,2.224736928939819336e+00,2.183886289596557617e+00,2.144508600234985352e+00,2.106526136398315430e+00,2.069865226745605469e+00,2.034458875656127930e+00,2.000243425369262695e+00,1.967159867286682129e+00,1.935152888298034668e+00,1.904170513153076172e+00,1.874164819717407227e+00,1.845090031623840332e+00
5.000000000000000000e+00,5.000000000000000000e+00,5.000000000000000000e+00,5.000000000000000000e+00,5.000000000000000000e+00,5.000000000000000000e+00,5.000000000000000000e+00,5.000000000000000000e+00,5.000000000000000000e+00,5.000000000000000000e+00,5.000000000000000000e+00,5.000000000000000000e+00,5.000000000000000000e+00,5.000000000000000000e+00,5.000000000000000000e+00,5.000000000000000000e+00,5.000000000000000000e+00,5.000000000000000000e+00,5.000000000000000000e+00,5.000000000000000000e+00,5.000000000000000000e+00,5.000000000000000000e+00,5.000000000000000000e+00,5.000000000000000000e+00,5.000000000000000000e+00,5.000000000000000000e+00,5.000000000000000000e+00,5.000000000000000000e+00,5.000000000000000000e+00,5.000000000000000000e+00,5.000000000000000000e+00,5.000000000000000000e+00,5.000000000000000000e+00,5.000000000000000000e+00,5.000000000000000000e+00,5.000000000000000000e+00,5.000000000000000000e+00,5.000000000000000000e+00,5.000000000000000000e+00,4.862526893615722656e+00,4.671535968780517578e+00,4.494981765747070312e+00,4.331285953521728516e+00,4.179094791412353516e+00,4.037235736846923828e+00,3.904691219329833984e+00,3.780573129653930664e+00,3.664102315902709961e+00,3.554594039916992188e+00,3.451440811157226562e+00,3.354105949401855469e+00,3.262110710144042969e+00,3.175026893615722656e+00,3.092471837997436523e+00,3.014100790023803711e+00,2.939604282379150391e+00,2.868700981140136719e+00,2.801137924194335938e+00,2.736683607101440430e+00,2.675129175186157227e+00,2.616282701492309570e+00,2.559969425201416016e+00,2.506029367446899414e+00,2.454315423965454102e+00,2.404692649841308594e+00,2.357036828994750977e+00,2.311232805252075195e+00,2.267175436019897461e+00,2.224766016006469727e+00,2.183914422988891602e+00,2.144535779953002930e+00,2.106552362442016602e+00,2.069890499114990234e+00,2.034483432769775391e+00,2.000267028808593750e+00,1.967182755470275879e+00,1.935174942016601562e+00,1.904191970825195312e+00,1.874185442924499512e+00,1.845110177993774414e+00
5.000000000000000000e+00,5.000000000000000000e+00,5.000000000000000000e+00,5.000000000000000000e+00,5.000000000000000000e+00,5.000000000000000000e+00,5.000000000000000000e+00,5.000000000000000000e+00,5.000000000000000000e+00,5.000000000000000000e+00,5.000000000000000000e+00,5.000000000000000000e+00,5.000000000000000000e+00,5.000000000000000000e+00,5.000000000000000000e+00,5.000000000000000000e+00,5.000000000000000000e+00,5.000000000000000000e+00,5.000000000000000000e+00,5.000000000000000000e+00,5.000000000000000000e+00,5.000000000000000000e+00,5.000000000000000000e+00,5.000000000000000000e+00,5.000000000000000000e+00,5.000000000000000000e+00,5.000000000000000000e+00,5.000000000000000000e+00,5.000000000000000000e+00,5.000000000000000000e+00,5.000000000000000000e+00,5.000000000000000000e+00,5.000000000000000000e+00,5.000000000000000000e+00,5.000000000000000000e+00,5.000000000000000000e+00,5.000000000000000000e+00,5.000000000000000000e+00,5.000000000000000000e+00,4.862666130065917969e+00,4.671664714813232422e+00,4.495100975036621094e+00,4.331397056579589844e+00,4.179197788238525391e+00,4.037332057952880859e+00,3.904781103134155273e+00,3.780657529830932617e+00,3.664181709289550781e+00,3.554668426513671875e+00,3.451511144638061523e+00,3.354172706604003906e+00,3.262173414230346680e+00,3.175086498260498047e+00,3.092528104782104492e+00,3.014154434204101562e+00,2.939655303955078125e+00,2.868749618530273438e+00,2.801184177398681641e+00,2.736727714538574219e+00,2.675171613693237305e+00,2.616322994232177734e+00,2.560008049011230469e+00,2.506066322326660156e+00,2.454350948333740234e+00,2.404726743698120117e+00,2.357069492340087891e+00,2.311264514923095703e+00,2.267205715179443359e+00,2.224795579910278320e+00,2.183942556381225586e+00,2.144562959671020508e+00,2.106578588485717773e+00,2.069915771484375000e+00,2.034507989883422852e+00,2.000290632247924805e+00,1.967205524444580078e+00,1.935197114944458008e+00,1.904213309288024902e+00,1.874206185340881348e+00,1.845130205154418945e+00
5.000000000000000000e+00,5.000000000000000000e+00,5.000000000000000000e+00,5.000000000000000000e+00,5.000000000000000000e+00,5.000000000000000000e+00,5.000000000000000000e+00,5.000000000000000000e+00,5.000000000000000000e+00,5.000000000000000000e+00,5.000000000000000000e+00,5.000000000000000000e+00,5.000000000000000000e+00,5.000000000000000000e+00,5.000000000000000000e+00,5.000000000000000000e+00,5.000000000000000000e+00,5.000000000000000000e+00,5.000000000000000000e+00,5.000000000000000000e+00,5.000000000000000000e+00,5.000000000000000000e+00,5.000000000000000000e+00,5.000000000000000000e+00,5.000000000000000000e+00,5.000000000000000000e+00,5.000000000000000000e+00,5.000000000000000000e+00,5.000000000000000000e+00,5.000000000000000000e+00,5.000000000000000000e+00,5.000000000000000000e+00,5.000000000000000000e+00,5.000000000000000000e+00,5.000000000000000000e+00,5.000000000000000000e+00,5.000000000000000000e+00,5.000000000000000000e+00,5.000000000000000000e+00,4.862806320190429688e+00,4.671793460845947266e+00,4.495220184326171875e+00,4.331507682800292969e+00,4.179301261901855469e+00,4.037428379058837891e+00,3.904871463775634766e+00,3.780741930007934570e+00,3.664261341094970703e+00,3.554743051528930664e+00,3.451581478118896484e+00,3.354238986968994141e+00,3.262236356735229492e+00,3.175146102905273438e+00,3.092584609985351562e+00,3.014208316802978516e+00,2.939706087112426758e+00,2.868798017501831055e+00,2.801230430603027344e+00,2.736772060394287109e+00,2.675213813781738281e+00,2.616363525390625000e+00,2.560046911239624023e+00,2.506103515625000000e+00,2.454386711120605469e+00,2.404760837554931641e+00,2.357102394104003906e+00,2.311295986175537109e+00,2.267235994338989258e+00,2.224824666976928711e+00,2.183970689773559570e+00,2.144590139389038086e+00,2.106604576110839844e+00,2.069941043853759766e+00,2.034532308578491211e+00,2.000314235687255859e+00,1.967228412628173828e+00,1.935219168663024902e+00,1.904234886169433594e+00,1.874226927757263184e+00,1.845150351524353027e+00
5.000000000000000000e+00,5.000000000000000000e+00,5.000000000000000000e+00,5.000000000000000000e+00,5.000000000000000000e+00,5.000000000000000000e+00,5.000000000000000000e+00,5.000000000000000000e+00,5.000000000000000000e+00,5.000000000000000000e+00,5.000000000000000000e+00,5.000000000000000000e+00,5.000000000000000000e+00,5.000000000000000000e+00,5.000000000000000000e+00,5.000000000000000000e+00,5.000000000000000000e+00,5.000000000000000000e+00,5.000000000000000000e+00,5.000000000000000000e+00,5.000000000000000000e+00,5.000000000000000000e+00,5.000000000000000000e+00,5.000000000000000000e+00,5.000000000000000000e+00,5.000000000000000000e+00,5.000000000000000000e+00,5.000000000000000000e+00,5.000000000000000000e+00,5.000000000000000000e+00,5.000000000000000000e+00,5.000000000000000000e+00,5.000000000000000000e+00,5.000000000000000000e+00,5.000000000000000000e+00,5.000000000000000000e+00,5.000000000000000000e+00,5.000000000000000000e+00,5.000000000000000000e+00,4.862945556640625000e+00,4.671922683715820312e+00,4.495339393615722656e+00,4.331618785858154297e+00,4.179404258728027344e+00,4.037524223327636719e+00,3.904961585998535156e+00,3.780826330184936523e+00,3.664340496063232422e+00,3.554817676544189453e+00,3.451652050018310547e+00,3.354305505752563477e+00,3.262299060821533203e+00,3.175205469131469727e+00,3.092641115188598633e+00,3.014261960983276367e+00,2.939757108688354492e+00,2.868846893310546875e+00,2.801276683807373047e+00,2.736816406250000000e+00,2.675256013870239258e+00,2.616403818130493164e+00,2.560085535049438477e+00,2.506140470504760742e+00,2.454422235488891602e+00,2.404794931411743164e+00,2.357135295867919922e+00,2.311327457427978516e+00,2.267266511917114258e+00,2.224853992462158203e+00,2.183998823165893555e+00,2.144617319107055664e+00,2.106630802154541016e+00,2.069966554641723633e+00,2.034556865692138672e+00,2.000338077545166016e+00,1.967251300811767578e+00,1.935241222381591797e+00,1.904256343841552734e+00,1.874247670173645020e+00,1.845170378684997559e+00
5.000000000000000000e+00,5.000000000000000000e+00,5.000000000000000000e+00,5.000000000000000000e+00,5.000000000000000000e+00,5.000000000000000000e+00,5.000000000000000000e+00,5.000000000000000000e+00,5.000000000000000000e+00,5.000000000000000000e+00,5.000000000000000000e+00,5.000000000000000000e+00,5.000000000000000000e+00,5.000000000000000000e+00,5.000000000000000000e+00,5.000000000000000000e+00,5.000000000000000000e+00,5.000000000000000000e+00,5.000000000000000000e+00,5.000000000000000000e+00,5.000000000000000000e+00,5.000000000000000000e+00,5.000000000000000000e+00,5.000000000000000000e+00,5.000000000000000000e+00,5.000000000000000000e+00,5.000000000000000000e+00,5.000000000000000000e+00,5.000000000000000000e+00,5.000000000000000000e+00,5.000000000000000000e+00,5.000000000000000000e+00,5.000000000000000000e+00,5.000000000000000000e+00,5.000000000000000000e+00,5.000000000000000000e+00,5.000000000000000000e+00,5.000000000000000000e+00,5.000000000000000000e+00,4.863085269927978516e+00,4.672051429748535156e+00,4.495459079742431641e+00,4.331729412078857422e+00,4.179507255554199219e+00,4.037620544433593750e+00,3.905051469802856445e+00,3.780910491943359375e+00,3.664419651031494141e+00,3.554892301559448242e+00,3.451722383499145508e+00,3.354371786117553711e+00,3.262362241744995117e+00,3.175265073776245117e+00,3.092697620391845703e+00,3.014315605163574219e+00,2.939808130264282227e+00,2.868895530700683594e+00,2.801322937011718750e+00,2.736860752105712891e+00,2.675298213958740234e+00,2.616444587707519531e+00,2.560124158859252930e+00,2.506177663803100586e+00,2.454457759857177734e+00,2.404829025268554688e+00,2.357167959213256836e+00,2.311359167098999023e+00,2.267296791076660156e+00,2.224883079528808594e+00,2.184026956558227539e+00,2.144644498825073242e+00,2.106657028198242188e+00,2.069991827011108398e+00,2.034581184387207031e+00,2.000361680984497070e+00,1.967274069786071777e+00,1.935263395309448242e+00,1.904277682304382324e+00,1.874268412590026855e+00,1.845190525054931641e+00
5.000000000000000000e+00,5.000000000000000000e+00,5.000000000000000000e+00,5.000000000000000000e+00,5.000000000000000000e+00,5.000000000000000000e+00,5.000000000000000000e+00,5.000000000000000000e+00,5.000000000000000000e+00,5.000000000000000000e+00,5.000000000000000000e+00,5.000000000000000000e+00,5.000000000000000000e+00,5.000000000000000000e+00,5.000000000000000000e+00,5.000000000000000000e+00,5.000000000000000000e+00,5.000000000000000000e+00,5.000000000000000000e+00,5.000000000000000000e+00,5.000000000000000000e+00,5.000000000000000000e+00,5.000000000000000000e+00,5.000000000000000000e+00,5.000000000000000000e+00,5.000000000000000000e+00,5.000000000000000000e+00,5.000000000000000000e+00,5.000000000000000000e+00,5.000000000000000000e+00,5.000000000000000000e+00,5.000000000000000000e+00,5.000000000000000000e+00,5.000000000000000000e+00,5.000000000000000000e+00,5.000000000000000000e+00,5.000000000000000000e+00,5.000000000000000000e+00,5.000000000000000000e+00,4.863224983215332031e+00,4.672180175781250000e+00,4.495578289031982422e+00,4.331840515136718750e+00,4.179610729217529297e+00,4.037716865539550781e+00,3.905141353607177734e+00,3.780995368957519531e+00,3.664499044418334961e+00,3.554966688156127930e+00,3.451792716979980469e+00,3.354438304901123047e+00,3.262424945831298828e+00,3.175324440002441406e+00,3.092754125595092773e+00,3.014369010925292969e+00,2.939859390258789062e+00,2.868943929672241211e+00,2.801369428634643555e+00,2.736904859542846680e+00,2.675340414047241211e+00,2.616484880447387695e+00,2.560163021087646484e+00,2.506214857101440430e+00,2.454493284225463867e+00,2.404863357543945312e+00,2.357200860977172852e+00,2.311390638351440430e+00,2.267327308654785156e+00,2.224912405014038086e+00,2.184055328369140625e+00,2.144671678543090820e+00,2.106683254241943359e+00,2.070017099380493164e+00,2.034605503082275391e+00,2.000385284423828125e+00,1.967296957969665527e+00,1.935285449028015137e+00,1.904299139976501465e+00,1.874289393424987793e+00,1.845210552215576172e+00
5.000000000000000000e+00,5.000000000000000000e+00,5.000000000000000000e+00,5.000000000000000000e+00,5.000000000000000000e+00,5.000000000000000000e+00,5.000000000000000000e+00,5.000000000000000000e+00,5.000000000000000000e+00,5.000000000000000000e+00,5.000000000000000000e+00,5.000000000000000000e+00,5.000000000000000000e+00,5.000000000000000000e+00,5.000000000000000000e+00,5.000000000000000000e+00,5.000000000000000000e+00,5.000000000000000000e+00,5.000000000000000000e+00,5.000000000000000000e+00,5.000000000000000000e+00,5.000000000000000000e+00,5.000000000000000000e+00,5.000000000000000000e+00,5.000000000000000000e+00,5.000000000000000000e+00,5.000000000000000000e+00,5.000000000000000000e+00,5.000000000000000000e+00,5.000000000000000000e+00,5.000000000000000000e+00,5.000000000000000000e+00,5.000000000000000000e+00,5.000000000000000000e+00,5.000000000000000000e+00,5.000000000000000000e+00,5.000000000000000000e+00,5.000000000000000000e+00,5.000000000000000000e+00,4.863363742828369141e+00,4.672309398651123047e+00,4.495697498321533203e+00,4.331951141357421875e+00,4.179713726043701172e+00,4.037813186645507812e+00,3.905231475830078125e+00,3.781079769134521484e+00,3.664578199386596680e+00,3.555041790008544922e+00,3.451863050460815430e+00,3.354504823684692383e+00,3.262487649917602539e+00,3.175384044647216797e+00,3.092810630798339844e+00,3.014422655105590820e+00,2.939910411834716797e+00,2.868992567062377930e+00,2.801415920257568359e+00,2.736948966979980469e+00,2.675382614135742188e+00,2.616525173187255859e+00,2.560201644897460938e+00,2.506251811981201172e+00,2.454528808593750000e+00,2.404897451400756836e+00,2.357233524322509766e+00,2.311422348022460938e+00,2.267357587814331055e+00,2.224941492080688477e+00,2.184083461761474609e+00,2.144698858261108398e+00,2.106709480285644531e+00,2.070042371749877930e+00,2.034630060195922852e+00,2.000408887863159180e+00,1.967319726943969727e+00,1.935307502746582031e+00,1.904320478439331055e+00,1.874310135841369629e+00,1.845230698585510254e+00
5.000000000000000000e+00,5.000000000000000000e+00,5.000000000000000000e+00,5.000000000000000000e+00,5.000000000000000000e+00,5.000000000000000000e+00,5.000000000000000000e+00,5.000000000000000000e+00,5.000000000000000000e+00,5.000000000000000000e+00,5.000000000000000000e+00,5.000000000000000000e+00,5.000000000000000000e+00,5.000000000000000000e+00,5.000000000000000000e+00,5.000000000000000000e+00,5.000000000000000000e+00,5.000000000000000000e+00,5.000000000000000000e+00,5.000000000000000000e+00,5.000000000000000000e+00,5.000000000000000000e+00,5.000000000000000000e+00,5.000000000000000000e+00,5.000000000000000000e+00,5.000000000000000000e+00,5.000000000000000000e+00,5.000000000000000000e+00,5.000000000000000000e+00,5.000000000000000000e+00,5.000000000000000000e+00,5.000000000000000000e+00,5.000000000000000000e+00,5.000000000000000000e+00,5.000000000000000000e+00,5.000000000000000000e+00,5.000000000000000000e+00,5.000000000000000000e+00,5.000000000000000000e+00,4.863502979278564453e+00,4.672437667846679688e+00,4.495816707611083984e+00,4.332062244415283203e+00,4.179817199707031250e+00,4.037909507751464844e+00,3.905321836471557617e+00,3.781164169311523438e+00,3.664657354354858398e+00,3.555116415023803711e+00,3.451933383941650391e+00,3.354571342468261719e+00,3.262550592422485352e+00,3.175443887710571289e+00,3.092867136001586914e+00,3.014476299285888672e+00,2.939961433410644531e+00,2.869041204452514648e+00,2.801462173461914062e+00,2.736993312835693359e+00,2.675425052642822266e+00,2.616565704345703125e+00,2.560240507125854492e+00,2.506289005279541016e+00,2.454564332962036133e+00,2.404931783676147461e+00,2.357266426086425781e+00,2.311453819274902344e+00,2.267387866973876953e+00,2.224970817565917969e+00,2.184111595153808594e+00,2.144726037979125977e+00,2.106735706329345703e+00,2.070067644119262695e+00,2.034654617309570312e+00,2.000432491302490234e+00,1.967342853546142578e+00,1.935329675674438477e+00,1.904341936111450195e+00,1.874330878257751465e+00,1.845250725746154785e+00
5.000000000000000000e+00,5.000000000000000000e+00,5.000000000000000000e+00,5.000000000000000000e+00,5.000000000000000000e+00,5.000000000000000000e+00,5.000000000000000000e+00,5.000000000000000000e+00,5.000000000000000000e+00,5.000000000000000000e+00,5.000000000000000000e+00,5.000000000000000000e+00,5.000000000000000000e+00,5.000000000000000000e+00,5.000000000000000000e+00,5.000000000000000000e+00,5.000000000000000000e+00,5.000000000000000000e+00,5.000000000000000000e+00,5.000000000000000000e+00,5.000000000000000000e+00,5.000000000000000000e+00,5.000000000000000000e+00,5.000000000000000000e+00,5.000000000000000000e+00,5.000000000000000000e+00,5.000000000000000000e+00,5.000000000000000000e+00,5.000000000000000000e+00,5.000000000000000000e+00,5.000000000000000000e+00,5.000000000000000000e+00,5.000000000000000000e+00,5.000000000000000000e+00,5.000000000000000000e+00,5.000000000000000000e+00,5.000000000000000000e+00,5.000000000000000000e+00,5.000000000000000000e+00,4.863641262054443359e+00,4.672565937042236328e+00,4.495936393737792969e+00,4.332172870635986328e+00,4.179920196533203125e+00,4.038005828857421875e+00,3.905411958694458008e+00,3.781248569488525391e+00,3.664736986160278320e+00,3.555190801620483398e+00,3.452003717422485352e+00,3.354637622833251953e+00,3.262613296508789062e+00,3.175503253936767578e+00,3.092923641204833984e+00,3.014530181884765625e+00,2.940012454986572266e+00,2.869089841842651367e+00,2.801508426666259766e+00,2.737037420272827148e+00,2.675467252731323242e+00,2.616605997085571289e+00,2.560279130935668945e+00,2.506325960159301758e+00,2.454600095748901367e+00,2.404965877532958984e+00,2.357299089431762695e+00,2.311485290527343750e+00,2.267418146133422852e+00,2.225000143051147461e+00,2.184139728546142578e+00,2.144753217697143555e+00,2.106761932373046875e+00,2.070092916488647461e+00,2.034678936004638672e+00,2.000456094741821289e+00,1.967365622520446777e+00,1.935351729393005371e+00,1.904363274574279785e+00,1.874351501464843750e+00,1.845271110534667969e+00
5.000000000000000000e+00,5.000000000000000000e+00,5.000000000000000000e+00,5.000000000000000000e+00,5.000000000000000000e+00,5.000000000000000000e+00,5.000000000000000000e+00,5.000000000000000000e+00,5.000000000000000000e+00,5.000000000000000000e+00,5.000000000000000000e+00,5.000000000000000000e+00,5.000000000000000000e+00,5.000000000000000000e+00,5.000000000000000000e+00,5.000000000000000000e+00,5.000000000000000000e+00,5.000000000000000000e+00,5.000000000000000000e+00,5.000000000000000000e+00,5.000000000000000000e+00,5.000000000000000000e+00,5.000000000000000000e+00,5.000000000000000000e+00,5.000000000000000000e+00,5.000000000000000000e+00,5.000000000000000000e+00,5.000000000000000000e+00,5.000000000000000000e+00,5.000000000000000000e+00,5.000000000000000000e+00,5.000000000000000000e+00,5.000000000000000000e+00,5.000000000000000000e+00,5.000000000000000000e+00,5.000000000000000000e+00,5.000000000000000000e+00,5.000000000000000000e+00,5.000000000000000000e+00,4.863780021667480469e+00,4.672694206237792969e+00,4.496054649353027344e+00,4.332283973693847656e+00,4.180023193359375000e+00,4.038102149963378906e+00,3.905501842498779297e+00,3.781332731246948242e+00,3.664816379547119141e+00,3.555265426635742188e+00,3.452074289321899414e+00,3.354704141616821289e+00,3.262676239013671875e+00,3.175562858581542969e+00,3.092980146408081055e+00,3.014583826065063477e+00,2.940063476562500000e+00,2.869138479232788086e+00,2.801554918289184570e+00,2.737081766128540039e+00,2.675509691238403320e+00,2.616646528244018555e+00,2.560317754745483398e+00,2.506363153457641602e+00,2.454635620117187500e+00,2.404999971389770508e+00,2.357332229614257812e+00,2.311516761779785156e+00,2.267448663711547852e+00,2.225029230117797852e+00,2.184167861938476562e+00,2.144780397415161133e+00,2.106788158416748047e+00,2.070118427276611328e+00,2.034703493118286133e+00,2.000479936599731445e+00,1.967388510704040527e+00,1.935373902320861816e+00,1.904384732246398926e+00,1.874372243881225586e+00,1.845291137695312500e+00
5.000000000000000000e+00,5.000000000000000000e+00,5.000000000000000000e+00,5.000000000000000000e+00,5.000000000000000000e+00,5.000000000000000000e+00,5.000000000000000000e+00,5.000000000000000000e+00,5.000000000000000000e+00,5.000000000000000000e+00,5.000000000000000000e+00,5.000000000000000000e+00,5.000000000000000000e+00,5.000000000000000000e+00,5.000000000000000000e+00,5.000000000000000000e+00,5.000000000000000000e+00,5.000000000000000000e+00,5.000000000000000000e+00,5.000000000000000000e+00,5.000000000000000000e+00,5.000000000000000000e+00,5.000000000000000000e+00,5.000000000000000000e+00,5.000000000000000000e+00,5.000000000000000000e+00,5.000000000000000000e+00,5.000000000000000000e+00,5.000000000000000000e+00,5.000000000000000000e+00,5.000000000000000000e+00,5.000000000000000000e+00,5.000000000000000000e+00,5.000000000000000000e+00,5.000000000000000000e+00,5.000000000000000000e+00,5.000000000000000000e+00,5.000000000000000000e+00,5.000000000000000000e+00,4.863919258117675781e+00,4.672821998596191406e+00,4.496173381805419922e+00,4.332394123077392578e+00,4.180126667022705078e+00,4.038198471069335938e+00,3.905591964721679688e+00,3.781417131423950195e+00,3.664895534515380859e+00,3.555340051651000977e+00,3.452144622802734375e+00,3.354770660400390625e+00,3.262739419937133789e+00,3.175622224807739258e+00,3.093036651611328125e+00,3.014637470245361328e+00,2.940114498138427734e+00,2.869187116622924805e+00,2.801601171493530273e+00,2.737126111984252930e+00,2.675551891326904297e+00,2.616687059402465820e+00,2.560356378555297852e+00,2.506400108337402344e+00,2.454671144485473633e+00,2.405034065246582031e+00,2.357364892959594727e+00,2.311548471450805664e+00,2.267479181289672852e+00,2.225058555603027344e+00,2.184196233749389648e+00,2.144807577133178711e+00,2.106814384460449219e+00,2.070143699645996094e+00,2.034727811813354492e+00,2.000503540039062500e+00,1.967411398887634277e+00,1.935396194458007812e+00,1.904406070709228516e+00,1.874392986297607422e+00,1.845311284065246582e+00
5.000000000000000000e+00,5.000000000000000000e+00,5.000000000000000000e+00,5.000000000000000000e+00,5.000000000000000000e+00,5.000000000000000000e+00,5.000000000000000000e+00,5.000000000000000000e+00,5.000000000000000000e+00,5.000000000000000000e+00,5.000000000000000000e+00,5.000000000000000000e+00,5.000000000000000000e+00,5.000000000000000000e+00,5.000000000000000000e+00,5.000000000000000000e+00,5.000000000000000000e+00,5.000000000000000000e+00,5.000000000000000000e+00,5.000000000000000000e+00,5.000000000000000000e+00,5.000000000000000000e+00,5.000000000000000000e+00,5.000000000000000000e+00,5.000000000000000000e+00,5.000000000000000000e+00,5.000000000000000000e+00,5.000000000000000000e+00,5.000000000000000000e+00,5.000000000000000000e+00,5.000000000000000000e+00,5.000000000000000000e+00,5.000000000000000000e+00,5.000000000000000000e+00,5.000000000000000000e+00,5.000000000000000000e+00,5.000000000000000000e+00,5.000000000000000000e+00,5.000000000000000000e+00,4.864058017730712891e+00,4.672950267791748047e+00,4.496292114257812500e+00,4.332504272460937500e+00,4.180229663848876953e+00,4.038294792175292969e+00,3.905681848526000977e+00,3.781502008438110352e+00,3.664974927902221680e+00,3.555414676666259766e+00,3.452214956283569336e+00,3.354836940765380859e+00,3.262802124023437500e+00,3.175681829452514648e+00,3.093093156814575195e+00,3.014691114425659180e+00,2.940165758132934570e+00,2.869235754013061523e+00,2.801647424697875977e+00,2.737170219421386719e+00,2.675594091415405273e+00,2.616727590560913086e+00,2.560395240783691406e+00,2.506437540054321289e+00,2.454706668853759766e+00,2.405068159103393555e+00,2.357397794723510742e+00,2.311579942703247070e+00,2.267509460449218750e+00,2.225087642669677734e+00,2.184224367141723633e+00,2.144834756851196289e+00,2.106840610504150391e+00,2.070168972015380859e+00,2.034752368927001953e+00,2.000527143478393555e+00,1.967434167861938477e+00,1.935418248176574707e+00,1.904427528381347656e+00,1.874413728713989258e+00,1.845331311225891113e+00
4.875270366668701172e+00,4.874059200286865234e+00,4.872848510742187500e+00,4.871638774871826172e+00,4.870429515838623047e+00,4.869220733642578125e+00,4.868012905120849609e+00,4.866805076599121094e+00,4.865598678588867188e+00,4.864392280578613281e+00,4.863186836242675781e+00,4.861981868743896484e+00,4.860776901245117188e+00,4.859573364257812500e+00,4.858369827270507812e+00,4.857167243957519531e+00,4.855965137481689453e+00,4.854763507843017578e+00,4.853562831878662109e+00,4.852362632751464844e+00,4.851162910461425781e+00,4.849963665008544922e+00,4.848765373229980469e+00,4.847567558288574219e+00,4.846370220184326172e+00,4.845173358917236328e+00,4.843976974487304688e+00,4.842781543731689453e+00,4.841586589813232422e+00,4.840392589569091797e+00,4.839198589324951172e+00,4.838005065917968750e+00,4.836812496185302734e+00,4.835620880126953125e+00,4.834429264068603516e+00,4.833238601684570312e+00,4.832047939300537109e+00,4.830858230590820312e+00,4.829669475555419922e+00,4.828480720520019531e+00,4.673078536987304688e+00,4.496410846710205078e+00,4.332614421844482422e+00,4.180332183837890625e+00,4.038391113281250000e+00,3.905771970748901367e+00,3.781586408615112305e+00,3.665054082870483398e+00,3.555489540100097656e+00,3.452285289764404297e+00,3.354903697967529297e+00,3.262865066528320312e+00,3.175741434097290039e+00,3.093149662017822266e+00,3.014744758605957031e+00,2.940216779708862305e+00,2.869284391403198242e+00,2.801693916320800781e+00,2.737214565277099609e+00,2.675636291503906250e+00,2.616767883300781250e+00,2.560433864593505859e+00,2.506474494934082031e+00,2.454742193222045898e+00,2.405102491378784180e+00,2.357430458068847656e+00,2.311611652374267578e+00,2.267539739608764648e+00,2.225116968154907227e+00,2.184252500534057617e+00,2.144861698150634766e+00,2.106866836547851562e+00,2.070194244384765625e+00,2.034776926040649414e+00,2.000550746917724609e+00,1.967457056045532227e+00,1.935440421104431152e+00,1.904448986053466797e+00,1.874434471130371094e+00,1.845351457595825195e+00
3.778069257736206055e+00,3.777342081069946289e+00,3.776615142822265625e+00,3.775888442993164062e+00,3.775161504745483398e+00,3.774435281753540039e+00,3.773709297180175781e+00,3.772983789443969727e+00,3.772258520126342773e+00,3.771533489227294922e+00,3.770808696746826172e+00,3.770084142684936523e+00,3.769360065460205078e+00,3.768635988235473633e+00,3.767911911010742188e+00,3.767188549041748047e+00,3.766465425491333008e+00,3.765742778778076172e+00,3.765020132064819336e+00,3.764297723770141602e+00,3.763575792312622070e+00,3.762854099273681641e+00,3.762132644653320312e+00,3.761411666870117188e+00,3.760690212249755859e+00,3.759969711303710938e+00,3.759249448776245117e+00,3.758529186248779297e+00,3.757809400558471680e+00,3.757090091705322266e+00,3.756370782852172852e+00,3.755651712417602539e+00,3.754933118820190430e+00,3.754214286804199219e+00,3.753496170043945312e+00,3.752778291702270508e+00,3.752060651779174805e+00,3.751343488693237305e+00,3.750626325607299805e+00,3.749909639358520508e+00,3.749193191528320312e+00,3.748476982116699219e+00,3.747761011123657227e+00,3.747045040130615234e+00,3.746329545974731445e+00,3.745614528656005859e+00,3.744899511337280273e+00,3.665133476257324219e+00,3.555564165115356445e+00,3.452355623245239258e+00,3.354970216751098633e+00,3.262927770614624023e+00,3.175801277160644531e+00,3.093206167221069336e+00,3.014798402786254883e+00,2.940267801284790039e+00,2.869332790374755859e+00,2.801740407943725586e+00,2.737258672714233398e+00,2.675678730010986328e+00,2.616808414459228516e+00,2.560472726821899414e+00,2.506511688232421875e+00,2.454777956008911133e+00,2.405136585235595703e+00,2.357463359832763672e+00,2.311643123626708984e+00,2.267570018768310547e+00,2.225146293640136719e+00,2.184280633926391602e+00,2.144888877868652344e+00,2.106893062591552734e+00,2.070219516754150391e+00,2.034801244735717773e+00,2.000574350357055664e+00,1.967479825019836426e+00,1.935462474822998047e+00,1.904470562934875488e+00,1.874455213546752930e+00,1.845371484756469727e+00
3.084001541137695312e+00,3.083516836166381836e+00,3.083032131195068359e+00,3.082547664642333984e+00,3.082063674926757812e+00,3.081579685211181641e+00,3.081095695495605469e+00,3.080611944198608398e+00,3.080128431320190430e+00,3.079644918441772461e+00,3.079161882400512695e+00,3.078678607940673828e+00,3.078195333480834961e+00,3.077712535858154297e+00,3.077229976654052734e+00,3.076747417449951172e+00,3.076265096664428711e+00,3.075783014297485352e+00,3.075300931930541992e+00,3.074818849563598633e+00,3.074337244033813477e+00,3.073855400085449219e+00,3.073373794555664062e+00,3.072892665863037109e+00,3.072411537170410156e+00,3.071930408477783203e+00,3.071449518203735352e+00,3.070968866348266602e+00,3.070488452911376953e+00,3.070008039474487305e+00,3.069527626037597656e+00,3.069047451019287109e+00,3.068567514419555664e+00,3.068087577819824219e+00,3.067607879638671875e+00,3.067128419876098633e+00,3.066649198532104492e+00,3.066169977188110352e+00,3.065690994262695312e+00,3.065212249755859375e+00,3.064733028411865234e+00,3.064254522323608398e+00,3.063776016235351562e+00,3.063297748565673828e+00,3.062819719314575195e+00,3.062341690063476562e+00,3.061863899230957031e+00,3.061386108398437500e+00,3.060908555984497070e+00,3.060431241989135742e+00,3.059953689575195312e+00,3.059476613998413086e+00,3.058999538421630859e+00,3.058522701263427734e+00,3.014852285385131836e+00,2.940318822860717773e+00,2.869381427764892578e+00,2.801786661148071289e+00,2.737303018569946289e+00,2.675720930099487305e+00,2.616848707199096680e+00,2.560511350631713867e+00,2.506548643112182617e+00,2.454813480377197266e+00,2.405170679092407227e+00,2.357496023178100586e+00,2.311674594879150391e+00,2.267600536346435547e+00,2.225175619125366211e+00,2.184308767318725586e+00,2.144916296005249023e+00,2.106919288635253906e+00,2.070244789123535156e+00,2.034825801849365234e+00,2.000597953796386719e+00,1.967502713203430176e+00,1.935484647750854492e+00,1.904491901397705078e+00,1.874475955963134766e+00,1.845391631126403809e+00
2.605369567871093750e+00,2.605023622512817383e+00,2.604677915573120117e+00,2.604332208633422852e+00,2.603986501693725586e+00,2.603641033172607422e+00,2.603295564651489258e+00,2.602950334548950195e+00,2.602605104446411133e+00,2.602259635925292969e+00,2.601914644241333008e+00,2.601569652557373047e+00,2.601224899291992188e+00,2.600880146026611328e+00,2.600535392761230469e+00,2.600190877914428711e+00,2.599846363067626953e+00,2.599501848220825195e+00,2.599157571792602539e+00,2.598813056945800781e+00,2.598468780517578125e+00,2.598124742507934570e+00,2.597780942916870117e+00,2.597436904907226562e+00,2.597093343734741211e+00,2.596749544143676758e+00,2.596405982971191406e+00,2.596062421798706055e+00,2.595718860626220703e+00,2.595375537872314453e+00,2.595032215118408203e+00,2.594689130783081055e+00,2.594346046447753906e+00,2.594003200531005859e+00,2.593660354614257812e+00,2.593317508697509766e+00,2.592974662780761719e+00,2.592632293701171875e+00,2.592289447784423828e+00,2.591947078704833984e+00,2.591604709625244141e+00,2.591262578964233398e+00,2.590920448303222656e+00,2.590578317642211914e+00,2.590236425399780273e+00,2.589894533157348633e+00,2.589552640914916992e+00,2.589210987091064453e+00,2.588869094848632812e+00,2.588527679443359375e+00,2.588186264038085938e+00,2.587844848632812500e+00,2.587503671646118164e+00,2.587162494659423828e+00,2.586821556091308594e+00,2.586480379104614258e+00,2.586139678955078125e+00,2.585798501968383789e+00,2.585457801818847656e+00,2.585117340087890625e+00,2.584776878356933594e+00,2.560550212860107422e+00,2.506585836410522461e+00,2.454849243164062500e+00,2.405205011367797852e+00,2.357529163360595703e+00,2.311706304550170898e+00,2.267630815505981445e+00,2.225204706192016602e+00,2.184336900711059570e+00,2.144943475723266602e+00,2.106945514678955078e+00,2.070270299911499023e+00,2.034850120544433594e+00,2.000621557235717773e+00,1.967525601387023926e+00,1.935506701469421387e+00,1.904513359069824219e+00,1.874496698379516602e+00,1.845411777496337891e+00
2.255367279052734375e+00,2.255106925964355469e+00,2.254846811294555664e+00,2.254586935043334961e+00,2.254326820373535156e+00,2.254066705703735352e+00,2.253806829452514648e+00,2.253546953201293945e+00,2.253287076950073242e+00,2.253027439117431641e+00,2.252767801284790039e+00,2.252508163452148438e+00,2.252248525619506836e+00,2.251988887786865234e+00,2.251729488372802734e+00,2.251470088958740234e+00,2.251210927963256836e+00,2.250951528549194336e+00,2.250692367553710938e+00,2.250433206558227539e+00,2.250174045562744141e+00,2.249914884567260742e+00,2.249655961990356445e+00,2.249397516250610352e+00,2.249139547348022461e+00,2.248881816864013672e+00,2.248624086380004883e+00,2.248366355895996094e+00,2.248108863830566406e+00,2.247851133346557617e+00,2.247593879699707031e+00,2.247336387634277344e+00,2.247078895568847656e+00,2.246821641921997070e+00,2.246564388275146484e+00,2.246307373046875000e+00,2.246050119400024414e+00,2.245792865753173828e+00,2.245535850524902344e+00,2.245279073715209961e+00,2.245022058486938477e+00,2.244765281677246094e+00,2.244508504867553711e+00,2.244251728057861328e+00,2.243995189666748047e+00,2.243738412857055664e+00,2.243481874465942383e+00,2.243225336074829102e+00,2.242969036102294922e+00,2.242712736129760742e+00,2.242456436157226562e+00,2.242200136184692383e+00,2.241943836212158203e+00,2.241687774658203125e+00,2.241431713104248047e+00,2.241175651550292969e+00,2.240919589996337891e+00,2.240663766860961914e+00,2.240407943725585938e+00,2.240152120590209961e+00,2.239896535873413086e+00,2.239640712738037109e+00,2.239385128021240234e+00,2.239129543304443359e+00,2.238873958587646484e+00,2.238618612289428711e+00,2.238363265991210938e+00,2.238107919692993164e+00,2.225234031677246094e+00,2.184365272521972656e+00,2.144970417022705078e+00,2.106971502304077148e+00,2.070295572280883789e+00,2.034874677658081055e+00,2.000645399093627930e+00,1.967548370361328125e+00,1.935528874397277832e+00,1.904534816741943359e+00,1.874517440795898438e+00,1.845431804656982422e+00
1.988311052322387695e+00,1.988108873367309570e+00,1.987906575202941895e+00,1.987704515457153320e+00,1.987502217292785645e+00,1.987300276756286621e+00,1.987098097801208496e+00,1.986896157264709473e+00,1.986694216728210449e+00,1.986492156982421875e+00,1.986290454864501953e+00,1.986088395118713379e+00,1.985886693000793457e+00,1.985684871673583984e+00,1.985483169555664062e+00,1.985281586647033691e+00,1.985079884529113770e+00,1.984878420829772949e+00,1.984676718711853027e+00,1.984475255012512207e+00,1.984273672103881836e+00,1.984072327613830566e+00,1.983870983123779297e+00,1.983669519424438477e+00,1.983468294143676758e+00,1.983266830444335938e+00,1.983065724372863770e+00,1.982864379882812500e+00,1.982663393020629883e+00,1.982462406158447266e+00,1.982261180877685547e+00,1.982060194015502930e+00,1.981859087944030762e+00,1.981658220291137695e+00,1.981457233428955078e+00,1.981256484985351562e+00,1.981055736541748047e+00,1.980854868888854980e+00,1.980654120445251465e+00,1.980453372001647949e+00,1.980252742767333984e+00,1.980051994323730469e+00,1.979851484298706055e+00,1.979651093482971191e+00,1.979450464248657227e+00,1.979250073432922363e+00,1.979049563407897949e+00,1.978849291801452637e+00,1.978648781776428223e+00,1.978448510169982910e+00,1.978248357772827148e+00,1.978048086166381836e+00,1.977847933769226074e+00,1.977647662162780762e+00,1.977447748184204102e+00,1.977247476577758789e+00,1.977047562599182129e+00,1.976847648620605469e+00,1.976647615432739258e+00,1.976447820663452148e+00,1.976247906684875488e+00,1.976048111915588379e+00,1.975848197937011719e+00,1.975648641586303711e+00,1.975448966026306152e+00,1.975249171257019043e+00,1.975049734115600586e+00,1.974850058555603027e+00,1.974650621414184570e+00,1.974450945854187012e+00,1.974251627922058105e+00,1.974052309989929199e+00,1.973852753639221191e+00,1.973653554916381836e+00,1.973454117774963379e+00,1.967571258544921875e+00,1.935550928115844727e+00,1.904556155204772949e+00,1.874538302421569824e+00,1.845451951026916504e+00
1.777802824974060059e+00,1.777641177177429199e+00,1.777479410171508789e+00,1.777317881584167480e+00,1.777156114578247070e+00,1.776994705200195312e+00,1.776833176612854004e+00,1.776671528816223145e+00,1.776510119438171387e+00,1.776348590850830078e+00,1.776187181472778320e+00,1.776025652885437012e+00,1.775864362716674805e+00,1.775703191757202148e+00,1.775541663169860840e+00,1.775380492210388184e+00,1.775219202041625977e+00,1.775058031082153320e+00,1.774896621704101562e+00,1.774735569953918457e+00,1.774574518203735352e+00,1.774413347244262695e+00,1.774252295494079590e+00,1.774091124534606934e+00,1.773930191993713379e+00,1.773769140243530273e+00,1.773608207702636719e+00,1.773447394371032715e+00,1.773286342620849609e+00,1.773125529289245605e+00,1.772964596748352051e+00,1.772803783416748047e+00,1.772642970085144043e+00,1.772482275962829590e+00,1.772321581840515137e+00,1.772160768508911133e+00,1.772000193595886230e+00,1.771839380264282227e+00,1.771678805351257324e+00,1.771518230438232422e+00,1.771357655525207520e+00,1.771197199821472168e+00,1.771036624908447266e+00,1.770876169204711914e+00,1.770715713500976562e+00,1.770555377006530762e+00,1.770394802093505859e+00,1.770234584808349609e+00,1.770074367523193359e+00,1.769913911819458008e+00,1.769753694534301758e+00,1.769593358039855957e+00,1.769433259963989258e+00,1.769272923469543457e+00,1.769112825393676758e+00,1.768952846527099609e+00,1.768792629241943359e+00,1.768632650375366211e+00,1.768472552299499512e+00,1.768312573432922363e+00,1.768152475357055664e+00,1.767992615699768066e+00,1.767832756042480469e+00,1.767672777175903320e+00,1.767513036727905273e+00,1.767353057861328125e+00,1.767193317413330078e+00,1.767033457756042480e+00,1.766873717308044434e+00,1.766714096069335938e+00,1.766554355621337891e+00,1.766394734382629395e+00,1.766234993934631348e+00,1.766075491905212402e+00,1.765915751457214355e+00,1.765756368637084961e+00,1.765596866607666016e+00,1.765437364578247070e+00,1.765277981758117676e+00,1.765118479728698730e+00
1.607601404190063477e+00,1.607469320297241211e+00,1.607336997985839844e+00,1.607204914093017578e+00,1.607072830200195312e+00,1.606940507888793945e+00,1.606808543205261230e+00,1.606676340103149414e+00,1.606544375419616699e+00,1.606412172317504883e+00,1.606280207633972168e+00,1.606148242950439453e+00,1.606016159057617188e+00,1.605884313583374023e+00,1.605752348899841309e+00,1.605620384216308594e+00,1.605488419532775879e+00,1.605356693267822266e+00,1.605224847793579102e+00,1.605092883110046387e+00,1.604961156845092773e+00,1.604829311370849609e+00,1.604697585105895996e+00,1.604565739631652832e+00,1.604434132575988770e+00,1.604302525520324707e+00,1.604170680046081543e+00,1.604039072990417480e+00,1.603907346725463867e+00,1.603775858879089355e+00,1.603644132614135742e+00,1.603512644767761230e+00,1.603381156921386719e+00,1.603249549865722656e+00,1.603118062019348145e+00,1.602986574172973633e+00,1.602855205535888672e+00,1.602723598480224609e+00,1.602592229843139648e+00,1.602460980415344238e+00,1.602329492568969727e+00,1.602198123931884766e+00,1.602066755294799805e+00,1.601935505867004395e+00,1.601804137229919434e+00,1.601672887802124023e+00,1.601541757583618164e+00,1.601410388946533203e+00,1.601279258728027344e+00,1.601148009300231934e+00,1.601016879081726074e+00,1.600885629653930664e+00,1.600754618644714355e+00,1.600623607635498047e+00,1.600492477416992188e+00,1.600361466407775879e+00,1.600230336189270020e+00,1.600099444389343262e+00,1.599968314170837402e+00,1.599837303161621094e+00,1.599706530570983887e+00,1.599575519561767578e+00,1.599444627761840820e+00,1.599313616752624512e+00,1.599182844161987305e+00,1.599051952362060547e+00,1.598921179771423340e+00,1.598790407180786133e+00,1.598659634590148926e+00,1.598528861999511719e+00,1.598398089408874512e+00,1.598267436027526855e+00,1.598136663436889648e+00,1.598006010055541992e+00,1.597875475883483887e+00,1.597744703292846680e+00,1.597614169120788574e+00,1.597483515739440918e+00,1.597353100776672363e+00,1.597222447395324707e+00
1.467141747474670410e+00,1.467031717300415039e+00,1.466921448707580566e+00,1.466811418533325195e+00,1.466701388359069824e+00,1.466591238975524902e+00,1.466481328010559082e+00,1.466371178627014160e+00,1.466261267662048340e+00,1.466151237487792969e+00,1.466041207313537598e+00,1.465931296348571777e+00,1.465821266174316406e+00,1.465711474418640137e+00,1.465601444244384766e+00,1.465491652488708496e+00,1.465381741523742676e+00,1.465271830558776855e+00,1.465162038803100586e+00,1.465052127838134766e+00,1.464942336082458496e+00,1.464832544326782227e+00,1.464722752571105957e+00,1.464613080024719238e+00,1.464503288269042969e+00,1.464393615722656250e+00,1.464283823966979980e+00,1.464174151420593262e+00,1.464064359664916992e+00,1.463954806327819824e+00,1.463845133781433105e+00,1.463735461235046387e+00,1.463625907897949219e+00,1.463516235351562500e+00,1.463406682014465332e+00,1.463297009468078613e+00,1.463187575340270996e+00,1.463078141212463379e+00,1.462968468666076660e+00,1.462859034538269043e+00,1.462749481201171875e+00,1.462640047073364258e+00,1.462530612945556641e+00,1.462421178817749023e+00,1.462311863899230957e+00,1.462202310562133789e+00,1.462092995643615723e+00,1.461983561515808105e+00,1.461874246597290039e+00,1.461764812469482422e+00,1.461655616760253906e+00,1.461546301841735840e+00,1.461436986923217773e+00,1.461327791213989258e+00,1.461218476295471191e+00,1.461109280586242676e+00,1.460999965667724609e+00,1.460890769958496094e+00,1.460781693458557129e+00,1.460672378540039062e+00,1.460563302040100098e+00,1.460454106330871582e+00,1.460345029830932617e+00,1.460235834121704102e+00,1.460126757621765137e+00,1.460017800331115723e+00,1.459908604621887207e+00,1.459799647331237793e+00,1.459690570831298828e+00,1.459581613540649414e+00,1.459472537040710449e+00,1.459363579750061035e+00,1.459254741668701172e+00,1.459145665168762207e+00,1.459036827087402344e+00,1.458927869796752930e+00,1.458819031715393066e+00,1.458710074424743652e+00,1.458601236343383789e+00,1.458492398262023926e+00
1.349254369735717773e+00,1.349161267280578613e+00,1.349068164825439453e+00,1.348975062370300293e+00,1.348881959915161133e+00,1.348788857460021973e+00,1.348695755004882812e+00,1.348602652549743652e+00,1.348509669303894043e+00,1.348416686058044434e+00,1.348323583602905273e+00,1.348230600357055664e+00,1.348137497901916504e+00,1.348044633865356445e+00,1.347951531410217285e+00,1.347858667373657227e+00,1.347765803337097168e+00,1.347672820091247559e+00,1.347579836845397949e+00,1.347486972808837891e+00,1.347394108772277832e+00,1.347301125526428223e+00,1.347208380699157715e+00,1.347115516662597656e+00,1.347022652626037598e+00,1.346929788589477539e+00,1.346836924552917480e+00,1.346744179725646973e+00,1.346651434898376465e+00,1.346558570861816406e+00,1.346465826034545898e+00,1.346373081207275391e+00,1.346280336380004883e+00,1.346187591552734375e+00,1.346094846725463867e+00,1.346002221107482910e+00,1.345909476280212402e+00,1.345816850662231445e+00,1.345724105834960938e+00,1.345631480216979980e+00,1.345538854598999023e+00,1.345446228981018066e+00,1.345353603363037109e+00,1.345260977745056152e+00,1.345168471336364746e+00,1.345075845718383789e+00,1.344983339309692383e+00,1.344890713691711426e+00,1.344798207283020020e+00,1.344705700874328613e+00,1.344613075256347656e+00,1.344520688056945801e+00,1.344428062438964844e+00,1.344335675239562988e+00,1.344243168830871582e+00,1.344150781631469727e+00,1.344058394432067871e+00,1.343965888023376465e+00,1.343873500823974609e+00,1.343780994415283203e+00,1.343688726425170898e+00,1.343596220016479492e+00,1.343503952026367188e+00,1.343411684036254883e+00,1.343319177627563477e+00,1.343226909637451172e+00,1.343134522438049316e+00,1.343042373657226562e+00,1.342949986457824707e+00,1.342857718467712402e+00,1.342765569686889648e+00,1.342673182487487793e+00,1.342581033706665039e+00,1.342488765716552734e+00,1.342396616935729980e+00,1.342304348945617676e+00,1.342212200164794922e+00,1.342120051383972168e+00,1.342027783393859863e+00,1.341935753822326660e+00
1.248903036117553711e+00,1.248823165893554688e+00,1.248743414878845215e+00,1.248663544654846191e+00,1.248583793640136719e+00,1.248504042625427246e+00,1.248424291610717773e+00,1.248344659805297852e+00,1.248264789581298828e+00,1.248185157775878906e+00,1.248105406761169434e+00,1.248025774955749512e+00,1.247946023941040039e+00,1.247866392135620117e+00,1.247786760330200195e+00,1.247707009315490723e+00,1.247627377510070801e+00,1.247547745704650879e+00,1.247468113899230957e+00,1.247388482093811035e+00,1.247308850288391113e+00,1.247229337692260742e+00,1.247149705886840820e+00,1.247070074081420898e+00,1.246990561485290527e+00,1.246910929679870605e+00,1.246831417083740234e+00,1.246751904487609863e+00,1.246672391891479492e+00,1.246592879295349121e+00,1.246513366699218750e+00,1.246433854103088379e+00,1.246354341506958008e+00,1.246274828910827637e+00,1.246195435523986816e+00,1.246116042137145996e+00,1.246036529541015625e+00,1.245957136154174805e+00,1.245877623558044434e+00,1.245798230171203613e+00,1.245718836784362793e+00,1.245639443397521973e+00,1.245560050010681152e+00,1.245480656623840332e+00,1.245401263236999512e+00,1.245321869850158691e+00,1.245242595672607422e+00,1.245163321495056152e+00,1.245083928108215332e+00,1.245004653930664062e+00,1.244925260543823242e+00,1.244846105575561523e+00,1.244766712188720703e+00,1.244687438011169434e+00,1.244608283042907715e+00,1.244528889656066895e+00,1.244449734687805176e+00,1.244370460510253906e+00,1.244291305541992188e+00,1.244212031364440918e+00,1.244132876396179199e+00,1.244053721427917480e+00,1.243974447250366211e+00,1.243895292282104492e+00,1.243816137313842773e+00,1.243736982345581055e+00,1.243657827377319336e+00,1.243578672409057617e+00,1.243499636650085449e+00,1.243420481681823730e+00,1.243341445922851562e+00,1.243262290954589844e+00,1.243183255195617676e+00,1.243104100227355957e+00,1.243025064468383789e+00,1.242946028709411621e+00,1.242866992950439453e+00,1.242787957191467285e+00,1.242708921432495117e+00,1.242629885673522949e+00
1.162445545196533203e+00,1.162376403808593750e+00,1.162307262420654297e+00,1.162238121032714844e+00,1.162169098854064941e+00,1.162099957466125488e+00,1.162030816078186035e+00,1.161961793899536133e+00,1.161892652511596680e+00,1.161823630332946777e+00,1.161754488945007324e+00,1.161685466766357422e+00,1.161616444587707520e+00,1.161547422409057617e+00,1.161478400230407715e+00,1.161409378051757812e+00,1.161340355873107910e+00,1.161271333694458008e+00,1.161202311515808105e+00,1.161133408546447754e+00,1.161064386367797852e+00,1.160995483398437500e+00,1.160926461219787598e+00,1.160857439041137695e+00,1.160788536071777344e+00,1.160719633102416992e+00,1.160650730133056641e+00,1.160581707954406738e+00,1.160512804985046387e+00,1.160443902015686035e+00,1.160374999046325684e+00,1.160306096076965332e+00,1.160237193107604980e+00,1.160168409347534180e+00,1.160099506378173828e+00,1.160030722618103027e+00,1.159961819648742676e+00,1.159892916679382324e+00,1.159824132919311523e+00,1.159755229949951172e+00,1.159686446189880371e+00,1.159617662429809570e+00,1.159548878669738770e+00,1.159480094909667969e+00,1.159411311149597168e+00,1.159342527389526367e+00,1.159273743629455566e+00,1.159204959869384766e+00,1.159136176109313965e+00,1.159067511558532715e+00,1.158998727798461914e+00,1.158930063247680664e+00,1.158861279487609863e+00,1.158792614936828613e+00,1.158723950386047363e+00,1.158655166625976562e+00,1.158586502075195312e+00,1.158517837524414062e+00,1.158449172973632812e+00,1.158380508422851562e+00,1.158311843872070312e+00,1.158243298530578613e+00,1.158174514770507812e+00,1.158105969429016113e+00,1.158037304878234863e+00,1.157968759536743164e+00,1.157900214195251465e+00,1.157831549644470215e+00,1.157763004302978516e+00,1.157694339752197266e+00,1.157625794410705566e+00,1.157557249069213867e+00,1.157488703727722168e+00,1.157420158386230469e+00,1.157351613044738770e+00,1.157283067703247070e+00,1.157214522361755371e+00,1.157145977020263672e+00,1.157077431678771973e+00,1.157009005546569824e+00
1.087183356285095215e+00,1.087122917175292969e+00,1.087062478065490723e+00,1.087002038955688477e+00,1.086941480636596680e+00,1.086881041526794434e+00,1.086820602416992188e+00,1.086760163307189941e+00,1.086699724197387695e+00,1.086639404296875000e+00,1.086578965187072754e+00,1.086518526077270508e+00,1.086458206176757812e+00,1.086397767066955566e+00,1.086337327957153320e+00,1.086276888847351074e+00,1.086216568946838379e+00,1.086156249046325684e+00,1.086095929145812988e+00,1.086035490036010742e+00,1.085975170135498047e+00,1.085914850234985352e+00,1.085854530334472656e+00,1.085794210433959961e+00,1.085733890533447266e+00,1.085673570632934570e+00,1.085613250732421875e+00,1.085552930831909180e+00,1.085492730140686035e+00,1.085432291030883789e+00,1.085372090339660645e+00,1.085311889648437500e+00,1.085251569747924805e+00,1.085191369056701660e+00,1.085131049156188965e+00,1.085070848464965820e+00,1.085010528564453125e+00,1.084950327873229980e+00,1.084890127182006836e+00,1.084829926490783691e+00,1.084769725799560547e+00,1.084709405899047852e+00,1.084649324417114258e+00,1.084589004516601562e+00,1.084528923034667969e+00,1.084468722343444824e+00,1.084408521652221680e+00,1.084348440170288086e+00,1.084288239479064941e+00,1.084228038787841797e+00,1.084167957305908203e+00,1.084107756614685059e+00,1.084047675132751465e+00,1.083987474441528320e+00,1.083927392959594727e+00,1.083867311477661133e+00,1.083807229995727539e+00,1.083747029304504395e+00,1.083687067031860352e+00,1.083626985549926758e+00,1.083566784858703613e+00,1.083506822586059570e+00,1.083446741104125977e+00,1.083386659622192383e+00,1.083326578140258789e+00,1.083266615867614746e+00,1.083206534385681152e+00,1.083146452903747559e+00,1.083086490631103516e+00,1.083026409149169922e+00,1.082966446876525879e+00,1.082906365394592285e+00,1.082846403121948242e+00,1.082786440849304199e+00,1.082726478576660156e+00,1.082666516304016113e+00,1.082606434822082520e+00,1.082546591758728027e+00,1.082486629486083984e+00,1.082426667213439941e+00
1.021074295043945312e+00,1.021020889282226562e+00,1.020967602729797363e+00,1.020914316177368164e+00,1.020860910415649414e+00,1.020807623863220215e+00,1.020754218101501465e+00,1.020700931549072266e+00,1.020647644996643066e+00,1.020594358444213867e+00,1.020541071891784668e+00,1.020487785339355469e+00,1.020434498786926270e+00,1.020381212234497070e+00,1.020327925682067871e+00,1.020274758338928223e+00,1.020221471786499023e+00,1.020168185234069824e+00,1.020114898681640625e+00,1.020061731338500977e+00,1.020008444786071777e+00,1.019955277442932129e+00,1.019901990890502930e+00,1.019848823547363281e+00,1.019795536994934082e+00,1.019742369651794434e+00,1.019689202308654785e+00,1.019635915756225586e+00,1.019582748413085938e+00,1.019529581069946289e+00,1.019476413726806641e+00,1.019423246383666992e+00,1.019370079040527344e+00,1.019316911697387695e+00,1.019263744354248047e+00,1.019210577011108398e+00,1.019157409667968750e+00,1.019104242324829102e+00,1.019051194190979004e+00,1.018998026847839355e+00,1.018944859504699707e+00,1.018891811370849609e+00,1.018838644027709961e+00,1.018785595893859863e+00,1.018732428550720215e+00,1.018679380416870117e+00,1.018626213073730469e+00,1.018573164939880371e+00,1.018520116806030273e+00,1.018467068672180176e+00,1.018414020538330078e+00,1.018360853195190430e+00,1.018307805061340332e+00,1.018254756927490234e+00,1.018201708793640137e+00,1.018148660659790039e+00,1.018095612525939941e+00,1.018042683601379395e+00,1.017989516258239746e+00,1.017936587333679199e+00,1.017883539199829102e+00,1.017830491065979004e+00,1.017777442932128906e+00,1.017724514007568359e+00,1.017671585083007812e+00,1.017618536949157715e+00,1.017565608024597168e+00,1.017512559890747070e+00,1.017459630966186523e+00,1.017406582832336426e+00,1.017353653907775879e+00,1.017300724983215332e+00,1.017247796058654785e+00,1.017194867134094238e+00,1.017141938209533691e+00,1.017089009284973145e+00,1.017036080360412598e+00,1.016983151435852051e+00,1.016930222511291504e+00,1.016877293586730957e+00
9.625442028045654297e-01,9.624968171119689941e-01,9.624494314193725586e-01,9.624020457267761230e-01,9.623545408248901367e-01,9.623072147369384766e-01,9.622598290443420410e-01,9.622125029563903809e-01,9.621651768684387207e-01,9.621177315711975098e-01,9.620703458786010742e-01,9.620230197906494141e-01,9.619756937026977539e-01,9.619283676147460938e-01,9.618809819221496582e-01,9.618336558341979980e-01,9.617863297462463379e-01,9.617390036582946777e-01,9.616916179656982422e-01,9.616443514823913574e-01,9.615970253944396973e-01,9.615497589111328125e-01,9.615024924278259277e-01,9.614551067352294922e-01,9.614078402519226074e-01,9.613605737686157227e-01,9.613133072853088379e-01,9.612660408020019531e-01,9.612186551094055176e-01,9.611713886260986328e-01,9.611241817474365234e-01,9.610769152641296387e-01,9.610295891761779785e-01,9.609823822975158691e-01,9.609351158142089844e-01,9.608879089355468750e-01,9.608407020568847656e-01,9.607933759689331055e-01,9.607461690902709961e-01,9.606989622116088867e-01,9.606517553329467773e-01,9.606045484542846680e-01,9.605572819709777832e-01,9.605100750923156738e-01,9.604629278182983398e-01,9.604157209396362305e-01,9.603684544563293457e-01,9.603213071823120117e-01,9.602741599082946777e-01,9.602269530296325684e-01,9.601798057556152344e-01,9.601325988769531250e-01,9.600854516029357910e-01,9.600383043289184570e-01,9.599911570549011230e-01,9.599440097808837891e-01,9.598968029022216797e-01,9.598496556282043457e-01,9.598025679588317871e-01,9.597554802894592285e-01,9.597082138061523438e-01,9.596611261367797852e-01,9.596140384674072266e-01,9.595669507980346680e-01,9.595198631286621094e-01,9.594726562500000000e-01,9.594255685806274414e-01,9.593785405158996582e-01,9.593314528465270996e-01,9.592843651771545410e-01,9.592372179031372070e-01,9.591901898384094238e-01,9.591431021690368652e-01,9.590960741043090820e-01,9.590489268302917480e-01,9.590018987655639648e-01,9.589548707008361816e-01,9.589078426361083984e-01,9.588608145713806152e-01,9.588136672973632812e-01
9.103603959083557129e-01,9.103180170059204102e-01,9.102756381034851074e-01,9.102332592010498047e-01,9.101909399032592773e-01,9.101484417915344238e-01,9.101060628890991211e-01,9.100637435913085938e-01,9.100213646888732910e-01,9.099789261817932129e-01,9.099366068840026855e-01,9.098942279815673828e-01,9.098519086837768555e-01,9.098095893859863281e-01,9.097671508789062500e-01,9.097248315811157227e-01,9.096825122833251953e-01,9.096401929855346680e-01,9.095978736877441406e-01,9.095554351806640625e-01,9.095131158828735352e-01,9.094708561897277832e-01,9.094285368919372559e-01,9.093861579895019531e-01,9.093438386917114258e-01,9.093015789985656738e-01,9.092593193054199219e-01,9.092170000076293945e-01,9.091746211051940918e-01,9.091323614120483398e-01,9.090901017189025879e-01,9.090478420257568359e-01,9.090055823326110840e-01,9.089632034301757812e-01,9.089209437370300293e-01,9.088787436485290527e-01,9.088364839553833008e-01,9.087941646575927734e-01,9.087519049644470215e-01,9.087097048759460449e-01,9.086674451828002930e-01,9.086252450942993164e-01,9.085829257965087891e-01,9.085407257080078125e-01,9.084984660148620605e-01,9.084562659263610840e-01,9.084140658378601074e-01,9.083717465400695801e-01,9.083296060562133789e-01,9.082874059677124023e-01,9.082452058792114258e-01,9.082029461860656738e-01,9.081607460975646973e-01,9.081185460090637207e-01,9.080764055252075195e-01,9.080342054367065430e-01,9.079919457435607910e-01,9.079498052597045898e-01,9.079076647758483887e-01,9.078654646873474121e-01,9.078233242034912109e-01,9.077810645103454590e-01,9.077389240264892578e-01,9.076967835426330566e-01,9.076547026634216309e-01,9.076124429702758789e-01,9.075703024864196777e-01,9.075282216072082520e-01,9.074860811233520508e-01,9.074440002441406250e-01,9.074017405509948730e-01,9.073596596717834473e-01,9.073175787925720215e-01,9.072754383087158203e-01,9.072333574295043945e-01,9.071911573410034180e-01,9.071490764617919922e-01,9.071069955825805664e-01,9.070649147033691406e-01,9.070227742195129395e-01
8.635439276695251465e-01,8.635057806968688965e-01,8.634676337242126465e-01,8.634294867515563965e-01,8.633913993835449219e-01,8.633531928062438965e-01,8.633150458335876465e-01,8.632769584655761719e-01,8.632388114929199219e-01,8.632007241249084473e-01,8.631625175476074219e-01,8.631244301795959473e-01,8.630863428115844727e-01,8.630482554435729980e-01,8.630100488662719727e-01,8.629719614982604980e-01,8.629338741302490234e-01,8.628957867622375488e-01,8.628577589988708496e-01,8.628195524215698242e-01,8.627815246582031250e-01,8.627434372901916504e-01,8.627053499221801758e-01,8.626673221588134766e-01,8.626291751861572266e-01,8.625910878181457520e-01,8.625530600547790527e-01,8.625150322914123535e-01,8.624768853187561035e-01,8.624388575553894043e-01,8.624008297920227051e-01,8.623627424240112305e-01,8.623247146606445312e-01,8.622866272926330566e-01,8.622485995292663574e-01,8.622105717658996582e-01,8.621725440025329590e-01,8.621345162391662598e-01,8.620964288711547852e-01,8.620584607124328613e-01,8.620204329490661621e-01,8.619824647903442383e-01,8.619443774223327637e-01,8.619063496589660645e-01,8.618683815002441406e-01,8.618304133415222168e-01,8.617923855781555176e-01,8.617543578147888184e-01,8.617163300514221191e-01,8.616783618927001953e-01,8.616403937339782715e-01,8.616024255752563477e-01,8.615643978118896484e-01,8.615264296531677246e-01,8.614884614944458008e-01,8.614505529403686523e-01,8.614124655723571777e-01,8.613745570182800293e-01,8.613365888595581055e-01,8.612986803054809570e-01,8.612607121467590332e-01,8.612226843833923340e-01,8.611847758293151855e-01,8.611468672752380371e-01,8.611088991165161133e-01,8.610709905624389648e-01,8.610330224037170410e-01,8.609950542449951172e-01,8.609571456909179688e-01,8.609192371368408203e-01,8.608812689781188965e-01,8.608433604240417480e-01,8.608054518699645996e-01,8.607676029205322266e-01,8.607296943664550781e-01,8.606917262077331543e-01,8.606538176536560059e-01,8.606159687042236328e-01,8.605780601501464844e-01,8.605402112007141113e-01
8.213070631027221680e-01,8.212726116180419922e-01,8.212381005287170410e-01,8.212035894393920898e-01,8.211691379547119141e-01,8.211345672607421875e-01,8.211000561714172363e-01,8.210656046867370605e-01,8.210310935974121094e-01,8.209966421127319336e-01,8.209621310234069824e-01,8.209276199340820312e-01,8.208931684494018555e-01,8.208587169647216797e-01,8.208242058753967285e-01,8.207896947860717773e-01,8.207552433013916016e-01,8.207208514213562012e-01,8.206863999366760254e-01,8.206518292427062988e-01,8.206174373626708984e-01,8.205829858779907227e-01,8.205485343933105469e-01,8.205141425132751465e-01,8.204796314239501953e-01,8.204451799392700195e-01,8.204107880592346191e-01,8.203763365745544434e-01,8.203419446945190430e-01,8.203074336051940918e-01,8.202730417251586914e-01,8.202385902404785156e-01,8.202041983604431152e-01,8.201697468757629395e-01,8.201352953910827637e-01,8.201009035110473633e-01,8.200665116310119629e-01,8.200321197509765625e-01,8.199976682662963867e-01,8.199632763862609863e-01,8.199288845062255859e-01,8.198945522308349609e-01,8.198601603507995605e-01,8.198257088661193848e-01,8.197913169860839844e-01,8.197569847106933594e-01,8.197225928306579590e-01,8.196881413459777832e-01,8.196538090705871582e-01,8.196194171905517578e-01,8.195850849151611328e-01,8.195507526397705078e-01,8.195163011550903320e-01,8.194819688796997070e-01,8.194476366043090820e-01,8.194132447242736816e-01,8.193789124488830566e-01,8.193445205688476562e-01,8.193101882934570312e-01,8.192758560180664062e-01,8.192415237426757812e-01,8.192071318626403809e-01,8.191727995872497559e-01,8.191385269165039062e-01,8.191041946411132812e-01,8.190698623657226562e-01,8.190354704856872559e-01,8.190011978149414062e-01,8.189668655395507812e-01,8.189325928688049316e-01,8.188982605934143066e-01,8.188639283180236816e-01,8.188295960426330566e-01,8.187953233718872070e-01,8.187610507011413574e-01,8.187266588211059570e-01,8.186923861503601074e-01,8.186581134796142578e-01,8.186238408088684082e-01,8.185895681381225586e-01
7.830094099044799805e-01,7.829779386520385742e-01,7.829465866088867188e-01,7.829152345657348633e-01,7.828838825225830078e-01,7.828524708747863770e-01,7.828211784362792969e-01,7.827898263931274414e-01,7.827584743499755859e-01,7.827271223068237305e-01,7.826957106590270996e-01,7.826644182205200195e-01,7.826330661773681641e-01,7.826017737388610840e-01,7.825704216957092285e-01,7.825390696525573730e-01,7.825077176094055176e-01,7.824764251708984375e-01,7.824451327323913574e-01,7.824137210845947266e-01,7.823824286460876465e-01,7.823511362075805664e-01,7.823197841644287109e-01,7.822884917259216309e-01,7.822571396827697754e-01,7.822258472442626953e-01,7.821945548057556152e-01,7.821632623672485352e-01,7.821319699287414551e-01,7.821006178855895996e-01,7.820693254470825195e-01,7.820380926132202148e-01,7.820068001747131348e-01,7.819754481315612793e-01,7.819441556930541992e-01,7.819129228591918945e-01,7.818816304206848145e-01,7.818503975868225098e-01,7.818190455436706543e-01,7.817878127098083496e-01,7.817565202713012695e-01,7.817252874374389648e-01,7.816940546035766602e-01,7.816627025604248047e-01,7.816314697265625000e-01,7.816002368927001953e-01,7.815690040588378906e-01,7.815377116203308105e-01,7.815064191818237305e-01,7.814751863479614258e-01,7.814439535140991211e-01,7.814127206802368164e-01,7.813814282417297363e-01,7.813501954078674316e-01,7.813189625740051270e-01,7.812877893447875977e-01,7.812565565109252930e-01,7.812252640724182129e-01,7.811940312385559082e-01,7.811628580093383789e-01,7.811316251754760742e-01,7.811004519462585449e-01,7.810691595077514648e-01,7.810379862785339355e-01,7.810067534446716309e-01,7.809755802154541016e-01,7.809442877769470215e-01,7.809131145477294922e-01,7.808819413185119629e-01,7.808507680892944336e-01,7.808195948600769043e-01,7.807883024215698242e-01,7.807571291923522949e-01,7.807259559631347656e-01,7.806947827339172363e-01,7.806636095046997070e-01,7.806323766708374023e-01,7.806012630462646484e-01,7.805700898170471191e-01,7.805389165878295898e-01
7.481241226196289062e-01,7.480954527854919434e-01,7.480668425559997559e-01,7.480382323265075684e-01,7.480095624923706055e-01,7.479809522628784180e-01,7.479522824287414551e-01,7.479236721992492676e-01,7.478950619697570801e-01,7.478664517402648926e-01,7.478377819061279297e-01,7.478092312812805176e-01,7.477806210517883301e-01,7.477520108222961426e-01,7.477234005928039551e-01,7.476947903633117676e-01,7.476661801338195801e-01,7.476375699043273926e-01,7.476090192794799805e-01,7.475804090499877930e-01,7.475517988204956055e-01,7.475231885910034180e-01,7.474946379661560059e-01,7.474660277366638184e-01,7.474374175071716309e-01,7.474088668823242188e-01,7.473802566528320312e-01,7.473517060279846191e-01,7.473231554031372070e-01,7.472944855690002441e-01,7.472659349441528320e-01,7.472373843193054199e-01,7.472088336944580078e-01,7.471802830696105957e-01,7.471516728401184082e-01,7.471231222152709961e-01,7.470945715904235840e-01,7.470660209655761719e-01,7.470374107360839844e-01,7.470089197158813477e-01,7.469803690910339355e-01,7.469518184661865234e-01,7.469232678413391113e-01,7.468947172164916992e-01,7.468661665916442871e-01,7.468376159667968750e-01,7.468091249465942383e-01,7.467805743217468262e-01,7.467520236968994141e-01,7.467234730720520020e-01,7.466949820518493652e-01,7.466664314270019531e-01,7.466378808021545410e-01,7.466093897819519043e-01,7.465808391571044922e-01,7.465523481369018555e-01,7.465238571166992188e-01,7.464953064918518066e-01,7.464668154716491699e-01,7.464383244514465332e-01,7.464098334312438965e-01,7.463813424110412598e-01,7.463527917861938477e-01,7.463243007659912109e-01,7.462958097457885742e-01,7.462673187255859375e-01,7.462388277053833008e-01,7.462102770805358887e-01,7.461817860603332520e-01,7.461533546447753906e-01,7.461248636245727539e-01,7.460963129997253418e-01,7.460678815841674805e-01,7.460393905639648438e-01,7.460109591484069824e-01,7.459824681282043457e-01,7.459539175033569336e-01,7.459254860877990723e-01,7.458970546722412109e-01,7.458685636520385742e-01
7.162147760391235352e-01,7.161884903907775879e-01,7.161622047424316406e-01,7.161359786987304688e-01,7.161097526550292969e-01,7.160835266113281250e-01,7.160572409629821777e-01,7.160310745239257812e-01,7.160048484802246094e-01,7.159786224365234375e-01,7.159523963928222656e-01,7.159261107444763184e-01,7.158998847007751465e-01,7.158737182617187500e-01,7.158474922180175781e-01,7.158212065696716309e-01,7.157950401306152344e-01,7.157688140869140625e-01,7.157426476478576660e-01,7.157164216041564941e-01,7.156901955604553223e-01,7.156639695167541504e-01,7.156378030776977539e-01,7.156115770339965820e-01,7.155854105949401855e-01,7.155591845512390137e-01,7.155329585075378418e-01,7.155067920684814453e-01,7.154806256294250488e-01,7.154543995857238770e-01,7.154281735420227051e-01,7.154020071029663086e-01,7.153758406639099121e-01,7.153496742248535156e-01,7.153234481811523438e-01,7.152972817420959473e-01,7.152711153030395508e-01,7.152449488639831543e-01,7.152187824249267578e-01,7.151925563812255859e-01,7.151663899421691895e-01,7.151402831077575684e-01,7.151141166687011719e-01,7.150878906250000000e-01,7.150617241859436035e-01,7.150356173515319824e-01,7.150094509124755859e-01,7.149832844734191895e-01,7.149571180343627930e-01,7.149309515953063965e-01,7.149048447608947754e-01,7.148786783218383789e-01,7.148525714874267578e-01,7.148263454437255859e-01,7.148002386093139648e-01,7.147741317749023438e-01,7.147479653358459473e-01,7.147217988967895508e-01,7.146956920623779297e-01,7.146695256233215332e-01,7.146434187889099121e-01,7.146173119544982910e-01,7.145911455154418945e-01,7.145650386810302734e-01,7.145389318466186523e-01,7.145128250122070312e-01,7.144867181777954102e-01,7.144605517387390137e-01,7.144344449043273926e-01,7.144083380699157715e-01,7.143822312355041504e-01,7.143560647964477539e-01,7.143299579620361328e-01,7.143038511276245117e-01,7.142777442932128906e-01,7.142516970634460449e-01,7.142255306243896484e-01,7.141994237899780273e-01,7.141733765602111816e-01,7.141472697257995605e-01
