5.000000000000000000e+00,5.000000000000000000e+00,5.000000000000000000e+00,5.000000000000000000e+00,5.000000000000000000e+00,5.000000000000000000e+00,5.000000000000000000e+00,5.000000000000000000e+00,5.000000000000000000e+00,5.000000000000000000e+00,5.000000000000000000e+00,5.000000000000000000e+00,5.000000000000000000e+00,5.000000000000000000e+00,5.000000000000000000e+00,5.000000000000000000e+00,1.871288776397705078e+00,1.870858907699584961e+00,1.892096996307373047e+00,1.851440429687500000e+00,1.840493798255920410e+00,1.839564442634582520e+00,1.848631858825683594e+00,1.869789838790893555e+00,1.895715951919555664e+00,1.926151394844055176e+00,1.977574348449707031e+00,2.090677976608276367e+00,2.088899850845336914e+00,2.138693332672119141e+00,5.000000000000000000e+00,5.000000000000000000e+00,5.000000000000000000e+00,5.000000000000000000e+00,5.000000000000000000e+00,5.000000000000000000e+00,5.000000000000000000e+00,5.000000000000000000e+00,5.000000000000000000e+00,4.853909492492675781e+00,4.663624763488769531e+00,4.487696170806884766e+00,4.324558734893798828e+00,4.172865867614746094e+00,4.031453609466552734e+00,3.899312734603881836e+00,3.775558948516845703e+00,3.659419059753417969e+00,3.550210714340209961e+00,3.447331905364990234e+00,3.350247621536254883e+00,3.258481502532958984e+00,3.171608924865722656e+00,3.089247941970825195e+00,3.011056423187255859e+00,2.936725139617919922e+00,2.865975379943847656e+00,2.798554420471191406e+00,2.734232664108276367e+00,2.672801017761230469e+00,2.614069461822509766e+00,2.557863235473632812e+00,2.504023313522338867e+00,2.452403068542480469e+00,2.402868270874023438e+00,2.355294942855834961e+00,2.309568643569946289e+00,2.265583992004394531e+00,2.223243713378906250e+00,2.182456731796264648e+00,2.143139362335205078e+00,2.105213403701782227e+00,2.068606376647949219e+00,2.033250808715820312e+00,1.999083638191223145e+00,1.966045737266540527e+00,1.934081792831420898e+00,1.903140783309936523e+00,1.873174190521240234e+00,1.844136595726013184e+00
5.000000000000000000e+00,5.000000000000000000e+00,5.000000000000000000e+00,5.000000000000000000e+00,5.000000000000000000e+00,5.000000000000000000e+00,5.000000000000000000e+00,5.000000000000000000e+00,5.000000000000000000e+00,5.000000000000000000e+00,5.000000000000000000e+00,5.000000000000000000e+00,5.000000000000000000e+00,5.000000000000000000e+00,5.000000000000000000e+00,5.000000000000000000e+00,1.878527164459228516e+00,1.881275177001953125e+00,1.863780379295349121e+00,1.846296787261962891e+00,1.838211417198181152e+00,1.836190581321716309e+00,1.843431115150451660e+00,1.862929582595825195e+00,1.898450016975402832e+00,1.921323060989379883e+00,1.981156349182128906e+00,2.100937843322753906e+00,2.098152875900268555e+00,2.133117198944091797e+00,5.000000000000000000e+00,5.000000000000000000e+00,5.000000000000000000e+00,5.000000000000000000e+00,5.000000000000000000e+00,5.000000000000000000e+00,5.000000000000000000e+00,5.000000000000000000e+00,5.000000000000000000e+00,4.854048728942871094e+00,4.663753032684326172e+00,4.487815380096435547e+00,4.324668884277343750e+00,4.172968864440917969e+00,4.031549930572509766e+00,3.899402856826782227e+00,3.775643110275268555e+00,3.659498214721679688e+00,3.550285339355468750e+00,3.447402000427246094e+00,3.350313901901245117e+00,3.258544683456420898e+00,3.171668529510498047e+00,3.089304208755493164e+00,3.011109828948974609e+00,2.936776161193847656e+00,2.866023778915405273e+00,2.798600673675537109e+00,2.734276771545410156e+00,2.672843456268310547e+00,2.614109754562377930e+00,2.557901859283447266e+00,2.504060506820678711e+00,2.452438592910766602e+00,2.402902364730834961e+00,2.355327844619750977e+00,2.309600353240966797e+00,2.265614509582519531e+00,2.223272800445556641e+00,2.182484865188598633e+00,2.143166303634643555e+00,2.105239629745483398e+00,2.068631649017333984e+00,2.033275365829467773e+00,1.999107241630554199e+00,1.966068625450134277e+00,1.934104084968566895e+00,1.903162479400634766e+00,1.873194932937622070e+00,1.844156742095947266e+00
5.000000000000000000e+00,5.000000000000000000e+00,5.000000000000000000e+00,5.000000000000000000e+00,5.000000000000000000e+00,5.000000000000000000e+00,5.000000000000000000e+00,5.000000000000000000e+00,5.000000000000000000e+00,5.000000000000000000e+00,5.000000000000000000e+00,5.000000000000000000e+00,5.000000000000000000e+00,5.000000000000000000e+00,5.000000000000000000e+00,5.000000000000000000e+00,1.884885907173156738e+00,1.891773939132690430e+00,1.864638805389404297e+00,1.847783803939819336e+00,1.838306069374084473e+00,1.834598302841186523e+00,1.840201497077941895e+00,1.860870242118835449e+00,1.888317942619323730e+00,1.915324449539184570e+00,1.956805706024169922e+00,2.114598035812377930e+00,2.109156370162963867e+00,2.130522251129150391e+00,5.000000000000000000e+00,5.000000000000000000e+00,5.000000000000000000e+00,5.000000000000000000e+00,5.000000000000000000e+00,5.000000000000000000e+00,5.000000000000000000e+00,5.000000000000000000e+00,5.000000000000000000e+00,4.854187965393066406e+00,4.663881778717041016e+00,4.487934112548828125e+00,4.324779510498046875e+00,4.173071384429931641e+00,4.031646251678466797e+00,3.899492740631103516e+00,3.775727748870849609e+00,3.659577131271362305e+00,3.550359725952148438e+00,3.447472333908081055e+00,3.350380182266235352e+00,3.258607149124145508e+00,3.171727895736694336e+00,3.089360952377319336e+00,3.011163473129272461e+00,2.936827182769775391e+00,2.866072416305541992e+00,2.798646926879882812e+00,2.734320878982543945e+00,2.672885656356811523e+00,2.614150285720825195e+00,2.557940483093261719e+00,2.504097461700439453e+00,2.452474355697631836e+00,2.402936458587646484e+00,2.355360507965087891e+00,2.309631824493408203e+00,2.265644788742065430e+00,2.223302125930786133e+00,2.182512998580932617e+00,2.143193721771240234e+00,2.105265855789184570e+00,2.068656921386718750e+00,2.033299922943115234e+00,1.999130845069885254e+00,1.966091394424438477e+00,1.934126257896423340e+00,1.903183817863464355e+00,1.873215794563293457e+00,1.844176769256591797e+00
5.000000000000000000e+00,5.000000000000000000e+00,5.000000000000000000e+00,5.000000000000000000e+00,5.000000000000000000e+00,5.000000000000000000e+00,5.000000000000000000e+00,5.000000000000000000e+00,5.000000000000000000e+00,5.000000000000000000e+00,5.000000000000000000e+00,5.000000000000000000e+00,5.000000000000000000e+00,5.000000000000000000e+00,5.000000000000000000e+00,5.000000000000000000e+00,1.876348018646240234e+00,1.884548425674438477e+00,1.865821003913879395e+00,1.853534579277038574e+00,1.845550537109375000e+00,1.849956274032592773e+00,1.854655385017395020e+00,1.872312307357788086e+00,1.891484737396240234e+00,1.928490996360778809e+00,1.969672322273254395e+00,2.133371114730834961e+00,2.120698451995849609e+00,2.131190776824951172e+00,5.000000000000000000e+00,5.000000000000000000e+00,5.000000000000000000e+00,5.000000000000000000e+00,5.000000000000000000e+00,5.000000000000000000e+00,5.000000000000000000e+00,5.000000000000000000e+00,5.000000000000000000e+00,4.854327201843261719e+00,4.664010524749755859e+00,4.488053321838378906e+00,4.324890136718750000e+00,4.173174381256103516e+00,4.031742095947265625e+00,3.899582386016845703e+00,3.775811910629272461e+00,3.659656524658203125e+00,3.550434112548828125e+00,3.447542667388916016e+00,3.350446701049804688e+00,3.258669853210449219e+00,3.171787261962890625e+00,3.089417219161987305e+00,3.011217117309570312e+00,2.936877965927124023e+00,2.866121053695678711e+00,2.798693418502807617e+00,2.734364986419677734e+00,2.672927618026733398e+00,2.614190578460693359e+00,2.557979345321655273e+00,2.504134416580200195e+00,2.452509880065917969e+00,2.402970790863037109e+00,2.355393409729003906e+00,2.309663295745849609e+00,2.265675067901611328e+00,2.223331451416015625e+00,2.182541131973266602e+00,2.143220663070678711e+00,2.105292081832885742e+00,2.068682432174682617e+00,2.033324241638183594e+00,1.999154448509216309e+00,1.966114282608032227e+00,1.934148311614990234e+00,1.903205156326293945e+00,1.873236536979675293e+00,1.844197034835815430e+00
5.000000000000000000e+00,5.000000000000000000e+00,5.000000000000000000e+00,5.000000000000000000e+00,5.000000000000000000e+00,5.000000000000000000e+00,5.000000000000000000e+00,5.000000000000000000e+00,5.000000000000000000e+00,5.000000000000000000e+00,5.000000000000000000e+00,5.000000000000000000e+00,5.000000000000000000e+00,5.000000000000000000e+00,5.000000000000000000e+00,5.000000000000000000e+00,1.867154359817504883e+00,1.873759865760803223e+00,1.874131917953491211e+00,1.853260993957519531e+00,1.848833918571472168e+00,1.856209278106689453e+00,1.864457488059997559e+00,1.879187226295471191e+00,1.892845630645751953e+00,1.927750945091247559e+00,1.973404884338378906e+00,2.139801740646362305e+00,2.104984283447265625e+00,2.098384618759155273e+00,2.120629310607910156e+00,5.000000000000000000e+00,5.000000000000000000e+00,5.000000000000000000e+00,5.000000000000000000e+00,5.000000000000000000e+00,5.000000000000000000e+00,5.000000000000000000e+00,5.000000000000000000e+00,4.854466438293457031e+00,4.664138793945312500e+00,4.488172531127929688e+00,4.325000762939453125e+00,4.173277378082275391e+00,4.031838417053222656e+00,3.899672031402587891e+00,3.775896072387695312e+00,3.659735679626464844e+00,3.550508975982666016e+00,3.447612762451171875e+00,3.350512742996215820e+00,3.258732795715332031e+00,3.171846866607666016e+00,3.089473485946655273e+00,3.011270761489868164e+00,2.936929225921630859e+00,2.866169452667236328e+00,2.798739433288574219e+00,2.734409332275390625e+00,2.672970056533813477e+00,2.614230871200561523e+00,2.558017969131469727e+00,2.504171609878540039e+00,2.452545404434204102e+00,2.403004884719848633e+00,2.355426073074340820e+00,2.309694766998291016e+00,2.265705347061157227e+00,2.223360538482666016e+00,2.182569265365600586e+00,2.143247842788696289e+00,2.105318307876586914e+00,2.068707466125488281e+00,2.033348798751831055e+00,1.999177932739257812e+00,1.966137051582336426e+00,1.934170365333557129e+00,1.903226494789123535e+00,1.873257160186767578e+00,1.844217061996459961e+00
5.000000000000000000e+00,5.000000000000000000e+00,5.000000000000000000e+00,5.000000000000000000e+00,5.000000000000000000e+00,5.000000000000000000e+00,5.000000000000000000e+00,5.000000000000000000e+00,5.000000000000000000e+00,5.000000000000000000e+00,5.000000000000000000e+00,5.000000000000000000e+00,5.000000000000000000e+00,5.000000000000000000e+00,5.000000000000000000e+00,5.000000000000000000e+00,1.863963842391967773e+00,1.867443084716796875e+00,1.871067643165588379e+00,1.840393424034118652e+00,1.817551851272583008e+00,1.834859251976013184e+00,1.863820314407348633e+00,1.892455101013183594e+00,1.902324676513671875e+00,1.931537151336669922e+00,1.971349596977233887e+00,5.000000000000000000e+00,2.106750011444091797e+00,2.089187860488891602e+00,2.095425844192504883e+00,5.000000000000000000e+00,5.000000000000000000e+00,5.000000000000000000e+00,5.000000000000000000e+00,5.000000000000000000e+00,5.000000000000000000e+00,5.000000000000000000e+00,5.000000000000000000e+00,4.854605674743652344e+00,4.664267539978027344e+00,4.488291263580322266e+00,4.325111389160156250e+00,4.173380374908447266e+00,4.031934261322021484e+00,3.899762392044067383e+00,3.775980472564697266e+00,3.659814596176147461e+00,3.550583362579345703e+00,3.447683095932006836e+00,3.350579023361206055e+00,3.258795499801635742e+00,3.171906232833862305e+00,3.089529991149902344e+00,3.011324167251586914e+00,2.936980009078979492e+00,2.866218090057373047e+00,2.798785686492919922e+00,2.734453439712524414e+00,2.673012256622314453e+00,2.614271402359008789e+00,2.558056592941284180e+00,2.504208564758300781e+00,2.452580928802490234e+00,2.403038740158081055e+00,2.355458974838256836e+00,2.309726238250732422e+00,2.265735864639282227e+00,2.223389625549316406e+00,2.182597398757934570e+00,2.143275022506713867e+00,2.105344295501708984e+00,2.068732738494873047e+00,2.033373117446899414e+00,1.999201774597167969e+00,1.966159820556640625e+00,1.934192419052124023e+00,1.903247952461242676e+00,1.873277902603149414e+00,1.844237208366394043e+00
5.000000000000000000e+00,5.000000000000000000e+00,5.000000000000000000e+00,5.000000000000000000e+00,5.000000000000000000e+00,5.000000000000000000e+00,5.000000000000000000e+00,5.000000000000000000e+00,5.000000000000000000e+00,5.000000000000000000e+00,5.000000000000000000e+00,5.000000000000000000e+00,5.000000000000000000e+00,5.000000000000000000e+00,5.000000000000000000e+00,5.000000000000000000e+00,1.861303448677062988e+00,1.860440492630004883e+00,1.869927883148193359e+00,1.816817522048950195e+00,1.789996623992919922e+00,1.797665476799011230e+00,1.805764436721801758e+00,1.909942388534545898e+00,1.915273427963256836e+00,1.954021215438842773e+00,1.978166341781616211e+00,5.000000000000000000e+00,5.000000000000000000e+00,2.089497327804565430e+00,2.073227167129516602e+00,2.086822986602783203e+00,5.000000000000000000e+00,5.000000000000000000e+00,5.000000000000000000e+00,5.000000000000000000e+00,5.000000000000000000e+00,5.000000000000000000e+00,5.000000000000000000e+00,4.854744911193847656e+00,4.664396286010742188e+00,4.488410472869873047e+00,4.325221538543701172e+00,4.173483371734619141e+00,4.032030105590820312e+00,3.899852037429809570e+00,3.776064634323120117e+00,3.659893989562988281e+00,3.550657749176025391e+00,3.447753429412841797e+00,3.350645780563354492e+00,3.258858203887939453e+00,3.171965599060058594e+00,3.089586496353149414e+00,3.011378049850463867e+00,2.937031030654907227e+00,2.866266727447509766e+00,2.798832178115844727e+00,2.734497547149658203e+00,2.673054456710815430e+00,2.614311695098876953e+00,2.558095455169677734e+00,2.504245519638061523e+00,2.452616453170776367e+00,2.403073072433471680e+00,2.355491876602172852e+00,2.309757947921752930e+00,2.265766143798828125e+00,2.223418951034545898e+00,2.182625532150268555e+00,2.143302202224731445e+00,2.105370521545410156e+00,2.068758249282836914e+00,2.033397436141967773e+00,1.999225378036499023e+00,1.966182947158813477e+00,1.934214472770690918e+00,1.903269290924072266e+00,1.873298645019531250e+00,1.844257235527038574e+00
5.000000000000000000e+00,5.000000000000000000e+00,5.000000000000000000e+00,5.000000000000000000e+00,5.000000000000000000e+00,5.000000000000000000e+00,5.000000000000000000e+00,5.000000000000000000e+00,5.000000000000000000e+00,5.000000000000000000e+00,5.000000000000000000e+00,5.000000000000000000e+00,5.000000000000000000e+00,5.000000000000000000e+00,5.000000000000000000e+00,5.000000000000000000e+00,1.853189826011657715e+00,1.849373459815979004e+00,1.865187764167785645e+00,1.807137727737426758e+00,1.775375962257385254e+00,1.782835364341735840e+00,1.790358066558837891e+00,1.803369760513305664e+00,1.951716542243957520e+00,1.964779734611511230e+00,1.977880597114562988e+00,5.000000000000000000e+00,5.000000000000000000e+00,5.000000000000000000e+00,2.072496175765991211e+00,2.063169717788696289e+00,5.000000000000000000e+00,5.000000000000000000e+00,5.000000000000000000e+00,5.000000000000000000e+00,5.000000000000000000e+00,5.000000000000000000e+00,5.000000000000000000e+00,4.854884624481201172e+00,4.664524555206298828e+00,4.488529682159423828e+00,4.325332164764404297e+00,4.173586368560791016e+00,4.032126426696777344e+00,3.899941682815551758e+00,3.776148796081542969e+00,3.659973144531250000e+00,3.550732374191284180e+00,3.447823524475097656e+00,3.350712060928344727e+00,3.258921146392822266e+00,3.172024965286254883e+00,3.089642763137817383e+00,3.011431455612182617e+00,2.937082052230834961e+00,2.866315126419067383e+00,2.798878431320190430e+00,2.734541893005371094e+00,2.673096895217895508e+00,2.614351987838745117e+00,2.558134078979492188e+00,2.504282712936401367e+00,2.452651977539062500e+00,2.403107166290283203e+00,2.355524539947509766e+00,2.309789419174194336e+00,2.265796422958374023e+00,2.223448276519775391e+00,2.182653903961181641e+00,2.143329381942749023e+00,2.105396747589111328e+00,2.068783521652221680e+00,2.033421993255615234e+00,1.999248981475830078e+00,1.966205716133117676e+00,1.934236764907836914e+00,1.903290629386901855e+00,1.873319387435913086e+00,1.844277381896972656e+00
5.000000000000000000e+00,5.000000000000000000e+00,5.000000000000000000e+00,5.000000000000000000e+00,5.000000000000000000e+00,5.000000000000000000e+00,5.000000000000000000e+00,5.000000000000000000e+00,5.000000000000000000e+00,5.000000000000000000e+00,5.000000000000000000e+00,5.000000000000000000e+00,5.000000000000000000e+00,5.000000000000000000e+00,5.000000000000000000e+00,5.000000000000000000e+00,1.848154664039611816e+00,1.840630292892456055e+00,1.872596263885498047e+00,1.799151539802551270e+00,1.771220445632934570e+00,1.770870447158813477e+00,1.778288006782531738e+00,1.785772204399108887e+00,1.846970319747924805e+00,1.963421225547790527e+00,1.976098179817199707e+00,2.041438579559326172e+00,5.000000000000000000e+00,5.000000000000000000e+00,5.000000000000000000e+00,2.038913965225219727e+00,2.073409080505371094e+00,5.000000000000000000e+00,5.000000000000000000e+00,5.000000000000000000e+00,5.000000000000000000e+00,5.000000000000000000e+00,5.000000000000000000e+00,4.855023384094238281e+00,4.664653301239013672e+00,4.488648414611816406e+00,4.325442790985107422e+00,4.173688888549804688e+00,4.032222747802734375e+00,3.900032043457031250e+00,3.776232957839965820e+00,3.660052061080932617e+00,3.550806760787963867e+00,3.447893857955932617e+00,3.350778102874755859e+00,3.258983850479125977e+00,3.172084569931030273e+00,3.089699268341064453e+00,3.011484861373901367e+00,2.937133073806762695e+00,2.866363763809204102e+00,2.798924684524536133e+00,2.734586000442504883e+00,2.673138856887817383e+00,2.614392518997192383e+00,2.558172702789306641e+00,2.504319906234741211e+00,2.452687740325927734e+00,2.403141260147094727e+00,2.355557203292846680e+00,2.309820890426635742e+00,2.265826940536499023e+00,2.223477363586425781e+00,2.182682037353515625e+00,2.143356561660766602e+00,2.105422973632812500e+00,2.068808794021606445e+00,2.033446550369262695e+00,1.999272584915161133e+00,1.966228485107421875e+00,1.934258937835693359e+00,1.903312325477600098e+00,1.873340010643005371e+00,1.844297409057617188e+00
5.000000000000000000e+00,5.000000000000000000e+00,5.000000000000000000e+00,5.000000000000000000e+00,5.000000000000000000e+00,5.000000000000000000e+00,5.000000000000000000e+00,5.000000000000000000e+00,5.000000000000000000e+00,5.000000000000000000e+00,5.000000000000000000e+00,5.000000000000000000e+00,5.000000000000000000e+00,5.000000000000000000e+00,5.000000000000000000e+00,5.000000000000000000e+00,1.852141737937927246e+00,1.849545240402221680e+00,5.000000000000000000e+00,1.807883024215698242e+00,1.775187969207763672e+00,1.760733962059020996e+00,1.766525268554687500e+00,1.773763895034790039e+00,1.823253989219665527e+00,1.960656404495239258e+00,1.972387194633483887e+00,2.036414384841918945e+00,5.000000000000000000e+00,5.000000000000000000e+00,5.000000000000000000e+00,2.032207012176513672e+00,2.035335540771484375e+00,5.000000000000000000e+00,5.000000000000000000e+00,5.000000000000000000e+00,5.000000000000000000e+00,5.000000000000000000e+00,5.000000000000000000e+00,4.855163097381591797e+00,4.664782047271728516e+00,4.488767623901367188e+00,4.325553417205810547e+00,4.173792362213134766e+00,4.032318592071533203e+00,3.900121688842773438e+00,3.776317596435546875e+00,3.660131692886352539e+00,3.550881385803222656e+00,3.447964191436767578e+00,3.350844860076904297e+00,3.259046554565429688e+00,3.172143936157226562e+00,3.089755773544311523e+00,3.011538743972778320e+00,2.937183856964111328e+00,2.866412401199340820e+00,2.798971176147460938e+00,2.734630107879638672e+00,2.673181056976318359e+00,2.614433050155639648e+00,2.558211326599121094e+00,2.504356861114501953e+00,2.452723026275634766e+00,2.403175592422485352e+00,2.355590105056762695e+00,2.309852361679077148e+00,2.265857219696044922e+00,2.223506689071655273e+00,2.182710170745849609e+00,2.143383502960205078e+00,2.105449199676513672e+00,2.068834066390991211e+00,2.033470869064331055e+00,1.999296188354492188e+00,1.966251373291015625e+00,1.934280991554260254e+00,1.903333663940429688e+00,1.873360991477966309e+00,1.844317674636840820e+00
5.000000000000000000e+00,5.000000000000000000e+00,5.000000000000000000e+00,5.000000000000000000e+00,5.000000000000000000e+00,5.000000000000000000e+00,5.000000000000000000e+00,5.000000000000000000e+00,5.000000000000000000e+00,5.000000000000000000e+00,5.000000000000000000e+00,5.000000000000000000e+00,5.000000000000000000e+00,5.000000000000000000e+00,5.000000000000000000e+00,5.000000000000000000e+00,1.844239234924316406e+00,1.831176280975341797e+00,1.844078660011291504e+00,1.822348475456237793e+00,1.779065847396850586e+00,1.750712513923645020e+00,1.756438136100769043e+00,1.762201428413391113e+00,1.798124194145202637e+00,1.962110638618469238e+00,1.978707671165466309e+00,2.047259569168090820e+00,5.000000000000000000e+00,5.000000000000000000e+00,5.000000000000000000e+00,5.000000000000000000e+00,1.995766758918762207e+00,2.008932828903198242e+00,5.000000000000000000e+00,5.000000000000000000e+00,5.000000000000000000e+00,5.000000000000000000e+00,5.000000000000000000e+00,4.855302333831787109e+00,4.664910316467285156e+00,4.488886833190917969e+00,4.325664043426513672e+00,4.173894882202148438e+00,4.032414913177490234e+00,3.900211572647094727e+00,3.776401758193969727e+00,3.660210609436035156e+00,3.550956010818481445e+00,3.448034286499023438e+00,3.350911140441894531e+00,3.259109497070312500e+00,3.172203302383422852e+00,3.089812040328979492e+00,3.011592149734497070e+00,2.937235116958618164e+00,2.866460800170898438e+00,2.799017429351806641e+00,2.734674453735351562e+00,2.673223257064819336e+00,2.614473342895507812e+00,2.558249950408935547e+00,2.504394054412841797e+00,2.452758550643920898e+00,2.403209686279296875e+00,2.355623006820678711e+00,2.309884071350097656e+00,2.265887498855590820e+00,2.223535776138305664e+00,2.182738304138183594e+00,2.143410682678222656e+00,2.105475425720214844e+00,2.068859338760375977e+00,2.033495426177978516e+00,1.999319791793823242e+00,1.966274142265319824e+00,1.934303045272827148e+00,1.903355002403259277e+00,1.873381733894348145e+00,1.844337701797485352e+00
5.000000000000000000e+00,5.000000000000000000e+00,5.000000000000000000e+00,5.000000000000000000e+00,5.000000000000000000e+00,5.000000000000000000e+00,5.000000000000000000e+00,5.000000000000000000e+00,5.000000000000000000e+00,5.000000000000000000e+00,5.000000000000000000e+00,5.000000000000000000e+00,5.000000000000000000e+00,5.000000000000000000e+00,5.000000000000000000e+00,5.000000000000000000e+00,1.834414720535278320e+00,1.817593693733215332e+00,1.839514613151550293e+00,1.835052013397216797e+00,1.782649636268615723e+00,1.752794861793518066e+00,1.743683934211730957e+00,1.749114513397216797e+00,1.774032235145568848e+00,1.967469215393066406e+00,1.990089654922485352e+00,2.061273813247680664e+00,5.000000000000000000e+00,5.000000000000000000e+00,5.000000000000000000e+00,5.000000000000000000e+00,5.000000000000000000e+00,2.069444656372070312e+00,5.000000000000000000e+00,5.000000000000000000e+00,5.000000000000000000e+00,5.000000000000000000e+00,5.000000000000000000e+00,4.855441570281982422e+00,4.665039062500000000e+00,4.489006042480468750e+00,4.325774669647216797e+00,4.173997879028320312e+00,4.032510757446289062e+00,3.900301694869995117e+00,3.776485919952392578e+00,3.660289764404296875e+00,3.551030397415161133e+00,3.448104858398437500e+00,3.350977420806884766e+00,3.259172201156616211e+00,3.172263145446777344e+00,3.089868307113647461e+00,3.011645793914794922e+00,2.937285900115966797e+00,2.866509675979614258e+00,2.799063682556152344e+00,2.734718561172485352e+00,2.673265695571899414e+00,2.614513874053955078e+00,2.558288574218750000e+00,2.504431009292602539e+00,2.452794313430786133e+00,2.403243780136108398e+00,2.355655670166015625e+00,2.309915542602539062e+00,2.265918016433715820e+00,2.223565101623535156e+00,2.182766437530517578e+00,2.143437862396240234e+00,2.105501651763916016e+00,2.068884611129760742e+00,2.033519744873046875e+00,1.999343514442443848e+00,1.966296911239624023e+00,1.934325098991394043e+00,1.903376340866088867e+00,1.873402357101440430e+00,1.844357848167419434e+00
5.000000000000000000e+00,5.000000000000000000e+00,5.000000000000000000e+00,5.000000000000000000e+00,5.000000000000000000e+00,5.000000000000000000e+00,5.000000000000000000e+00,5.000000000000000000e+00,5.000000000000000000e+00,5.000000000000000000e+00,5.000000000000000000e+00,5.000000000000000000e+00,5.000000000000000000e+00,5.000000000000000000e+00,5.000000000000000000e+00,5.000000000000000000e+00,1.839091539382934570e+00,1.809860467910766602e+00,5.000000000000000000e+00,5.000000000000000000e+00,1.794735908508300781e+00,1.757742881774902344e+00,1.733940124511718750e+00,1.734929323196411133e+00,1.751147627830505371e+00,1.803571224212646484e+00,2.005511283874511719e+00,5.000000000000000000e+00,5.000000000000000000e+00,5.000000000000000000e+00,5.000000000000000000e+00,5.000000000000000000e+00,5.000000000000000000e+00,5.000000000000000000e+00,5.000000000000000000e+00,5.000000000000000000e+00,5.000000000000000000e+00,5.000000000000000000e+00,5.000000000000000000e+00,4.855581283569335938e+00,4.665167331695556641e+00,4.489125251770019531e+00,4.325885295867919922e+00,4.174100875854492188e+00,4.032607078552246094e+00,3.900391578674316406e+00,3.776570320129394531e+00,3.660369157791137695e+00,3.551104784011840820e+00,3.448174953460693359e+00,3.351043939590454102e+00,3.259234905242919922e+00,3.172322511672973633e+00,3.089925050735473633e+00,3.011699676513671875e+00,2.937336921691894531e+00,2.866558074951171875e+00,2.799109935760498047e+00,2.734762668609619141e+00,2.673307895660400391e+00,2.614554166793823242e+00,2.558327436447143555e+00,2.504467964172363281e+00,2.452829837799072266e+00,2.403277873992919922e+00,2.355688333511352539e+00,2.309947013854980469e+00,2.265948295593261719e+00,2.223594427108764648e+00,2.182794570922851562e+00,2.143465042114257812e+00,2.105527877807617188e+00,2.068909883499145508e+00,2.033544301986694336e+00,1.999367117881774902e+00,1.966320037841796875e+00,1.934347152709960938e+00,1.903397798538208008e+00,1.873423099517822266e+00,1.844377875328063965e+00
5.000000000000000000e+00,5.000000000000000000e+00,5.000000000000000000e+00,5.000000000000000000e+00,5.000000000000000000e+00,5.000000000000000000e+00,5.000000000000000000e+00,5.000000000000000000e+00,5.000000000000000000e+00,5.000000000000000000e+00,5.000000000000000000e+00,5.000000000000000000e+00,5.000000000000000000e+00,5.000000000000000000e+00,5.000000000000000000e+00,5.000000000000000000e+00,1.833337664604187012e+00,1.805554866790771484e+00,5.000000000000000000e+00,5.000000000000000000e+00,1.807726025581359863e+00,1.762718915939331055e+00,1.731491684913635254e+00,1.724564433097839355e+00,1.728845953941345215e+00,1.776757001876831055e+00,2.021846532821655273e+00,5.000000000000000000e+00,5.000000000000000000e+00,5.000000000000000000e+00,5.000000000000000000e+00,5.000000000000000000e+00,5.000000000000000000e+00,5.000000000000000000e+00,5.000000000000000000e+00,5.000000000000000000e+00,5.000000000000000000e+00,5.000000000000000000e+00,5.000000000000000000e+00,4.855720520019531250e+00,4.665296077728271484e+00,4.489244461059570312e+00,4.325995922088623047e+00,4.174203872680664062e+00,4.032702922821044922e+00,3.900481224060058594e+00,3.776654481887817383e+00,3.660448312759399414e+00,3.551179647445678711e+00,3.448245048522949219e+00,3.351110219955444336e+00,3.259297847747802734e+00,3.172381877899169922e+00,3.089981317520141602e+00,3.011753082275390625e+00,2.937387943267822266e+00,2.866606473922729492e+00,2.799156188964843750e+00,2.734807014465332031e+00,2.673350095748901367e+00,2.614594459533691406e+00,2.558366060256958008e+00,2.504505157470703125e+00,2.452865362167358398e+00,2.403311967849731445e+00,2.355721235275268555e+00,2.309978485107421875e+00,2.265978574752807617e+00,2.223623514175415039e+00,2.182822704315185547e+00,2.143492221832275391e+00,2.105554103851318359e+00,2.068935155868530273e+00,2.033568620681762695e+00,1.999390721321105957e+00,1.966342806816101074e+00,1.934369444847106934e+00,1.903419137001037598e+00,1.873443841934204102e+00,1.844398021697998047e+00
5.000000000000000000e+00,5.000000000000000000e+00,5.000000000000000000e+00,5.000000000000000000e+00,5.000000000000000000e+00,5.000000000000000000e+00,5.000000000000000000e+00,5.000000000000000000e+00,5.000000000000000000e+00,5.000000000000000000e+00,5.000000000000000000e+00,5.000000000000000000e+00,5.000000000000000000e+00,5.000000000000000000e+00,5.000000000000000000e+00,5.000000000000000000e+00,1.826500654220581055e+00,5.000000000000000000e+00,5.000000000000000000e+00,5.000000000000000000e+00,5.000000000000000000e+00,1.774776458740234375e+00,1.737357258796691895e+00,1.717886447906494141e+00,1.714418768882751465e+00,1.750728368759155273e+00,2.043340682983398438e+00,5.000000000000000000e+00,5.000000000000000000e+00,5.000000000000000000e+00,5.000000000000000000e+00,5.000000000000000000e+00,5.000000000000000000e+00,5.000000000000000000e+00,5.000000000000000000e+00,5.000000000000000000e+00,5.000000000000000000e+00,5.000000000000000000e+00,5.000000000000000000e+00,4.855859756469726562e+00,4.665424823760986328e+00,4.489363193511962891e+00,4.326106548309326172e+00,4.174306869506835938e+00,4.032799243927001953e+00,3.900571584701538086e+00,3.776738882064819336e+00,3.660527229309082031e+00,3.551254034042358398e+00,3.448315620422363281e+00,3.351176500320434570e+00,3.259360551834106445e+00,3.172441482543945312e+00,3.090037584304809570e+00,3.011806488037109375e+00,2.937438964843750000e+00,2.866655349731445312e+00,2.799202442169189453e+00,2.734851360321044922e+00,2.673392534255981445e+00,2.614634990692138672e+00,2.558404684066772461e+00,2.504542350769042969e+00,2.452900886535644531e+00,2.403346061706542969e+00,2.355754137039184570e+00,2.310010194778442383e+00,2.266009092330932617e+00,2.223652601242065430e+00,2.182850837707519531e+00,2.143519401550292969e+00,2.105580091476440430e+00,2.068960428237915039e+00,2.033593177795410156e+00,1.999414324760437012e+00,1.966365575790405273e+00,1.934391617774963379e+00,1.903440713882446289e+00,1.873464465141296387e+00,1.844418048858642578e+00
5.000000000000000000e+00,5.000000000000000000e+00,5.000000000000000000e+00,5.000000000000000000e+00,5.000000000000000000e+00,5.000000000000000000e+00,5.000000000000000000e+00,5.000000000000000000e+00,5.000000000000000000e+00,5.000000000000000000e+00,5.000000000000000000e+00,5.000000000000000000e+00,5.000000000000000000e+00,5.000000000000000000e+00,5.000000000000000000e+00,5.000000000000000000e+00,5.000000000000000000e+00,5.000000000000000000e+00,5.000000000000000000e+00,5.000000000000000000e+00,5.000000000000000000e+00,1.780784845352172852e+00,1.743262529373168945e+00,1.714640974998474121e+00,1.708545088768005371e+00,1.735112547874450684e+00,5.000000000000000000e+00,5.000000000000000000e+00,5.000000000000000000e+00,5.000000000000000000e+00,5.000000000000000000e+00,5.000000000000000000e+00,5.000000000000000000e+00,5.000000000000000000e+00,5.000000000000000000e+00,5.000000000000000000e+00,5.000000000000000000e+00,5.000000000000000000e+00,5.000000000000000000e+00,4.855998992919921875e+00,4.665553569793701172e+00,4.489482402801513672e+00,4.326217174530029297e+00,4.174409866333007812e+00,4.032895088195800781e+00,3.900661230087280273e+00,3.776823282241821289e+00,3.660606384277343750e+00,3.551328420639038086e+00,3.448385715484619141e+00,3.351243019104003906e+00,3.259423255920410156e+00,3.172500848770141602e+00,3.090094327926635742e+00,3.011860370635986328e+00,2.937489986419677734e+00,2.866703748703002930e+00,2.799248933792114258e+00,2.734895467758178711e+00,2.673434495925903320e+00,2.614675283432006836e+00,2.558443546295166016e+00,2.504579305648803711e+00,2.452936410903930664e+00,2.403380393981933594e+00,2.355786800384521484e+00,2.310041666030883789e+00,2.266039371490478516e+00,2.223681926727294922e+00,2.182878971099853516e+00,2.143546581268310547e+00,2.105606555938720703e+00,2.068985700607299805e+00,2.033617496490478516e+00,1.999437928199768066e+00,1.966388463973999023e+00,1.934413671493530273e+00,1.903462171554565430e+00,1.873485445976257324e+00,1.844438076019287109e+00
5.000000000000000000e+00,5.000000000000000000e+00,5.000000000000000000e+00,5.000000000000000000e+00,5.000000000000000000e+00,5.000000000000000000e+00,5.000000000000000000e+00,5.000000000000000000e+00,5.000000000000000000e+00,5.000000000000000000e+00,5.000000000000000000e+00,5.000000000000000000e+00,5.000000000000000000e+00,5.000000000000000000e+00,5.000000000000000000e+00,5.000000000000000000e+00,5.000000000000000000e+00,5.000000000000000000e+00,5.000000000000000000e+00,5.000000000000000000e+00,5.000000000000000000e+00,5.000000000000000000e+00,1.750883579254150391e+00,1.716422796249389648e+00,1.710114598274230957e+00,1.736935615539550781e+00,5.000000000000000000e+00,5.000000000000000000e+00,5.000000000000000000e+00,5.000000000000000000e+00,5.000000000000000000e+00,5.000000000000000000e+00,5.000000000000000000e+00,5.000000000000000000e+00,5.000000000000000000e+00,5.000000000000000000e+00,5.000000000000000000e+00,5.000000000000000000e+00,5.000000000000000000e+00,4.856138706207275391e+00,4.665682315826416016e+00,4.489601612091064453e+00,4.326327800750732422e+00,4.174512863159179688e+00,4.032991409301757812e+00,3.900751113891601562e+00,3.776907444000244141e+00,3.660685777664184570e+00,3.551403284072875977e+00,3.448456048965454102e+00,3.351309299468994141e+00,3.259486198425292969e+00,3.172560214996337891e+00,3.090150594711303711e+00,3.011914014816284180e+00,2.937541007995605469e+00,2.866752147674560547e+00,2.799295186996459961e+00,2.734939813613891602e+00,2.673476696014404297e+00,2.614715814590454102e+00,2.558482170104980469e+00,2.504616498947143555e+00,2.452971935272216797e+00,2.403414487838745117e+00,2.355819702148437500e+00,2.310073137283325195e+00,2.266069650650024414e+00,2.223711252212524414e+00,2.182907342910766602e+00,2.143573760986328125e+00,2.105632543563842773e+00,2.069011211395263672e+00,2.033641815185546875e+00,1.999461531639099121e+00,1.966411232948303223e+00,1.934435725212097168e+00,1.903483510017395020e+00,1.873506188392639160e+00,1.844458341598510742e+00
5.000000000000000000e+00,5.000000000000000000e+00,5.000000000000000000e+00,5.000000000000000000e+00,5.000000000000000000e+00,5.000000000000000000e+00,5.000000000000000000e+00,5.000000000000000000e+00,5.000000000000000000e+00,5.000000000000000000e+00,5.000000000000000000e+00,5.000000000000000000e+00,5.000000000000000000e+00,5.000000000000000000e+00,5.000000000000000000e+00,5.000000000000000000e+00,5.000000000000000000e+00,5.000000000000000000e+00,5.000000000000000000e+00,5.000000000000000000e+00,5.000000000000000000e+00,5.000000000000000000e+00,1.741846442222595215e+00,1.717688918113708496e+00,1.715827941894531250e+00,1.740119338035583496e+00,5.000000000000000000e+00,5.000000000000000000e+00,5.000000000000000000e+00,5.000000000000000000e+00,5.000000000000000000e+00,5.000000000000000000e+00,5.000000000000000000e+00,5.000000000000000000e+00,5.000000000000000000e+00,5.000000000000000000e+00,5.000000000000000000e+00,5.000000000000000000e+00,5.000000000000000000e+00,4.856277942657470703e+00,4.665811061859130859e+00,4.489720821380615234e+00,4.326438426971435547e+00,4.174615859985351562e+00,4.033087730407714844e+00,3.900841236114501953e+00,3.776991605758666992e+00,3.660764932632446289e+00,3.551477670669555664e+00,3.448526382446289062e+00,3.351375579833984375e+00,3.259548902511596680e+00,3.172620058059692383e+00,3.090207099914550781e+00,3.011967420578002930e+00,2.937592029571533203e+00,2.866801023483276367e+00,2.799341440200805664e+00,2.734983921051025391e+00,2.673519134521484375e+00,2.614756107330322266e+00,2.558520793914794922e+00,2.504653453826904297e+00,2.453007698059082031e+00,2.403448581695556641e+00,2.355852603912353516e+00,2.310104846954345703e+00,2.266100168228149414e+00,2.223740339279174805e+00,2.182935476303100586e+00,2.143600940704345703e+00,2.105658769607543945e+00,2.069036483764648438e+00,2.033666372299194336e+00,1.999485373497009277e+00,1.966434121131896973e+00,1.934457778930664062e+00,1.903504848480224609e+00,1.873526811599731445e+00,1.844478487968444824e+00
5.000000000000000000e+00,5.000000000000000000e+00,5.000000000000000000e+00,5.000000000000000000e+00,5.000000000000000000e+00,5.000000000000000000e+00,5.000000000000000000e+00,5.000000000000000000e+00,5.000000000000000000e+00,5.000000000000000000e+00,5.000000000000000000e+00,5.000000000000000000e+00,5.000000000000000000e+00,5.000000000000000000e+00,5.000000000000000000e+00,5.000000000000000000e+00,5.000000000000000000e+00,5.000000000000000000e+00,5.000000000000000000e+00,5.000000000000000000e+00,5.000000000000000000e+00,5.000000000000000000e+00,1.734443664550781250e+00,1.718496918678283691e+00,1.721579313278198242e+00,1.745490193367004395e+00,5.000000000000000000e+00,5.000000000000000000e+00,5.000000000000000000e+00,5.000000000000000000e+00,5.000000000000000000e+00,5.000000000000000000e+00,5.000000000000000000e+00,5.000000000000000000e+00,5.000000000000000000e+00,5.000000000000000000e+00,5.000000000000000000e+00,5.000000000000000000e+00,5.000000000000000000e+00,4.856417179107666016e+00,4.665939331054687500e+00,4.489840030670166016e+00,4.326549053192138672e+00,4.174718856811523438e+00,4.033183574676513672e+00,3.900931119918823242e+00,3.777076244354248047e+00,3.660844087600708008e+00,3.551552057266235352e+00,3.448596715927124023e+00,3.351442098617553711e+00,3.259611606597900391e+00,3.172679424285888672e+00,3.090263605117797852e+00,3.012021064758300781e+00,2.937642812728881836e+00,2.866849422454833984e+00,2.799387931823730469e+00,2.735028028488159180e+00,2.673561334609985352e+00,2.614796638488769531e+00,2.558559656143188477e+00,2.504690408706665039e+00,2.453043222427368164e+00,2.403482675552368164e+00,2.355885267257690430e+00,2.310136318206787109e+00,2.266130447387695312e+00,2.223769664764404297e+00,2.182963609695434570e+00,2.143628120422363281e+00,2.105684995651245117e+00,2.069061756134033203e+00,2.033690929412841797e+00,1.999508976936340332e+00,1.966457128524780273e+00,1.934479951858520508e+00,1.903526306152343750e+00,1.873547554016113281e+00,1.844498515129089355e+00
5.000000000000000000e+00,5.000000000000000000e+00,5.000000000000000000e+00,5.000000000000000000e+00,5.000000000000000000e+00,5.000000000000000000e+00,5.000000000000000000e+00,5.000000000000000000e+00,5.000000000000000000e+00,5.000000000000000000e+00,5.000000000000000000e+00,5.000000000000000000e+00,5.000000000000000000e+00,5.000000000000000000e+00,5.000000000000000000e+00,5.000000000000000000e+00,5.000000000000000000e+00,5.000000000000000000e+00,5.000000000000000000e+00,5.000000000000000000e+00,5.000000000000000000e+00,2.051281213760375977e+00,1.730222105979919434e+00,1.719305634498596191e+00,1.724520921707153320e+00,1.757509350776672363e+00,5.000000000000000000e+00,5.000000000000000000e+00,5.000000000000000000e+00,5.000000000000000000e+00,5.000000000000000000e+00,5.000000000000000000e+00,5.000000000000000000e+00,5.000000000000000000e+00,5.000000000000000000e+00,5.000000000000000000e+00,5.000000000000000000e+00,5.000000000000000000e+00,5.000000000000000000e+00,4.856556892395019531e+00,4.666068077087402344e+00,4.489958763122558594e+00,4.326659679412841797e+00,4.174821853637695312e+00,4.033279895782470703e+00,3.901021003723144531e+00,3.777160406112670898e+00,3.660923480987548828e+00,3.551626682281494141e+00,3.448666810989379883e+00,3.351508378982543945e+00,3.259674549102783203e+00,3.172738790512084961e+00,3.090319871902465820e+00,3.012074708938598633e+00,2.937694072723388672e+00,2.866898059844970703e+00,2.799434185028076172e+00,2.735072374343872070e+00,2.673603534698486328e+00,2.614836931228637695e+00,2.558598279953002930e+00,2.504727840423583984e+00,2.453078746795654297e+00,2.403516769409179688e+00,2.355918169021606445e+00,2.310167789459228516e+00,2.266160726547241211e+00,2.223798990249633789e+00,2.182991743087768555e+00,2.143655061721801758e+00,2.105711221694946289e+00,2.069087028503417969e+00,2.033715248107910156e+00,1.999532580375671387e+00,1.966479897499084473e+00,1.934502243995666504e+00,1.903547644615173340e+00,1.873568296432495117e+00,1.844518661499023438e+00
5.000000000000000000e+00,5.000000000000000000e+00,5.000000000000000000e+00,5.000000000000000000e+00,5.000000000000000000e+00,5.000000000000000000e+00,5.000000000000000000e+00,5.000000000000000000e+00,5.000000000000000000e+00,5.000000000000000000e+00,5.000000000000000000e+00,5.000000000000000000e+00,5.000000000000000000e+00,5.000000000000000000e+00,5.000000000000000000e+00,5.000000000000000000e+00,5.000000000000000000e+00,5.000000000000000000e+00,5.000000000000000000e+00,5.000000000000000000e+00,5.000000000000000000e+00,2.049287319183349609e+00,1.730610489845275879e+00,1.717850804328918457e+00,1.721485495567321777e+00,1.754352807998657227e+00,5.000000000000000000e+00,5.000000000000000000e+00,5.000000000000000000e+00,5.000000000000000000e+00,5.000000000000000000e+00,5.000000000000000000e+00,5.000000000000000000e+00,5.000000000000000000e+00,5.000000000000000000e+00,5.000000000000000000e+00,5.000000000000000000e+00,5.000000000000000000e+00,5.000000000000000000e+00,4.856696128845214844e+00,4.666197299957275391e+00,4.490077972412109375e+00,4.326770305633544922e+00,4.174924850463867188e+00,4.033375740051269531e+00,3.901111125946044922e+00,3.777244806289672852e+00,3.661002635955810547e+00,3.551701307296752930e+00,3.448737382888793945e+00,3.351574659347534180e+00,3.259737253189086914e+00,3.172798633575439453e+00,3.090376377105712891e+00,3.012128353118896484e+00,2.937745094299316406e+00,2.866946697235107422e+00,2.799480438232421875e+00,2.735116481781005859e+00,2.673645973205566406e+00,2.614877223968505859e+00,2.558636903762817383e+00,2.504764795303344727e+00,2.453114271163940430e+00,2.403550863265991211e+00,2.355950832366943359e+00,2.310199499130249023e+00,2.266191005706787109e+00,2.223828077316284180e+00,2.183019876480102539e+00,2.143682479858398438e+00,2.105737447738647461e+00,2.069112300872802734e+00,2.033739805221557617e+00,1.999556064605712891e+00,1.966502785682678223e+00,1.934524297714233398e+00,1.903569221496582031e+00,1.873589038848876953e+00,1.844538688659667969e+00
5.000000000000000000e+00,5.000000000000000000e+00,5.000000000000000000e+00,5.000000000000000000e+00,5.000000000000000000e+00,5.000000000000000000e+00,5.000000000000000000e+00,5.000000000000000000e+00,5.000000000000000000e+00,5.000000000000000000e+00,5.000000000000000000e+00,5.000000000000000000e+00,5.000000000000000000e+00,5.000000000000000000e+00,5.000000000000000000e+00,5.000000000000000000e+00,5.000000000000000000e+00,5.000000000000000000e+00,5.000000000000000000e+00,5.000000000000000000e+00,2.112776041030883789e+00,2.058302402496337891e+00,1.730174660682678223e+00,1.717233777046203613e+00,1.715331792831420898e+00,1.739492177963256836e+00,5.000000000000000000e+00,5.000000000000000000e+00,5.000000000000000000e+00,5.000000000000000000e+00,5.000000000000000000e+00,5.000000000000000000e+00,5.000000000000000000e+00,5.000000000000000000e+00,5.000000000000000000e+00,5.000000000000000000e+00,5.000000000000000000e+00,5.000000000000000000e+00,5.000000000000000000e+00,4.856833934783935547e+00,4.666325569152832031e+00,4.490197181701660156e+00,4.326880931854248047e+00,4.175028324127197266e+00,4.033472061157226562e+00,3.901201009750366211e+00,3.777329206466674805e+00,3.661081552505493164e+00,3.551775932312011719e+00,3.448807477951049805e+00,3.351641416549682617e+00,3.259799957275390625e+00,3.172857999801635742e+00,3.090432882308959961e+00,3.012181758880615234e+00,2.937795877456665039e+00,2.866995334625244141e+00,2.799526929855346680e+00,2.735160589218139648e+00,2.673688173294067383e+00,2.614917993545532227e+00,2.558675527572631836e+00,2.504801750183105469e+00,2.453149795532226562e+00,2.403585195541381836e+00,2.355983734130859375e+00,2.310230970382690430e+00,2.266221523284912109e+00,2.223857402801513672e+00,2.183048009872436523e+00,2.143709421157836914e+00,2.105763673782348633e+00,2.069137573242187500e+00,2.033764123916625977e+00,1.999579668045043945e+00,1.966525554656982422e+00,1.934546351432800293e+00,1.903590679168701172e+00,1.873609900474548340e+00,1.844558715820312500e+00
5.000000000000000000e+00,5.000000000000000000e+00,5.000000000000000000e+00,5.000000000000000000e+00,5.000000000000000000e+00,5.000000000000000000e+00,5.000000000000000000e+00,5.000000000000000000e+00,5.000000000000000000e+00,5.000000000000000000e+00,5.000000000000000000e+00,5.000000000000000000e+00,5.000000000000000000e+00,5.000000000000000000e+00,5.000000000000000000e+00,5.000000000000000000e+00,5.000000000000000000e+00,5.000000000000000000e+00,5.000000000000000000e+00,5.000000000000000000e+00,2.081762075424194336e+00,2.060888290405273438e+00,1.729694247245788574e+00,1.716822624206542969e+00,1.709932684898376465e+00,1.724881291389465332e+00,5.000000000000000000e+00,5.000000000000000000e+00,5.000000000000000000e+00,5.000000000000000000e+00,5.000000000000000000e+00,5.000000000000000000e+00,5.000000000000000000e+00,5.000000000000000000e+00,5.000000000000000000e+00,5.000000000000000000e+00,5.000000000000000000e+00,5.000000000000000000e+00,5.000000000000000000e+00,4.856972217559814453e+00,4.666454315185546875e+00,4.490316390991210938e+00,4.326991558074951172e+00,4.175130844116210938e+00,4.033568382263183594e+00,3.901290655136108398e+00,3.777413606643676758e+00,3.661161184310913086e+00,3.551850318908691406e+00,3.448877811431884766e+00,3.351707696914672852e+00,3.259863138198852539e+00,3.172917366027832031e+00,3.090489387512207031e+00,3.012235641479492188e+00,2.937847137451171875e+00,2.867043733596801758e+00,2.799573183059692383e+00,2.735205173492431641e+00,2.673730373382568359e+00,2.614958286285400391e+00,2.558714389801025391e+00,2.504838943481445312e+00,2.453185319900512695e+00,2.403619289398193359e+00,2.356016635894775391e+00,2.310262441635131836e+00,2.266251802444458008e+00,2.223886489868164062e+00,2.183076381683349609e+00,2.143736600875854492e+00,2.105789899826049805e+00,2.069163084030151367e+00,2.033788681030273438e+00,1.999603271484375000e+00,1.966548442840576172e+00,1.934568405151367188e+00,1.903612017631530762e+00,1.873630642890930176e+00,1.844579100608825684e+00
5.000000000000000000e+00,5.000000000000000000e+00,5.000000000000000000e+00,5.000000000000000000e+00,5.000000000000000000e+00,5.000000000000000000e+00,5.000000000000000000e+00,5.000000000000000000e+00,5.000000000000000000e+00,5.000000000000000000e+00,5.000000000000000000e+00,5.000000000000000000e+00,5.000000000000000000e+00,5.000000000000000000e+00,5.000000000000000000e+00,5.000000000000000000e+00,5.000000000000000000e+00,5.000000000000000000e+00,5.000000000000000000e+00,5.000000000000000000e+00,2.083531618118286133e+00,2.070492267608642578e+00,1.749878764152526855e+00,1.716411471366882324e+00,1.706390857696533203e+00,1.710513710975646973e+00,5.000000000000000000e+00,5.000000000000000000e+00,5.000000000000000000e+00,5.000000000000000000e+00,5.000000000000000000e+00,5.000000000000000000e+00,5.000000000000000000e+00,5.000000000000000000e+00,5.000000000000000000e+00,5.000000000000000000e+00,5.000000000000000000e+00,5.000000000000000000e+00,5.000000000000000000e+00,4.857110977172851562e+00,4.666581153869628906e+00,4.490435600280761719e+00,4.327102184295654297e+00,4.175234317779541016e+00,4.033664226531982422e+00,3.901381015777587891e+00,3.777497768402099609e+00,3.661240339279174805e+00,3.551925182342529297e+00,3.448948383331298828e+00,3.351773977279663086e+00,3.259925842285156250e+00,3.172976970672607422e+00,3.090545654296875000e+00,3.012289285659790039e+00,2.937898159027099609e+00,2.867092609405517578e+00,2.799619436264038086e+00,2.735249280929565430e+00,2.673772573471069336e+00,2.614998579025268555e+00,2.558753013610839844e+00,2.504875898361206055e+00,2.453221082687377930e+00,2.403653383255004883e+00,2.356049299240112305e+00,2.310294151306152344e+00,2.266282081604003906e+00,2.223915815353393555e+00,2.183104515075683594e+00,2.143763780593872070e+00,2.105816125869750977e+00,2.069188356399536133e+00,2.033813238143920898e+00,1.999626874923706055e+00,1.966571211814880371e+00,1.934590578079223633e+00,1.903633356094360352e+00,1.873651385307312012e+00,1.844599127769470215e+00
5.000000000000000000e+00,5.000000000000000000e+00,5.000000000000000000e+00,5.000000000000000000e+00,5.000000000000000000e+00,5.000000000000000000e+00,5.000000000000000000e+00,5.000000000000000000e+00,5.000000000000000000e+00,5.000000000000000000e+00,5.000000000000000000e+00,5.000000000000000000e+00,5.000000000000000000e+00,5.000000000000000000e+00,5.000000000000000000e+00,5.000000000000000000e+00,5.000000000000000000e+00,5.000000000000000000e+00,5.000000000000000000e+00,5.000000000000000000e+00,2.086852550506591797e+00,2.081758022308349609e+00,2.092076063156127930e+00,1.716000676155090332e+00,1.704063534736633301e+00,1.703662514686584473e+00,1.752593040466308594e+00,5.000000000000000000e+00,5.000000000000000000e+00,5.000000000000000000e+00,5.000000000000000000e+00,5.000000000000000000e+00,5.000000000000000000e+00,5.000000000000000000e+00,5.000000000000000000e+00,5.000000000000000000e+00,5.000000000000000000e+00,5.000000000000000000e+00,5.000000000000000000e+00,4.857249259948730469e+00,4.666708946228027344e+00,4.490553379058837891e+00,4.327212810516357422e+00,4.175337314605712891e+00,4.033760547637939453e+00,3.901470899581909180e+00,3.777582406997680664e+00,3.661319255828857422e+00,3.551999568939208984e+00,3.449018478393554688e+00,3.351840496063232422e+00,3.259988546371459961e+00,3.173036336898803711e+00,3.090602397918701172e+00,3.012342691421508789e+00,2.937948942184448242e+00,2.867141008377075195e+00,2.799665927886962891e+00,2.735293388366699219e+00,2.673814773559570312e+00,2.615039110183715820e+00,2.558791637420654297e+00,2.504913091659545898e+00,2.453256607055664062e+00,2.403687715530395508e+00,2.356082201004028320e+00,2.310325622558593750e+00,2.266312599182128906e+00,2.223944902420043945e+00,2.183132648468017578e+00,2.143790960311889648e+00,2.105842351913452148e+00,2.069213628768920898e+00,2.033837556838989258e+00,1.999650716781616211e+00,1.966594338417053223e+00,1.934612631797790527e+00,1.903654813766479492e+00,1.873672127723693848e+00,1.844619154930114746e+00
5.000000000000000000e+00,5.000000000000000000e+00,5.000000000000000000e+00,5.000000000000000000e+00,5.000000000000000000e+00,5.000000000000000000e+00,5.000000000000000000e+00,5.000000000000000000e+00,5.000000000000000000e+00,5.000000000000000000e+00,5.000000000000000000e+00,5.000000000000000000e+00,5.000000000000000000e+00,5.000000000000000000e+00,5.000000000000000000e+00,5.000000000000000000e+00,5.000000000000000000e+00,5.000000000000000000e+00,5.000000000000000000e+00,5.000000000000000000e+00,2.093077182769775391e+00,2.093536376953125000e+00,2.103946208953857422e+00,1.716110110282897949e+00,1.704633116722106934e+00,1.704562664031982422e+00,1.739416837692260742e+00,5.000000000000000000e+00,5.000000000000000000e+00,5.000000000000000000e+00,5.000000000000000000e+00,5.000000000000000000e+00,5.000000000000000000e+00,5.000000000000000000e+00,5.000000000000000000e+00,5.000000000000000000e+00,5.000000000000000000e+00,5.000000000000000000e+00,5.000000000000000000e+00,4.857387542724609375e+00,4.666836738586425781e+00,4.490671634674072266e+00,4.327322483062744141e+00,4.175440311431884766e+00,4.033856868743896484e+00,3.901560783386230469e+00,3.777666568756103516e+00,3.661398887634277344e+00,3.552073955535888672e+00,3.449088811874389648e+00,3.351906776428222656e+00,3.260051488876342773e+00,3.173095941543579102e+00,3.090658664703369141e+00,3.012396574020385742e+00,2.937999963760375977e+00,2.867189407348632812e+00,2.799712181091308594e+00,2.735337734222412109e+00,2.673856973648071289e+00,2.615079402923583984e+00,2.558830499649047852e+00,2.504950284957885742e+00,2.453292131423950195e+00,2.403721809387207031e+00,2.356115102767944336e+00,2.310357093811035156e+00,2.266342878341674805e+00,2.223974227905273438e+00,2.183160781860351562e+00,2.143818140029907227e+00,2.105868577957153320e+00,2.069238901138305664e+00,2.033861875534057617e+00,1.999674320220947266e+00,1.966617107391357422e+00,1.934634923934936523e+00,1.903676152229309082e+00,1.873692750930786133e+00,1.844639301300048828e+00
5.000000000000000000e+00,5.000000000000000000e+00,5.000000000000000000e+00,5.000000000000000000e+00,5.000000000000000000e+00,5.000000000000000000e+00,5.000000000000000000e+00,5.000000000000000000e+00,5.000000000000000000e+00,5.000000000000000000e+00,5.000000000000000000e+00,5.000000000000000000e+00,5.000000000000000000e+00,5.000000000000000000e+00,5.000000000000000000e+00,5.000000000000000000e+00,5.000000000000000000e+00,5.000000000000000000e+00,5.000000000000000000e+00,2.134496688842773438e+00,2.099400997161865234e+00,2.106153488159179688e+00,5.000000000000000000e+00,1.716650843620300293e+00,1.705232739448547363e+00,1.704307198524475098e+00,1.726437211036682129e+00,5.000000000000000000e+00,5.000000000000000000e+00,5.000000000000000000e+00,5.000000000000000000e+00,5.000000000000000000e+00,5.000000000000000000e+00,5.000000000000000000e+00,5.000000000000000000e+00,5.000000000000000000e+00,5.000000000000000000e+00,5.000000000000000000e+00,5.000000000000000000e+00,4.857525825500488281e+00,4.666964054107666016e+00,4.490789890289306641e+00,4.327432155609130859e+00,4.175543308258056641e+00,4.033953189849853516e+00,3.901650905609130859e+00,3.777750730514526367e+00,3.661478042602539062e+00,3.552148818969726562e+00,3.449158906936645508e+00,3.351973295211791992e+00,3.260114192962646484e+00,3.173155546188354492e+00,3.090715169906616211e+00,3.012450218200683594e+00,2.938050985336303711e+00,2.867238283157348633e+00,2.799758434295654297e+00,2.735381841659545898e+00,2.673899412155151367e+00,2.615119934082031250e+00,2.558869123458862305e+00,2.504987239837646484e+00,2.453327894210815430e+00,2.403755903244018555e+00,2.356147766113281250e+00,2.310388803482055664e+00,2.266373157501220703e+00,2.224003553390502930e+00,2.183188915252685547e+00,2.143845319747924805e+00,2.105894565582275391e+00,2.069264173507690430e+00,2.033886432647705078e+00,1.999697923660278320e+00,1.966639876365661621e+00,1.934656977653503418e+00,1.903697729110717773e+00,1.873713493347167969e+00,1.844659328460693359e+00
4.875068187713623047e+00,4.873857021331787109e+00,4.872646808624267578e+00,4.871437072753906250e+00,4.870228290557861328e+00,4.869019508361816406e+00,4.867811679840087891e+00,4.866604328155517578e+00,4.865397930145263672e+00,4.864191532135009766e+00,4.862986087799072266e+00,4.861781120300292969e+00,4.860577106475830078e+00,4.859373092651367188e+00,4.858170032501220703e+00,4.856967926025390625e+00,4.855765819549560547e+00,4.854564666748046875e+00,4.853363990783691406e+00,2.128218173980712891e+00,2.110353469848632812e+00,2.131771802902221680e+00,4.848567008972167969e+00,1.726862072944641113e+00,1.705832839012145996e+00,1.698399782180786133e+00,1.713649868965148926e+00,4.842584133148193359e+00,4.841389179229736328e+00,4.840195178985595703e+00,4.839001655578613281e+00,4.837808609008789062e+00,4.836616039276123047e+00,4.835424423217773438e+00,4.834232807159423828e+00,4.833042621612548828e+00,4.831851959228515625e+00,4.830662727355957031e+00,4.829473972320556641e+00,4.828285694122314453e+00,4.667092323303222656e+00,4.490908145904541016e+00,4.327542304992675781e+00,4.175644874572753906e+00,4.034049034118652344e+00,3.901740789413452148e+00,3.777835369110107422e+00,3.661556959152221680e+00,3.552223205566406250e+00,3.449229478836059570e+00,3.352039813995361328e+00,3.260176897048950195e+00,3.173214912414550781e+00,3.090771675109863281e+00,3.012503623962402344e+00,2.938102006912231445e+00,2.867286682128906250e+00,2.799804925918579102e+00,2.735425949096679688e+00,2.673941612243652344e+00,2.615160465240478516e+00,2.558907747268676758e+00,2.505024194717407227e+00,2.453363418579101562e+00,2.403790235519409180e+00,2.356180667877197266e+00,2.310420274734497070e+00,2.266403675079345703e+00,2.224032640457153320e+00,2.183217048645019531e+00,2.143872499465942383e+00,2.105921030044555664e+00,2.069289445877075195e+00,2.033910989761352539e+00,1.999721527099609375e+00,1.966662764549255371e+00,1.934679150581359863e+00,1.903719186782836914e+00,1.873734474182128906e+00,1.844679474830627441e+00
3.777869462966918945e+00,3.777142286300659180e+00,3.776415348052978516e+00,3.775688648223876953e+00,3.774962186813354492e+00,3.774236202239990234e+00,3.773510456085205078e+00,3.772784709930419922e+00,3.772059679031372070e+00,3.771334648132324219e+00,3.770609855651855469e+00,3.769885540008544922e+00,3.769161462783813477e+00,3.768437623977661133e+00,3.767714023590087891e+00,3.766990661621093750e+00,3.766267776489257812e+00,3.765544891357421875e+00,3.764822483062744141e+00,2.145405769348144531e+00,2.122732162475585938e+00,3.762656688690185547e+00,3.761935234069824219e+00,1.744552731513977051e+00,1.706433296203613281e+00,1.695765256881713867e+00,1.706957817077636719e+00,3.758332729339599609e+00,3.757612943649291992e+00,3.756893634796142578e+00,3.756174325942993164e+00,3.755455493927001953e+00,3.754736900329589844e+00,3.754018545150756836e+00,3.753300428390502930e+00,3.752582788467407227e+00,3.751865148544311523e+00,3.751147985458374023e+00,3.750431060791015625e+00,3.749714374542236328e+00,3.748997926712036133e+00,3.748281717300415039e+00,3.747565984725952148e+00,3.746850490570068359e+00,3.746134996414184570e+00,3.745419979095458984e+00,3.744705200195312500e+00,3.661636590957641602e+00,3.552297830581665039e+00,3.449299573898315430e+00,3.352106094360351562e+00,3.260240077972412109e+00,3.173274517059326172e+00,3.090828180313110352e+00,3.012557506561279297e+00,2.938153028488159180e+00,2.867335319519042969e+00,2.799851179122924805e+00,2.735470294952392578e+00,2.673983812332153320e+00,2.615200757980346680e+00,2.558946609497070312e+00,2.505061388015747070e+00,2.453398942947387695e+00,2.403824329376220703e+00,2.356213569641113281e+00,2.310451745986938477e+00,2.266433954238891602e+00,2.224061965942382812e+00,2.183245420455932617e+00,2.143899679183959961e+00,2.105947256088256836e+00,2.069314956665039062e+00,2.033935308456420898e+00,1.999745130538940430e+00,1.966685533523559570e+00,1.934701204299926758e+00,1.903740525245666504e+00,1.873755097389221191e+00,1.844699740409851074e+00
3.083815574645996094e+00,3.083331346511840820e+00,3.082846879959106445e+00,3.082362651824951172e+00,3.081878423690795898e+00,3.081394433975219727e+00,3.080910682678222656e+00,3.080426931381225586e+00,3.079943656921386719e+00,3.079460144042968750e+00,3.078976869583129883e+00,3.078493833541870117e+00,3.078011035919189453e+00,3.077528238296508789e+00,3.077045679092407227e+00,3.076563358306884766e+00,3.076081037521362305e+00,3.075598716735839844e+00,3.075116872787475586e+00,2.137106180191040039e+00,2.138144493103027344e+00,3.073671817779541016e+00,3.073190450668334961e+00,3.072709083557128906e+00,1.721129775047302246e+00,1.707566857337951660e+00,1.710056185722351074e+00,3.070785760879516602e+00,3.070305109024047852e+00,3.069824934005737305e+00,3.069344758987426758e+00,3.068864583969116211e+00,3.068384647369384766e+00,3.067904949188232422e+00,3.067425489425659180e+00,3.066946029663085938e+00,3.066466808319091797e+00,3.065987586975097656e+00,3.065508604049682617e+00,3.065029859542846680e+00,3.064551115036010742e+00,3.064072608947753906e+00,3.063594341278076172e+00,3.063116073608398438e+00,3.062638044357299805e+00,3.062160015106201172e+00,3.061682224273681641e+00,3.061204671859741211e+00,3.060727119445800781e+00,3.060249805450439453e+00,3.059772491455078125e+00,3.059295415878295898e+00,3.058818578720092773e+00,3.058341741561889648e+00,3.012611150741577148e+00,2.938204288482666016e+00,2.867383718490600586e+00,2.799897432327270508e+00,2.735514640808105469e+00,2.674026250839233398e+00,2.615241050720214844e+00,2.558985233306884766e+00,2.505098581314086914e+00,2.453434467315673828e+00,2.403858423233032227e+00,2.356246232986450195e+00,2.310483455657958984e+00,2.266464233398437500e+00,2.224091291427612305e+00,2.183273553848266602e+00,2.143926858901977539e+00,2.105973243713378906e+00,2.069340229034423828e+00,2.033959865570068359e+00,1.999768733978271484e+00,1.966708421707153320e+00,1.934723258018493652e+00,1.903761982917785645e+00,1.873775839805603027e+00,1.844719767570495605e+00
2.605199575424194336e+00,2.604853868484497070e+00,2.604508161544799805e+00,2.604162454605102539e+00,2.603816747665405273e+00,2.603471279144287109e+00,2.603126049041748047e+00,2.602780818939208984e+00,2.602435588836669922e+00,2.602090358734130859e+00,2.601745367050170898e+00,2.601400375366210938e+00,2.601055622100830078e+00,2.600710868835449219e+00,2.600366353988647461e+00,2.600021600723266602e+00,2.599677324295043945e+00,2.599333047866821289e+00,2.598988533020019531e+00,2.122104644775390625e+00,2.089559078216552734e+00,2.597956418991088867e+00,2.597612619400024414e+00,2.597268819808959961e+00,2.596925020217895508e+00,1.700526952743530273e+00,1.675840139389038086e+00,1.678507804870605469e+00,2.595551013946533203e+00,2.595207691192626953e+00,2.594864606857299805e+00,2.594521522521972656e+00,2.594178438186645508e+00,2.593835592269897461e+00,2.593492746353149414e+00,2.593149900436401367e+00,2.592807292938232422e+00,2.592464685440063477e+00,2.592122316360473633e+00,2.591779947280883789e+00,2.591437578201293945e+00,2.591095447540283203e+00,2.590753316879272461e+00,2.590411186218261719e+00,2.590069293975830078e+00,2.589727640151977539e+00,2.589385747909545898e+00,2.589044094085693359e+00,2.588702678680419922e+00,2.588361024856567383e+00,2.588019847869873047e+00,2.587678432464599609e+00,2.587337255477905273e+00,2.586996078491210938e+00,2.586655139923095703e+00,2.586314201354980469e+00,2.585973262786865234e+00,2.585632562637329102e+00,2.585292100906372070e+00,2.584951400756835938e+00,2.584610939025878906e+00,2.559023857116699219e+00,2.505135536193847656e+00,2.453469991683959961e+00,2.403892517089843750e+00,2.356278896331787109e+00,2.310514926910400391e+00,2.266494750976562500e+00,2.224120378494262695e+00,2.183301687240600586e+00,2.143954038619995117e+00,2.105999708175659180e+00,2.069365501403808594e+00,2.033984184265136719e+00,1.999792575836181641e+00,1.966731190681457520e+00,1.934745430946350098e+00,1.903783321380615234e+00,1.873796582221984863e+00,1.844739913940429688e+00
2.255219459533691406e+00,2.254958868026733398e+00,2.254698514938354492e+00,2.254438161849975586e+00,2.254177808761596680e+00,2.253917694091796875e+00,2.253657341003417969e+00,2.253397226333618164e+00,2.253137111663818359e+00,2.252876996994018555e+00,2.252617359161376953e+00,2.252357244491577148e+00,2.252097368240356445e+00,2.251837730407714844e+00,2.251577854156494141e+00,2.251318216323852539e+00,2.251058816909790039e+00,2.250799179077148438e+00,2.250539779663085938e+00,2.250280141830444336e+00,2.039356708526611328e+00,2.059521198272705078e+00,2.249502420425415039e+00,2.249243259429931641e+00,2.248985528945922852e+00,1.676290869712829590e+00,1.637640595436096191e+00,1.619512438774108887e+00,1.593931913375854492e+00,1.593968272209167480e+00,2.247439861297607422e+00,2.247182607650756836e+00,2.246925115585327148e+00,2.246668100357055664e+00,2.246410846710205078e+00,2.246153831481933594e+00,2.245896577835083008e+00,2.245639562606811523e+00,2.245382547378540039e+00,2.245125770568847656e+00,2.244868993759155273e+00,2.244612216949462891e+00,2.244355440139770508e+00,2.244098663330078125e+00,2.243842124938964844e+00,2.243585586547851562e+00,2.243329048156738281e+00,2.243072509765625000e+00,2.242816209793090820e+00,2.242559909820556641e+00,2.242303609848022461e+00,2.242047548294067383e+00,2.241791248321533203e+00,2.241535186767578125e+00,2.241279125213623047e+00,2.241023302078247070e+00,2.240767240524291992e+00,2.240511417388916016e+00,2.240255594253540039e+00,2.240000009536743164e+00,2.239744186401367188e+00,2.239488601684570312e+00,2.239233016967773438e+00,2.238977432250976562e+00,2.238722085952758789e+00,2.238466739654541016e+00,2.238211393356323242e+00,2.237956047058105469e+00,2.224149703979492188e+00,2.183329820632934570e+00,2.143981218338012695e+00,2.106025695800781250e+00,2.069390773773193359e+00,2.034008741378784180e+00,1.999816179275512695e+00,1.966754317283630371e+00,1.934767723083496094e+00,1.903804659843444824e+00,1.873817324638366699e+00,1.844759941101074219e+00
1.988193988800048828e+00,1.987991571426391602e+00,1.987789034843444824e+00,1.987586736679077148e+00,1.987384557723999023e+00,1.987182021141052246e+00,1.986979842185974121e+00,1.986777544021606445e+00,1.986575484275817871e+00,1.986373424530029297e+00,1.986171245574951172e+00,1.985969305038452148e+00,1.985767126083374023e+00,1.985565185546875000e+00,1.985363125801086426e+00,1.985161423683166504e+00,1.984959602355957031e+00,1.984757661819458008e+00,1.984556078910827637e+00,1.984354138374328613e+00,1.984152555465698242e+00,1.983950972557067871e+00,1.983749270439147949e+00,1.983547806739807129e+00,1.983346104621887207e+00,1.664159655570983887e+00,1.599269151687622070e+00,1.610265970230102539e+00,1.982540607452392578e+00,1.982339143753051758e+00,1.982138037681579590e+00,1.981936573982238770e+00,1.981735467910766602e+00,1.981534481048583984e+00,1.981333255767822266e+00,1.981132268905639648e+00,1.980931043624877930e+00,1.980730175971984863e+00,1.980529069900512695e+00,1.980328321456909180e+00,1.980127453804016113e+00,1.979926466941833496e+00,1.979725837707519531e+00,1.979524970054626465e+00,1.979324340820312500e+00,1.979123473167419434e+00,1.978922963142395020e+00,1.978722572326660156e+00,1.978521823883056641e+00,1.978321433067321777e+00,1.978120803833007812e+00,1.977920532226562500e+00,1.977720260620117188e+00,1.977519750595092773e+00,1.977319478988647461e+00,1.977119088172912598e+00,1.976918935775756836e+00,1.976718664169311523e+00,1.976518630981445312e+00,1.976318597793579102e+00,1.976118445396423340e+00,1.975918531417846680e+00,1.975718379020690918e+00,1.975518584251403809e+00,1.975318789482116699e+00,1.975118756294250488e+00,1.974919080734252930e+00,1.974719166755676270e+00,1.974519491195678711e+00,1.974319696426391602e+00,1.974120140075683594e+00,1.973920583724975586e+00,1.973720908164978027e+00,1.973521471023559570e+00,1.973321795463562012e+00,1.966777086257934570e+00,1.934789776802062988e+00,1.903826355934143066e+00,1.873838067054748535e+00,1.844780087471008301e+00
1.777707457542419434e+00,1.777545690536499023e+00,1.777383923530578613e+00,1.777222037315368652e+00,1.777060389518737793e+00,1.776898503303527832e+00,1.776736855506896973e+00,1.776575088500976562e+00,1.776413440704345703e+00,1.776251912117004395e+00,1.776090145111083984e+00,1.775928735733032227e+00,1.775767087936401367e+00,1.775605559349060059e+00,1.775444149971008301e+00,1.775282621383666992e+00,1.775121331214904785e+00,1.774959802627563477e+00,1.774798512458801270e+00,1.774636983871459961e+00,1.774475812911987305e+00,1.774314641952514648e+00,1.774153232574462891e+00,1.773992061614990234e+00,1.773830771446228027e+00,1.773669719696044922e+00,1.773508429527282715e+00,1.773347377777099609e+00,1.773186445236206055e+00,1.773025274276733398e+00,1.772864341735839844e+00,1.772703170776367188e+00,1.772542357444763184e+00,1.772381544113159180e+00,1.772220492362976074e+00,1.772059679031372070e+00,1.771898746490478516e+00,1.771737933158874512e+00,1.771577119827270508e+00,1.771416425704956055e+00,1.771255731582641602e+00,1.771094918251037598e+00,1.770934343338012695e+00,1.770773649215698242e+00,1.770613074302673340e+00,1.770452618598937988e+00,1.770291924476623535e+00,1.770131468772888184e+00,1.769970893859863281e+00,1.769810438156127930e+00,1.769649982452392578e+00,1.769489645957946777e+00,1.769329309463500977e+00,1.769168853759765625e+00,1.769008636474609375e+00,1.768848180770874023e+00,1.768687963485717773e+00,1.768527865409851074e+00,1.768367528915405273e+00,1.768207430839538574e+00,1.768047213554382324e+00,1.767887115478515625e+00,1.767727017402648926e+00,1.767567038536071777e+00,1.767407059669494629e+00,1.767246961593627930e+00,1.767086982727050781e+00,1.766927003860473633e+00,1.766767144203186035e+00,1.766607165336608887e+00,1.766447424888610840e+00,1.766287684440612793e+00,1.766127705574035645e+00,1.765968084335327148e+00,1.765808224678039551e+00,1.765648603439331055e+00,1.765488982200622559e+00,1.765329241752624512e+00,1.765169739723205566e+00,1.765009999275207520e+00
1.607522130012512207e+00,1.607389807701110840e+00,1.607257485389709473e+00,1.607125163078308105e+00,1.606992840766906738e+00,1.606860518455505371e+00,1.606728315353393555e+00,1.606596112251281738e+00,1.606463909149169922e+00,1.606331706047058105e+00,1.606199502944946289e+00,1.606067419052124023e+00,1.605935215950012207e+00,1.605803132057189941e+00,1.605671167373657227e+00,1.605538964271545410e+00,1.605406999588012695e+00,1.605274915695190430e+00,1.605142951011657715e+00,1.605010986328125000e+00,1.604879021644592285e+00,1.604747176170349121e+00,1.604615211486816406e+00,1.604483366012573242e+00,1.604351401329040527e+00,1.604219675064086914e+00,1.604087948799133301e+00,1.603955984115600586e+00,1.603824257850646973e+00,1.603692412376403809e+00,1.603560805320739746e+00,1.603428959846496582e+00,1.603297352790832520e+00,1.603165745735168457e+00,1.603034019470214844e+00,1.602902412414550781e+00,1.602770805358886719e+00,1.602639198303222656e+00,1.602507710456848145e+00,1.602376103401184082e+00,1.602244734764099121e+00,1.602113127708435059e+00,1.601981639862060547e+00,1.601850152015686035e+00,1.601718783378601074e+00,1.601587414741516113e+00,1.601455926895141602e+00,1.601324677467346191e+00,1.601193189620971680e+00,1.601061940193176270e+00,1.600930571556091309e+00,1.600799441337585449e+00,1.600668191909790039e+00,1.600536823272705078e+00,1.600405693054199219e+00,1.600274443626403809e+00,1.600143313407897949e+00,1.600012302398681641e+00,1.599880933761596680e+00,1.599749922752380371e+00,1.599618792533874512e+00,1.599487781524658203e+00,1.599356651306152344e+00,1.599225640296936035e+00,1.599094748497009277e+00,1.598963737487792969e+00,1.598832845687866211e+00,1.598701834678649902e+00,1.598570942878723145e+00,1.598440051078796387e+00,1.598309159278869629e+00,1.598178386688232422e+00,1.598047494888305664e+00,1.597916722297668457e+00,1.597785830497741699e+00,1.597655177116394043e+00,1.597524404525756836e+00,1.597393631935119629e+00,1.597262978553771973e+00,1.597132205963134766e+00
1.467074632644653320e+00,1.466964364051818848e+00,1.466854214668273926e+00,1.466743826866149902e+00,1.466633677482604980e+00,1.466523528099060059e+00,1.466413378715515137e+00,1.466303229331970215e+00,1.466193079948425293e+00,1.466083049774169922e+00,1.465972781181335449e+00,1.465862870216369629e+00,1.465752720832824707e+00,1.465642690658569336e+00,1.465532660484313965e+00,1.465422630310058594e+00,1.465312719345092773e+00,1.465202569961547852e+00,1.465092658996582031e+00,1.464982748031616211e+00,1.464872837066650391e+00,1.464762926101684570e+00,1.464653015136718750e+00,1.464543104171752930e+00,1.464433193206787109e+00,1.464323401451110840e+00,1.464213609695434570e+00,1.464103698730468750e+00,1.463994026184082031e+00,1.463884115219116211e+00,1.463774442672729492e+00,1.463664770126342773e+00,1.463554859161376953e+00,1.463445305824279785e+00,1.463335514068603516e+00,1.463225841522216797e+00,1.463116049766540527e+00,1.463006496429443359e+00,1.462896943092346191e+00,1.462787270545959473e+00,1.462677717208862305e+00,1.462568044662475586e+00,1.462458491325378418e+00,1.462349057197570801e+00,1.462239384651184082e+00,1.462129950523376465e+00,1.462020397186279297e+00,1.461910963058471680e+00,1.461801409721374512e+00,1.461691975593566895e+00,1.461582660675048828e+00,1.461473107337951660e+00,1.461363792419433594e+00,1.461254358291625977e+00,1.461145043373107910e+00,1.461035609245300293e+00,1.460926294326782227e+00,1.460816979408264160e+00,1.460707664489746094e+00,1.460598468780517578e+00,1.460489034652709961e+00,1.460379838943481445e+00,1.460270643234252930e+00,1.460161328315734863e+00,1.460052251815795898e+00,1.459942936897277832e+00,1.459833860397338867e+00,1.459724664688110352e+00,1.459615468978881836e+00,1.459506392478942871e+00,1.459397315979003906e+00,1.459288239479064941e+00,1.459179043769836426e+00,1.459070086479187012e+00,1.458961009979248047e+00,1.458851933479309082e+00,1.458742976188659668e+00,1.458633899688720703e+00,1.458525061607360840e+00,1.458415985107421875e+00
1.349196672439575195e+00,1.349103331565856934e+00,1.349010109901428223e+00,1.348916888236999512e+00,1.348823785781860352e+00,1.348730444908142090e+00,1.348637342453002930e+00,1.348544239997863770e+00,1.348451018333435059e+00,1.348357915878295898e+00,1.348264694213867188e+00,1.348171710968017578e+00,1.348078608512878418e+00,1.347985506057739258e+00,1.347892403602600098e+00,1.347799301147460938e+00,1.347706317901611328e+00,1.347613215446472168e+00,1.347520232200622559e+00,1.347427248954772949e+00,1.347334265708923340e+00,1.347241282463073730e+00,1.347148299217224121e+00,1.347055435180664062e+00,1.346962451934814453e+00,1.346869468688964844e+00,1.346776604652404785e+00,1.346683621406555176e+00,1.346590757369995117e+00,1.346497893333435059e+00,1.346405029296875000e+00,1.346312284469604492e+00,1.346219301223754883e+00,1.346126556396484375e+00,1.346033692359924316e+00,1.345940947532653809e+00,1.345848083496093750e+00,1.345755338668823242e+00,1.345662593841552734e+00,1.345569729804992676e+00,1.345477104187011719e+00,1.345384240150451660e+00,1.345291614532470703e+00,1.345198988914489746e+00,1.345106244087219238e+00,1.345013618469238281e+00,1.344920873641967773e+00,1.344828248023986816e+00,1.344735503196716309e+00,1.344642996788024902e+00,1.344550371170043945e+00,1.344457745552062988e+00,1.344365239143371582e+00,1.344272494316101074e+00,1.344179987907409668e+00,1.344087481498718262e+00,1.343994975090026855e+00,1.343902468681335449e+00,1.343809843063354492e+00,1.343717455863952637e+00,1.343624830245971680e+00,1.343532443046569824e+00,1.343440055847167969e+00,1.343347549438476562e+00,1.343255162239074707e+00,1.343162655830383301e+00,1.343070268630981445e+00,1.342977881431579590e+00,1.342885494232177734e+00,1.342793107032775879e+00,1.342700719833374023e+00,1.342608451843261719e+00,1.342516064643859863e+00,1.342423796653747559e+00,1.342331528663635254e+00,1.342239141464233398e+00,1.342146873474121094e+00,1.342054605484008789e+00,1.341962337493896484e+00,1.341870069503784180e+00
1.248852610588073730e+00,1.248772740364074707e+00,1.248692870140075684e+00,1.248612880706787109e+00,1.248533129692077637e+00,1.248453259468078613e+00,1.248373389244079590e+00,1.248293638229370117e+00,1.248213768005371094e+00,1.248134016990661621e+00,1.248054146766662598e+00,1.247974395751953125e+00,1.247894644737243652e+00,1.247814774513244629e+00,1.247735142707824707e+00,1.247655272483825684e+00,1.247575640678405762e+00,1.247495889663696289e+00,1.247416138648986816e+00,1.247336506843566895e+00,1.247256755828857422e+00,1.247177124023437500e+00,1.247097373008728027e+00,1.247017741203308105e+00,1.246938109397888184e+00,1.246858477592468262e+00,1.246778845787048340e+00,1.246699213981628418e+00,1.246619582176208496e+00,1.246539950370788574e+00,1.246460437774658203e+00,1.246380805969238281e+00,1.246301174163818359e+00,1.246221661567687988e+00,1.246142148971557617e+00,1.246062636375427246e+00,1.245983123779296875e+00,1.245903491973876953e+00,1.245824098587036133e+00,1.245744466781616211e+00,1.245665073394775391e+00,1.245585560798645020e+00,1.245506048202514648e+00,1.245426654815673828e+00,1.245347142219543457e+00,1.245267748832702637e+00,1.245188236236572266e+00,1.245108842849731445e+00,1.245029568672180176e+00,1.244950056076049805e+00,1.244870662689208984e+00,1.244791269302368164e+00,1.244711995124816895e+00,1.244632482528686523e+00,1.244553208351135254e+00,1.244473934173583984e+00,1.244394540786743164e+00,1.244315266609191895e+00,1.244235873222351074e+00,1.244156599044799805e+00,1.244077324867248535e+00,1.243998050689697266e+00,1.243918776512145996e+00,1.243839502334594727e+00,1.243760347366333008e+00,1.243681073188781738e+00,1.243601799011230469e+00,1.243522644042968750e+00,1.243443369865417480e+00,1.243364214897155762e+00,1.243285059928894043e+00,1.243205904960632324e+00,1.243126630783081055e+00,1.243047475814819336e+00,1.242968440055847168e+00,1.242889285087585449e+00,1.242810130119323730e+00,1.242730975151062012e+00,1.242651939392089844e+00,1.242572903633117676e+00
1.162401199340820312e+00,1.162331938743591309e+00,1.162262797355651855e+00,1.162193536758422852e+00,1.162124395370483398e+00,1.162055253982543945e+00,1.161985993385314941e+00,1.161916851997375488e+00,1.161847710609436035e+00,1.161778569221496582e+00,1.161709427833557129e+00,1.161640286445617676e+00,1.161571145057678223e+00,1.161502003669738770e+00,1.161432981491088867e+00,1.161363840103149414e+00,1.161294817924499512e+00,1.161225676536560059e+00,1.161156654357910156e+00,1.161087632179260254e+00,1.161018490791320801e+00,1.160949468612670898e+00,1.160880327224731445e+00,1.160811424255371094e+00,1.160742402076721191e+00,1.160673379898071289e+00,1.160604357719421387e+00,1.160535335540771484e+00,1.160466313362121582e+00,1.160397410392761230e+00,1.160328388214111328e+00,1.160259485244750977e+00,1.160190463066101074e+00,1.160121560096740723e+00,1.160052537918090820e+00,1.159983634948730469e+00,1.159914731979370117e+00,1.159845829010009766e+00,1.159776926040649414e+00,1.159708023071289062e+00,1.159639120101928711e+00,1.159570336341857910e+00,1.159501314163208008e+00,1.159432530403137207e+00,1.159363627433776855e+00,1.159294843673706055e+00,1.159225940704345703e+00,1.159157156944274902e+00,1.159088373184204102e+00,1.159019470214843750e+00,1.158950686454772949e+00,1.158881783485412598e+00,1.158813118934631348e+00,1.158744215965270996e+00,1.158675551414489746e+00,1.158606767654418945e+00,1.158537983894348145e+00,1.158469200134277344e+00,1.158400416374206543e+00,1.158331751823425293e+00,1.158263087272644043e+00,1.158194303512573242e+00,1.158125638961791992e+00,1.158056855201721191e+00,1.157988190650939941e+00,1.157919526100158691e+00,1.157850861549377441e+00,1.157782196998596191e+00,1.157713532447814941e+00,1.157644867897033691e+00,1.157576203346252441e+00,1.157507658004760742e+00,1.157438993453979492e+00,1.157370328903198242e+00,1.157301783561706543e+00,1.157233119010925293e+00,1.157164573669433594e+00,1.157095909118652344e+00,1.157027363777160645e+00,1.156958818435668945e+00
1.087143898010253906e+00,1.087083339691162109e+00,1.087022900581359863e+00,1.086962342262268066e+00,1.086901783943176270e+00,1.086841344833374023e+00,1.086780786514282227e+00,1.086720347404479980e+00,1.086659789085388184e+00,1.086599349975585938e+00,1.086538910865783691e+00,1.086478352546691895e+00,1.086417913436889648e+00,1.086357355117797852e+00,1.086297035217285156e+00,1.086236476898193359e+00,1.086176156997680664e+00,1.086115717887878418e+00,1.086055278778076172e+00,1.085994839668273926e+00,1.085934400558471680e+00,1.085873961448669434e+00,1.085813641548156738e+00,1.085753202438354492e+00,1.085692882537841797e+00,1.085632443428039551e+00,1.085572123527526855e+00,1.085511684417724609e+00,1.085451364517211914e+00,1.085391044616699219e+00,1.085330724716186523e+00,1.085270404815673828e+00,1.085209965705871582e+00,1.085149765014648438e+00,1.085089445114135742e+00,1.085029125213623047e+00,1.084968805313110352e+00,1.084908485412597656e+00,1.084848165512084961e+00,1.084787845611572266e+00,1.084727644920349121e+00,1.084667325019836426e+00,1.084607124328613281e+00,1.084546804428100586e+00,1.084486603736877441e+00,1.084426283836364746e+00,1.084366083145141602e+00,1.084305882453918457e+00,1.084245681762695312e+00,1.084185361862182617e+00,1.084125280380249023e+00,1.084064960479736328e+00,1.084004878997802734e+00,1.083944678306579590e+00,1.083884477615356445e+00,1.083824276924133301e+00,1.083764076232910156e+00,1.083703994750976562e+00,1.083643794059753418e+00,1.083583593368530273e+00,1.083523511886596680e+00,1.083463311195373535e+00,1.083403229713439941e+00,1.083343029022216797e+00,1.083282947540283203e+00,1.083222866058349609e+00,1.083162784576416016e+00,1.083102703094482422e+00,1.083042621612548828e+00,1.082982540130615234e+00,1.082922339439392090e+00,1.082862377166748047e+00,1.082802295684814453e+00,1.082742214202880859e+00,1.082682251930236816e+00,1.082622170448303223e+00,1.082562088966369629e+00,1.082502126693725586e+00,1.082442045211791992e+00,1.082382082939147949e+00
1.021038889884948730e+00,1.020985484123229980e+00,1.020932078361511230e+00,1.020878672599792480e+00,1.020825266838073730e+00,1.020771980285644531e+00,1.020718574523925781e+00,1.020665168762207031e+00,1.020611763000488281e+00,1.020558476448059082e+00,1.020505189895629883e+00,1.020451784133911133e+00,1.020398497581481934e+00,1.020345091819763184e+00,1.020291805267333984e+00,1.020238518714904785e+00,1.020185112953186035e+00,1.020131826400756836e+00,1.020078539848327637e+00,1.020025253295898438e+00,1.019971966743469238e+00,1.019918680191040039e+00,1.019865393638610840e+00,1.019812107086181641e+00,1.019758820533752441e+00,1.019705533981323242e+00,1.019652247428894043e+00,1.019599080085754395e+00,1.019545793533325195e+00,1.019492506980895996e+00,1.019439339637756348e+00,1.019386053085327148e+00,1.019332766532897949e+00,1.019279599189758301e+00,1.019226431846618652e+00,1.019173145294189453e+00,1.019119977951049805e+00,1.019066810607910156e+00,1.019013643264770508e+00,1.018960356712341309e+00,1.018907189369201660e+00,1.018854022026062012e+00,1.018800854682922363e+00,1.018747687339782715e+00,1.018694519996643066e+00,1.018641352653503418e+00,1.018588304519653320e+00,1.018535137176513672e+00,1.018481969833374023e+00,1.018428802490234375e+00,1.018375754356384277e+00,1.018322587013244629e+00,1.018269419670104980e+00,1.018216371536254883e+00,1.018163204193115234e+00,1.018110156059265137e+00,1.018056988716125488e+00,1.018003940582275391e+00,1.017950892448425293e+00,1.017897844314575195e+00,1.017844796180725098e+00,1.017791628837585449e+00,1.017738580703735352e+00,1.017685532569885254e+00,1.017632484436035156e+00,1.017579436302185059e+00,1.017526388168334961e+00,1.017473340034484863e+00,1.017420291900634766e+00,1.017367362976074219e+00,1.017314314842224121e+00,1.017261266708374023e+00,1.017208337783813477e+00,1.017155289649963379e+00,1.017102360725402832e+00,1.017049312591552734e+00,1.016996264457702637e+00,1.016943335533142090e+00,1.016890406608581543e+00,1.016837358474731445e+00
9.625122547149658203e-01,9.624647498130798340e-01,9.624174237251281738e-01,9.623699188232421875e-01,9.623224139213562012e-01,9.622750878334045410e-01,9.622276425361633301e-01,9.621801376342773438e-01,9.621328115463256836e-01,9.620853662490844727e-01,9.620379209518432617e-01,9.619904756546020508e-01,9.619431495666503906e-01,9.618957638740539551e-01,9.618483185768127441e-01,9.618009924888610840e-01,9.617536067962646484e-01,9.617061614990234375e-01,9.616587758064270020e-01,9.616115093231201172e-01,9.615640640258789062e-01,9.615166783332824707e-01,9.614694118499755859e-01,9.614220261573791504e-01,9.613746404647827148e-01,9.613272547721862793e-01,9.612799882888793945e-01,9.612326622009277344e-01,9.611852765083312988e-01,9.611380696296691895e-01,9.610906839370727539e-01,9.610433578491210938e-01,9.609960317611694336e-01,9.609487652778625488e-01,9.609014391899108887e-01,9.608541131019592285e-01,9.608069062232971191e-01,9.607595801353454590e-01,9.607122540473937988e-01,9.606651067733764648e-01,9.606177806854248047e-01,9.605704545974731445e-01,9.605231881141662598e-01,9.604759812355041504e-01,9.604287147521972656e-01,9.603814482688903809e-01,9.603342413902282715e-01,9.602869749069213867e-01,9.602397084236145020e-01,9.601924419403076172e-01,9.601452946662902832e-01,9.600980877876281738e-01,9.600508213043212891e-01,9.600036740303039551e-01,9.599564671516418457e-01,9.599092006683349609e-01,9.598619937896728516e-01,9.598148465156555176e-01,9.597676396369934082e-01,9.597204327583312988e-01,9.596733450889587402e-01,9.596261382102966309e-01,9.595789313316345215e-01,9.595317244529724121e-01,9.594846367835998535e-01,9.594374299049377441e-01,9.593902826309204102e-01,9.593431949615478516e-01,9.592959880828857422e-01,9.592488408088684082e-01,9.592018127441406250e-01,9.591546058654785156e-01,9.591074585914611816e-01,9.590603113174438477e-01,9.590132832527160645e-01,9.589661359786987305e-01,9.589189887046813965e-01,9.588719606399536133e-01,9.588248729705810547e-01,9.587777256965637207e-01
9.103314876556396484e-01,9.102889895439147949e-01,9.102465510368347168e-01,9.102041721343994141e-01,9.101616740226745605e-01,9.101192355155944824e-01,9.100767374038696289e-01,9.100344181060791016e-01,9.099919795989990234e-01,9.099495410919189453e-01,9.099071621894836426e-01,9.098647236824035645e-01,9.098222851753234863e-01,9.097799658775329590e-01,9.097375273704528809e-01,9.096951484680175781e-01,9.096527099609375000e-01,9.096103906631469727e-01,9.095679521560668945e-01,9.095255732536315918e-01,9.094832539558410645e-01,9.094408750534057617e-01,9.093984961509704590e-01,9.093560576438903809e-01,9.093137979507446289e-01,9.092714190483093262e-01,9.092290401458740234e-01,9.091867804527282715e-01,9.091444015502929688e-01,9.091020226478576660e-01,9.090596437454223633e-01,9.090173840522766113e-01,9.089750647544860840e-01,9.089326858520507812e-01,9.088904261589050293e-01,9.088481068611145020e-01,9.088057875633239746e-01,9.087634086608886719e-01,9.087212085723876953e-01,9.086788892745971680e-01,9.086365699768066406e-01,9.085943102836608887e-01,9.085519909858703613e-01,9.085096716880798340e-01,9.084674715995788574e-01,9.084252119064331055e-01,9.083828926086425781e-01,9.083405733108520508e-01,9.082984328269958496e-01,9.082561135292053223e-01,9.082138538360595703e-01,9.081716537475585938e-01,9.081293940544128418e-01,9.080870747566223145e-01,9.080448150634765625e-01,9.080026745796203613e-01,9.079604148864746094e-01,9.079181551933288574e-01,9.078760147094726562e-01,9.078337550163269043e-01,9.077914953231811523e-01,9.077492356300354004e-01,9.077070951461791992e-01,9.076648950576782227e-01,9.076226353645324707e-01,9.075805544853210449e-01,9.075382947921752930e-01,9.074960947036743164e-01,9.074538946151733398e-01,9.074117541313171387e-01,9.073695540428161621e-01,9.073273539543151855e-01,9.072852730751037598e-01,9.072430729866027832e-01,9.072008728981018066e-01,9.071587920188903809e-01,9.071166515350341797e-01,9.070744514465332031e-01,9.070322513580322266e-01,9.069902300834655762e-01
8.635174036026000977e-01,8.634792566299438477e-01,8.634410500526428223e-01,8.634028434753417969e-01,8.633646368980407715e-01,8.633265495300292969e-01,8.632883429527282715e-01,8.632501363754272461e-01,8.632119894027709961e-01,8.631738424301147461e-01,8.631356358528137207e-01,8.630974292755126953e-01,8.630593419075012207e-01,8.630211353302001953e-01,8.629829883575439453e-01,8.629449009895324707e-01,8.629067540168762207e-01,8.628685474395751953e-01,8.628304004669189453e-01,8.627923130989074707e-01,8.627541661262512207e-01,8.627160191535949707e-01,8.626779317855834961e-01,8.626397848129272461e-01,8.626016378402709961e-01,8.625636100769042969e-01,8.625254631042480469e-01,8.624873161315917969e-01,8.624492287635803223e-01,8.624112010002136230e-01,8.623730540275573730e-01,8.623349070549011230e-01,8.622968792915344238e-01,8.622587919235229492e-01,8.622207045555114746e-01,8.621825575828552246e-01,8.621445894241333008e-01,8.621064424514770508e-01,8.620683550834655762e-01,8.620303869247436523e-01,8.619922995567321777e-01,8.619542121887207031e-01,8.619161248207092285e-01,8.618780970573425293e-01,8.618400096893310547e-01,8.618019819259643555e-01,8.617639541625976562e-01,8.617259263992309570e-01,8.616878390312194824e-01,8.616498112678527832e-01,8.616118431091308594e-01,8.615737557411193848e-01,8.615357279777526855e-01,8.614977598190307617e-01,8.614597320556640625e-01,8.614217042922973633e-01,8.613837361335754395e-01,8.613457083702087402e-01,8.613076806068420410e-01,8.612696528434753418e-01,8.612317442893981934e-01,8.611937165260314941e-01,8.611556887626647949e-01,8.611177802085876465e-01,8.610797524452209473e-01,8.610417246818542480e-01,8.610037565231323242e-01,8.609658479690551758e-01,8.609278202056884766e-01,8.608898520469665527e-01,8.608519434928894043e-01,8.608139753341674805e-01,8.607759475708007812e-01,8.607379794120788574e-01,8.607001304626464844e-01,8.606621623039245605e-01,8.606241941452026367e-01,8.605862855911254883e-01,8.605483174324035645e-01,8.605103492736816406e-01
8.212828040122985840e-01,8.212482333183288574e-01,8.212136626243591309e-01,8.211791515350341797e-01,8.211445808410644531e-01,8.211100101470947266e-01,8.210755586624145508e-01,8.210409879684448242e-01,8.210064768791198730e-01,8.209719061851501465e-01,8.209374547004699707e-01,8.209028840065002441e-01,8.208683729171752930e-01,8.208339214324951172e-01,8.207993507385253906e-01,8.207648396492004395e-01,8.207302689552307129e-01,8.206958770751953125e-01,8.206613063812255859e-01,8.206267952919006348e-01,8.205923438072204590e-01,8.205578327178955078e-01,8.205233216285705566e-01,8.204888105392456055e-01,8.204544186592102051e-01,8.204199075698852539e-01,8.203853964805603027e-01,8.203510046005249023e-01,8.203164935111999512e-01,8.202819824218750000e-01,8.202475309371948242e-01,8.202130794525146484e-01,8.201786279678344727e-01,8.201441168785095215e-01,8.201097249984741211e-01,8.200752735137939453e-01,8.200408220291137695e-01,8.200064301490783691e-01,8.199719190597534180e-01,8.199374675750732422e-01,8.199030160903930664e-01,8.198686242103576660e-01,8.198341727256774902e-01,8.197997212409973145e-01,8.197653889656066895e-01,8.197309374809265137e-01,8.196964859962463379e-01,8.196620345115661621e-01,8.196277022361755371e-01,8.195932507514953613e-01,8.195587992668151855e-01,8.195244669914245605e-01,8.194900155067443848e-01,8.194556236267089844e-01,8.194211721420288086e-01,8.193868398666381836e-01,8.193524479866027832e-01,8.193180561065673828e-01,8.192837238311767578e-01,8.192492723464965820e-01,8.192148804664611816e-01,8.191805481910705566e-01,8.191461563110351562e-01,8.191117644309997559e-01,8.190773725509643555e-01,8.190430998802185059e-01,8.190087080001831055e-01,8.189743161201477051e-01,8.189400434494018555e-01,8.189056515693664551e-01,8.188712596893310547e-01,8.188368678092956543e-01,8.188025951385498047e-01,8.187682628631591797e-01,8.187338709831237793e-01,8.186995983123779297e-01,8.186652660369873047e-01,8.186308741569519043e-01,8.185965418815612793e-01,8.185622692108154297e-01
7.829868793487548828e-01,7.829555273056030273e-01,7.829241156578063965e-01,7.828927040100097656e-01,7.828612327575683594e-01,7.828299403190612793e-01,7.827985286712646484e-01,7.827671170234680176e-01,7.827357649803161621e-01,7.827043533325195312e-01,7.826729416847229004e-01,7.826416492462158203e-01,7.826102375984191895e-01,7.825788259506225586e-01,7.825474739074707031e-01,7.825161218643188477e-01,7.824847102165222168e-01,7.824533581733703613e-01,7.824220657348632812e-01,7.823906540870666504e-01,7.823593020439147949e-01,7.823278903961181641e-01,7.822965979576110840e-01,7.822652459144592285e-01,7.822338938713073730e-01,7.822026014328002930e-01,7.821712493896484375e-01,7.821398377418518066e-01,7.821084856986999512e-01,7.820772528648376465e-01,7.820459008216857910e-01,7.820145487785339355e-01,7.819832563400268555e-01,7.819519042968750000e-01,7.819205522537231445e-01,7.818892002105712891e-01,7.818579673767089844e-01,7.818266153335571289e-01,7.817952632904052734e-01,7.817640304565429688e-01,7.817327380180358887e-01,7.817013859748840332e-01,7.816701531410217285e-01,7.816388010978698730e-01,7.816075086593627930e-01,7.815761566162109375e-01,7.815449237823486328e-01,7.815136313438415527e-01,7.814823389053344727e-01,7.814511060714721680e-01,7.814198136329650879e-01,7.813885211944580078e-01,7.813572287559509277e-01,7.813259959220886230e-01,7.812947034835815430e-01,7.812634110450744629e-01,7.812321782112121582e-01,7.812008857727050781e-01,7.811695933341979980e-01,7.811383605003356934e-01,7.811071276664733887e-01,7.810758352279663086e-01,7.810446023941040039e-01,7.810133695602416992e-01,7.809821367263793945e-01,7.809508442878723145e-01,7.809196114540100098e-01,7.808884382247924805e-01,7.808571457862854004e-01,7.808259129524230957e-01,7.807947397232055664e-01,7.807634472846984863e-01,7.807322144508361816e-01,7.807010412216186523e-01,7.806698083877563477e-01,7.806385755538940430e-01,7.806073427200317383e-01,7.805761694908142090e-01,7.805449366569519043e-01,7.805137038230895996e-01
7.481033205986022949e-01,7.480746507644653320e-01,7.480459213256835938e-01,7.480173110961914062e-01,7.479886412620544434e-01,7.479599714279174805e-01,7.479313611984252930e-01,7.479026913642883301e-01,7.478740215301513672e-01,7.478453516960144043e-01,7.478167414665222168e-01,7.477880716323852539e-01,7.477594017982482910e-01,7.477307915687561035e-01,7.477021813392639160e-01,7.476735115051269531e-01,7.476448416709899902e-01,7.476162910461425781e-01,7.475876212120056152e-01,7.475589513778686523e-01,7.475304007530212402e-01,7.475017309188842773e-01,7.474731206893920898e-01,7.474445104598999023e-01,7.474159002304077148e-01,7.473872900009155273e-01,7.473586201667785645e-01,7.473300695419311523e-01,7.473014593124389648e-01,7.472727894783020020e-01,7.472442388534545898e-01,7.472156286239624023e-01,7.471870183944702148e-01,7.471584081649780273e-01,7.471298575401306152e-01,7.471012473106384277e-01,7.470726370811462402e-01,7.470440864562988281e-01,7.470154762268066406e-01,7.469868659973144531e-01,7.469582557678222656e-01,7.469297647476196289e-01,7.469011545181274414e-01,7.468725442886352539e-01,7.468439936637878418e-01,7.468154430389404297e-01,7.467868328094482422e-01,7.467583417892456055e-01,7.467297315597534180e-01,7.467011809349060059e-01,7.466725707054138184e-01,7.466440796852111816e-01,7.466154694557189941e-01,7.465869188308715820e-01,7.465584278106689453e-01,7.465298175811767578e-01,7.465012669563293457e-01,7.464727163314819336e-01,7.464442253112792969e-01,7.464156746864318848e-01,7.463871240615844727e-01,7.463586330413818359e-01,7.463300824165344238e-01,7.463015317916870117e-01,7.462729811668395996e-01,7.462444901466369629e-01,7.462159395217895508e-01,7.461873888969421387e-01,7.461588978767395020e-01,7.461303472518920898e-01,7.461018562316894531e-01,7.460733056068420410e-01,7.460448145866394043e-01,7.460163235664367676e-01,7.459877729415893555e-01,7.459593415260314941e-01,7.459307909011840820e-01,7.459022998809814453e-01,7.458738088607788086e-01,7.458453178405761719e-01
