5.000000000000000000e+00,5.000000000000000000e+00,5.000000000000000000e+00,5.000000000000000000e+00,5.000000000000000000e+00,5.000000000000000000e+00,5.000000000000000000e+00,5.000000000000000000e+00,5.000000000000000000e+00,5.000000000000000000e+00,5.000000000000000000e+00,5.000000000000000000e+00,5.000000000000000000e+00,5.000000000000000000e+00,5.000000000000000000e+00,5.000000000000000000e+00,5.000000000000000000e+00,5.000000000000000000e+00,5.000000000000000000e+00,5.000000000000000000e+00,5.000000000000000000e+00,5.000000000000000000e+00,5.000000000000000000e+00,5.000000000000000000e+00,5.000000000000000000e+00,5.000000000000000000e+00,5.000000000000000000e+00,5.000000000000000000e+00,5.000000000000000000e+00,5.000000000000000000e+00,5.000000000000000000e+00,5.000000000000000000e+00,5.000000000000000000e+00,5.000000000000000000e+00,5.000000000000000000e+00,5.000000000000000000e+00,5.000000000000000000e+00,5.000000000000000000e+00,5.000000000000000000e+00,5.000000000000000000e+00,4.872946739196777344e+00,4.679749488830566406e+00,4.501287937164306641e+00,4.335937023162841797e+00,4.182303905487060547e+00,4.039185047149658203e+00,3.905537843704223633e+00,3.780450820922851562e+00,3.663128376007080078e+00,3.552868366241455078e+00,3.449052095413208008e+00,3.351130485534667969e+00,3.258615970611572266e+00,3.171072006225585938e+00,3.088109016418457031e+00,3.009376287460327148e+00,2.934558391571044922e+00,2.863370418548583984e+00,2.795554399490356445e+00,2.730876445770263672e+00,2.669123411178588867e+00,2.610101699829101562e+00,2.553633689880371094e+00,2.499557256698608398e+00,2.447723627090454102e+00,2.397995948791503906e+00,2.350248575210571289e+00,2.304365634918212891e+00,2.260240077972412109e+00,2.217772483825683594e+00,2.176871299743652344e+00,2.137451410293579102e+00,2.099433660507202148e+00,2.062744855880737305e+00,2.027316331863403320e+00,1.993084073066711426e+00,1.959989070892333984e+00,1.927974820137023926e+00,1.896989703178405762e+00,1.866984724998474121e+00
5.000000000000000000e+00,5.000000000000000000e+00,5.000000000000000000e+00,5.000000000000000000e+00,5.000000000000000000e+00,5.000000000000000000e+00,5.000000000000000000e+00,5.000000000000000000e+00,5.000000000000000000e+00,5.000000000000000000e+00,5.000000000000000000e+00,5.000000000000000000e+00,5.000000000000000000e+00,5.000000000000000000e+00,5.000000000000000000e+00,5.000000000000000000e+00,5.000000000000000000e+00,5.000000000000000000e+00,5.000000000000000000e+00,5.000000000000000000e+00,5.000000000000000000e+00,5.000000000000000000e+00,5.000000000000000000e+00,5.000000000000000000e+00,5.000000000000000000e+00,5.000000000000000000e+00,5.000000000000000000e+00,5.000000000000000000e+00,5.000000000000000000e+00,5.000000000000000000e+00,5.000000000000000000e+00,5.000000000000000000e+00,5.000000000000000000e+00,5.000000000000000000e+00,5.000000000000000000e+00,5.000000000000000000e+00,5.000000000000000000e+00,5.000000000000000000e+00,5.000000000000000000e+00,5.000000000000000000e+00,4.873089313507080078e+00,4.679880619049072266e+00,4.501409053802490234e+00,4.336049556732177734e+00,4.182408332824707031e+00,4.039282798767089844e+00,3.905629158020019531e+00,3.780536651611328125e+00,3.663208723068237305e+00,3.552943944931030273e+00,3.449123382568359375e+00,3.351197957992553711e+00,3.258679628372192383e+00,3.171132326126098633e+00,3.088165998458862305e+00,3.009430408477783203e+00,2.934609889984130859e+00,2.863419532775878906e+00,2.795601129531860352e+00,2.730921030044555664e+00,2.669166088104248047e+00,2.610142707824707031e+00,2.553672790527343750e+00,2.499594688415527344e+00,2.447759389877319336e+00,2.398030519485473633e+00,2.350281715393066406e+00,2.304397583007812500e+00,2.260270595550537109e+00,2.217801809310913086e+00,2.176899433135986328e+00,2.137478590011596680e+00,2.099460124969482422e+00,2.062770366668701172e+00,2.027340888977050781e+00,1.993108034133911133e+00,1.960011959075927734e+00,1.927996993064880371e+00,1.897011399269104004e+00,1.867005705833435059e+00
5.000000000000000000e+00,5.000000000000000000e+00,5.000000000000000000e+00,5.000000000000000000e+00,5.000000000000000000e+00,5.000000000000000000e+00,5.000000000000000000e+00,5.000000000000000000e+00,5.000000000000000000e+00,5.000000000000000000e+00,5.000000000000000000e+00,5.000000000000000000e+00,5.000000000000000000e+00,5.000000000000000000e+00,5.000000000000000000e+00,5.000000000000000000e+00,5.000000000000000000e+00,5.000000000000000000e+00,5.000000000000000000e+00,5.000000000000000000e+00,5.000000000000000000e+00,5.000000000000000000e+00,5.000000000000000000e+00,5.000000000000000000e+00,5.000000000000000000e+00,5.000000000000000000e+00,5.000000000000000000e+00,5.000000000000000000e+00,5.000000000000000000e+00,5.000000000000000000e+00,5.000000000000000000e+00,5.000000000000000000e+00,5.000000000000000000e+00,5.000000000000000000e+00,5.000000000000000000e+00,5.000000000000000000e+00,5.000000000000000000e+00,5.000000000000000000e+00,5.000000000000000000e+00,5.000000000000000000e+00,4.873230934143066406e+00,4.680011749267578125e+00,4.501530647277832031e+00,4.336162090301513672e+00,4.182513236999511719e+00,4.039380550384521484e+00,3.905720472335815430e+00,3.780622243881225586e+00,3.663289070129394531e+00,3.553019523620605469e+00,3.449194669723510742e+00,3.351265192031860352e+00,3.258743286132812500e+00,3.171192407608032227e+00,3.088223218917846680e+00,3.009484529495239258e+00,2.934661626815795898e+00,2.863468408584594727e+00,2.795647859573364258e+00,2.730965852737426758e+00,2.669208765029907227e+00,2.610183477401733398e+00,2.553711891174316406e+00,2.499632120132446289e+00,2.447795391082763672e+00,2.398064851760864258e+00,2.350314855575561523e+00,2.304429292678833008e+00,2.260301113128662109e+00,2.217831373214721680e+00,2.176927804946899414e+00,2.137506008148193359e+00,2.099486351013183594e+00,2.062795877456665039e+00,2.027365446090698242e+00,1.993131637573242188e+00,1.960035085678100586e+00,1.928019404411315918e+00,1.897032856941223145e+00,1.867026567459106445e+00
5.000000000000000000e+00,5.000000000000000000e+00,5.000000000000000000e+00,5.000000000000000000e+00,5.000000000000000000e+00,5.000000000000000000e+00,5.000000000000000000e+00,5.000000000000000000e+00,5.000000000000000000e+00,5.000000000000000000e+00,5.000000000000000000e+00,5.000000000000000000e+00,5.000000000000000000e+00,5.000000000000000000e+00,5.000000000000000000e+00,5.000000000000000000e+00,5.000000000000000000e+00,5.000000000000000000e+00,5.000000000000000000e+00,5.000000000000000000e+00,5.000000000000000000e+00,5.000000000000000000e+00,5.000000000000000000e+00,5.000000000000000000e+00,5.000000000000000000e+00,5.000000000000000000e+00,5.000000000000000000e+00,4.441433906555175781e+00,5.000000000000000000e+00,5.000000000000000000e+00,5.000000000000000000e+00,5.000000000000000000e+00,5.000000000000000000e+00,5.000000000000000000e+00,5.000000000000000000e+00,5.000000000000000000e+00,5.000000000000000000e+00,5.000000000000000000e+00,5.000000000000000000e+00,5.000000000000000000e+00,4.873373508453369141e+00,4.680142879486083984e+00,4.501651763916015625e+00,4.336274623870849609e+00,4.182618141174316406e+00,4.039478302001953125e+00,3.905812025070190430e+00,3.780707836151123047e+00,3.663369655609130859e+00,3.553095102310180664e+00,3.449265956878662109e+00,3.351332426071166992e+00,3.258806943893432617e+00,3.171252727508544922e+00,3.088280439376831055e+00,3.009538888931274414e+00,2.934713125228881836e+00,2.863517522811889648e+00,2.795694828033447266e+00,2.731010437011718750e+00,2.669251441955566406e+00,2.610224246978759766e+00,2.553750991821289062e+00,2.499669551849365234e+00,2.447831153869628906e+00,2.398099422454833984e+00,2.350347995758056641e+00,2.304461240768432617e+00,2.260331869125366211e+00,2.217860698699951172e+00,2.176956176757812500e+00,2.137533426284790039e+00,2.099512815475463867e+00,2.062821149826049805e+00,2.027390003204345703e+00,1.993155598640441895e+00,1.960057973861694336e+00,1.928041577339172363e+00,1.897054553031921387e+00,1.867047548294067383e+00
5.000000000000000000e+00,5.000000000000000000e+00,5.000000000000000000e+00,5.000000000000000000e+00,5.000000000000000000e+00,5.000000000000000000e+00,5.000000000000000000e+00,5.000000000000000000e+00,5.000000000000000000e+00,5.000000000000000000e+00,5.000000000000000000e+00,5.000000000000000000e+00,5.000000000000000000e+00,5.000000000000000000e+00,5.000000000000000000e+00,5.000000000000000000e+00,5.000000000000000000e+00,5.000000000000000000e+00,5.000000000000000000e+00,5.000000000000000000e+00,5.000000000000000000e+00,5.000000000000000000e+00,5.000000000000000000e+00,5.000000000000000000e+00,5.000000000000000000e+00,5.000000000000000000e+00,4.465205669403076172e+00,4.410545349121093750e+00,5.000000000000000000e+00,5.000000000000000000e+00,5.000000000000000000e+00,5.000000000000000000e+00,5.000000000000000000e+00,5.000000000000000000e+00,5.000000000000000000e+00,5.000000000000000000e+00,5.000000000000000000e+00,5.000000000000000000e+00,5.000000000000000000e+00,5.000000000000000000e+00,4.873515605926513672e+00,4.680274009704589844e+00,4.501772880554199219e+00,4.336387157440185547e+00,4.182722568511962891e+00,4.039576053619384766e+00,3.905903339385986328e+00,3.780793428421020508e+00,3.663450002670288086e+00,3.553170680999755859e+00,3.449337244033813477e+00,3.351399660110473633e+00,3.258870601654052734e+00,3.171313047409057617e+00,3.088337421417236328e+00,3.009593248367309570e+00,2.934764623641967773e+00,2.863566637039184570e+00,2.795741558074951172e+00,2.731055021286010742e+00,2.669294118881225586e+00,2.610265016555786133e+00,2.553789854049682617e+00,2.499706983566284180e+00,2.447867155075073242e+00,2.398133754730224609e+00,2.350381135940551758e+00,2.304492950439453125e+00,2.260362386703491211e+00,2.217890262603759766e+00,2.176984548568725586e+00,2.137560844421386719e+00,2.099539279937744141e+00,2.062846660614013672e+00,2.027414560317993164e+00,1.993179321289062500e+00,1.960080862045288086e+00,1.928063869476318359e+00,1.897075891494750977e+00,1.867068290710449219e+00
5.000000000000000000e+00,5.000000000000000000e+00,5.000000000000000000e+00,5.000000000000000000e+00,5.000000000000000000e+00,5.000000000000000000e+00,5.000000000000000000e+00,5.000000000000000000e+00,5.000000000000000000e+00,5.000000000000000000e+00,5.000000000000000000e+00,5.000000000000000000e+00,5.000000000000000000e+00,5.000000000000000000e+00,5.000000000000000000e+00,5.000000000000000000e+00,5.000000000000000000e+00,5.000000000000000000e+00,5.000000000000000000e+00,5.000000000000000000e+00,5.000000000000000000e+00,5.000000000000000000e+00,5.000000000000000000e+00,5.000000000000000000e+00,5.000000000000000000e+00,5.000000000000000000e+00,5.000000000000000000e+00,4.422305107116699219e+00,5.000000000000000000e+00,5.000000000000000000e+00,5.000000000000000000e+00,5.000000000000000000e+00,5.000000000000000000e+00,5.000000000000000000e+00,5.000000000000000000e+00,5.000000000000000000e+00,5.000000000000000000e+00,5.000000000000000000e+00,5.000000000000000000e+00,5.000000000000000000e+00,4.873657703399658203e+00,4.680405139923095703e+00,4.501894474029541016e+00,4.336499691009521484e+00,4.182827472686767578e+00,4.039673805236816406e+00,3.905994176864624023e+00,3.780879020690917969e+00,3.663530349731445312e+00,3.553246498107910156e+00,3.449408531188964844e+00,3.351466894149780273e+00,3.258934259414672852e+00,3.171373128890991211e+00,3.088394641876220703e+00,3.009647369384765625e+00,2.934816360473632812e+00,2.863615751266479492e+00,2.795788288116455078e+00,2.731099605560302734e+00,2.669336795806884766e+00,2.610305547714233398e+00,2.553828954696655273e+00,2.499744415283203125e+00,2.447903156280517578e+00,2.398168325424194336e+00,2.350414037704467773e+00,2.304524898529052734e+00,2.260392904281616211e+00,2.217919826507568359e+00,2.177012920379638672e+00,2.137588024139404297e+00,2.099565505981445312e+00,2.062872171401977539e+00,2.027439355850219727e+00,1.993203163146972656e+00,1.960103988647460938e+00,1.928086042404174805e+00,1.897097349166870117e+00,1.867089271545410156e+00
5.000000000000000000e+00,5.000000000000000000e+00,5.000000000000000000e+00,5.000000000000000000e+00,5.000000000000000000e+00,5.000000000000000000e+00,5.000000000000000000e+00,5.000000000000000000e+00,5.000000000000000000e+00,5.000000000000000000e+00,5.000000000000000000e+00,5.000000000000000000e+00,5.000000000000000000e+00,5.000000000000000000e+00,5.000000000000000000e+00,5.000000000000000000e+00,5.000000000000000000e+00,5.000000000000000000e+00,5.000000000000000000e+00,5.000000000000000000e+00,5.000000000000000000e+00,5.000000000000000000e+00,5.000000000000000000e+00,5.000000000000000000e+00,5.000000000000000000e+00,5.000000000000000000e+00,5.000000000000000000e+00,4.499730587005615234e+00,4.494946956634521484e+00,5.000000000000000000e+00,5.000000000000000000e+00,5.000000000000000000e+00,5.000000000000000000e+00,5.000000000000000000e+00,5.000000000000000000e+00,5.000000000000000000e+00,5.000000000000000000e+00,5.000000000000000000e+00,5.000000000000000000e+00,5.000000000000000000e+00,4.873800277709960938e+00,4.680536746978759766e+00,4.502015590667724609e+00,4.336612701416015625e+00,4.182932376861572266e+00,4.039771556854248047e+00,3.906085729598999023e+00,3.780964612960815430e+00,3.663610219955444336e+00,3.553322076797485352e+00,3.449479818344116211e+00,3.351534366607666016e+00,3.258997678756713867e+00,3.171433448791503906e+00,3.088451862335205078e+00,3.009701728820800781e+00,2.934867858886718750e+00,2.863664865493774414e+00,2.795835256576538086e+00,2.731144189834594727e+00,2.669379472732543945e+00,2.610346555709838867e+00,2.553868055343627930e+00,2.499781608581542969e+00,2.447938919067382812e+00,2.398202657699584961e+00,2.350447177886962891e+00,2.304556608200073242e+00,2.260423660278320312e+00,2.217949151992797852e+00,2.177041292190551758e+00,2.137615442276000977e+00,2.099591970443725586e+00,2.062897682189941406e+00,2.027463912963867188e+00,1.993226885795593262e+00,1.960126876831054688e+00,1.928108453750610352e+00,1.897119045257568359e+00,1.867110013961791992e+00
5.000000000000000000e+00,5.000000000000000000e+00,5.000000000000000000e+00,5.000000000000000000e+00,5.000000000000000000e+00,5.000000000000000000e+00,5.000000000000000000e+00,5.000000000000000000e+00,5.000000000000000000e+00,5.000000000000000000e+00,5.000000000000000000e+00,5.000000000000000000e+00,5.000000000000000000e+00,5.000000000000000000e+00,5.000000000000000000e+00,5.000000000000000000e+00,5.000000000000000000e+00,5.000000000000000000e+00,5.000000000000000000e+00,5.000000000000000000e+00,5.000000000000000000e+00,5.000000000000000000e+00,5.000000000000000000e+00,5.000000000000000000e+00,4.465416908264160156e+00,4.459818840026855469e+00,4.434550762176513672e+00,4.430346965789794922e+00,4.442391872406005859e+00,4.474274635314941406e+00,4.502194404602050781e+00,5.000000000000000000e+00,5.000000000000000000e+00,5.000000000000000000e+00,5.000000000000000000e+00,5.000000000000000000e+00,5.000000000000000000e+00,5.000000000000000000e+00,5.000000000000000000e+00,5.000000000000000000e+00,4.873942375183105469e+00,4.680667877197265625e+00,4.502137184143066406e+00,4.336725234985351562e+00,4.183037281036376953e+00,4.039869308471679688e+00,3.906177043914794922e+00,3.781050443649291992e+00,3.663690805435180664e+00,3.553397655487060547e+00,3.449550628662109375e+00,3.351601600646972656e+00,3.259061336517333984e+00,3.171493768692016602e+00,3.088508844375610352e+00,3.009755849838256836e+00,2.934919595718383789e+00,2.863713979721069336e+00,2.795881986618041992e+00,2.731189012527465820e+00,2.669422388076782227e+00,2.610387325286865234e+00,2.553907155990600586e+00,2.499819040298461914e+00,2.447974920272827148e+00,2.398236989974975586e+00,2.350480318069458008e+00,2.304588317871093750e+00,2.260454177856445312e+00,2.217978715896606445e+00,2.177069902420043945e+00,2.137642860412597656e+00,2.099618434906005859e+00,2.062923192977905273e+00,2.027488470077514648e+00,1.993250727653503418e+00,1.960150003433227539e+00,1.928130626678466797e+00,1.897140502929687500e+00,1.867130994796752930e+00
5.000000000000000000e+00,5.000000000000000000e+00,5.000000000000000000e+00,5.000000000000000000e+00,5.000000000000000000e+00,5.000000000000000000e+00,5.000000000000000000e+00,5.000000000000000000e+00,5.000000000000000000e+00,5.000000000000000000e+00,5.000000000000000000e+00,5.000000000000000000e+00,5.000000000000000000e+00,5.000000000000000000e+00,5.000000000000000000e+00,5.000000000000000000e+00,5.000000000000000000e+00,5.000000000000000000e+00,5.000000000000000000e+00,5.000000000000000000e+00,5.000000000000000000e+00,5.000000000000000000e+00,5.000000000000000000e+00,5.000000000000000000e+00,4.474676132202148438e+00,4.442380428314208984e+00,4.392349243164062500e+00,4.395109653472900391e+00,4.415038585662841797e+00,4.479992866516113281e+00,4.511651039123535156e+00,5.000000000000000000e+00,5.000000000000000000e+00,5.000000000000000000e+00,5.000000000000000000e+00,5.000000000000000000e+00,5.000000000000000000e+00,5.000000000000000000e+00,5.000000000000000000e+00,5.000000000000000000e+00,4.874084949493408203e+00,4.680799007415771484e+00,4.502258777618408203e+00,4.336837768554687500e+00,4.183141708374023438e+00,4.039967060089111328e+00,3.906268358230590820e+00,3.781136035919189453e+00,3.663771152496337891e+00,3.553473234176635742e+00,3.449621915817260742e+00,3.351668834686279297e+00,3.259124755859375000e+00,3.171553850173950195e+00,3.088566064834594727e+00,3.009810209274291992e+00,2.934971094131469727e+00,2.863763093948364258e+00,2.795928955078125000e+00,2.731233596801757812e+00,2.669465065002441406e+00,2.610428094863891602e+00,2.553946256637573242e+00,2.499856472015380859e+00,2.448010683059692383e+00,2.398271322250366211e+00,2.350513458251953125e+00,2.304620027542114258e+00,2.260484695434570312e+00,2.218008041381835938e+00,2.177098274230957031e+00,2.137670278549194336e+00,2.099644899368286133e+00,2.062948703765869141e+00,2.027513265609741211e+00,1.993274450302124023e+00,1.960172891616821289e+00,1.928153038024902344e+00,1.897162199020385742e+00,1.867151856422424316e+00
5.000000000000000000e+00,5.000000000000000000e+00,5.000000000000000000e+00,5.000000000000000000e+00,5.000000000000000000e+00,5.000000000000000000e+00,5.000000000000000000e+00,5.000000000000000000e+00,5.000000000000000000e+00,5.000000000000000000e+00,5.000000000000000000e+00,5.000000000000000000e+00,5.000000000000000000e+00,5.000000000000000000e+00,5.000000000000000000e+00,5.000000000000000000e+00,5.000000000000000000e+00,5.000000000000000000e+00,5.000000000000000000e+00,5.000000000000000000e+00,5.000000000000000000e+00,5.000000000000000000e+00,5.000000000000000000e+00,5.000000000000000000e+00,5.000000000000000000e+00,4.491462707519531250e+00,4.396409034729003906e+00,4.390107631683349609e+00,4.421144008636474609e+00,4.513652324676513672e+00,4.513022899627685547e+00,5.000000000000000000e+00,5.000000000000000000e+00,5.000000000000000000e+00,5.000000000000000000e+00,5.000000000000000000e+00,5.000000000000000000e+00,5.000000000000000000e+00,5.000000000000000000e+00,5.000000000000000000e+00,4.874227046966552734e+00,4.680930137634277344e+00,4.502379894256591797e+00,4.336950302124023438e+00,4.183246612548828125e+00,4.040064811706542969e+00,3.906359910964965820e+00,3.781221628189086914e+00,3.663851499557495117e+00,3.553549051284790039e+00,3.449693202972412109e+00,3.351736068725585938e+00,3.259188413619995117e+00,3.171614170074462891e+00,3.088622808456420898e+00,3.009864330291748047e+00,2.935022592544555664e+00,2.863812208175659180e+00,2.795975685119628906e+00,2.731278419494628906e+00,2.669507741928100586e+00,2.610468864440917969e+00,2.553985357284545898e+00,2.499893903732299805e+00,2.448046684265136719e+00,2.398305892944335938e+00,2.350546598434448242e+00,2.304651975631713867e+00,2.260515451431274414e+00,2.218037366867065430e+00,2.177126646041870117e+00,2.137697696685791016e+00,2.099671125411987305e+00,2.062974214553833008e+00,2.027537822723388672e+00,1.993298411369323730e+00,1.960196018218994141e+00,1.928175210952758789e+00,1.897183656692504883e+00,1.867172837257385254e+00
5.000000000000000000e+00,5.000000000000000000e+00,5.000000000000000000e+00,5.000000000000000000e+00,5.000000000000000000e+00,5.000000000000000000e+00,5.000000000000000000e+00,5.000000000000000000e+00,5.000000000000000000e+00,5.000000000000000000e+00,5.000000000000000000e+00,5.000000000000000000e+00,5.000000000000000000e+00,5.000000000000000000e+00,5.000000000000000000e+00,5.000000000000000000e+00,5.000000000000000000e+00,5.000000000000000000e+00,5.000000000000000000e+00,5.000000000000000000e+00,5.000000000000000000e+00,5.000000000000000000e+00,5.000000000000000000e+00,5.000000000000000000e+00,5.000000000000000000e+00,4.491669654846191406e+00,4.394101619720458984e+00,4.391103267669677734e+00,4.420587062835693359e+00,5.000000000000000000e+00,4.515940189361572266e+00,5.000000000000000000e+00,5.000000000000000000e+00,5.000000000000000000e+00,5.000000000000000000e+00,5.000000000000000000e+00,5.000000000000000000e+00,5.000000000000000000e+00,5.000000000000000000e+00,5.000000000000000000e+00,4.874369144439697266e+00,4.681061744689941406e+00,4.502501487731933594e+00,4.337063312530517578e+00,4.183351516723632812e+00,4.040162563323974609e+00,3.906451225280761719e+00,3.781307220458984375e+00,3.663931846618652344e+00,3.553624629974365234e+00,3.449764490127563477e+00,3.351803541183471680e+00,3.259252071380615234e+00,3.171674489974975586e+00,3.088680028915405273e+00,3.009918689727783203e+00,2.935074090957641602e+00,2.863861322402954102e+00,2.796022415161132812e+00,2.731323003768920898e+00,2.669550418853759766e+00,2.610509634017944336e+00,2.554024457931518555e+00,2.499931335449218750e+00,2.448082447052001953e+00,2.398340463638305664e+00,2.350579500198364258e+00,2.304683685302734375e+00,2.260545969009399414e+00,2.218066930770874023e+00,2.177155017852783203e+00,2.137724876403808594e+00,2.099697589874267578e+00,2.062999725341796875e+00,2.027562379837036133e+00,1.993322014808654785e+00,1.960218906402587891e+00,1.928197503089904785e+00,1.897205233573913574e+00,1.867193579673767090e+00
5.000000000000000000e+00,5.000000000000000000e+00,5.000000000000000000e+00,5.000000000000000000e+00,5.000000000000000000e+00,5.000000000000000000e+00,5.000000000000000000e+00,5.000000000000000000e+00,5.000000000000000000e+00,5.000000000000000000e+00,5.000000000000000000e+00,5.000000000000000000e+00,5.000000000000000000e+00,5.000000000000000000e+00,5.000000000000000000e+00,5.000000000000000000e+00,5.000000000000000000e+00,5.000000000000000000e+00,5.000000000000000000e+00,5.000000000000000000e+00,5.000000000000000000e+00,5.000000000000000000e+00,5.000000000000000000e+00,5.000000000000000000e+00,5.000000000000000000e+00,4.477924346923828125e+00,4.374432086944580078e+00,4.385382175445556641e+00,4.405709266662597656e+00,5.000000000000000000e+00,4.511343955993652344e+00,5.000000000000000000e+00,5.000000000000000000e+00,5.000000000000000000e+00,5.000000000000000000e+00,5.000000000000000000e+00,5.000000000000000000e+00,5.000000000000000000e+00,5.000000000000000000e+00,5.000000000000000000e+00,4.874511241912841797e+00,4.681192398071289062e+00,4.502623081207275391e+00,4.337175846099853516e+00,4.183456420898437500e+00,4.040260314941406250e+00,3.906542778015136719e+00,3.781392812728881836e+00,3.664012432098388672e+00,3.553700208663940430e+00,3.449835777282714844e+00,3.351870775222778320e+00,3.259315490722656250e+00,3.171734809875488281e+00,3.088737249374389648e+00,3.009973049163818359e+00,2.935125589370727539e+00,2.863910436630249023e+00,2.796069383621215820e+00,2.731367826461791992e+00,2.669593095779418945e+00,2.610550642013549805e+00,2.554063558578491211e+00,2.499968767166137695e+00,2.448118448257446289e+00,2.398374795913696289e+00,2.350612640380859375e+00,2.304715633392333984e+00,2.260576725006103516e+00,2.218096494674682617e+00,2.177183389663696289e+00,2.137752294540405273e+00,2.099724054336547852e+00,2.063024997711181641e+00,2.027586936950683594e+00,1.993345975875854492e+00,1.960242033004760742e+00,1.928219676017761230e+00,1.897226810455322266e+00,1.867214560508728027e+00
5.000000000000000000e+00,5.000000000000000000e+00,5.000000000000000000e+00,5.000000000000000000e+00,5.000000000000000000e+00,5.000000000000000000e+00,5.000000000000000000e+00,5.000000000000000000e+00,5.000000000000000000e+00,5.000000000000000000e+00,5.000000000000000000e+00,5.000000000000000000e+00,5.000000000000000000e+00,5.000000000000000000e+00,5.000000000000000000e+00,5.000000000000000000e+00,5.000000000000000000e+00,5.000000000000000000e+00,5.000000000000000000e+00,5.000000000000000000e+00,5.000000000000000000e+00,5.000000000000000000e+00,5.000000000000000000e+00,5.000000000000000000e+00,5.000000000000000000e+00,4.464345455169677734e+00,4.392735004425048828e+00,4.389631748199462891e+00,4.420158863067626953e+00,4.537684440612792969e+00,4.469858646392822266e+00,5.000000000000000000e+00,5.000000000000000000e+00,5.000000000000000000e+00,5.000000000000000000e+00,5.000000000000000000e+00,5.000000000000000000e+00,5.000000000000000000e+00,5.000000000000000000e+00,5.000000000000000000e+00,4.874653816223144531e+00,4.681323528289794922e+00,4.502744197845458984e+00,4.337288379669189453e+00,4.183561325073242188e+00,4.040358066558837891e+00,3.906634092330932617e+00,3.781478643417358398e+00,3.664092779159545898e+00,3.553775787353515625e+00,3.449907064437866211e+00,3.351938009262084961e+00,3.259379148483276367e+00,3.171794891357421875e+00,3.088794469833374023e+00,3.010027170181274414e+00,2.935177326202392578e+00,2.863959789276123047e+00,2.796115875244140625e+00,2.731412410736083984e+00,2.669635772705078125e+00,2.610591411590576172e+00,2.554102420806884766e+00,2.500006198883056641e+00,2.448154449462890625e+00,2.398409366607666016e+00,2.350645780563354492e+00,2.304747343063354492e+00,2.260607242584228516e+00,2.218125820159912109e+00,2.177211761474609375e+00,2.137779712677001953e+00,2.099750518798828125e+00,2.063050508499145508e+00,2.027611732482910156e+00,1.993369698524475098e+00,1.960264921188354492e+00,1.928242087364196777e+00,1.897248387336730957e+00,1.867235302925109863e+00
5.000000000000000000e+00,5.000000000000000000e+00,5.000000000000000000e+00,5.000000000000000000e+00,5.000000000000000000e+00,5.000000000000000000e+00,5.000000000000000000e+00,5.000000000000000000e+00,5.000000000000000000e+00,5.000000000000000000e+00,5.000000000000000000e+00,5.000000000000000000e+00,5.000000000000000000e+00,5.000000000000000000e+00,5.000000000000000000e+00,5.000000000000000000e+00,5.000000000000000000e+00,5.000000000000000000e+00,5.000000000000000000e+00,5.000000000000000000e+00,5.000000000000000000e+00,5.000000000000000000e+00,5.000000000000000000e+00,5.000000000000000000e+00,5.000000000000000000e+00,4.375282764434814453e+00,4.359047889709472656e+00,4.440793991088867188e+00,4.424490928649902344e+00,4.503286361694335938e+00,5.000000000000000000e+00,5.000000000000000000e+00,5.000000000000000000e+00,5.000000000000000000e+00,5.000000000000000000e+00,5.000000000000000000e+00,5.000000000000000000e+00,5.000000000000000000e+00,5.000000000000000000e+00,5.000000000000000000e+00,4.874795913696289062e+00,4.681455135345458984e+00,4.502865314483642578e+00,4.337400913238525391e+00,4.183665752410888672e+00,4.040455341339111328e+00,3.906725645065307617e+00,3.781564235687255859e+00,3.664173126220703125e+00,3.553851604461669922e+00,3.449978351593017578e+00,3.352005243301391602e+00,3.259442806243896484e+00,3.171855211257934570e+00,3.088851451873779297e+00,3.010081529617309570e+00,2.935228824615478516e+00,2.864008903503417969e+00,2.796162843704223633e+00,2.731456995010375977e+00,2.669678211212158203e+00,2.610632181167602539e+00,2.554141521453857422e+00,2.500043630599975586e+00,2.448190212249755859e+00,2.398443698883056641e+00,2.350678920745849609e+00,2.304779291152954102e+00,2.260637760162353516e+00,2.218155384063720703e+00,2.177240133285522461e+00,2.137806892395019531e+00,2.099776744842529297e+00,2.063076019287109375e+00,2.027636289596557617e+00,1.993393301963806152e+00,1.960288047790527344e+00,1.928264260292053223e+00,1.897269845008850098e+00,1.867256283760070801e+00
5.000000000000000000e+00,5.000000000000000000e+00,5.000000000000000000e+00,5.000000000000000000e+00,5.000000000000000000e+00,5.000000000000000000e+00,5.000000000000000000e+00,5.000000000000000000e+00,5.000000000000000000e+00,5.000000000000000000e+00,5.000000000000000000e+00,5.000000000000000000e+00,5.000000000000000000e+00,5.000000000000000000e+00,5.000000000000000000e+00,5.000000000000000000e+00,5.000000000000000000e+00,5.000000000000000000e+00,5.000000000000000000e+00,5.000000000000000000e+00,5.000000000000000000e+00,5.000000000000000000e+00,5.000000000000000000e+00,5.000000000000000000e+00,5.000000000000000000e+00,4.354187011718750000e+00,4.328227519989013672e+00,4.420165538787841797e+00,4.410676002502441406e+00,4.462098598480224609e+00,4.377448558807373047e+00,5.000000000000000000e+00,5.000000000000000000e+00,5.000000000000000000e+00,5.000000000000000000e+00,5.000000000000000000e+00,5.000000000000000000e+00,5.000000000000000000e+00,5.000000000000000000e+00,5.000000000000000000e+00,4.874938488006591797e+00,4.681586265563964844e+00,4.502986907958984375e+00,4.337513446807861328e+00,4.183770656585693359e+00,4.040553569793701172e+00,3.906816959381103516e+00,3.781649589538574219e+00,3.664253711700439453e+00,3.553927183151245117e+00,3.450049877166748047e+00,3.352072715759277344e+00,3.259506464004516602e+00,3.171915531158447266e+00,3.088908672332763672e+00,3.010135889053344727e+00,2.935280561447143555e+00,2.864058017730712891e+00,2.796209573745727539e+00,2.731501817703247070e+00,2.669720888137817383e+00,2.610672950744628906e+00,2.554180383682250977e+00,2.500081062316894531e+00,2.448226213455200195e+00,2.398478269577026367e+00,2.350712060928344727e+00,2.304811000823974609e+00,2.260668516159057617e+00,2.218184709548950195e+00,2.177268505096435547e+00,2.137834310531616211e+00,2.099803209304809570e+00,2.063101530075073242e+00,2.027660846710205078e+00,1.993417263031005859e+00,1.960311055183410645e+00,1.928286433219909668e+00,1.897291541099548340e+00,1.867277145385742188e+00
5.000000000000000000e+00,5.000000000000000000e+00,5.000000000000000000e+00,5.000000000000000000e+00,5.000000000000000000e+00,5.000000000000000000e+00,5.000000000000000000e+00,5.000000000000000000e+00,5.000000000000000000e+00,5.000000000000000000e+00,5.000000000000000000e+00,5.000000000000000000e+00,5.000000000000000000e+00,5.000000000000000000e+00,5.000000000000000000e+00,5.000000000000000000e+00,5.000000000000000000e+00,5.000000000000000000e+00,5.000000000000000000e+00,5.000000000000000000e+00,5.000000000000000000e+00,5.000000000000000000e+00,5.000000000000000000e+00,5.000000000000000000e+00,5.000000000000000000e+00,4.473064422607421875e+00,4.311930179595947266e+00,4.402338027954101562e+00,4.417563438415527344e+00,4.470806121826171875e+00,5.000000000000000000e+00,4.391288757324218750e+00,5.000000000000000000e+00,5.000000000000000000e+00,5.000000000000000000e+00,5.000000000000000000e+00,5.000000000000000000e+00,5.000000000000000000e+00,5.000000000000000000e+00,5.000000000000000000e+00,4.875080585479736328e+00,4.681717872619628906e+00,4.503108501434326172e+00,4.337626457214355469e+00,4.183875560760498047e+00,4.040651321411132812e+00,3.906908512115478516e+00,3.781735181808471680e+00,3.664334058761596680e+00,3.554002523422241211e+00,3.450121164321899414e+00,3.352139949798583984e+00,3.259570121765136719e+00,3.171975851058959961e+00,3.088965892791748047e+00,3.010190010070800781e+00,2.935332059860229492e+00,2.864107131958007812e+00,2.796256542205810547e+00,2.731546401977539062e+00,2.669763565063476562e+00,2.610713958740234375e+00,2.554219484329223633e+00,2.500118494033813477e+00,2.448261976242065430e+00,2.398512601852416992e+00,2.350745201110839844e+00,2.304842710494995117e+00,2.260699033737182617e+00,2.218214273452758789e+00,2.177296876907348633e+00,2.137861728668212891e+00,2.099829673767089844e+00,2.063127040863037109e+00,2.027685642242431641e+00,1.993440985679626465e+00,1.960334181785583496e+00,1.928308844566345215e+00,1.897312998771667480e+00,1.867297887802124023e+00
5.000000000000000000e+00,5.000000000000000000e+00,5.000000000000000000e+00,5.000000000000000000e+00,5.000000000000000000e+00,5.000000000000000000e+00,5.000000000000000000e+00,5.000000000000000000e+00,5.000000000000000000e+00,5.000000000000000000e+00,5.000000000000000000e+00,5.000000000000000000e+00,5.000000000000000000e+00,5.000000000000000000e+00,5.000000000000000000e+00,5.000000000000000000e+00,5.000000000000000000e+00,5.000000000000000000e+00,5.000000000000000000e+00,5.000000000000000000e+00,5.000000000000000000e+00,5.000000000000000000e+00,5.000000000000000000e+00,5.000000000000000000e+00,5.000000000000000000e+00,5.000000000000000000e+00,4.292708873748779297e+00,4.373617172241210938e+00,4.430449962615966797e+00,5.000000000000000000e+00,5.000000000000000000e+00,5.000000000000000000e+00,5.000000000000000000e+00,5.000000000000000000e+00,5.000000000000000000e+00,5.000000000000000000e+00,5.000000000000000000e+00,5.000000000000000000e+00,5.000000000000000000e+00,5.000000000000000000e+00,4.875223159790039062e+00,4.681849002838134766e+00,4.503230094909667969e+00,4.337738990783691406e+00,4.183980464935302734e+00,4.040749073028564453e+00,3.906999826431274414e+00,3.781820774078369141e+00,3.664414405822753906e+00,3.554078102111816406e+00,3.450192451477050781e+00,3.352206945419311523e+00,3.259633779525756836e+00,3.172036170959472656e+00,3.089022874832153320e+00,3.010244369506835938e+00,2.935383796691894531e+00,2.864156246185302734e+00,2.796303272247314453e+00,2.731591224670410156e+00,2.669806241989135742e+00,2.610754728317260742e+00,2.554258584976196289e+00,2.500155925750732422e+00,2.448297739028930664e+00,2.398547172546386719e+00,2.350778102874755859e+00,2.304874658584594727e+00,2.260729789733886719e+00,2.218243837356567383e+00,2.177325248718261719e+00,2.137889146804809570e+00,2.099856138229370117e+00,2.063152551651000977e+00,2.027710199356079102e+00,1.993464946746826172e+00,1.960357069969177246e+00,1.928330898284912109e+00,1.897334694862365723e+00,1.867318868637084961e+00
5.000000000000000000e+00,5.000000000000000000e+00,5.000000000000000000e+00,5.000000000000000000e+00,5.000000000000000000e+00,5.000000000000000000e+00,5.000000000000000000e+00,5.000000000000000000e+00,5.000000000000000000e+00,5.000000000000000000e+00,5.000000000000000000e+00,5.000000000000000000e+00,5.000000000000000000e+00,5.000000000000000000e+00,5.000000000000000000e+00,5.000000000000000000e+00,5.000000000000000000e+00,5.000000000000000000e+00,5.000000000000000000e+00,5.000000000000000000e+00,5.000000000000000000e+00,5.000000000000000000e+00,5.000000000000000000e+00,5.000000000000000000e+00,5.000000000000000000e+00,5.000000000000000000e+00,4.273394107818603516e+00,4.346765518188476562e+00,4.441658020019531250e+00,5.000000000000000000e+00,5.000000000000000000e+00,5.000000000000000000e+00,5.000000000000000000e+00,5.000000000000000000e+00,5.000000000000000000e+00,5.000000000000000000e+00,5.000000000000000000e+00,5.000000000000000000e+00,5.000000000000000000e+00,5.000000000000000000e+00,4.875365734100341797e+00,4.681980133056640625e+00,4.503351211547851562e+00,4.337851524353027344e+00,4.184085369110107422e+00,4.040846824645996094e+00,3.907091379165649414e+00,3.781906604766845703e+00,3.664494991302490234e+00,3.554153919219970703e+00,3.450263738632202148e+00,3.352274179458618164e+00,3.259697437286376953e+00,3.172096014022827148e+00,3.089080095291137695e+00,3.010298728942871094e+00,2.935435295104980469e+00,2.864205360412597656e+00,2.796350240707397461e+00,2.731635808944702148e+00,2.669848918914794922e+00,2.610795497894287109e+00,2.554297685623168945e+00,2.500193357467651367e+00,2.448333740234375000e+00,2.398581504821777344e+00,2.350811243057250977e+00,2.304906368255615234e+00,2.260760068893432617e+00,2.218273162841796875e+00,2.177353858947753906e+00,2.137916564941406250e+00,2.099882602691650391e+00,2.063178062438964844e+00,2.027734756469726562e+00,1.993488550186157227e+00,1.960380196571350098e+00,1.928353309631347656e+00,1.897356152534484863e+00,1.867339730262756348e+00
5.000000000000000000e+00,5.000000000000000000e+00,5.000000000000000000e+00,5.000000000000000000e+00,5.000000000000000000e+00,5.000000000000000000e+00,5.000000000000000000e+00,5.000000000000000000e+00,5.000000000000000000e+00,5.000000000000000000e+00,5.000000000000000000e+00,5.000000000000000000e+00,5.000000000000000000e+00,5.000000000000000000e+00,5.000000000000000000e+00,5.000000000000000000e+00,5.000000000000000000e+00,5.000000000000000000e+00,5.000000000000000000e+00,5.000000000000000000e+00,5.000000000000000000e+00,5.000000000000000000e+00,5.000000000000000000e+00,5.000000000000000000e+00,5.000000000000000000e+00,5.000000000000000000e+00,4.282811641693115234e+00,4.355348587036132812e+00,4.451985359191894531e+00,5.000000000000000000e+00,5.000000000000000000e+00,5.000000000000000000e+00,5.000000000000000000e+00,5.000000000000000000e+00,5.000000000000000000e+00,5.000000000000000000e+00,5.000000000000000000e+00,5.000000000000000000e+00,5.000000000000000000e+00,5.000000000000000000e+00,4.875505924224853516e+00,4.682111740112304688e+00,4.503472805023193359e+00,4.337964534759521484e+00,4.184190273284912109e+00,4.040944576263427734e+00,3.907182693481445312e+00,3.781992197036743164e+00,3.664575338363647461e+00,3.554229497909545898e+00,3.450335025787353516e+00,3.352341651916503906e+00,3.259761095046997070e+00,3.172156333923339844e+00,3.089137315750122070e+00,3.010352611541748047e+00,2.935487031936645508e+00,2.864254474639892578e+00,2.796396970748901367e+00,2.731680631637573242e+00,2.669891595840454102e+00,2.610836267471313477e+00,2.554336786270141602e+00,2.500231027603149414e+00,2.448369503021240234e+00,2.398616075515747070e+00,2.350844144821166992e+00,2.304938316345214844e+00,2.260790824890136719e+00,2.218302726745605469e+00,2.177381992340087891e+00,2.137943983078002930e+00,2.099908828735351562e+00,2.063203573226928711e+00,2.027759313583374023e+00,1.993512511253356934e+00,1.960403084754943848e+00,1.928375482559204102e+00,1.897377848625183105e+00,1.867360711097717285e+00
5.000000000000000000e+00,5.000000000000000000e+00,5.000000000000000000e+00,5.000000000000000000e+00,5.000000000000000000e+00,5.000000000000000000e+00,5.000000000000000000e+00,5.000000000000000000e+00,5.000000000000000000e+00,5.000000000000000000e+00,5.000000000000000000e+00,5.000000000000000000e+00,5.000000000000000000e+00,5.000000000000000000e+00,5.000000000000000000e+00,5.000000000000000000e+00,5.000000000000000000e+00,5.000000000000000000e+00,5.000000000000000000e+00,5.000000000000000000e+00,5.000000000000000000e+00,5.000000000000000000e+00,5.000000000000000000e+00,5.000000000000000000e+00,5.000000000000000000e+00,5.000000000000000000e+00,4.323514461517333984e+00,4.384458541870117188e+00,4.519723892211914062e+00,5.000000000000000000e+00,5.000000000000000000e+00,5.000000000000000000e+00,5.000000000000000000e+00,5.000000000000000000e+00,5.000000000000000000e+00,5.000000000000000000e+00,5.000000000000000000e+00,5.000000000000000000e+00,5.000000000000000000e+00,5.000000000000000000e+00,4.875645637512207031e+00,4.682241439819335938e+00,4.503594398498535156e+00,4.338077068328857422e+00,4.184295177459716797e+00,4.041042327880859375e+00,3.907274246215820312e+00,3.782077789306640625e+00,3.664655923843383789e+00,3.554305076599121094e+00,3.450406312942504883e+00,3.352408885955810547e+00,3.259824752807617188e+00,3.172216653823852539e+00,3.089194536209106445e+00,3.010406970977783203e+00,2.935538530349731445e+00,2.864303588867187500e+00,2.796443700790405273e+00,2.731725215911865234e+00,2.669934272766113281e+00,2.610877275466918945e+00,2.554375886917114258e+00,2.500268459320068359e+00,2.448405504226684570e+00,2.398650407791137695e+00,2.350877285003662109e+00,2.304970026016235352e+00,2.260821342468261719e+00,2.218332290649414062e+00,2.177410364151000977e+00,2.137971162796020508e+00,2.099935293197631836e+00,2.063229084014892578e+00,2.027784109115600586e+00,1.993536233901977539e+00,1.960426211357116699e+00,1.928397893905639648e+00,1.897399306297302246e+00,1.867381453514099121e+00
5.000000000000000000e+00,5.000000000000000000e+00,5.000000000000000000e+00,5.000000000000000000e+00,5.000000000000000000e+00,5.000000000000000000e+00,5.000000000000000000e+00,5.000000000000000000e+00,5.000000000000000000e+00,5.000000000000000000e+00,5.000000000000000000e+00,5.000000000000000000e+00,5.000000000000000000e+00,5.000000000000000000e+00,5.000000000000000000e+00,5.000000000000000000e+00,5.000000000000000000e+00,5.000000000000000000e+00,5.000000000000000000e+00,5.000000000000000000e+00,5.000000000000000000e+00,5.000000000000000000e+00,5.000000000000000000e+00,5.000000000000000000e+00,5.000000000000000000e+00,5.000000000000000000e+00,4.332812786102294922e+00,4.370187282562255859e+00,4.648571014404296875e+00,5.000000000000000000e+00,5.000000000000000000e+00,5.000000000000000000e+00,5.000000000000000000e+00,5.000000000000000000e+00,5.000000000000000000e+00,5.000000000000000000e+00,5.000000000000000000e+00,5.000000000000000000e+00,5.000000000000000000e+00,5.000000000000000000e+00,4.875785827636718750e+00,4.682370662689208984e+00,4.503715515136718750e+00,4.338190078735351562e+00,4.184399604797363281e+00,4.041140079498291016e+00,3.907365560531616211e+00,3.782163619995117188e+00,3.664736270904541016e+00,3.554380893707275391e+00,3.450477600097656250e+00,3.352476119995117188e+00,3.259888410568237305e+00,3.172276973724365234e+00,3.089251518249511719e+00,3.010461330413818359e+00,2.935590267181396484e+00,2.864352464675903320e+00,2.796490669250488281e+00,2.731770038604736328e+00,2.669977188110351562e+00,2.610918045043945312e+00,2.554414987564086914e+00,2.500305891036987305e+00,2.448441505432128906e+00,2.398684978485107422e+00,2.350910425186157227e+00,2.305001974105834961e+00,2.260852098464965820e+00,2.218361616134643555e+00,2.177438735961914062e+00,2.137998580932617188e+00,2.099961519241333008e+00,2.063254594802856445e+00,2.027808666229248047e+00,1.993560075759887695e+00,1.960449099540710449e+00,1.928420066833496094e+00,1.897420883178710938e+00,1.867402434349060059e+00
5.000000000000000000e+00,5.000000000000000000e+00,5.000000000000000000e+00,5.000000000000000000e+00,5.000000000000000000e+00,5.000000000000000000e+00,5.000000000000000000e+00,5.000000000000000000e+00,5.000000000000000000e+00,5.000000000000000000e+00,5.000000000000000000e+00,5.000000000000000000e+00,5.000000000000000000e+00,5.000000000000000000e+00,5.000000000000000000e+00,5.000000000000000000e+00,5.000000000000000000e+00,5.000000000000000000e+00,5.000000000000000000e+00,5.000000000000000000e+00,5.000000000000000000e+00,5.000000000000000000e+00,5.000000000000000000e+00,5.000000000000000000e+00,5.000000000000000000e+00,5.000000000000000000e+00,4.352635383605957031e+00,4.364120960235595703e+00,4.740345478057861328e+00,5.000000000000000000e+00,5.000000000000000000e+00,5.000000000000000000e+00,5.000000000000000000e+00,5.000000000000000000e+00,5.000000000000000000e+00,5.000000000000000000e+00,5.000000000000000000e+00,5.000000000000000000e+00,5.000000000000000000e+00,5.000000000000000000e+00,4.875926494598388672e+00,4.682499885559082031e+00,4.503834724426269531e+00,4.338302135467529297e+00,4.184504508972167969e+00,4.041237831115722656e+00,3.907457113265991211e+00,3.782249212265014648e+00,3.664816856384277344e+00,3.554456472396850586e+00,3.450548887252807617e+00,3.352543592453002930e+00,3.259952068328857422e+00,3.172337055206298828e+00,3.089308738708496094e+00,3.010515451431274414e+00,2.935641765594482422e+00,2.864401578903198242e+00,2.796537399291992188e+00,2.731814384460449219e+00,2.670019865036010742e+00,2.610958814620971680e+00,2.554454088211059570e+00,2.500343322753906250e+00,2.448477268218994141e+00,2.398719310760498047e+00,2.350943565368652344e+00,2.305033683776855469e+00,2.260882616043090820e+00,2.218391180038452148e+00,2.177467107772827148e+00,2.138025999069213867e+00,2.099987983703613281e+00,2.063280105590820312e+00,2.027833223342895508e+00,1.993583798408508301e+00,1.960472106933593750e+00,1.928442478179931641e+00,1.897442340850830078e+00,1.867423176765441895e+00
5.000000000000000000e+00,5.000000000000000000e+00,5.000000000000000000e+00,5.000000000000000000e+00,5.000000000000000000e+00,5.000000000000000000e+00,5.000000000000000000e+00,5.000000000000000000e+00,5.000000000000000000e+00,5.000000000000000000e+00,5.000000000000000000e+00,5.000000000000000000e+00,5.000000000000000000e+00,5.000000000000000000e+00,5.000000000000000000e+00,5.000000000000000000e+00,5.000000000000000000e+00,5.000000000000000000e+00,5.000000000000000000e+00,5.000000000000000000e+00,5.000000000000000000e+00,5.000000000000000000e+00,5.000000000000000000e+00,5.000000000000000000e+00,5.000000000000000000e+00,5.000000000000000000e+00,4.388983726501464844e+00,4.366886615753173828e+00,4.837968826293945312e+00,5.000000000000000000e+00,5.000000000000000000e+00,5.000000000000000000e+00,5.000000000000000000e+00,5.000000000000000000e+00,5.000000000000000000e+00,5.000000000000000000e+00,5.000000000000000000e+00,5.000000000000000000e+00,5.000000000000000000e+00,5.000000000000000000e+00,4.876066684722900391e+00,4.682629585266113281e+00,4.503954410552978516e+00,4.338413715362548828e+00,4.184609413146972656e+00,4.041335582733154297e+00,3.907548189163208008e+00,3.782335042953491211e+00,3.664897203445434570e+00,3.554532289505004883e+00,3.450620174407958984e+00,3.352610826492309570e+00,3.260015726089477539e+00,3.172397375106811523e+00,3.089365959167480469e+00,3.010569810867309570e+00,2.935693502426147461e+00,2.864450931549072266e+00,2.796584367752075195e+00,2.731859207153320312e+00,2.670062541961669922e+00,2.610999584197998047e+00,2.554493188858032227e+00,2.500380754470825195e+00,2.448513269424438477e+00,2.398753881454467773e+00,2.350976705551147461e+00,2.305065631866455078e+00,2.260913372039794922e+00,2.218420743942260742e+00,2.177495718002319336e+00,2.138053417205810547e+00,2.100014448165893555e+00,2.063305616378784180e+00,2.027857780456542969e+00,1.993607759475708008e+00,1.960495233535766602e+00,1.928464651107788086e+00,1.897463798522949219e+00,1.867444276809692383e+00
5.000000000000000000e+00,5.000000000000000000e+00,5.000000000000000000e+00,5.000000000000000000e+00,5.000000000000000000e+00,5.000000000000000000e+00,5.000000000000000000e+00,5.000000000000000000e+00,5.000000000000000000e+00,5.000000000000000000e+00,5.000000000000000000e+00,5.000000000000000000e+00,5.000000000000000000e+00,5.000000000000000000e+00,5.000000000000000000e+00,5.000000000000000000e+00,5.000000000000000000e+00,5.000000000000000000e+00,5.000000000000000000e+00,5.000000000000000000e+00,5.000000000000000000e+00,5.000000000000000000e+00,5.000000000000000000e+00,5.000000000000000000e+00,5.000000000000000000e+00,5.000000000000000000e+00,5.000000000000000000e+00,4.382331848144531250e+00,4.850228786468505859e+00,5.000000000000000000e+00,5.000000000000000000e+00,5.000000000000000000e+00,5.000000000000000000e+00,5.000000000000000000e+00,5.000000000000000000e+00,5.000000000000000000e+00,5.000000000000000000e+00,5.000000000000000000e+00,5.000000000000000000e+00,5.000000000000000000e+00,4.876206398010253906e+00,4.682758808135986328e+00,4.504074096679687500e+00,4.338524341583251953e+00,4.184713363647460938e+00,4.041433334350585938e+00,3.907639503479003906e+00,3.782420635223388672e+00,3.664977312088012695e+00,3.554607868194580078e+00,3.450691699981689453e+00,3.352678298950195312e+00,3.260079383850097656e+00,3.172457695007324219e+00,3.089423179626464844e+00,3.010624170303344727e+00,2.935745000839233398e+00,2.864500045776367188e+00,2.796631097793579102e+00,2.731903791427612305e+00,2.670105218887329102e+00,2.611040353775024414e+00,2.554532289505004883e+00,2.500417947769165039e+00,2.448549270629882812e+00,2.398788452148437500e+00,2.351009845733642578e+00,2.305097341537475586e+00,2.260943889617919922e+00,2.218450069427490234e+00,2.177524089813232422e+00,2.138080835342407227e+00,2.100040912628173828e+00,2.063331127166748047e+00,2.027882575988769531e+00,1.993631482124328613e+00,1.960518121719360352e+00,1.928486943244934082e+00,1.897485494613647461e+00,1.867465019226074219e+00
4.872474670410156250e+00,4.871255397796630859e+00,4.870037078857421875e+00,4.868819236755371094e+00,4.867602348327636719e+00,4.866385459899902344e+00,4.865169525146484375e+00,4.863954544067382812e+00,4.862739562988281250e+00,4.861525058746337891e+00,4.860311985015869141e+00,4.859098911285400391e+00,4.857886791229248047e+00,4.856675148010253906e+00,4.855463504791259766e+00,4.854253292083740234e+00,4.853043556213378906e+00,4.851834297180175781e+00,4.850625514984130859e+00,4.849417209625244141e+00,4.848210334777832031e+00,4.847002983093261719e+00,4.845796585083007812e+00,4.844591140747070312e+00,4.843386173248291016e+00,4.842181682586669922e+00,4.840977668762207031e+00,4.282167434692382812e+00,4.838571548461914062e+00,4.837369441986083984e+00,4.836168289184570312e+00,4.834967136383056641e+00,4.833766460418701172e+00,4.832567214965820312e+00,4.831367969512939453e+00,4.830169677734375000e+00,4.828971385955810547e+00,4.827774047851562500e+00,4.826577663421630859e+00,4.825381278991699219e+00,4.824185848236083984e+00,4.682888031005859375e+00,4.504193782806396484e+00,4.338635444641113281e+00,4.184816360473632812e+00,4.041531562805175781e+00,3.907731056213378906e+00,3.782506465911865234e+00,3.665057659149169922e+00,3.554683685302734375e+00,3.450762510299682617e+00,3.352745532989501953e+00,3.260143041610717773e+00,3.172518014907836914e+00,3.089480400085449219e+00,3.010678291320800781e+00,2.935796737670898438e+00,2.864549160003662109e+00,2.796678066253662109e+00,2.731948614120483398e+00,2.670147895812988281e+00,2.611081123352050781e+00,2.554571390151977539e+00,2.500455379486083984e+00,2.448585033416748047e+00,2.398822546005249023e+00,2.351042985916137695e+00,2.305129289627075195e+00,2.260974407196044922e+00,2.218479633331298828e+00,2.177552461624145508e+00,2.138108253479003906e+00,2.100067377090454102e+00,2.063356637954711914e+00,2.027907133102416992e+00,1.993655323982238770e+00,1.960541248321533203e+00,1.928509116172790527e+00,1.897506952285766602e+00,1.867486000061035156e+00
3.776974678039550781e+00,3.776242256164550781e+00,3.775509834289550781e+00,3.774777889251708984e+00,3.774046421051025391e+00,3.773314714431762695e+00,3.772583723068237305e+00,3.771852970123291016e+00,3.771122694015502930e+00,3.770392179489135742e+00,3.769662380218505859e+00,3.768932819366455078e+00,3.768203020095825195e+00,3.767474174499511719e+00,3.766745328903198242e+00,3.766016483306884766e+00,3.765288352966308594e+00,3.764560461044311523e+00,3.763832569122314453e+00,3.763105154037475586e+00,3.762378215789794922e+00,3.761651515960693359e+00,3.760924577713012695e+00,3.760198354721069336e+00,3.759472608566284180e+00,3.758746623992919922e+00,3.758021116256713867e+00,3.757296085357666016e+00,3.756571054458618164e+00,3.755846500396728516e+00,3.755122184753417969e+00,3.754397869110107422e+00,3.753674268722534180e+00,3.752950906753540039e+00,3.752227783203125000e+00,3.751504421234130859e+00,3.750782012939453125e+00,3.750059604644775391e+00,3.749337196350097656e+00,3.748615503311157227e+00,3.747894048690795898e+00,3.747172594070434570e+00,3.746451616287231445e+00,3.745731115341186523e+00,3.745010375976562500e+00,3.744290351867675781e+00,3.743570566177368164e+00,3.742851018905639648e+00,3.665138244628906250e+00,3.554759263992309570e+00,3.450833797454833984e+00,3.352812767028808594e+00,3.260206460952758789e+00,3.172578334808349609e+00,3.089537382125854492e+00,3.010732650756835938e+00,2.935848236083984375e+00,2.864598274230957031e+00,2.796724796295166016e+00,2.731993198394775391e+00,2.670190572738647461e+00,2.611122131347656250e+00,2.554610490798950195e+00,2.500492811203002930e+00,2.448621034622192383e+00,2.398857116699218750e+00,2.351075887680053711e+00,2.305160999298095703e+00,2.261005163192749023e+00,2.218508958816528320e+00,2.177580833435058594e+00,2.138135671615600586e+00,2.100093603134155273e+00,2.063382148742675781e+00,2.027931690216064453e+00,1.993679046630859375e+00,1.960564136505126953e+00,1.928531527519226074e+00,1.897528648376464844e+00,1.867506742477416992e+00
3.083661556243896484e+00,3.083173036575317383e+00,3.082684993743896484e+00,3.082197189331054688e+00,3.081709384918212891e+00,3.081221580505371094e+00,3.080734252929687500e+00,3.080246925354003906e+00,3.079759597778320312e+00,3.079272508621215820e+00,3.078785657882690430e+00,3.078298807144165039e+00,3.077812194824218750e+00,3.077325820922851562e+00,3.076839447021484375e+00,3.076353311538696289e+00,3.075867414474487305e+00,3.075381755828857422e+00,3.074895858764648438e+00,3.074410438537597656e+00,3.073925256729125977e+00,3.073439836502075195e+00,3.072954654693603516e+00,3.072469949722290039e+00,3.071985006332397461e+00,3.071500539779663086e+00,3.071016073226928711e+00,3.070531606674194336e+00,3.070047616958618164e+00,3.069563627243041992e+00,3.069079875946044922e+00,3.068596124649047852e+00,3.068112611770629883e+00,3.067629337310791016e+00,3.067145824432373047e+00,3.066662788391113281e+00,3.066179990768432617e+00,3.065697193145751953e+00,3.065214633941650391e+00,3.064732313156127930e+00,3.064249753952026367e+00,3.063767671585083008e+00,3.063285827636718750e+00,3.062803983688354492e+00,3.062322139739990234e+00,3.061840534210205078e+00,3.061359405517578125e+00,3.060877799987792969e+00,3.060396909713745117e+00,3.059916019439697266e+00,3.059434890747070312e+00,3.058954477310180664e+00,3.058474063873291016e+00,3.057993412017822266e+00,3.057513236999511719e+00,3.010787010192871094e+00,2.935899972915649414e+00,2.864647388458251953e+00,2.796771764755249023e+00,2.732038021087646484e+00,2.670233249664306641e+00,2.611162900924682617e+00,2.554649591445922852e+00,2.500530242919921875e+00,2.448656797409057617e+00,2.398891687393188477e+00,2.351109027862548828e+00,2.305192708969116211e+00,2.261035680770874023e+00,2.218538522720336914e+00,2.177609205245971680e+00,2.138162851333618164e+00,2.100120067596435547e+00,2.063407659530639648e+00,2.027956485748291016e+00,1.993703007698059082e+00,1.960587263107299805e+00,1.928553700447082520e+00,1.897550106048583984e+00,1.867527842521667480e+00
2.605405092239379883e+00,2.605056762695312500e+00,2.604708194732666016e+00,2.604359865188598633e+00,2.604011535644531250e+00,2.603663206100463867e+00,2.603315353393554688e+00,2.602967023849487305e+00,2.602619171142578125e+00,2.602271318435668945e+00,2.601923465728759766e+00,2.601575851440429688e+00,2.601228475570678711e+00,2.600881099700927734e+00,2.600533485412597656e+00,2.600186347961425781e+00,2.599839210510253906e+00,2.599492073059082031e+00,2.599144935607910156e+00,2.598798036575317383e+00,2.598451137542724609e+00,2.598104476928710938e+00,2.597758054733276367e+00,2.597411394119262695e+00,2.597064971923828125e+00,2.596718549728393555e+00,2.596372127532958984e+00,2.596026182174682617e+00,2.595679998397827148e+00,2.595334053039550781e+00,2.594988107681274414e+00,2.594642400741577148e+00,2.594296693801879883e+00,2.593950986862182617e+00,2.593605518341064453e+00,2.593260049819946289e+00,2.592914581298828125e+00,2.592569589614868164e+00,2.592224359512329102e+00,2.591879367828369141e+00,2.591534376144409180e+00,2.591189384460449219e+00,2.590844631195068359e+00,2.590499877929687500e+00,2.590155363082885742e+00,2.589810848236083984e+00,2.589466333389282227e+00,2.589122056961059570e+00,2.588777780532836914e+00,2.588433504104614258e+00,2.588089704513549805e+00,2.587745666503906250e+00,2.587401628494262695e+00,2.587058067321777344e+00,2.586714267730712891e+00,2.586370706558227539e+00,2.586027145385742188e+00,2.585683822631835938e+00,2.585340499877929688e+00,2.584997177124023438e+00,2.584654092788696289e+00,2.584311246871948242e+00,2.554688692092895508e+00,2.500567674636840820e+00,2.448692798614501953e+00,2.398926019668579102e+00,2.351142168045043945e+00,2.305224657058715820e+00,2.261066436767578125e+00,2.218567848205566406e+00,2.177637577056884766e+00,2.138190269470214844e+00,2.100146532058715820e+00,2.063433170318603516e+00,2.027981042861938477e+00,1.993726611137390137e+00,1.960610151290893555e+00,1.928576111793518066e+00,1.897571802139282227e+00,1.867548584938049316e+00
2.255565166473388672e+00,2.255305528640747070e+00,2.255045890808105469e+00,2.254786491394042969e+00,2.254527091979980469e+00,2.254267930984497070e+00,2.254008531570434570e+00,2.253749370574951172e+00,2.253490209579467773e+00,2.253230094909667969e+00,2.252969264984130859e+00,2.252708673477172852e+00,2.252448320388793945e+00,2.252187490463256836e+00,2.251927137374877930e+00,2.251666784286499023e+00,2.251406192779541016e+00,2.251146078109741211e+00,2.250885963439941406e+00,2.250625610351562500e+00,2.250365495681762695e+00,2.250105619430541992e+00,2.249845504760742188e+00,2.249585628509521484e+00,2.249325752258300781e+00,2.249065876007080078e+00,2.248805999755859375e+00,2.248546361923217773e+00,2.248286724090576172e+00,2.248027086257934570e+00,2.247767686843872070e+00,2.247508287429809570e+00,2.247248649597167969e+00,2.246989488601684570e+00,2.246730327606201172e+00,2.246471166610717773e+00,2.246211767196655273e+00,2.245952844619750977e+00,2.245693683624267578e+00,2.245434522628784180e+00,2.245175838470458984e+00,2.244916915893554688e+00,2.244657993316650391e+00,2.244399309158325195e+00,2.244140625000000000e+00,2.243881940841674805e+00,2.243623495101928711e+00,2.243365049362182617e+00,2.243106603622436523e+00,2.242848157882690430e+00,2.242589950561523438e+00,2.242331743240356445e+00,2.242073297500610352e+00,2.241815328598022461e+00,2.241557121276855469e+00,2.241299152374267578e+00,2.241041183471679688e+00,2.240783214569091797e+00,2.240525245666503906e+00,2.240267515182495117e+00,2.240010023117065430e+00,2.239752292633056641e+00,2.239494562149047852e+00,2.239237070083618164e+00,2.238979578018188477e+00,2.238722085952758789e+00,2.238464832305908203e+00,2.238207578659057617e+00,2.237950086593627930e+00,2.218597412109375000e+00,2.177665948867797852e+00,2.138217687606811523e+00,2.100172996520996094e+00,2.063458442687988281e+00,2.028005599975585938e+00,1.993750572204589844e+00,1.960633397102355957e+00,1.928598284721374512e+00,1.897593259811401367e+00,1.867569565773010254e+00
1.988465666770935059e+00,1.988263964653015137e+00,1.988062262535095215e+00,1.987860441207885742e+00,1.987658739089965820e+00,1.987457275390625000e+00,1.987255692481994629e+00,1.987054228782653809e+00,1.986852884292602539e+00,1.986651420593261719e+00,1.986449837684631348e+00,1.986248612403869629e+00,1.986047267913818359e+00,1.985846042633056641e+00,1.985644936561584473e+00,1.985443711280822754e+00,1.985242605209350586e+00,1.985041379928588867e+00,1.984840393066406250e+00,1.984639406204223633e+00,1.984438419342041016e+00,1.984237432479858398e+00,1.984036564826965332e+00,1.983835816383361816e+00,1.983634829521179199e+00,1.983434081077575684e+00,1.983233332633972168e+00,1.983032703399658203e+00,1.982832074165344238e+00,1.982631564140319824e+00,1.982430696487426758e+00,1.982230305671691895e+00,1.982029795646667480e+00,1.981829404830932617e+00,1.981629014015197754e+00,1.981428623199462891e+00,1.981228351593017578e+00,1.981027841567993164e+00,1.980827689170837402e+00,1.980627536773681641e+00,1.980427384376525879e+00,1.980227231979370117e+00,1.980027198791503906e+00,1.979827165603637695e+00,1.979627013206481934e+00,1.979427099227905273e+00,1.979227185249328613e+00,1.979027390480041504e+00,1.978827476501464844e+00,1.978627800941467285e+00,1.978428006172180176e+00,1.978228092193603516e+00,1.978028416633605957e+00,1.977828860282897949e+00,1.977629303932189941e+00,1.977429747581481934e+00,1.977230310440063477e+00,1.977030754089355469e+00,1.976831197738647461e+00,1.976631760597229004e+00,1.976432442665100098e+00,1.976233243942260742e+00,1.976033926010131836e+00,1.975834727287292480e+00,1.975635528564453125e+00,1.975436210632324219e+00,1.975237131118774414e+00,1.975038051605224609e+00,1.974839091300964355e+00,1.974640130996704102e+00,1.974441170692443848e+00,1.974242329597473145e+00,1.974043250083923340e+00,1.973844408988952637e+00,1.973645687103271484e+00,1.973446965217590332e+00,1.960656285285949707e+00,1.928620696067810059e+00,1.897614955902099609e+00,1.867590308189392090e+00
1.777927041053771973e+00,1.777765750885009766e+00,1.777604460716247559e+00,1.777443289756774902e+00,1.777282118797302246e+00,1.777120947837829590e+00,1.776959896087646484e+00,1.776798605918884277e+00,1.776637554168701172e+00,1.776476502418518066e+00,1.776315450668334961e+00,1.776154518127441406e+00,1.775993585586547852e+00,1.775832653045654297e+00,1.775671601295471191e+00,1.775510668754577637e+00,1.775349855422973633e+00,1.775189042091369629e+00,1.775028347969055176e+00,1.774867534637451172e+00,1.774706840515136719e+00,1.774546027183532715e+00,1.774385333061218262e+00,1.774224758148193359e+00,1.774064183235168457e+00,1.773903608322143555e+00,1.773743033409118652e+00,1.773582458496093750e+00,1.773421883583068848e+00,1.773261427879333496e+00,1.773100972175598145e+00,1.772940635681152344e+00,1.772780179977416992e+00,1.772619843482971191e+00,1.772459626197814941e+00,1.772299051284790039e+00,1.772138833999633789e+00,1.771978616714477539e+00,1.771818399429321289e+00,1.771658301353454590e+00,1.771498203277587891e+00,1.771338105201721191e+00,1.771177768707275391e+00,1.771017789840698242e+00,1.770857691764831543e+00,1.770697712898254395e+00,1.770537734031677246e+00,1.770377874374389648e+00,1.770217776298522949e+00,1.770057916641235352e+00,1.769898056983947754e+00,1.769738197326660156e+00,1.769578456878662109e+00,1.769418716430664062e+00,1.769258975982666016e+00,1.769099116325378418e+00,1.768939375877380371e+00,1.768779754638671875e+00,1.768620133399963379e+00,1.768460512161254883e+00,1.768301010131835938e+00,1.768141508102416992e+00,1.767981767654418945e+00,1.767822384834289551e+00,1.767662882804870605e+00,1.767503499984741211e+00,1.767344117164611816e+00,1.767184734344482422e+00,1.767025470733642578e+00,1.766865968704223633e+00,1.766706705093383789e+00,1.766547441482543945e+00,1.766388297080993652e+00,1.766229033470153809e+00,1.766069889068603516e+00,1.765910744667053223e+00,1.765751481056213379e+00,1.765592455863952637e+00,1.765433430671691895e+00,1.765274405479431152e+00
1.607703566551208496e+00,1.607571721076965332e+00,1.607439875602722168e+00,1.607308030128479004e+00,1.607176184654235840e+00,1.607044339179992676e+00,1.606912493705749512e+00,1.606780767440795898e+00,1.606649041175842285e+00,1.606517434120178223e+00,1.606385707855224609e+00,1.606254100799560547e+00,1.606122255325317383e+00,1.605990648269653320e+00,1.605859160423278809e+00,1.605727553367614746e+00,1.605595946311950684e+00,1.605464458465576172e+00,1.605332851409912109e+00,1.605201363563537598e+00,1.605069875717163086e+00,1.604938507080078125e+00,1.604807019233703613e+00,1.604675650596618652e+00,1.604544281959533691e+00,1.604412794113159180e+00,1.604281425476074219e+00,1.604150176048278809e+00,1.604018926620483398e+00,1.603887677192687988e+00,1.603756427764892578e+00,1.603625178337097168e+00,1.603493809700012207e+00,1.603362679481506348e+00,1.603231430053710938e+00,1.603100299835205078e+00,1.602969288825988770e+00,1.602838158607482910e+00,1.602707028388977051e+00,1.602575898170471191e+00,1.602444887161254883e+00,1.602313876152038574e+00,1.602182865142822266e+00,1.602051854133605957e+00,1.601920962333679199e+00,1.601790070533752441e+00,1.601659059524536133e+00,1.601528167724609375e+00,1.601397275924682617e+00,1.601266384124755859e+00,1.601135611534118652e+00,1.601004838943481445e+00,1.600874066352844238e+00,1.600743174552917480e+00,1.600612521171569824e+00,1.600481748580932617e+00,1.600351095199584961e+00,1.600220441818237305e+00,1.600089788436889648e+00,1.599959135055541992e+00,1.599828362464904785e+00,1.599697828292846680e+00,1.599567174911499023e+00,1.599436759948730469e+00,1.599306225776672363e+00,1.599175691604614258e+00,1.599045038223266602e+00,1.598914623260498047e+00,1.598784208297729492e+00,1.598653793334960938e+00,1.598523378372192383e+00,1.598393082618713379e+00,1.598262667655944824e+00,1.598132252693176270e+00,1.598001956939697266e+00,1.597871661186218262e+00,1.597741365432739258e+00,1.597611188888549805e+00,1.597481012344360352e+00,1.597350716590881348e+00
1.467227339744567871e+00,1.467117547988891602e+00,1.467007517814636230e+00,1.466897726058959961e+00,1.466787934303283691e+00,1.466678261756896973e+00,1.466568470001220703e+00,1.466458797454833984e+00,1.466349005699157715e+00,1.466239213943481445e+00,1.466129541397094727e+00,1.466019868850708008e+00,1.465910196304321289e+00,1.465800523757934570e+00,1.465690970420837402e+00,1.465581297874450684e+00,1.465471625328063965e+00,1.465362071990966797e+00,1.465252518653869629e+00,1.465142965316772461e+00,1.465033411979675293e+00,1.464923977851867676e+00,1.464814424514770508e+00,1.464704871177673340e+00,1.464595437049865723e+00,1.464486002922058105e+00,1.464376568794250488e+00,1.464267134666442871e+00,1.464157819747924805e+00,1.464048385620117188e+00,1.463938951492309570e+00,1.463829636573791504e+00,1.463720321655273438e+00,1.463611006736755371e+00,1.463501691818237305e+00,1.463392376899719238e+00,1.463283061981201172e+00,1.463173747062683105e+00,1.463064551353454590e+00,1.462955355644226074e+00,1.462846159934997559e+00,1.462736964225769043e+00,1.462627887725830078e+00,1.462518572807312012e+00,1.462409496307373047e+00,1.462300300598144531e+00,1.462191224098205566e+00,1.462082147598266602e+00,1.461973071098327637e+00,1.461864113807678223e+00,1.461754918098449707e+00,1.461645960807800293e+00,1.461536884307861328e+00,1.461427927017211914e+00,1.461318969726562500e+00,1.461210012435913086e+00,1.461101055145263672e+00,1.460992097854614258e+00,1.460883140563964844e+00,1.460774302482604980e+00,1.460665464401245117e+00,1.460556626319885254e+00,1.460447788238525391e+00,1.460338950157165527e+00,1.460229992866516113e+00,1.460121273994445801e+00,1.460012435913085938e+00,1.459903717041015625e+00,1.459794998168945312e+00,1.459686279296875000e+00,1.459577560424804688e+00,1.459468722343444824e+00,1.459360122680664062e+00,1.459251403808593750e+00,1.459142804145812988e+00,1.459034204483032227e+00,1.458925485610961914e+00,1.458817005157470703e+00,1.458708286285400391e+00,1.458599686622619629e+00
1.349327087402343750e+00,1.349234223365783691e+00,1.349141359329223633e+00,1.349048495292663574e+00,1.348955631256103516e+00,1.348862767219543457e+00,1.348769783973693848e+00,1.348677039146423340e+00,1.348584175109863281e+00,1.348491430282592773e+00,1.348398685455322266e+00,1.348305940628051758e+00,1.348213195800781250e+00,1.348120331764221191e+00,1.348027586936950684e+00,1.347934842109680176e+00,1.347842216491699219e+00,1.347749471664428711e+00,1.347656846046447754e+00,1.347564220428466797e+00,1.347471475601196289e+00,1.347378849983215332e+00,1.347286224365234375e+00,1.347193598747253418e+00,1.347100973129272461e+00,1.347008466720581055e+00,1.346915841102600098e+00,1.346823215484619141e+00,1.346730709075927734e+00,1.346638202667236328e+00,1.346545577049255371e+00,1.346453070640563965e+00,1.346360683441162109e+00,1.346268177032470703e+00,1.346175551414489746e+00,1.346083164215087891e+00,1.345990657806396484e+00,1.345898270606994629e+00,1.345805883407592773e+00,1.345713376998901367e+00,1.345620989799499512e+00,1.345528602600097656e+00,1.345436215400695801e+00,1.345343828201293945e+00,1.345251441001892090e+00,1.345159173011779785e+00,1.345066905021667480e+00,1.344974517822265625e+00,1.344882130622863770e+00,1.344789862632751465e+00,1.344697594642639160e+00,1.344605326652526855e+00,1.344513058662414551e+00,1.344420909881591797e+00,1.344328522682189941e+00,1.344236373901367188e+00,1.344144225120544434e+00,1.344051957130432129e+00,1.343959808349609375e+00,1.343867659568786621e+00,1.343775510787963867e+00,1.343683362007141113e+00,1.343591213226318359e+00,1.343499064445495605e+00,1.343407034873962402e+00,1.343314886093139648e+00,1.343222856521606445e+00,1.343130826950073242e+00,1.343038678169250488e+00,1.342946648597717285e+00,1.342854619026184082e+00,1.342762589454650879e+00,1.342670679092407227e+00,1.342578649520874023e+00,1.342486739158630371e+00,1.342394709587097168e+00,1.342302680015563965e+00,1.342210769653320312e+00,1.342118859291076660e+00,1.342026948928833008e+00
1.248965501785278320e+00,1.248885989189147949e+00,1.248806357383728027e+00,1.248726844787597656e+00,1.248647212982177734e+00,1.248567700386047363e+00,1.248488187789916992e+00,1.248408675193786621e+00,1.248329162597656250e+00,1.248249650001525879e+00,1.248170137405395508e+00,1.248090505599975586e+00,1.248011112213134766e+00,1.247931599617004395e+00,1.247852087020874023e+00,1.247772693634033203e+00,1.247693300247192383e+00,1.247613787651062012e+00,1.247534394264221191e+00,1.247454881668090820e+00,1.247375488281250000e+00,1.247296214103698730e+00,1.247216820716857910e+00,1.247137427330017090e+00,1.247058033943176270e+00,1.246978640556335449e+00,1.246899366378784180e+00,1.246819972991943359e+00,1.246740698814392090e+00,1.246661424636840820e+00,1.246582031250000000e+00,1.246502757072448730e+00,1.246423482894897461e+00,1.246344208717346191e+00,1.246264934539794922e+00,1.246185660362243652e+00,1.246106505393981934e+00,1.246027231216430664e+00,1.245947957038879395e+00,1.245868682861328125e+00,1.245789527893066406e+00,1.245710372924804688e+00,1.245631217956542969e+00,1.245552062988281250e+00,1.245472908020019531e+00,1.245393633842468262e+00,1.245314478874206543e+00,1.245235443115234375e+00,1.245156288146972656e+00,1.245077133178710938e+00,1.244998097419738770e+00,1.244919061660766602e+00,1.244839906692504883e+00,1.244760751724243164e+00,1.244681715965270996e+00,1.244602680206298828e+00,1.244523644447326660e+00,1.244444608688354492e+00,1.244365692138671875e+00,1.244286537170410156e+00,1.244207620620727539e+00,1.244128584861755371e+00,1.244049668312072754e+00,1.243970632553100586e+00,1.243891716003417969e+00,1.243812799453735352e+00,1.243733763694763184e+00,1.243654847145080566e+00,1.243575930595397949e+00,1.243497014045715332e+00,1.243418097496032715e+00,1.243339300155639648e+00,1.243260264396667480e+00,1.243181467056274414e+00,1.243102550506591797e+00,1.243023753166198730e+00,1.242944955825805664e+00,1.242866158485412598e+00,1.242787361145019531e+00,1.242708444595336914e+00
1.162500143051147461e+00,1.162431001663208008e+00,1.162362098693847656e+00,1.162293195724487305e+00,1.162224292755126953e+00,1.162155389785766602e+00,1.162086486816406250e+00,1.162017583847045898e+00,1.161948561668395996e+00,1.161879658699035645e+00,1.161810874938964844e+00,1.161741971969604492e+00,1.161673069000244141e+00,1.161604285240173340e+00,1.161535382270812988e+00,1.161466479301452637e+00,1.161397695541381836e+00,1.161328911781311035e+00,1.161260008811950684e+00,1.161191225051879883e+00,1.161122441291809082e+00,1.161053657531738281e+00,1.160984873771667480e+00,1.160916090011596680e+00,1.160847306251525879e+00,1.160778522491455078e+00,1.160709738731384277e+00,1.160641074180603027e+00,1.160572290420532227e+00,1.160503506660461426e+00,1.160434842109680176e+00,1.160366058349609375e+00,1.160297393798828125e+00,1.160228729248046875e+00,1.160160064697265625e+00,1.160091400146484375e+00,1.160022616386413574e+00,1.159953951835632324e+00,1.159885287284851074e+00,1.159816741943359375e+00,1.159748077392578125e+00,1.159679412841796875e+00,1.159610748291015625e+00,1.159542202949523926e+00,1.159473538398742676e+00,1.159404993057250977e+00,1.159336328506469727e+00,1.159267783164978027e+00,1.159199237823486328e+00,1.159130573272705078e+00,1.159062027931213379e+00,1.158993482589721680e+00,1.158924937248229980e+00,1.158856511116027832e+00,1.158787965774536133e+00,1.158719420433044434e+00,1.158650875091552734e+00,1.158582329750061035e+00,1.158513903617858887e+00,1.158445358276367188e+00,1.158376932144165039e+00,1.158308506011962891e+00,1.158240079879760742e+00,1.158171534538269043e+00,1.158103108406066895e+00,1.158034682273864746e+00,1.157966256141662598e+00,1.157897830009460449e+00,1.157829403877258301e+00,1.157761096954345703e+00,1.157692551612854004e+00,1.157624244689941406e+00,1.157555818557739258e+00,1.157487511634826660e+00,1.157419085502624512e+00,1.157350778579711914e+00,1.157282471656799316e+00,1.157214045524597168e+00,1.157145738601684570e+00,1.157077431678771973e+00
1.087231278419494629e+00,1.087170958518981934e+00,1.087110638618469238e+00,1.087050437927246094e+00,1.086990118026733398e+00,1.086929798126220703e+00,1.086869478225708008e+00,1.086809158325195312e+00,1.086748957633972168e+00,1.086688637733459473e+00,1.086628437042236328e+00,1.086568236351013184e+00,1.086507916450500488e+00,1.086447715759277344e+00,1.086387395858764648e+00,1.086327195167541504e+00,1.086266994476318359e+00,1.086206793785095215e+00,1.086146593093872070e+00,1.086086392402648926e+00,1.086026191711425781e+00,1.085965991020202637e+00,1.085905909538269043e+00,1.085845708847045898e+00,1.085785508155822754e+00,1.085725426673889160e+00,1.085665225982666016e+00,1.085605025291442871e+00,1.085544943809509277e+00,1.085484862327575684e+00,1.085424661636352539e+00,1.085364580154418945e+00,1.085304498672485352e+00,1.085244297981262207e+00,1.085184216499328613e+00,1.085124135017395020e+00,1.085064053535461426e+00,1.085003972053527832e+00,1.084944009780883789e+00,1.084883928298950195e+00,1.084823846817016602e+00,1.084763765335083008e+00,1.084703683853149414e+00,1.084643721580505371e+00,1.084583640098571777e+00,1.084523677825927734e+00,1.084463596343994141e+00,1.084403514862060547e+00,1.084343552589416504e+00,1.084283590316772461e+00,1.084223628044128418e+00,1.084163665771484375e+00,1.084103703498840332e+00,1.084043741226196289e+00,1.083983659744262695e+00,1.083923697471618652e+00,1.083863735198974609e+00,1.083803892135620117e+00,1.083743929862976074e+00,1.083683967590332031e+00,1.083624005317687988e+00,1.083564162254333496e+00,1.083504199981689453e+00,1.083444356918334961e+00,1.083384394645690918e+00,1.083324551582336426e+00,1.083264708518981934e+00,1.083204746246337891e+00,1.083144903182983398e+00,1.083085060119628906e+00,1.083025217056274414e+00,1.082965373992919922e+00,1.082905530929565430e+00,1.082845687866210938e+00,1.082785725593566895e+00,1.082726001739501953e+00,1.082666158676147461e+00,1.082606315612792969e+00,1.082546591758728027e+00,1.082486748695373535e+00
1.021116733551025391e+00,1.021063566207885742e+00,1.021010398864746094e+00,1.020957112312316895e+00,1.020903944969177246e+00,1.020850777626037598e+00,1.020797610282897949e+00,1.020744442939758301e+00,1.020691275596618652e+00,1.020638108253479004e+00,1.020584940910339355e+00,1.020531773567199707e+00,1.020478606224060059e+00,1.020425558090209961e+00,1.020372390747070312e+00,1.020319223403930664e+00,1.020266175270080566e+00,1.020213007926940918e+00,1.020159840583801270e+00,1.020106792449951172e+00,1.020053744316101074e+00,1.020000576972961426e+00,1.019947528839111328e+00,1.019894480705261230e+00,1.019841313362121582e+00,1.019788265228271484e+00,1.019735217094421387e+00,1.019682168960571289e+00,1.019629120826721191e+00,1.019576072692871094e+00,1.019523024559020996e+00,1.019469976425170898e+00,1.019416928291320801e+00,1.019363880157470703e+00,1.019310951232910156e+00,1.019257903099060059e+00,1.019204854965209961e+00,1.019151806831359863e+00,1.019098877906799316e+00,1.019045829772949219e+00,1.018992900848388672e+00,1.018939852714538574e+00,1.018886923789978027e+00,1.018833994865417480e+00,1.018780946731567383e+00,1.018728017807006836e+00,1.018675088882446289e+00,1.018622040748596191e+00,1.018569111824035645e+00,1.018516182899475098e+00,1.018463253974914551e+00,1.018410325050354004e+00,1.018357396125793457e+00,1.018304467201232910e+00,1.018251538276672363e+00,1.018198728561401367e+00,1.018145799636840820e+00,1.018092870712280273e+00,1.018039941787719727e+00,1.017987132072448730e+00,1.017934203147888184e+00,1.017881393432617188e+00,1.017828464508056641e+00,1.017775654792785645e+00,1.017722845077514648e+00,1.017669916152954102e+00,1.017617106437683105e+00,1.017564177513122559e+00,1.017511367797851562e+00,1.017458558082580566e+00,1.017405748367309570e+00,1.017352938652038574e+00,1.017300128936767578e+00,1.017247319221496582e+00,1.017194509506225586e+00,1.017141699790954590e+00,1.017088890075683594e+00,1.017036199569702148e+00,1.016983270645141602e+00,1.016930580139160156e+00
9.625821709632873535e-01,9.625349044799804688e-01,9.624876379966735840e-01,9.624403715133666992e-01,9.623931050300598145e-01,9.623458385467529297e-01,9.622985720634460449e-01,9.622512459754943848e-01,9.622039794921875000e-01,9.621567726135253906e-01,9.621095657348632812e-01,9.620622992515563965e-01,9.620150923728942871e-01,9.619678854942321777e-01,9.619206786155700684e-01,9.618734717369079590e-01,9.618262648582458496e-01,9.617790579795837402e-01,9.617318511009216309e-01,9.616847038269042969e-01,9.616374969482421875e-01,9.615902304649353027e-01,9.615430235862731934e-01,9.614958763122558594e-01,9.614486694335937500e-01,9.614015221595764160e-01,9.613543748855590820e-01,9.613072276115417480e-01,9.612600803375244141e-01,9.612129330635070801e-01,9.611657857894897461e-01,9.611186385154724121e-01,9.610715508460998535e-01,9.610244035720825195e-01,9.609773159027099609e-01,9.609300494194030762e-01,9.608829617500305176e-01,9.608358740806579590e-01,9.607887864112854004e-01,9.607416391372680664e-01,9.606945514678955078e-01,9.606474637985229492e-01,9.606003761291503906e-01,9.605533480644226074e-01,9.605062603950500488e-01,9.604591727256774902e-01,9.604121446609497070e-01,9.603650569915771484e-01,9.603179097175598145e-01,9.602708220481872559e-01,9.602237939834594727e-01,9.601767659187316895e-01,9.601297378540039062e-01,9.600827097892761230e-01,9.600356817245483398e-01,9.599886536598205566e-01,9.599416255950927734e-01,9.598945975303649902e-01,9.598475694656372070e-01,9.598006010055541992e-01,9.597535729408264160e-01,9.597066044807434082e-01,9.596595168113708496e-01,9.596124887466430664e-01,9.595655202865600586e-01,9.595185518264770508e-01,9.594715833663940430e-01,9.594246149063110352e-01,9.593776464462280273e-01,9.593306779861450195e-01,9.592837095260620117e-01,9.592368006706237793e-01,9.591898322105407715e-01,9.591428637504577637e-01,9.590959548950195312e-01,9.590490460395812988e-01,9.590020179748535156e-01,9.589550495147705078e-01,9.589081406593322754e-01,9.588612318038940430e-01
9.103946089744567871e-01,9.103522896766662598e-01,9.103100299835205078e-01,9.102677702903747559e-01,9.102254509925842285e-01,9.101831316947937012e-01,9.101408720016479492e-01,9.100986123085021973e-01,9.100563526153564453e-01,9.100140929222106934e-01,9.099718332290649414e-01,9.099295735359191895e-01,9.098873138427734375e-01,9.098451137542724609e-01,9.098028540611267090e-01,9.097606539726257324e-01,9.097183942794799805e-01,9.096761941909790039e-01,9.096338748931884766e-01,9.095916152000427246e-01,9.095494151115417480e-01,9.095072150230407715e-01,9.094650149345397949e-01,9.094228148460388184e-01,9.093806147575378418e-01,9.093384146690368652e-01,9.092962741851806641e-01,9.092540740966796875e-01,9.092118740081787109e-01,9.091697335243225098e-01,9.091275334358215332e-01,9.090853929519653320e-01,9.090431332588195801e-01,9.090009331703186035e-01,9.089587926864624023e-01,9.089166522026062012e-01,9.088745117187500000e-01,9.088323712348937988e-01,9.087902307510375977e-01,9.087480902671813965e-01,9.087059497833251953e-01,9.086638092994689941e-01,9.086216688156127930e-01,9.085795879364013672e-01,9.085374474525451660e-01,9.084953069686889648e-01,9.084531068801879883e-01,9.084110260009765625e-01,9.083689451217651367e-01,9.083268046379089355e-01,9.082847237586975098e-01,9.082426428794860840e-01,9.082005620002746582e-01,9.081584811210632324e-01,9.081164002418518066e-01,9.080743193626403809e-01,9.080322384834289551e-01,9.079901576042175293e-01,9.079481363296508789e-01,9.079060554504394531e-01,9.078639149665832520e-01,9.078218936920166016e-01,9.077798128128051758e-01,9.077377915382385254e-01,9.076957106590270996e-01,9.076536893844604492e-01,9.076116681098937988e-01,9.075696468353271484e-01,9.075276255607604980e-01,9.074856042861938477e-01,9.074435830116271973e-01,9.074015617370605469e-01,9.073595404624938965e-01,9.073174595832824707e-01,9.072754383087158203e-01,9.072334766387939453e-01,9.071914553642272949e-01,9.071494936943054199e-01,9.071074724197387695e-01,9.070655107498168945e-01
8.635748624801635742e-01,8.635367751121520996e-01,8.634986281394958496e-01,8.634606003761291504e-01,8.634225726127624512e-01,8.633845448493957520e-01,8.633465170860290527e-01,8.633084893226623535e-01,8.632704615592956543e-01,8.632324337959289551e-01,8.631944060325622559e-01,8.631563782691955566e-01,8.631184101104736328e-01,8.630803823471069336e-01,8.630424141883850098e-01,8.630043864250183105e-01,8.629662990570068359e-01,8.629282712936401367e-01,8.628903031349182129e-01,8.628523349761962891e-01,8.628143072128295898e-01,8.627763390541076660e-01,8.627383708953857422e-01,8.627004027366638184e-01,8.626624345779418945e-01,8.626244664192199707e-01,8.625864982604980469e-01,8.625485301017761230e-01,8.625105619430541992e-01,8.624725937843322754e-01,8.624345660209655762e-01,8.623966574668884277e-01,8.623586893081665039e-01,8.623207211494445801e-01,8.622828125953674316e-01,8.622449040412902832e-01,8.622069358825683594e-01,8.621690273284912109e-01,8.621311187744140625e-01,8.620931506156921387e-01,8.620552420616149902e-01,8.620173335075378418e-01,8.619794249534606934e-01,8.619414567947387695e-01,8.619035482406616211e-01,8.618656396865844727e-01,8.618277311325073242e-01,8.617898225784301758e-01,8.617519140243530273e-01,8.617140650749206543e-01,8.616761565208435059e-01,8.616383075714111328e-01,8.616003990173339844e-01,8.615625500679016113e-01,8.615246415138244629e-01,8.614867925643920898e-01,8.614489436149597168e-01,8.614109754562377930e-01,8.613731265068054199e-01,8.613352775573730469e-01,8.612974286079406738e-01,8.612595796585083008e-01,8.612217307090759277e-01,8.611838817596435547e-01,8.611460328102111816e-01,8.611082434654235840e-01,8.610703945159912109e-01,8.610325455665588379e-01,8.609947562217712402e-01,8.609569072723388672e-01,8.609191179275512695e-01,8.608812093734741211e-01,8.608433604240417480e-01,8.608055710792541504e-01,8.607677817344665527e-01,8.607299923896789551e-01,8.606921434402465820e-01,8.606543540954589844e-01,8.606165647506713867e-01,8.605787754058837891e-01
8.213351368904113770e-01,8.213007450103759766e-01,8.212662935256958008e-01,8.212319016456604004e-01,8.211975097656250000e-01,8.211631178855895996e-01,8.211286664009094238e-01,8.210942745208740234e-01,8.210598826408386230e-01,8.210254907608032227e-01,8.209910988807678223e-01,8.209567070007324219e-01,8.209223151206970215e-01,8.208878636360168457e-01,8.208534717559814453e-01,8.208191394805908203e-01,8.207847476005554199e-01,8.207503557205200195e-01,8.207160234451293945e-01,8.206816315650939941e-01,8.206472992897033691e-01,8.206129074096679688e-01,8.205785751342773438e-01,8.205441832542419434e-01,8.205098509788513184e-01,8.204755187034606934e-01,8.204411864280700684e-01,8.204067349433898926e-01,8.203724026679992676e-01,8.203380703926086426e-01,8.203037381172180176e-01,8.202694058418273926e-01,8.202350735664367676e-01,8.202007412910461426e-01,8.201664090156555176e-01,8.201321363449096680e-01,8.200978040695190430e-01,8.200634717941284180e-01,8.200291991233825684e-01,8.199948668479919434e-01,8.199605345726013184e-01,8.199262022972106934e-01,8.198918700218200684e-01,8.198575973510742188e-01,8.198232650756835938e-01,8.197889924049377441e-01,8.197547197341918945e-01,8.197204470634460449e-01,8.196861743927001953e-01,8.196518421173095703e-01,8.196175694465637207e-01,8.195832967758178711e-01,8.195490241050720215e-01,8.195147514343261719e-01,8.194804191589355469e-01,8.194461464881896973e-01,8.194119334220886230e-01,8.193776607513427734e-01,8.193433880805969238e-01,8.193091750144958496e-01,8.192749023437500000e-01,8.192406296730041504e-01,8.192064166069030762e-01,8.191722035408020020e-01,8.191379308700561523e-01,8.191037178039550781e-01,8.190695047378540039e-01,8.190352320671081543e-01,8.190009593963623047e-01,8.189667463302612305e-01,8.189324736595153809e-01,8.188982605934143066e-01,8.188640475273132324e-01,8.188298344612121582e-01,8.187956213951110840e-01,8.187614679336547852e-01,8.187272548675537109e-01,8.186930418014526367e-01,8.186588287353515625e-01,8.186246752738952637e-01
7.830349802970886230e-01,7.830036878585815430e-01,7.829723954200744629e-01,7.829411029815673828e-01,7.829098701477050781e-01,7.828785777091979980e-01,7.828472852706909180e-01,7.828160524368286133e-01,7.827847599983215332e-01,7.827535271644592285e-01,7.827222347259521484e-01,7.826909422874450684e-01,7.826596498489379883e-01,7.826284170150756836e-01,7.825971841812133789e-01,7.825658917427062988e-01,7.825346589088439941e-01,7.825034260749816895e-01,7.824721932411193848e-01,7.824409604072570801e-01,7.824097275733947754e-01,7.823784947395324707e-01,7.823472619056701660e-01,7.823160290718078613e-01,7.822847366333007812e-01,7.822535037994384766e-01,7.822222709655761719e-01,7.821910381317138672e-01,7.821598649024963379e-01,7.821286320686340332e-01,7.820973992347717285e-01,7.820662260055541992e-01,7.820349931716918945e-01,7.820038199424743652e-01,7.819725871086120605e-01,7.819414138793945312e-01,7.819102406501770020e-01,7.818790078163146973e-01,7.818477749824523926e-01,7.818165421485900879e-01,7.817853689193725586e-01,7.817541956901550293e-01,7.817230224609375000e-01,7.816918492317199707e-01,7.816606760025024414e-01,7.816295027732849121e-01,7.815983295440673828e-01,7.815671563148498535e-01,7.815359830856323242e-01,7.815048098564147949e-01,7.814736366271972656e-01,7.814425230026245117e-01,7.814112901687622070e-01,7.813801169395446777e-01,7.813490033149719238e-01,7.813178300857543945e-01,7.812866568565368652e-01,7.812555432319641113e-01,7.812243700027465820e-01,7.811932563781738281e-01,7.811621427536010742e-01,7.811309695243835449e-01,7.810998558998107910e-01,7.810687422752380371e-01,7.810376286506652832e-01,7.810064554214477539e-01,7.809752821922302246e-01,7.809441685676574707e-01,7.809130549430847168e-01,7.808819413185119629e-01,7.808508276939392090e-01,7.808197140693664551e-01,7.807886004447937012e-01,7.807574868202209473e-01,7.807264328002929688e-01,7.806953191757202148e-01,7.806642055511474609e-01,7.806331515312194824e-01,7.806020379066467285e-01,7.805708646774291992e-01
7.481476068496704102e-01,7.481190562248229980e-01,7.480905055999755859e-01,7.480619549751281738e-01,7.480334043502807617e-01,7.480048537254333496e-01,7.479763031005859375e-01,7.479477524757385254e-01,7.479191422462463379e-01,7.478905916213989258e-01,7.478621006011962891e-01,7.478335499763488770e-01,7.478049993515014648e-01,7.477764487266540527e-01,7.477479577064514160e-01,7.477194070816040039e-01,7.476909160614013672e-01,7.476623654365539551e-01,7.476338744163513184e-01,7.476053237915039062e-01,7.475768327713012695e-01,7.475482821464538574e-01,7.475197315216064453e-01,7.474912405014038086e-01,7.474626898765563965e-01,7.474341988563537598e-01,7.474057078361511230e-01,7.473772168159484863e-01,7.473487257957458496e-01,7.473202347755432129e-01,7.472917437553405762e-01,7.472632527351379395e-01,7.472347617149353027e-01,7.472062706947326660e-01,7.471777796745300293e-01,7.471492886543273926e-01,7.471207380294799805e-01,7.470922470092773438e-01,7.470637559890747070e-01,7.470353245735168457e-01,7.470068335533142090e-01,7.469783425331115723e-01,7.469499111175537109e-01,7.469214200973510742e-01,7.468929886817932129e-01,7.468644976615905762e-01,7.468360662460327148e-01,7.468075752258300781e-01,7.467791438102722168e-01,7.467505931854248047e-01,7.467221617698669434e-01,7.466937303543090820e-01,7.466652393341064453e-01,7.466368079185485840e-01,7.466083765029907227e-01,7.465799450874328613e-01,7.465515136718750000e-01,7.465230822563171387e-01,7.464946508407592773e-01,7.464662194252014160e-01,7.464377880096435547e-01,7.464093565940856934e-01,7.463809251785278320e-01,7.463524341583251953e-01,7.463240027427673340e-01,7.462955713272094727e-01,7.462671995162963867e-01,7.462387681007385254e-01,7.462103366851806641e-01,7.461819648742675781e-01,7.461535334587097168e-01,7.461251020431518555e-01,7.460967302322387695e-01,7.460682988166809082e-01,7.460399270057678223e-01,7.460115551948547363e-01,7.459831237792968750e-01,7.459546923637390137e-01,7.459262609481811523e-01,7.458978891372680664e-01
7.162364125251770020e-01,7.162102460861206055e-01,7.161840796470642090e-01,7.161579132080078125e-01,7.161317467689514160e-01,7.161055803298950195e-01,7.160793542861938477e-01,7.160531878471374512e-01,7.160270214080810547e-01,7.160008549690246582e-01,7.159746885299682617e-01,7.159485220909118652e-01,7.159224152565002441e-01,7.158962488174438477e-01,7.158700823783874512e-01,7.158439755439758301e-01,7.158178091049194336e-01,7.157916426658630371e-01,7.157655358314514160e-01,7.157393097877502441e-01,7.157132029533386230e-01,7.156870365142822266e-01,7.156609296798706055e-01,7.156347632408142090e-01,7.156086564064025879e-01,7.155825495719909668e-01,7.155563831329345703e-01,7.155302762985229492e-01,7.155041694641113281e-01,7.154780626296997070e-01,7.154519557952880859e-01,7.154257893562316895e-01,7.153996825218200684e-01,7.153735160827636719e-01,7.153474092483520508e-01,7.153213024139404297e-01,7.152951955795288086e-01,7.152690887451171875e-01,7.152429819107055664e-01,7.152168750762939453e-01,7.151908278465270996e-01,7.151647210121154785e-01,7.151386141777038574e-01,7.151125073432922363e-01,7.150864005088806152e-01,7.150603532791137695e-01,7.150342464447021484e-01,7.150081396102905273e-01,7.149820327758789062e-01,7.149559259414672852e-01,7.149298787117004395e-01,7.149037718772888184e-01,7.148777246475219727e-01,7.148516178131103516e-01,7.148255705833435059e-01,7.147995233535766602e-01,7.147734165191650391e-01,7.147473692893981934e-01,7.147213220596313477e-01,7.146952152252197266e-01,7.146691083908081055e-01,7.146430611610412598e-01,7.146170139312744141e-01,7.145909667015075684e-01,7.145649194717407227e-01,7.145388722419738770e-01,7.145128250122070312e-01,7.144867777824401855e-01,7.144607305526733398e-01,7.144346833229064941e-01,7.144086360931396484e-01,7.143825888633728027e-01,7.143565416336059570e-01,7.143304944038391113e-01,7.143043875694274902e-01,7.142783999443054199e-01,7.142523527145385742e-01,7.142263054847717285e-01,7.142003178596496582e-01,7.141742706298828125e-01
6.869360804557800293e-01,6.869120001792907715e-01,6.868879795074462891e-01,6.868638396263122559e-01,6.868397593498229980e-01,6.868156790733337402e-01,6.867915987968444824e-01,6.867675781250000000e-01,6.867434978485107422e-01,6.867194175720214844e-01,6.866953969001770020e-01,6.866713166236877441e-01,6.866472363471984863e-01,6.866232156753540039e-01,6.865991353988647461e-01,6.865751147270202637e-01,6.865510344505310059e-01,6.865269541740417480e-01,6.865028738975524902e-01,6.864788532257080078e-01,6.864547729492187500e-01,6.864307522773742676e-01,6.864067316055297852e-01,6.863827109336853027e-01,6.863586306571960449e-01,6.863346099853515625e-01,6.863105893135070801e-01,6.862865686416625977e-01,6.862624883651733398e-01,6.862384676933288574e-01,6.862143874168395996e-01,6.861903667449951172e-01,6.861663460731506348e-01,6.861423254013061523e-01,6.861183047294616699e-01,6.860942840576171875e-01,6.860702633857727051e-01,6.860462427139282227e-01,6.860222816467285156e-01,6.859982609748840332e-01,6.859742403030395508e-01,6.859502196311950684e-01,6.859261989593505859e-01,6.859022378921508789e-01,6.858781576156616211e-01,6.858541369438171387e-01,6.858301758766174316e-01,6.858061552047729492e-01,6.857821345329284668e-01,6.857581734657287598e-01,6.857341527938842773e-01,6.857101917266845703e-01,6.856861710548400879e-01,6.856622099876403809e-01,6.856381893157958984e-01,6.856142282485961914e-01,6.855902671813964844e-01,6.855662465095520020e-01,6.855422258377075195e-01,6.855182647705078125e-01,6.854943037033081055e-01,6.854702830314636230e-01,6.854463219642639160e-01,6.854223608970642090e-01,6.853983998298645020e-01,6.853744387626647949e-01,6.853504776954650879e-01,6.853265166282653809e-01,6.853025555610656738e-01,6.852785944938659668e-01,6.852546334266662598e-01,6.852306723594665527e-01,6.852066516876220703e-01,6.851826906204223633e-01,6.851587295532226562e-01,6.851347684860229492e-01,6.851108670234680176e-01,6.850869059562683105e-01,6.850629448890686035e-01,6.850389838218688965e-01
6.599388122558593750e-01,6.599165797233581543e-01,6.598943471908569336e-01,6.598721146583557129e-01,6.598499417304992676e-01,6.598277091979980469e-01,6.598054766654968262e-01,6.597833037376403809e-01,6.597610712051391602e-01,6.597388982772827148e-01,6.597166657447814941e-01,6.596944928169250488e-01,6.596722602844238281e-01,6.596500873565673828e-01,6.596277952194213867e-01,6.596056222915649414e-01,6.595833897590637207e-01,6.595612168312072754e-01,6.595390439033508301e-01,6.595168113708496094e-01,6.594946384429931641e-01,6.594724655151367188e-01,6.594502329826354980e-01,6.594280600547790527e-01,6.594058871269226074e-01,6.593837141990661621e-01,6.593615412712097168e-01,6.593393683433532715e-01,6.593171358108520508e-01,6.592949032783508301e-01,6.592727303504943848e-01,6.592505574226379395e-01,6.592283844947814941e-01,6.592062115669250488e-01,6.591840386390686035e-01,6.591618657112121582e-01,6.591397523880004883e-01,6.591175794601440430e-01,6.590954065322875977e-01,6.590732336044311523e-01,6.590510606765747070e-01,6.590288877487182617e-01,6.590067148208618164e-01,6.589845418930053711e-01,6.589623689651489258e-01,6.589402556419372559e-01,6.589180827140808105e-01,6.588959097862243652e-01,6.588737964630126953e-01,6.588516235351562500e-01,6.588294506072998047e-01,6.588073372840881348e-01,6.587851643562316895e-01,6.587630510330200195e-01,6.587408781051635742e-01,6.587187051773071289e-01,6.586965918540954590e-01,6.586744189262390137e-01,6.586523056030273438e-01,6.586301922798156738e-01,6.586080193519592285e-01,6.585859060287475586e-01,6.585637927055358887e-01,6.585416197776794434e-01,6.585195064544677734e-01,6.584973931312561035e-01,6.584752798080444336e-01,6.584531664848327637e-01,6.584310531616210938e-01,6.584088802337646484e-01,6.583867669105529785e-01,6.583646535873413086e-01,6.583425402641296387e-01,6.583204269409179688e-01,6.582983136177062988e-01,6.582762002944946289e-01,6.582540869712829590e-01,6.582319736480712891e-01,6.582098603248596191e-01,6.581877470016479492e-01
