5.000000000000000000e+00,5.000000000000000000e+00,5.000000000000000000e+00,5.000000000000000000e+00,5.000000000000000000e+00,5.000000000000000000e+00,5.000000000000000000e+00,5.000000000000000000e+00,5.000000000000000000e+00,5.000000000000000000e+00,5.000000000000000000e+00,5.000000000000000000e+00,5.000000000000000000e+00,5.000000000000000000e+00,5.000000000000000000e+00,5.000000000000000000e+00,5.000000000000000000e+00,5.000000000000000000e+00,5.000000000000000000e+00,5.000000000000000000e+00,5.000000000000000000e+00,5.000000000000000000e+00,5.000000000000000000e+00,5.000000000000000000e+00,5.000000000000000000e+00,5.000000000000000000e+00,2.332861423492431641e+00,2.334020137786865234e+00,2.293553352355957031e+00,2.268305301666259766e+00,2.256968259811401367e+00,2.261926889419555664e+00,2.266775369644165039e+00,2.272444963455200195e+00,2.293167114257812500e+00,2.332134723663330078e+00,2.388122797012329102e+00,2.387764215469360352e+00,5.000000000000000000e+00,4.851027011871337891e+00,4.660983085632324219e+00,4.485268115997314453e+00,4.322320461273193359e+00,4.170797348022460938e+00,4.029538154602050781e+00,3.897534132003784180e+00,3.773904323577880859e+00,3.657876014709472656e+00,3.548769950866699219e+00,3.445983886718750000e+00,3.348984718322753906e+00,3.257296323776245117e+00,3.170494794845581055e+00,3.088199615478515625e+00,3.010068655014038086e+00,2.935793161392211914e+00,2.865095138549804688e+00,2.797722101211547852e+00,2.733444690704345703e+00,2.672054529190063477e+00,2.613361597061157227e+00,2.557191371917724609e+00,2.503385066986083984e+00,2.451796293258666992e+00,2.402290821075439453e+00,2.354745149612426758e+00,2.309044837951660156e+00,2.265084505081176758e+00,2.222766876220703125e+00,2.182001590728759766e+00,2.142704725265502930e+00,2.104797840118408203e+00,2.068208932876586914e+00,2.032870769500732422e+00,1.998719811439514160e+00,1.965697050094604492e+00,1.933747768402099609e+00,1.902820587158203125e+00,1.872867107391357422e+00,1.843842029571533203e+00
5.000000000000000000e+00,5.000000000000000000e+00,5.000000000000000000e+00,5.000000000000000000e+00,5.000000000000000000e+00,5.000000000000000000e+00,5.000000000000000000e+00,5.000000000000000000e+00,5.000000000000000000e+00,5.000000000000000000e+00,5.000000000000000000e+00,5.000000000000000000e+00,5.000000000000000000e+00,5.000000000000000000e+00,5.000000000000000000e+00,5.000000000000000000e+00,5.000000000000000000e+00,5.000000000000000000e+00,5.000000000000000000e+00,5.000000000000000000e+00,5.000000000000000000e+00,5.000000000000000000e+00,5.000000000000000000e+00,5.000000000000000000e+00,5.000000000000000000e+00,5.000000000000000000e+00,2.351746559143066406e+00,2.336886882781982422e+00,2.307376861572265625e+00,2.283008813858032227e+00,2.262346267700195312e+00,2.254148006439208984e+00,2.259108543395996094e+00,2.276914119720458984e+00,2.308338403701782227e+00,2.343149900436401367e+00,2.386235237121582031e+00,2.393367290496826172e+00,5.000000000000000000e+00,4.851166725158691406e+00,4.661111831665039062e+00,4.485387325286865234e+00,4.322431087493896484e+00,4.170900344848632812e+00,4.029634475708007812e+00,3.897624254226684570e+00,3.773988723754882812e+00,3.657955408096313477e+00,3.548844575881958008e+00,3.446054458618164062e+00,3.349051237106323242e+00,3.257359266281127930e+00,3.170554399490356445e+00,3.088256120681762695e+00,3.010122299194335938e+00,2.935844182968139648e+00,2.865143775939941406e+00,2.797768354415893555e+00,2.733489036560058594e+00,2.672096967697143555e+00,2.613402128219604492e+00,2.557230234146118164e+00,2.503422260284423828e+00,2.451831817626953125e+00,2.402325153350830078e+00,2.354778051376342773e+00,2.309076309204101562e+00,2.265115022659301758e+00,2.222796201705932617e+00,2.182029962539672852e+00,2.142731904983520508e+00,2.104824066162109375e+00,2.068234443664550781e+00,2.032895326614379883e+00,1.998743295669555664e+00,1.965720057487487793e+00,1.933770060539245605e+00,1.902842164039611816e+00,1.872887969017028809e+00,1.843862056732177734e+00
5.000000000000000000e+00,5.000000000000000000e+00,5.000000000000000000e+00,5.000000000000000000e+00,5.000000000000000000e+00,5.000000000000000000e+00,5.000000000000000000e+00,5.000000000000000000e+00,5.000000000000000000e+00,5.000000000000000000e+00,5.000000000000000000e+00,5.000000000000000000e+00,5.000000000000000000e+00,5.000000000000000000e+00,5.000000000000000000e+00,5.000000000000000000e+00,5.000000000000000000e+00,5.000000000000000000e+00,5.000000000000000000e+00,5.000000000000000000e+00,5.000000000000000000e+00,5.000000000000000000e+00,5.000000000000000000e+00,5.000000000000000000e+00,5.000000000000000000e+00,5.000000000000000000e+00,2.356148004531860352e+00,2.336610317230224609e+00,2.337572813034057617e+00,2.278409957885742188e+00,2.259483098983764648e+00,2.255101680755615234e+00,2.259688138961791992e+00,2.273572444915771484e+00,2.302316188812255859e+00,2.360652208328247070e+00,2.383989334106445312e+00,2.396724462509155273e+00,5.000000000000000000e+00,4.851305961608886719e+00,4.661241054534912109e+00,4.485507011413574219e+00,4.322542190551757812e+00,4.171003818511962891e+00,4.029730796813964844e+00,3.897714138031005859e+00,3.774073123931884766e+00,3.658034801483154297e+00,3.548919439315795898e+00,3.446124792098999023e+00,3.349117755889892578e+00,3.257422208786010742e+00,3.170614242553710938e+00,3.088312864303588867e+00,3.010175943374633789e+00,2.935895442962646484e+00,2.865192413330078125e+00,2.797814846038818359e+00,2.733533382415771484e+00,2.672139406204223633e+00,2.613442420959472656e+00,2.557268857955932617e+00,2.503459453582763672e+00,2.451867580413818359e+00,2.402359247207641602e+00,2.354810953140258789e+00,2.309108018875122070e+00,2.265145540237426758e+00,2.222825527191162109e+00,2.182058095932006836e+00,2.142759084701538086e+00,2.104850292205810547e+00,2.068259716033935547e+00,2.032919883728027344e+00,1.998767137527465820e+00,1.965742826461791992e+00,1.933792114257812500e+00,1.902863502502441406e+00,1.872908711433410645e+00,1.843882322311401367e+00
5.000000000000000000e+00,5.000000000000000000e+00,5.000000000000000000e+00,5.000000000000000000e+00,5.000000000000000000e+00,5.000000000000000000e+00,5.000000000000000000e+00,5.000000000000000000e+00,5.000000000000000000e+00,5.000000000000000000e+00,5.000000000000000000e+00,5.000000000000000000e+00,5.000000000000000000e+00,5.000000000000000000e+00,5.000000000000000000e+00,5.000000000000000000e+00,5.000000000000000000e+00,5.000000000000000000e+00,5.000000000000000000e+00,5.000000000000000000e+00,5.000000000000000000e+00,5.000000000000000000e+00,5.000000000000000000e+00,5.000000000000000000e+00,5.000000000000000000e+00,5.000000000000000000e+00,2.359868764877319336e+00,2.332197189331054688e+00,2.345007896423339844e+00,2.279383659362792969e+00,2.262221336364746094e+00,2.257982492446899414e+00,2.262524604797363281e+00,2.275658369064331055e+00,2.301223993301391602e+00,2.380338907241821289e+00,2.386176824569702148e+00,2.400835990905761719e+00,5.000000000000000000e+00,4.851445674896240234e+00,4.661369800567626953e+00,4.485626220703125000e+00,4.322652816772460938e+00,4.171106815338134766e+00,4.029827117919921875e+00,3.897804260253906250e+00,3.774157524108886719e+00,3.658114194869995117e+00,3.548994064331054688e+00,3.446195363998413086e+00,3.349184274673461914e+00,3.257485151290893555e+00,3.170673847198486328e+00,3.088369369506835938e+00,3.010229825973510742e+00,2.935946464538574219e+00,2.865241050720214844e+00,2.797861337661743164e+00,2.733577728271484375e+00,2.672181606292724609e+00,2.613482952117919922e+00,2.557307720184326172e+00,2.503496646881103516e+00,2.451903104782104492e+00,2.402393579483032227e+00,2.354843854904174805e+00,2.309139728546142578e+00,2.265175819396972656e+00,2.222854852676391602e+00,2.182086467742919922e+00,2.142786264419555664e+00,2.104876756668090820e+00,2.068285226821899414e+00,2.032944202423095703e+00,1.998790740966796875e+00,1.965765953063964844e+00,1.933814406394958496e+00,1.902885198593139648e+00,1.872929573059082031e+00,1.843902468681335449e+00
5.000000000000000000e+00,5.000000000000000000e+00,5.000000000000000000e+00,5.000000000000000000e+00,5.000000000000000000e+00,5.000000000000000000e+00,5.000000000000000000e+00,5.000000000000000000e+00,5.000000000000000000e+00,5.000000000000000000e+00,5.000000000000000000e+00,5.000000000000000000e+00,5.000000000000000000e+00,5.000000000000000000e+00,5.000000000000000000e+00,5.000000000000000000e+00,5.000000000000000000e+00,5.000000000000000000e+00,5.000000000000000000e+00,5.000000000000000000e+00,5.000000000000000000e+00,5.000000000000000000e+00,5.000000000000000000e+00,5.000000000000000000e+00,5.000000000000000000e+00,5.000000000000000000e+00,2.366060495376586914e+00,2.336882352828979492e+00,2.354008197784423828e+00,2.268652200698852539e+00,2.253479480743408203e+00,2.258775234222412109e+00,2.263873577117919922e+00,2.271061658859252930e+00,2.298969268798828125e+00,5.000000000000000000e+00,2.402573823928833008e+00,2.407256364822387695e+00,5.000000000000000000e+00,4.851585388183593750e+00,4.661498546600341797e+00,4.485745429992675781e+00,4.322763919830322266e+00,4.171210289001464844e+00,4.029923439025878906e+00,3.897894382476806641e+00,3.774242162704467773e+00,3.658193588256835938e+00,3.549068689346313477e+00,3.446265697479248047e+00,3.349250793457031250e+00,3.257548093795776367e+00,3.170733451843261719e+00,3.088425874710083008e+00,3.010283470153808594e+00,2.935997486114501953e+00,2.865289926528930664e+00,2.797907829284667969e+00,2.733622074127197266e+00,2.672224044799804688e+00,2.613523483276367188e+00,2.557346582412719727e+00,2.503533840179443359e+00,2.451938867568969727e+00,2.402427673339843750e+00,2.354876756668090820e+00,2.309171199798583984e+00,2.265206336975097656e+00,2.222884178161621094e+00,2.182114601135253906e+00,2.142813444137573242e+00,2.104902982711791992e+00,2.068310499191284180e+00,2.032968759536743164e+00,1.998814582824707031e+00,1.965788722038269043e+00,1.933836460113525391e+00,1.902906537055969238e+00,1.872950315475463867e+00,1.843922734260559082e+00
5.000000000000000000e+00,5.000000000000000000e+00,5.000000000000000000e+00,5.000000000000000000e+00,5.000000000000000000e+00,5.000000000000000000e+00,5.000000000000000000e+00,5.000000000000000000e+00,5.000000000000000000e+00,5.000000000000000000e+00,5.000000000000000000e+00,5.000000000000000000e+00,5.000000000000000000e+00,5.000000000000000000e+00,5.000000000000000000e+00,5.000000000000000000e+00,5.000000000000000000e+00,5.000000000000000000e+00,5.000000000000000000e+00,5.000000000000000000e+00,5.000000000000000000e+00,5.000000000000000000e+00,5.000000000000000000e+00,5.000000000000000000e+00,5.000000000000000000e+00,5.000000000000000000e+00,2.374164581298828125e+00,2.347493648529052734e+00,2.318253040313720703e+00,2.259021520614624023e+00,2.248108625411987305e+00,2.249044418334960938e+00,2.254501342773437500e+00,2.264967203140258789e+00,2.291047573089599609e+00,5.000000000000000000e+00,2.418904542922973633e+00,2.414871454238891602e+00,5.000000000000000000e+00,4.851725101470947266e+00,4.661627292633056641e+00,4.485864639282226562e+00,4.322874546051025391e+00,4.171313285827636719e+00,4.030019760131835938e+00,3.897984504699707031e+00,3.774326562881469727e+00,3.658272981643676758e+00,3.549143552780151367e+00,3.446336269378662109e+00,3.349317312240600586e+00,3.257611036300659180e+00,3.170793056488037109e+00,3.088482379913330078e+00,3.010337352752685547e+00,2.936048746109008789e+00,2.865338563919067383e+00,2.797954320907592773e+00,2.733666419982910156e+00,2.672266244888305664e+00,2.613564014434814453e+00,2.557385444641113281e+00,2.503570795059204102e+00,2.451974391937255859e+00,2.402462005615234375e+00,2.354909658432006836e+00,2.309202909469604492e+00,2.265236616134643555e+00,2.222913503646850586e+00,2.182142734527587891e+00,2.142840862274169922e+00,2.104929208755493164e+00,2.068335771560668945e+00,2.032993316650390625e+00,1.998838067054748535e+00,1.965811729431152344e+00,1.933858752250671387e+00,1.902928113937377930e+00,1.872971177101135254e+00,1.843942761421203613e+00
5.000000000000000000e+00,5.000000000000000000e+00,5.000000000000000000e+00,5.000000000000000000e+00,5.000000000000000000e+00,5.000000000000000000e+00,5.000000000000000000e+00,5.000000000000000000e+00,5.000000000000000000e+00,5.000000000000000000e+00,5.000000000000000000e+00,5.000000000000000000e+00,5.000000000000000000e+00,5.000000000000000000e+00,5.000000000000000000e+00,5.000000000000000000e+00,5.000000000000000000e+00,5.000000000000000000e+00,5.000000000000000000e+00,5.000000000000000000e+00,5.000000000000000000e+00,5.000000000000000000e+00,5.000000000000000000e+00,5.000000000000000000e+00,5.000000000000000000e+00,5.000000000000000000e+00,2.379829883575439453e+00,2.350898027420043945e+00,2.313742876052856445e+00,2.273220300674438477e+00,2.258267641067504883e+00,2.254434108734130859e+00,2.262051105499267578e+00,2.277258634567260742e+00,2.309365987777709961e+00,2.362020254135131836e+00,2.421720027923583984e+00,2.409339427947998047e+00,5.000000000000000000e+00,4.851864337921142578e+00,4.661756515502929688e+00,4.485984325408935547e+00,4.322985172271728516e+00,4.171416282653808594e+00,4.030116081237792969e+00,3.898074626922607422e+00,3.774411201477050781e+00,3.658352136611938477e+00,3.549218177795410156e+00,3.446406602859497070e+00,3.349383831024169922e+00,3.257673978805541992e+00,3.170852661132812500e+00,3.088539123535156250e+00,3.010390996932983398e+00,2.936099767684936523e+00,2.865387201309204102e+00,2.798000574111938477e+00,2.733710765838623047e+00,2.672308683395385742e+00,2.613604545593261719e+00,2.557424068450927734e+00,2.503607988357543945e+00,2.452010154724121094e+00,2.402496099472045898e+00,2.354942560195922852e+00,2.309234619140625000e+00,2.265267133712768555e+00,2.222942829132080078e+00,2.182171106338500977e+00,2.142868041992187500e+00,2.104955434799194336e+00,2.068361282348632812e+00,2.033017873764038086e+00,1.998861908912658691e+00,1.965834498405456543e+00,1.933880805969238281e+00,1.902949452400207520e+00,1.872991919517517090e+00,1.843963027000427246e+00
5.000000000000000000e+00,5.000000000000000000e+00,5.000000000000000000e+00,5.000000000000000000e+00,5.000000000000000000e+00,5.000000000000000000e+00,5.000000000000000000e+00,5.000000000000000000e+00,5.000000000000000000e+00,5.000000000000000000e+00,5.000000000000000000e+00,5.000000000000000000e+00,5.000000000000000000e+00,5.000000000000000000e+00,5.000000000000000000e+00,5.000000000000000000e+00,5.000000000000000000e+00,5.000000000000000000e+00,5.000000000000000000e+00,5.000000000000000000e+00,5.000000000000000000e+00,5.000000000000000000e+00,5.000000000000000000e+00,5.000000000000000000e+00,5.000000000000000000e+00,5.000000000000000000e+00,2.345032215118408203e+00,2.327248573303222656e+00,2.292519092559814453e+00,2.270848035812377930e+00,2.261656761169433594e+00,2.258497714996337891e+00,2.266405344009399414e+00,2.282229900360107422e+00,2.311610698699951172e+00,2.389306306838989258e+00,2.408383369445800781e+00,2.393784761428833008e+00,5.000000000000000000e+00,4.852004051208496094e+00,4.661885261535644531e+00,4.486103534698486328e+00,4.323096275329589844e+00,4.171519756317138672e+00,4.030212402343750000e+00,3.898164749145507812e+00,3.774495601654052734e+00,3.658431529998779297e+00,3.549292802810668945e+00,3.446476936340332031e+00,3.349450349807739258e+00,3.257736921310424805e+00,3.170912265777587891e+00,3.088595628738403320e+00,3.010444641113281250e+00,2.936151027679443359e+00,2.865435838699340820e+00,2.798047065734863281e+00,2.733755111694335938e+00,2.672351121902465820e+00,2.613645076751708984e+00,2.557462930679321289e+00,2.503645181655883789e+00,2.452045679092407227e+00,2.402530431747436523e+00,2.354975461959838867e+00,2.309266090393066406e+00,2.265297651290893555e+00,2.222972154617309570e+00,2.182199239730834961e+00,2.142895221710205078e+00,2.104981899261474609e+00,2.068386554718017578e+00,2.033042430877685547e+00,1.998885512351989746e+00,1.965857625007629395e+00,1.933903098106384277e+00,1.902971029281616211e+00,1.873012781143188477e+00,1.843983054161071777e+00
5.000000000000000000e+00,5.000000000000000000e+00,5.000000000000000000e+00,5.000000000000000000e+00,5.000000000000000000e+00,5.000000000000000000e+00,5.000000000000000000e+00,5.000000000000000000e+00,5.000000000000000000e+00,5.000000000000000000e+00,5.000000000000000000e+00,5.000000000000000000e+00,5.000000000000000000e+00,5.000000000000000000e+00,5.000000000000000000e+00,5.000000000000000000e+00,5.000000000000000000e+00,5.000000000000000000e+00,5.000000000000000000e+00,5.000000000000000000e+00,5.000000000000000000e+00,5.000000000000000000e+00,5.000000000000000000e+00,5.000000000000000000e+00,5.000000000000000000e+00,5.000000000000000000e+00,2.322218656539916992e+00,2.311048269271850586e+00,2.284802913665771484e+00,2.267608642578125000e+00,2.280929565429687500e+00,2.275994539260864258e+00,2.285695791244506836e+00,2.285350084304809570e+00,2.297825336456298828e+00,2.372248411178588867e+00,2.404622554779052734e+00,2.380938053131103516e+00,5.000000000000000000e+00,4.852143764495849609e+00,4.662014007568359375e+00,4.486222743988037109e+00,4.323206901550292969e+00,4.171622753143310547e+00,4.030308723449707031e+00,3.898254871368408203e+00,3.774580001831054688e+00,3.658510923385620117e+00,3.549367666244506836e+00,3.446547508239746094e+00,3.349516868591308594e+00,3.257799863815307617e+00,3.170971870422363281e+00,3.088652133941650391e+00,3.010498523712158203e+00,2.936202049255371094e+00,2.865484714508056641e+00,2.798093557357788086e+00,2.733799457550048828e+00,2.672393321990966797e+00,2.613685607910156250e+00,2.557501792907714844e+00,2.503682374954223633e+00,2.452081441879272461e+00,2.402564764022827148e+00,2.355008363723754883e+00,2.309297800064086914e+00,2.265327930450439453e+00,2.223001480102539062e+00,2.182227611541748047e+00,2.142922401428222656e+00,2.105008125305175781e+00,2.068412065505981445e+00,2.033066749572753906e+00,1.998909354209899902e+00,1.965880393981933594e+00,1.933925151824951172e+00,1.902992367744445801e+00,1.873033523559570312e+00,1.844003319740295410e+00
5.000000000000000000e+00,5.000000000000000000e+00,5.000000000000000000e+00,5.000000000000000000e+00,5.000000000000000000e+00,5.000000000000000000e+00,5.000000000000000000e+00,5.000000000000000000e+00,5.000000000000000000e+00,5.000000000000000000e+00,5.000000000000000000e+00,5.000000000000000000e+00,5.000000000000000000e+00,5.000000000000000000e+00,5.000000000000000000e+00,5.000000000000000000e+00,5.000000000000000000e+00,5.000000000000000000e+00,5.000000000000000000e+00,5.000000000000000000e+00,5.000000000000000000e+00,5.000000000000000000e+00,5.000000000000000000e+00,5.000000000000000000e+00,5.000000000000000000e+00,5.000000000000000000e+00,2.296898126602172852e+00,2.299440383911132812e+00,2.272293806076049805e+00,2.259011268615722656e+00,2.274983406066894531e+00,2.306825160980224609e+00,2.273455619812011719e+00,2.239382266998291016e+00,2.241493225097656250e+00,2.276385545730590820e+00,5.000000000000000000e+00,2.361840486526489258e+00,2.391163110733032227e+00,4.852283477783203125e+00,4.662143230438232422e+00,4.486342430114746094e+00,4.323318004608154297e+00,4.171726226806640625e+00,4.030405044555664062e+00,3.898344993591308594e+00,3.774664640426635742e+00,3.658590316772460938e+00,3.549442291259765625e+00,3.446617841720581055e+00,3.349583387374877930e+00,3.257862806320190430e+00,3.171031475067138672e+00,3.088708877563476562e+00,3.010552167892456055e+00,2.936253309249877930e+00,2.865533351898193359e+00,2.798140048980712891e+00,2.733843564987182617e+00,2.672435760498046875e+00,2.613726139068603516e+00,2.557540416717529297e+00,2.503719568252563477e+00,2.452117204666137695e+00,2.402598857879638672e+00,2.355041027069091797e+00,2.309329509735107422e+00,2.265358448028564453e+00,2.223030805587768555e+00,2.182255744934082031e+00,2.142949819564819336e+00,2.105034351348876953e+00,2.068437337875366211e+00,2.033091306686401367e+00,1.998932957649230957e+00,1.965903401374816895e+00,1.933947443962097168e+00,1.903014063835144043e+00,1.873054504394531250e+00,1.844023466110229492e+00
5.000000000000000000e+00,5.000000000000000000e+00,5.000000000000000000e+00,5.000000000000000000e+00,5.000000000000000000e+00,5.000000000000000000e+00,5.000000000000000000e+00,5.000000000000000000e+00,5.000000000000000000e+00,5.000000000000000000e+00,5.000000000000000000e+00,5.000000000000000000e+00,5.000000000000000000e+00,5.000000000000000000e+00,5.000000000000000000e+00,5.000000000000000000e+00,5.000000000000000000e+00,5.000000000000000000e+00,5.000000000000000000e+00,5.000000000000000000e+00,5.000000000000000000e+00,5.000000000000000000e+00,5.000000000000000000e+00,5.000000000000000000e+00,5.000000000000000000e+00,5.000000000000000000e+00,2.275691986083984375e+00,2.292546033859252930e+00,2.263032913208007812e+00,2.248008728027343750e+00,2.255403280258178711e+00,2.286048173904418945e+00,2.235494852066040039e+00,2.217758655548095703e+00,2.218336105346679688e+00,2.252536773681640625e+00,5.000000000000000000e+00,2.368084430694580078e+00,2.378801584243774414e+00,4.852423191070556641e+00,4.662271976470947266e+00,4.486461639404296875e+00,4.323428630828857422e+00,4.171829223632812500e+00,4.030501365661621094e+00,3.898435115814208984e+00,3.774749040603637695e+00,3.658669710159301758e+00,3.549516916275024414e+00,3.446688413619995117e+00,3.349649906158447266e+00,3.257925748825073242e+00,3.171091079711914062e+00,3.088765382766723633e+00,3.010606050491333008e+00,2.936304330825805664e+00,2.865581989288330078e+00,2.798186302185058594e+00,2.733887910842895508e+00,2.672478199005126953e+00,2.613766670227050781e+00,2.557579278945922852e+00,2.503756761550903320e+00,2.452152729034423828e+00,2.402633190155029297e+00,2.355073928833007812e+00,2.309360980987548828e+00,2.265388965606689453e+00,2.223060131072998047e+00,2.182284116744995117e+00,2.142976999282836914e+00,2.105060577392578125e+00,2.068462848663330078e+00,2.033115863800048828e+00,1.998956680297851562e+00,1.965926170349121094e+00,1.933969616889953613e+00,1.903035402297973633e+00,1.873075127601623535e+00,1.844043731689453125e+00
5.000000000000000000e+00,5.000000000000000000e+00,5.000000000000000000e+00,5.000000000000000000e+00,5.000000000000000000e+00,5.000000000000000000e+00,5.000000000000000000e+00,5.000000000000000000e+00,5.000000000000000000e+00,5.000000000000000000e+00,5.000000000000000000e+00,5.000000000000000000e+00,5.000000000000000000e+00,5.000000000000000000e+00,5.000000000000000000e+00,5.000000000000000000e+00,5.000000000000000000e+00,5.000000000000000000e+00,5.000000000000000000e+00,5.000000000000000000e+00,5.000000000000000000e+00,5.000000000000000000e+00,5.000000000000000000e+00,5.000000000000000000e+00,5.000000000000000000e+00,5.000000000000000000e+00,2.276071310043334961e+00,2.312588453292846680e+00,2.261960983276367188e+00,2.246537685394287109e+00,2.249198436737060547e+00,2.276213645935058594e+00,2.231116533279418945e+00,2.205277204513549805e+00,2.200056076049804688e+00,2.233690977096557617e+00,5.000000000000000000e+00,2.335501670837402344e+00,2.367593765258789062e+00,4.852562904357910156e+00,4.662400722503662109e+00,4.486580848693847656e+00,4.323539733886718750e+00,4.171932697296142578e+00,4.030597686767578125e+00,3.898525238037109375e+00,3.774833679199218750e+00,3.658749103546142578e+00,3.549591779708862305e+00,3.446758747100830078e+00,3.349716424942016602e+00,3.257988691329956055e+00,3.171150922775268555e+00,3.088821887969970703e+00,3.010659694671630859e+00,2.936355352401733398e+00,2.865630626678466797e+00,2.798232793807983398e+00,2.733932256698608398e+00,2.672520399093627930e+00,2.613807201385498047e+00,2.557618141174316406e+00,2.503793954849243164e+00,2.452188491821289062e+00,2.402667284011840820e+00,2.355106830596923828e+00,2.309392690658569336e+00,2.265419244766235352e+00,2.223089456558227539e+00,2.182312250137329102e+00,2.143004179000854492e+00,2.105086803436279297e+00,2.068488121032714844e+00,2.033140420913696289e+00,1.998980283737182617e+00,1.965949296951293945e+00,1.933991909027099609e+00,1.903056979179382324e+00,1.873096108436584473e+00,1.844063758850097656e+00
5.000000000000000000e+00,5.000000000000000000e+00,5.000000000000000000e+00,5.000000000000000000e+00,5.000000000000000000e+00,5.000000000000000000e+00,5.000000000000000000e+00,5.000000000000000000e+00,5.000000000000000000e+00,5.000000000000000000e+00,5.000000000000000000e+00,5.000000000000000000e+00,5.000000000000000000e+00,5.000000000000000000e+00,5.000000000000000000e+00,5.000000000000000000e+00,5.000000000000000000e+00,5.000000000000000000e+00,5.000000000000000000e+00,5.000000000000000000e+00,5.000000000000000000e+00,5.000000000000000000e+00,5.000000000000000000e+00,5.000000000000000000e+00,5.000000000000000000e+00,5.000000000000000000e+00,2.242576837539672852e+00,2.242360353469848633e+00,2.264409780502319336e+00,2.248469829559326172e+00,2.248896360397338867e+00,2.274706602096557617e+00,2.228020429611206055e+00,2.191746473312377930e+00,2.182075023651123047e+00,2.217538118362426758e+00,5.000000000000000000e+00,2.335942268371582031e+00,2.338003396987915039e+00,4.852702617645263672e+00,4.662529945373535156e+00,4.486700534820556641e+00,4.323650360107421875e+00,4.172036170959472656e+00,4.030694007873535156e+00,3.898615598678588867e+00,3.774918079376220703e+00,3.658828973770141602e+00,3.549666404724121094e+00,3.446829319000244141e+00,3.349782943725585938e+00,3.258051872253417969e+00,3.171210527420043945e+00,3.088878631591796875e+00,3.010713577270507812e+00,2.936406850814819336e+00,2.865679502487182617e+00,2.798279285430908203e+00,2.733976602554321289e+00,2.672563076019287109e+00,2.613847732543945312e+00,2.557656764984130859e+00,2.503831148147583008e+00,2.452224254608154297e+00,2.402701616287231445e+00,2.355139732360839844e+00,2.309424400329589844e+00,2.265450000762939453e+00,2.223118543624877930e+00,2.182340621948242188e+00,2.143031358718872070e+00,2.105113267898559570e+00,2.068513393402099609e+00,2.033164978027343750e+00,1.999004125595092773e+00,1.965972304344177246e+00,1.934013962745666504e+00,1.903078317642211914e+00,1.873116731643676758e+00,1.844084024429321289e+00
5.000000000000000000e+00,5.000000000000000000e+00,5.000000000000000000e+00,5.000000000000000000e+00,5.000000000000000000e+00,5.000000000000000000e+00,5.000000000000000000e+00,5.000000000000000000e+00,5.000000000000000000e+00,5.000000000000000000e+00,5.000000000000000000e+00,5.000000000000000000e+00,5.000000000000000000e+00,5.000000000000000000e+00,5.000000000000000000e+00,5.000000000000000000e+00,5.000000000000000000e+00,5.000000000000000000e+00,5.000000000000000000e+00,5.000000000000000000e+00,5.000000000000000000e+00,5.000000000000000000e+00,5.000000000000000000e+00,5.000000000000000000e+00,5.000000000000000000e+00,5.000000000000000000e+00,2.227820158004760742e+00,2.225878715515136719e+00,2.268328905105590820e+00,2.250607252120971680e+00,2.249254226684570312e+00,2.273206233978271484e+00,2.224739789962768555e+00,2.176866054534912109e+00,2.166454076766967773e+00,2.200541496276855469e+00,5.000000000000000000e+00,5.000000000000000000e+00,2.324709892272949219e+00,4.852842330932617188e+00,4.662658691406250000e+00,4.486820220947265625e+00,4.323761463165283203e+00,4.172139167785644531e+00,4.030790328979492188e+00,3.898705720901489258e+00,3.775002717971801758e+00,3.658908367156982422e+00,3.549741268157958984e+00,3.446899890899658203e+00,3.349849462509155273e+00,3.258114814758300781e+00,3.171270132064819336e+00,3.088935136795043945e+00,3.010767221450805664e+00,2.936458110809326172e+00,2.865728139877319336e+00,2.798325777053833008e+00,2.734020948410034180e+00,2.672605514526367188e+00,2.613888263702392578e+00,2.557695627212524414e+00,2.503868341445922852e+00,2.452260017395019531e+00,2.402735948562622070e+00,2.355172634124755859e+00,2.309455871582031250e+00,2.265480279922485352e+00,2.223147869110107422e+00,2.182368755340576172e+00,2.143058538436889648e+00,2.105139493942260742e+00,2.068538904190063477e+00,2.033189535140991211e+00,1.999027729034423828e+00,1.965995073318481445e+00,1.934036254882812500e+00,1.903099894523620605e+00,1.873137712478637695e+00,1.844104290008544922e+00
5.000000000000000000e+00,5.000000000000000000e+00,5.000000000000000000e+00,5.000000000000000000e+00,5.000000000000000000e+00,5.000000000000000000e+00,5.000000000000000000e+00,5.000000000000000000e+00,5.000000000000000000e+00,5.000000000000000000e+00,5.000000000000000000e+00,5.000000000000000000e+00,5.000000000000000000e+00,5.000000000000000000e+00,5.000000000000000000e+00,5.000000000000000000e+00,5.000000000000000000e+00,5.000000000000000000e+00,5.000000000000000000e+00,5.000000000000000000e+00,5.000000000000000000e+00,5.000000000000000000e+00,5.000000000000000000e+00,5.000000000000000000e+00,5.000000000000000000e+00,5.000000000000000000e+00,5.000000000000000000e+00,5.000000000000000000e+00,2.320319890975952148e+00,2.254111766815185547e+00,2.249097347259521484e+00,2.271707534790039062e+00,2.218933105468750000e+00,2.164170742034912109e+00,2.154465913772583008e+00,2.179816961288452148e+00,5.000000000000000000e+00,5.000000000000000000e+00,2.310558795928955078e+00,4.852982044219970703e+00,4.662787437438964844e+00,4.486939430236816406e+00,4.323872089385986328e+00,4.172242641448974609e+00,4.030886650085449219e+00,3.898795843124389648e+00,3.775087118148803711e+00,3.658987760543823242e+00,3.549815893173217773e+00,3.446970224380493164e+00,3.349916219711303711e+00,3.258177757263183594e+00,3.171329736709594727e+00,3.088991641998291016e+00,3.010821104049682617e+00,2.936509132385253906e+00,2.865776777267456055e+00,2.798372030258178711e+00,2.734065294265747070e+00,2.672647714614868164e+00,2.613928794860839844e+00,2.557734489440917969e+00,2.503905534744262695e+00,2.452295541763305664e+00,2.402770042419433594e+00,2.355205535888671875e+00,2.309487581253051758e+00,2.265510797500610352e+00,2.223177194595336914e+00,2.182397127151489258e+00,2.143085956573486328e+00,2.105165958404541016e+00,2.068564176559448242e+00,2.033213853836059570e+00,1.999051451683044434e+00,1.966018199920654297e+00,1.934058308601379395e+00,1.903121232986450195e+00,1.873158335685729980e+00,1.844124317169189453e+00
5.000000000000000000e+00,5.000000000000000000e+00,5.000000000000000000e+00,5.000000000000000000e+00,5.000000000000000000e+00,5.000000000000000000e+00,5.000000000000000000e+00,5.000000000000000000e+00,5.000000000000000000e+00,5.000000000000000000e+00,5.000000000000000000e+00,5.000000000000000000e+00,5.000000000000000000e+00,5.000000000000000000e+00,5.000000000000000000e+00,5.000000000000000000e+00,5.000000000000000000e+00,5.000000000000000000e+00,5.000000000000000000e+00,5.000000000000000000e+00,5.000000000000000000e+00,5.000000000000000000e+00,5.000000000000000000e+00,5.000000000000000000e+00,5.000000000000000000e+00,2.245215654373168945e+00,5.000000000000000000e+00,5.000000000000000000e+00,5.000000000000000000e+00,2.254199028015136719e+00,2.247831106185913086e+00,2.270309209823608398e+00,2.206483602523803711e+00,2.147654533386230469e+00,2.142610073089599609e+00,2.162530660629272461e+00,5.000000000000000000e+00,5.000000000000000000e+00,5.000000000000000000e+00,4.853121757507324219e+00,4.662916660308837891e+00,4.487058639526367188e+00,4.323983192443847656e+00,4.172345638275146484e+00,4.030982971191406250e+00,3.898885965347290039e+00,3.775171518325805664e+00,3.659067153930664062e+00,3.549890518188476562e+00,3.447040796279907227e+00,3.349982738494873047e+00,3.258240699768066406e+00,3.171389341354370117e+00,3.089048385620117188e+00,3.010874748229980469e+00,2.936560392379760742e+00,2.865825414657592773e+00,2.798418521881103516e+00,2.734109640121459961e+00,2.672690153121948242e+00,2.613969326019287109e+00,2.557773351669311523e+00,2.503942728042602539e+00,2.452331304550170898e+00,2.402804374694824219e+00,2.355238437652587891e+00,2.309519290924072266e+00,2.265541076660156250e+00,2.223206520080566406e+00,2.182425260543823242e+00,2.143113136291503906e+00,2.105192184448242188e+00,2.068589687347412109e+00,2.033238410949707031e+00,1.999075055122375488e+00,1.966040968894958496e+00,1.934080600738525391e+00,1.903142929077148438e+00,1.873179316520690918e+00,1.844144582748413086e+00
5.000000000000000000e+00,5.000000000000000000e+00,5.000000000000000000e+00,5.000000000000000000e+00,5.000000000000000000e+00,5.000000000000000000e+00,5.000000000000000000e+00,5.000000000000000000e+00,5.000000000000000000e+00,5.000000000000000000e+00,5.000000000000000000e+00,5.000000000000000000e+00,5.000000000000000000e+00,5.000000000000000000e+00,5.000000000000000000e+00,5.000000000000000000e+00,5.000000000000000000e+00,5.000000000000000000e+00,5.000000000000000000e+00,5.000000000000000000e+00,5.000000000000000000e+00,5.000000000000000000e+00,5.000000000000000000e+00,5.000000000000000000e+00,5.000000000000000000e+00,5.000000000000000000e+00,5.000000000000000000e+00,5.000000000000000000e+00,5.000000000000000000e+00,2.253192901611328125e+00,2.246642589569091797e+00,2.266340494155883789e+00,5.000000000000000000e+00,2.131388425827026367e+00,2.127781391143798828e+00,2.148210287094116211e+00,5.000000000000000000e+00,5.000000000000000000e+00,5.000000000000000000e+00,4.853261470794677734e+00,4.663045406341552734e+00,4.487178325653076172e+00,4.324093818664550781e+00,4.172449111938476562e+00,4.031079292297363281e+00,3.898976087570190430e+00,3.775256156921386719e+00,3.659146547317504883e+00,3.549965381622314453e+00,3.447111129760742188e+00,3.350049257278442383e+00,3.258303880691528320e+00,3.171448945999145508e+00,3.089104890823364258e+00,3.010928630828857422e+00,2.936611413955688477e+00,2.865874290466308594e+00,2.798465013504028320e+00,2.734153985977172852e+00,2.672732591629028320e+00,2.614009857177734375e+00,2.557811975479125977e+00,2.503979921340942383e+00,2.452366828918457031e+00,2.402838468551635742e+00,2.355271339416503906e+00,2.309550762176513672e+00,2.265571594238281250e+00,2.223235845565795898e+00,2.182453632354736328e+00,2.143140316009521484e+00,2.105218410491943359e+00,2.068614959716796875e+00,2.033262968063354492e+00,1.999098896980285645e+00,1.966063976287841797e+00,1.934102654457092285e+00,1.903164267539978027e+00,1.873200058937072754e+00,1.844164729118347168e+00
5.000000000000000000e+00,5.000000000000000000e+00,5.000000000000000000e+00,5.000000000000000000e+00,5.000000000000000000e+00,5.000000000000000000e+00,5.000000000000000000e+00,5.000000000000000000e+00,5.000000000000000000e+00,5.000000000000000000e+00,5.000000000000000000e+00,5.000000000000000000e+00,5.000000000000000000e+00,5.000000000000000000e+00,5.000000000000000000e+00,5.000000000000000000e+00,5.000000000000000000e+00,5.000000000000000000e+00,5.000000000000000000e+00,5.000000000000000000e+00,5.000000000000000000e+00,5.000000000000000000e+00,5.000000000000000000e+00,5.000000000000000000e+00,5.000000000000000000e+00,5.000000000000000000e+00,5.000000000000000000e+00,5.000000000000000000e+00,5.000000000000000000e+00,2.260575532913208008e+00,2.245218992233276367e+00,2.262386083602905273e+00,5.000000000000000000e+00,2.127806186676025391e+00,2.125183343887329102e+00,2.145371198654174805e+00,5.000000000000000000e+00,5.000000000000000000e+00,5.000000000000000000e+00,4.853401184082031250e+00,4.663174629211425781e+00,4.487297534942626953e+00,4.324204921722412109e+00,4.172552108764648438e+00,4.031175613403320312e+00,3.899066209793090820e+00,3.775340795516967773e+00,3.659225940704345703e+00,3.550040006637573242e+00,3.447181701660156250e+00,3.350115776062011719e+00,3.258366823196411133e+00,3.171508789062500000e+00,3.089161396026611328e+00,3.010982275009155273e+00,2.936662673950195312e+00,2.865922927856445312e+00,2.798511505126953125e+00,2.734198331832885742e+00,2.672774791717529297e+00,2.614050149917602539e+00,2.557850837707519531e+00,2.504017114639282227e+00,2.452402591705322266e+00,2.402872800827026367e+00,2.355304241180419922e+00,2.309582471847534180e+00,2.265602111816406250e+00,2.223265171051025391e+00,2.182481765747070312e+00,2.143167495727539062e+00,2.105244636535644531e+00,2.068640470504760742e+00,2.033287525177001953e+00,1.999122500419616699e+00,1.966086864471435547e+00,1.934124946594238281e+00,1.903185844421386719e+00,1.873220920562744141e+00,1.844184994697570801e+00
5.000000000000000000e+00,5.000000000000000000e+00,5.000000000000000000e+00,5.000000000000000000e+00,5.000000000000000000e+00,5.000000000000000000e+00,5.000000000000000000e+00,5.000000000000000000e+00,5.000000000000000000e+00,5.000000000000000000e+00,5.000000000000000000e+00,5.000000000000000000e+00,5.000000000000000000e+00,5.000000000000000000e+00,5.000000000000000000e+00,5.000000000000000000e+00,5.000000000000000000e+00,5.000000000000000000e+00,5.000000000000000000e+00,5.000000000000000000e+00,5.000000000000000000e+00,5.000000000000000000e+00,5.000000000000000000e+00,5.000000000000000000e+00,5.000000000000000000e+00,5.000000000000000000e+00,5.000000000000000000e+00,5.000000000000000000e+00,5.000000000000000000e+00,2.304345846176147461e+00,2.244964361190795898e+00,2.260880947113037109e+00,5.000000000000000000e+00,2.139199018478393555e+00,2.134042739868164062e+00,2.158831834793090820e+00,5.000000000000000000e+00,5.000000000000000000e+00,5.000000000000000000e+00,4.853540897369384766e+00,4.663303375244140625e+00,4.487417221069335938e+00,4.324316024780273438e+00,4.172655582427978516e+00,4.031272411346435547e+00,3.899156332015991211e+00,3.775425195693969727e+00,3.659305334091186523e+00,3.550114870071411133e+00,3.447252035140991211e+00,3.350182294845581055e+00,3.258429765701293945e+00,3.171568393707275391e+00,3.089218139648437500e+00,3.011036157608032227e+00,2.936713695526123047e+00,2.865971565246582031e+00,2.798557996749877930e+00,2.734242677688598633e+00,2.672817230224609375e+00,2.614090681076049805e+00,2.557889699935913086e+00,2.504054307937622070e+00,2.452438354492187500e+00,2.402907133102416992e+00,2.355337142944335938e+00,2.309614181518554688e+00,2.265632390975952148e+00,2.223294496536254883e+00,2.182510137557983398e+00,2.143194913864135742e+00,2.105271100997924805e+00,2.068665742874145508e+00,2.033312082290649414e+00,1.999146342277526855e+00,1.966109871864318848e+00,1.934147000312805176e+00,1.903207182884216309e+00,1.873241662979125977e+00,1.844205021858215332e+00
5.000000000000000000e+00,5.000000000000000000e+00,5.000000000000000000e+00,5.000000000000000000e+00,5.000000000000000000e+00,5.000000000000000000e+00,5.000000000000000000e+00,5.000000000000000000e+00,5.000000000000000000e+00,5.000000000000000000e+00,5.000000000000000000e+00,5.000000000000000000e+00,5.000000000000000000e+00,5.000000000000000000e+00,5.000000000000000000e+00,5.000000000000000000e+00,5.000000000000000000e+00,5.000000000000000000e+00,5.000000000000000000e+00,5.000000000000000000e+00,5.000000000000000000e+00,5.000000000000000000e+00,5.000000000000000000e+00,5.000000000000000000e+00,5.000000000000000000e+00,5.000000000000000000e+00,5.000000000000000000e+00,5.000000000000000000e+00,5.000000000000000000e+00,5.000000000000000000e+00,2.256441354751586914e+00,2.275147914886474609e+00,5.000000000000000000e+00,2.177208423614501953e+00,2.163639783859252930e+00,2.198188304901123047e+00,5.000000000000000000e+00,5.000000000000000000e+00,5.000000000000000000e+00,4.853680610656738281e+00,4.663432598114013672e+00,4.487536430358886719e+00,4.324426651000976562e+00,4.172758579254150391e+00,4.031368732452392578e+00,3.899246454238891602e+00,3.775509834289550781e+00,3.659384727478027344e+00,3.550189495086669922e+00,3.447322607040405273e+00,3.350249052047729492e+00,3.258492708206176758e+00,3.171627998352050781e+00,3.089274644851684570e+00,3.011089801788330078e+00,2.936764955520629883e+00,2.866020441055297852e+00,2.798604488372802734e+00,2.734287023544311523e+00,2.672859668731689453e+00,2.614131212234497070e+00,2.557928562164306641e+00,2.504091501235961914e+00,2.452473878860473633e+00,2.402941226959228516e+00,2.355370044708251953e+00,2.309645652770996094e+00,2.265662908554077148e+00,2.223323822021484375e+00,2.182538270950317383e+00,2.143222093582153320e+00,2.105297327041625977e+00,2.068691015243530273e+00,2.033336639404296875e+00,1.999169945716857910e+00,1.966132640838623047e+00,1.934169292449951172e+00,1.903228759765625000e+00,1.873262524604797363e+00,1.844225287437438965e+00
5.000000000000000000e+00,5.000000000000000000e+00,5.000000000000000000e+00,5.000000000000000000e+00,5.000000000000000000e+00,5.000000000000000000e+00,5.000000000000000000e+00,5.000000000000000000e+00,5.000000000000000000e+00,5.000000000000000000e+00,5.000000000000000000e+00,5.000000000000000000e+00,5.000000000000000000e+00,5.000000000000000000e+00,5.000000000000000000e+00,5.000000000000000000e+00,5.000000000000000000e+00,5.000000000000000000e+00,5.000000000000000000e+00,5.000000000000000000e+00,5.000000000000000000e+00,5.000000000000000000e+00,5.000000000000000000e+00,5.000000000000000000e+00,5.000000000000000000e+00,5.000000000000000000e+00,5.000000000000000000e+00,5.000000000000000000e+00,5.000000000000000000e+00,5.000000000000000000e+00,2.279682159423828125e+00,2.301414728164672852e+00,5.000000000000000000e+00,2.225884437561035156e+00,2.200233221054077148e+00,2.235804080963134766e+00,5.000000000000000000e+00,5.000000000000000000e+00,5.000000000000000000e+00,4.853820323944091797e+00,4.663561344146728516e+00,4.487656116485595703e+00,4.324537754058837891e+00,4.172862052917480469e+00,4.031465053558349609e+00,3.899336814880371094e+00,3.775594234466552734e+00,3.659464120864868164e+00,3.550264358520507812e+00,3.447393178939819336e+00,3.350315570831298828e+00,3.258555650711059570e+00,3.171687602996826172e+00,3.089331150054931641e+00,3.011143684387207031e+00,2.936815977096557617e+00,2.866069078445434570e+00,2.798650741577148438e+00,2.734331369400024414e+00,2.672901868820190430e+00,2.614171743392944336e+00,2.557967185974121094e+00,2.504128694534301758e+00,2.452509641647338867e+00,2.402975559234619141e+00,2.355402946472167969e+00,2.309677362442016602e+00,2.265693426132202148e+00,2.223353147506713867e+00,2.182566642761230469e+00,2.143249273300170898e+00,2.105323553085327148e+00,2.068716526031494141e+00,2.033360958099365234e+00,1.999193668365478516e+00,1.966155648231506348e+00,1.934191465377807617e+00,1.903250217437744141e+00,1.873283267021179199e+00,1.844245433807373047e+00
5.000000000000000000e+00,5.000000000000000000e+00,5.000000000000000000e+00,5.000000000000000000e+00,5.000000000000000000e+00,5.000000000000000000e+00,5.000000000000000000e+00,5.000000000000000000e+00,5.000000000000000000e+00,5.000000000000000000e+00,5.000000000000000000e+00,5.000000000000000000e+00,5.000000000000000000e+00,5.000000000000000000e+00,5.000000000000000000e+00,5.000000000000000000e+00,5.000000000000000000e+00,5.000000000000000000e+00,5.000000000000000000e+00,5.000000000000000000e+00,5.000000000000000000e+00,5.000000000000000000e+00,5.000000000000000000e+00,5.000000000000000000e+00,5.000000000000000000e+00,5.000000000000000000e+00,5.000000000000000000e+00,5.000000000000000000e+00,5.000000000000000000e+00,2.368256092071533203e+00,2.318049430847167969e+00,2.333441734313964844e+00,5.000000000000000000e+00,2.255028247833251953e+00,2.236900806427001953e+00,2.265739202499389648e+00,5.000000000000000000e+00,5.000000000000000000e+00,5.000000000000000000e+00,4.853958606719970703e+00,4.663690567016601562e+00,4.487775325775146484e+00,4.324648380279541016e+00,4.172965049743652344e+00,4.031561374664306641e+00,3.899426937103271484e+00,3.775678873062133789e+00,3.659543514251708984e+00,3.550339221954345703e+00,3.447463512420654297e+00,3.350382089614868164e+00,3.258618593215942383e+00,3.171747207641601562e+00,3.089387893676757812e+00,3.011197328567504883e+00,2.936867237091064453e+00,2.866117715835571289e+00,2.798697233200073242e+00,2.734375715255737305e+00,2.672944307327270508e+00,2.614212274551391602e+00,2.558006048202514648e+00,2.504165887832641602e+00,2.452545404434204102e+00,2.403009891510009766e+00,2.355435848236083984e+00,2.309709072113037109e+00,2.265723705291748047e+00,2.223382472991943359e+00,2.182594776153564453e+00,2.143276453018188477e+00,2.105349779129028320e+00,2.068741798400878906e+00,2.033385515213012695e+00,1.999217271804809570e+00,1.966178536415100098e+00,1.934213757514953613e+00,1.903271794319152832e+00,1.873304128646850586e+00,1.844265699386596680e+00
5.000000000000000000e+00,5.000000000000000000e+00,5.000000000000000000e+00,5.000000000000000000e+00,5.000000000000000000e+00,5.000000000000000000e+00,5.000000000000000000e+00,5.000000000000000000e+00,5.000000000000000000e+00,5.000000000000000000e+00,5.000000000000000000e+00,5.000000000000000000e+00,5.000000000000000000e+00,5.000000000000000000e+00,5.000000000000000000e+00,5.000000000000000000e+00,5.000000000000000000e+00,5.000000000000000000e+00,5.000000000000000000e+00,5.000000000000000000e+00,5.000000000000000000e+00,5.000000000000000000e+00,5.000000000000000000e+00,5.000000000000000000e+00,5.000000000000000000e+00,5.000000000000000000e+00,5.000000000000000000e+00,5.000000000000000000e+00,5.000000000000000000e+00,5.000000000000000000e+00,2.337136268615722656e+00,2.347629785537719727e+00,5.000000000000000000e+00,2.278435707092285156e+00,2.261606216430664062e+00,2.303637742996215820e+00,5.000000000000000000e+00,5.000000000000000000e+00,5.000000000000000000e+00,4.854096889495849609e+00,4.663819313049316406e+00,4.487895011901855469e+00,4.324759483337402344e+00,4.173068523406982422e+00,4.031657695770263672e+00,3.899517059326171875e+00,3.775763511657714844e+00,3.659622907638549805e+00,3.550413846969604492e+00,3.447534084320068359e+00,3.350448608398437500e+00,3.258681535720825195e+00,3.171807050704956055e+00,3.089444398880004883e+00,3.011251211166381836e+00,2.936918258666992188e+00,2.866166591644287109e+00,2.798743724822998047e+00,2.734420061111450195e+00,2.672986745834350586e+00,2.614252805709838867e+00,2.558044910430908203e+00,2.504203081130981445e+00,2.452580928802490234e+00,2.403043985366821289e+00,2.355468750000000000e+00,2.309740543365478516e+00,2.265754222869873047e+00,2.223411798477172852e+00,2.182623147964477539e+00,2.143303871154785156e+00,2.105376243591308594e+00,2.068767309188842773e+00,2.033410072326660156e+00,1.999241113662719727e+00,1.966201543807983398e+00,1.934235811233520508e+00,1.903293132781982422e+00,1.873324871063232422e+00,1.844285726547241211e+00
5.000000000000000000e+00,5.000000000000000000e+00,5.000000000000000000e+00,5.000000000000000000e+00,5.000000000000000000e+00,5.000000000000000000e+00,5.000000000000000000e+00,5.000000000000000000e+00,5.000000000000000000e+00,5.000000000000000000e+00,5.000000000000000000e+00,5.000000000000000000e+00,5.000000000000000000e+00,5.000000000000000000e+00,5.000000000000000000e+00,5.000000000000000000e+00,5.000000000000000000e+00,5.000000000000000000e+00,5.000000000000000000e+00,5.000000000000000000e+00,5.000000000000000000e+00,5.000000000000000000e+00,5.000000000000000000e+00,5.000000000000000000e+00,5.000000000000000000e+00,5.000000000000000000e+00,5.000000000000000000e+00,5.000000000000000000e+00,5.000000000000000000e+00,5.000000000000000000e+00,2.350156307220458984e+00,2.356030941009521484e+00,2.416385889053344727e+00,2.302334070205688477e+00,2.286566972732543945e+00,2.345181941986083984e+00,5.000000000000000000e+00,5.000000000000000000e+00,5.000000000000000000e+00,4.854235172271728516e+00,4.663946151733398438e+00,4.488014221191406250e+00,4.324870586395263672e+00,4.173171997070312500e+00,4.031754493713378906e+00,3.899607181549072266e+00,3.775847911834716797e+00,3.659702539443969727e+00,3.550488948822021484e+00,3.447604656219482422e+00,3.350515127182006836e+00,3.258744478225708008e+00,3.171866893768310547e+00,3.089501142501831055e+00,3.011304855346679688e+00,2.936969518661499023e+00,2.866215467453002930e+00,2.798790216445922852e+00,2.734464406967163086e+00,2.673029184341430664e+00,2.614293575286865234e+00,2.558083772659301758e+00,2.504240274429321289e+00,2.452616691589355469e+00,2.403078317642211914e+00,2.355501651763916016e+00,2.309772253036499023e+00,2.265784740447998047e+00,2.223441362380981445e+00,2.182651281356811523e+00,2.143331050872802734e+00,2.105402469635009766e+00,2.068792819976806641e+00,2.033434629440307617e+00,1.999264717102050781e+00,1.966224312782287598e+00,1.934258103370666504e+00,1.903314709663391113e+00,1.873345732688903809e+00,1.844305992126464844e+00
5.000000000000000000e+00,5.000000000000000000e+00,5.000000000000000000e+00,5.000000000000000000e+00,5.000000000000000000e+00,5.000000000000000000e+00,5.000000000000000000e+00,5.000000000000000000e+00,5.000000000000000000e+00,5.000000000000000000e+00,5.000000000000000000e+00,5.000000000000000000e+00,5.000000000000000000e+00,5.000000000000000000e+00,5.000000000000000000e+00,5.000000000000000000e+00,5.000000000000000000e+00,5.000000000000000000e+00,5.000000000000000000e+00,5.000000000000000000e+00,5.000000000000000000e+00,5.000000000000000000e+00,5.000000000000000000e+00,5.000000000000000000e+00,5.000000000000000000e+00,5.000000000000000000e+00,5.000000000000000000e+00,5.000000000000000000e+00,5.000000000000000000e+00,5.000000000000000000e+00,2.368207931518554688e+00,2.363840579986572266e+00,2.416023015975952148e+00,2.333074092864990234e+00,2.311598062515258789e+00,2.393752336502075195e+00,5.000000000000000000e+00,5.000000000000000000e+00,5.000000000000000000e+00,4.854373931884765625e+00,4.664073944091796875e+00,4.488131999969482422e+00,4.324981689453125000e+00,4.173274993896484375e+00,4.031850814819335938e+00,3.899697542190551758e+00,3.775932550430297852e+00,3.659781932830810547e+00,3.550563812255859375e+00,3.447674989700317383e+00,3.350581884384155273e+00,3.258807659149169922e+00,3.171926736831665039e+00,3.089557647705078125e+00,3.011358737945556641e+00,2.937020540237426758e+00,2.866264104843139648e+00,2.798836708068847656e+00,2.734508752822875977e+00,2.673071384429931641e+00,2.614334106445312500e+00,2.558122396469116211e+00,2.504277467727661133e+00,2.452652215957641602e+00,2.403112649917602539e+00,2.355534553527832031e+00,2.309803962707519531e+00,2.265815019607543945e+00,2.223470687866210938e+00,2.182679653167724609e+00,2.143358230590820312e+00,2.105428695678710938e+00,2.068818092346191406e+00,2.033459186553955078e+00,1.999288558959960938e+00,1.966247439384460449e+00,1.934280395507812500e+00,1.903336167335510254e+00,1.873366475105285645e+00,1.844326019287109375e+00
5.000000000000000000e+00,5.000000000000000000e+00,5.000000000000000000e+00,5.000000000000000000e+00,5.000000000000000000e+00,5.000000000000000000e+00,5.000000000000000000e+00,5.000000000000000000e+00,5.000000000000000000e+00,5.000000000000000000e+00,5.000000000000000000e+00,5.000000000000000000e+00,5.000000000000000000e+00,5.000000000000000000e+00,5.000000000000000000e+00,5.000000000000000000e+00,5.000000000000000000e+00,5.000000000000000000e+00,5.000000000000000000e+00,5.000000000000000000e+00,5.000000000000000000e+00,5.000000000000000000e+00,5.000000000000000000e+00,5.000000000000000000e+00,5.000000000000000000e+00,5.000000000000000000e+00,5.000000000000000000e+00,5.000000000000000000e+00,5.000000000000000000e+00,5.000000000000000000e+00,2.398408651351928711e+00,2.372489690780639648e+00,2.425685882568359375e+00,2.372862339019775391e+00,2.338969469070434570e+00,5.000000000000000000e+00,5.000000000000000000e+00,5.000000000000000000e+00,5.000000000000000000e+00,4.854512214660644531e+00,4.664201736450195312e+00,4.488250255584716797e+00,4.325091361999511719e+00,4.173378467559814453e+00,4.031947135925292969e+00,3.899787664413452148e+00,3.776017189025878906e+00,3.659861326217651367e+00,3.550638437271118164e+00,3.447745561599731445e+00,3.350648403167724609e+00,3.258870601654052734e+00,3.171986341476440430e+00,3.089614391326904297e+00,3.011412620544433594e+00,2.937071800231933594e+00,2.866312980651855469e+00,2.798883199691772461e+00,2.734553098678588867e+00,2.673113822937011719e+00,2.614374637603759766e+00,2.558161258697509766e+00,2.504314661026000977e+00,2.452687978744506836e+00,2.403146982192993164e+00,2.355567455291748047e+00,2.309835672378540039e+00,2.265845537185668945e+00,2.223500013351440430e+00,2.182707786560058594e+00,2.143385648727416992e+00,2.105455160140991211e+00,2.068843603134155273e+00,2.033483743667602539e+00,1.999312162399291992e+00,1.966270208358764648e+00,1.934302449226379395e+00,1.903357744216918945e+00,1.873387455940246582e+00,1.844346404075622559e+00
5.000000000000000000e+00,5.000000000000000000e+00,5.000000000000000000e+00,5.000000000000000000e+00,5.000000000000000000e+00,5.000000000000000000e+00,5.000000000000000000e+00,5.000000000000000000e+00,5.000000000000000000e+00,5.000000000000000000e+00,5.000000000000000000e+00,5.000000000000000000e+00,5.000000000000000000e+00,5.000000000000000000e+00,5.000000000000000000e+00,5.000000000000000000e+00,5.000000000000000000e+00,5.000000000000000000e+00,5.000000000000000000e+00,5.000000000000000000e+00,5.000000000000000000e+00,5.000000000000000000e+00,5.000000000000000000e+00,5.000000000000000000e+00,5.000000000000000000e+00,5.000000000000000000e+00,5.000000000000000000e+00,5.000000000000000000e+00,5.000000000000000000e+00,5.000000000000000000e+00,2.432581663131713867e+00,2.382653236389160156e+00,2.434831142425537109e+00,5.000000000000000000e+00,2.377441883087158203e+00,5.000000000000000000e+00,5.000000000000000000e+00,5.000000000000000000e+00,5.000000000000000000e+00,4.854650497436523438e+00,4.664330005645751953e+00,4.488368511199951172e+00,4.325201034545898438e+00,4.173481941223144531e+00,4.032043457031250000e+00,3.899877786636352539e+00,3.776101589202880859e+00,3.659940719604492188e+00,3.550713300704956055e+00,3.447816133499145508e+00,3.350714921951293945e+00,3.258933544158935547e+00,3.172045946121215820e+00,3.089670896530151367e+00,3.011466264724731445e+00,2.937123060226440430e+00,2.866361618041992188e+00,2.798929452896118164e+00,2.734597444534301758e+00,2.673156261444091797e+00,2.614415168762207031e+00,2.558200120925903320e+00,2.504351854324340820e+00,2.452723741531372070e+00,2.403181076049804688e+00,2.355600357055664062e+00,2.309867143630981445e+00,2.265876054763793945e+00,2.223529338836669922e+00,2.182736158370971680e+00,2.143412828445434570e+00,2.105481386184692383e+00,2.068868875503540039e+00,2.033508300781250000e+00,1.999336004257202148e+00,1.966293215751647949e+00,1.934324741363525391e+00,1.903379082679748535e+00,1.873408079147338867e+00,1.844366431236267090e+00
4.871421813964843750e+00,4.870200634002685547e+00,4.868980884552001953e+00,4.867760658264160156e+00,4.866541385650634766e+00,4.865323543548583984e+00,4.864105224609375000e+00,4.862888336181640625e+00,4.861671447753906250e+00,4.860455513000488281e+00,4.859240055084228516e+00,4.858025074005126953e+00,4.856811046600341797e+00,4.855597019195556641e+00,4.854384422302246094e+00,4.853171825408935547e+00,4.851960182189941406e+00,4.850749015808105469e+00,4.849538326263427734e+00,4.848328590393066406e+00,4.847118854522705078e+00,4.845910072326660156e+00,4.844702243804931641e+00,4.843494415283203125e+00,4.842287540435791016e+00,4.841081142425537109e+00,4.839875221252441406e+00,4.838670253753662109e+00,4.837465286254882812e+00,4.836261749267578125e+00,4.835058212280273438e+00,2.405886650085449219e+00,2.442098617553710938e+00,4.831451416015625000e+00,2.402097463607788086e+00,4.829050064086914062e+00,4.827850341796875000e+00,4.826651096343994141e+00,4.825452327728271484e+00,4.824254512786865234e+00,4.664457321166992188e+00,4.488486766815185547e+00,4.325311183929443359e+00,4.173583030700683594e+00,4.032140254974365234e+00,3.899968147277832031e+00,3.776186227798461914e+00,3.660020112991333008e+00,3.550788164138793945e+00,3.447886466979980469e+00,3.350781440734863281e+00,3.258996486663818359e+00,3.172105550765991211e+00,3.089727640151977539e+00,3.011520147323608398e+00,2.937174081802368164e+00,2.866410493850708008e+00,2.798975944519042969e+00,2.734641790390014648e+00,2.673198699951171875e+00,2.614455699920654297e+00,2.558238983154296875e+00,2.504389047622680664e+00,2.452759265899658203e+00,2.403215408325195312e+00,2.355633258819580078e+00,2.309898853302001953e+00,2.265906572341918945e+00,2.223558425903320312e+00,2.182764291763305664e+00,2.143440008163452148e+00,2.105507612228393555e+00,2.068894386291503906e+00,2.033532619476318359e+00,1.999359488487243652e+00,1.966316103935241699e+00,1.934346914291381836e+00,1.903400659561157227e+00,1.873429059982299805e+00,1.844386696815490723e+00
3.776269912719726562e+00,3.775536060333251953e+00,3.774802684783935547e+00,3.774069309234619141e+00,3.773336410522460938e+00,3.772604227066040039e+00,3.771871805191040039e+00,3.771139621734619141e+00,3.770407915115356445e+00,3.769676208496093750e+00,3.768945455551147461e+00,3.768214464187622070e+00,3.767483711242675781e+00,3.766753435134887695e+00,3.766023397445678711e+00,3.765293836593627930e+00,3.764564275741577148e+00,3.763834953308105469e+00,3.763106107711791992e+00,3.762377262115478516e+00,3.761649370193481445e+00,3.760921239852905273e+00,3.760193347930908203e+00,3.759465932846069336e+00,3.758738517761230469e+00,3.758012056350708008e+00,3.757285118103027344e+00,3.756558656692504883e+00,3.755832672119140625e+00,3.755106687545776367e+00,3.754381418228149414e+00,2.439723968505859375e+00,2.461771965026855469e+00,3.752206325531005859e+00,2.375996828079223633e+00,3.750758171081542969e+00,3.750034093856811523e+00,3.749310493469238281e+00,3.748587131500244141e+00,3.747864484786987305e+00,3.747141599655151367e+00,3.746418952941894531e+00,3.745696783065795898e+00,3.744974851608276367e+00,3.744253635406494141e+00,3.743532180786132812e+00,3.742810964584350586e+00,3.660099744796752930e+00,3.550862789154052734e+00,3.447957038879394531e+00,3.350848197937011719e+00,3.259059429168701172e+00,3.172165393829345703e+00,3.089784145355224609e+00,3.011573791503906250e+00,2.937225341796875000e+00,2.866459131240844727e+00,2.799022436141967773e+00,2.734686136245727539e+00,2.673240900039672852e+00,2.614496231079101562e+00,2.558277845382690430e+00,2.504426240921020508e+00,2.452795028686523438e+00,2.403249740600585938e+00,2.355666160583496094e+00,2.309930562973022461e+00,2.265936851501464844e+00,2.223587751388549805e+00,2.182792663574218750e+00,2.143467187881469727e+00,2.105533838272094727e+00,2.068919658660888672e+00,2.033557176589965820e+00,1.999383330345153809e+00,1.966339111328125000e+00,1.934369206428527832e+00,1.903421998023986816e+00,1.873449802398681641e+00,1.844406723976135254e+00
3.083143472671508789e+00,3.082654237747192383e+00,3.082165241241455078e+00,3.081676721572875977e+00,3.081187963485717773e+00,3.080699443817138672e+00,3.080210924148559570e+00,3.079722642898559570e+00,3.079234838485717773e+00,3.078747034072875977e+00,3.078259229660034180e+00,3.077771663665771484e+00,3.077284097671508789e+00,3.076797008514404297e+00,3.076309919357299805e+00,3.075822830200195312e+00,3.075335979461669922e+00,3.074849367141723633e+00,3.074362993240356445e+00,3.073876619338989258e+00,3.073390483856201172e+00,3.072904348373413086e+00,3.072418451309204102e+00,3.071933031082153320e+00,3.071447372436523438e+00,3.070961952209472656e+00,3.070476531982421875e+00,3.069991350173950195e+00,3.069506645202636719e+00,3.069021701812744141e+00,3.068536996841430664e+00,2.414584398269653320e+00,2.400985479354858398e+00,2.368782997131347656e+00,2.343307733535766602e+00,2.371177673339843750e+00,3.065632581710815430e+00,3.065148830413818359e+00,3.064665555953979492e+00,3.064182281494140625e+00,3.063699245452880859e+00,3.063216209411621094e+00,3.062733173370361328e+00,3.062250852584838867e+00,3.061768293380737305e+00,3.061285734176635742e+00,3.060803651809692383e+00,3.060321807861328125e+00,3.059839725494384766e+00,3.059357881546020508e+00,3.058876276016235352e+00,3.058394908905029297e+00,3.057913780212402344e+00,3.057432651519775391e+00,3.011627674102783203e+00,2.937276363372802734e+00,2.866507768630981445e+00,2.799068927764892578e+00,2.734730482101440430e+00,2.673283338546752930e+00,2.614536762237548828e+00,2.558316469192504883e+00,2.504463434219360352e+00,2.452830791473388672e+00,2.403283834457397461e+00,2.355699300765991211e+00,2.309962272644042969e+00,2.265967369079589844e+00,2.223617076873779297e+00,2.182820796966552734e+00,2.143494606018066406e+00,2.105560302734375000e+00,2.068945169448852539e+00,2.033581733703613281e+00,1.999406933784484863e+00,1.966361999511718750e+00,1.934391260147094727e+00,1.903443694114685059e+00,1.873470664024353027e+00,1.844426989555358887e+00
2.605000734329223633e+00,2.604651689529418945e+00,2.604302644729614258e+00,2.603953599929809570e+00,2.603604793548583984e+00,2.603255748748779297e+00,2.602907419204711914e+00,2.602558612823486328e+00,2.602210044860839844e+00,2.601861715316772461e+00,2.601513147354125977e+00,2.601165056228637695e+00,2.600816965103149414e+00,2.600468873977661133e+00,2.600120782852172852e+00,2.599772930145263672e+00,2.599425315856933594e+00,2.599077701568603516e+00,2.598729848861694336e+00,2.598382472991943359e+00,2.598034858703613281e+00,2.597687721252441406e+00,2.597340583801269531e+00,2.596993446350097656e+00,2.596646308898925781e+00,2.596299171447753906e+00,2.595952510833740234e+00,2.595605850219726562e+00,2.595259189605712891e+00,2.594912528991699219e+00,2.594565868377685547e+00,2.356786489486694336e+00,2.349485397338867188e+00,2.593527078628540039e+00,2.593180894851684570e+00,2.592834949493408203e+00,2.592489242553710938e+00,2.592143297195434570e+00,2.591797590255737305e+00,2.591451883316040039e+00,2.591106176376342773e+00,2.590760946273803711e+00,2.590415477752685547e+00,2.590070247650146484e+00,2.589725017547607422e+00,2.589380025863647461e+00,2.589035034179687500e+00,2.588690042495727539e+00,2.588345050811767578e+00,2.588000297546386719e+00,2.587656021118164062e+00,2.587311267852783203e+00,2.586966753005981445e+00,2.586622476577758789e+00,2.586278200149536133e+00,2.585934162139892578e+00,2.585589885711669922e+00,2.585246086120605469e+00,2.584902048110961914e+00,2.584558248519897461e+00,2.584214687347412109e+00,2.558355331420898438e+00,2.504500627517700195e+00,2.452866315841674805e+00,2.403318166732788086e+00,2.355732202529907227e+00,2.309993743896484375e+00,2.265997886657714844e+00,2.223646402359008789e+00,2.182849168777465820e+00,2.143521785736083984e+00,2.105586528778076172e+00,2.068970441818237305e+00,2.033606290817260742e+00,1.999430775642395020e+00,1.966385006904602051e+00,1.934413552284240723e+00,1.903465032577514648e+00,1.873491406440734863e+00,1.844447135925292969e+00
2.255220651626586914e+00,2.254960060119628906e+00,2.254699945449829102e+00,2.254439353942871094e+00,2.254179239273071289e+00,2.253919124603271484e+00,2.253659009933471680e+00,2.253398895263671875e+00,2.253139019012451172e+00,2.252879142761230469e+00,2.252619028091430664e+00,2.252359390258789062e+00,2.252099514007568359e+00,2.251839876174926758e+00,2.251580238342285156e+00,2.251320600509643555e+00,2.251060962677001953e+00,2.250801563262939453e+00,2.250542163848876953e+00,2.250282764434814453e+00,2.250023603439331055e+00,2.249764442443847656e+00,2.249505043029785156e+00,2.249246120452880859e+00,2.248986005783081055e+00,2.248725652694702148e+00,2.248465538024902344e+00,2.248205423355102539e+00,2.247945308685302734e+00,2.247685194015502930e+00,2.247425317764282227e+00,2.247165441513061523e+00,2.246905565261840820e+00,2.246645689010620117e+00,2.246386051177978516e+00,2.246126413345336914e+00,2.245866775512695312e+00,2.245607137680053711e+00,2.245347738265991211e+00,2.245088338851928711e+00,2.244828939437866211e+00,2.244569540023803711e+00,2.244310379028320312e+00,2.244051218032836914e+00,2.243792057037353516e+00,2.243533134460449219e+00,2.243273973464965820e+00,2.243015050888061523e+00,2.242756128311157227e+00,2.242497444152832031e+00,2.242238521575927734e+00,2.241979837417602539e+00,2.241721153259277344e+00,2.241462707519531250e+00,2.241204261779785156e+00,2.240945577621459961e+00,2.240687131881713867e+00,2.240428924560546875e+00,2.240170717239379883e+00,2.239912509918212891e+00,2.239654302597045898e+00,2.239396095275878906e+00,2.239138126373291016e+00,2.238880157470703125e+00,2.238622188568115234e+00,2.238364219665527344e+00,2.238106489181518555e+00,2.237848758697509766e+00,2.223675727844238281e+00,2.182877302169799805e+00,2.143548965454101562e+00,2.105612754821777344e+00,2.068995952606201172e+00,2.033630847930908203e+00,1.999454379081726074e+00,1.966407775878906250e+00,1.934435606002807617e+00,1.903486609458923340e+00,1.873512268066406250e+00,1.844467401504516602e+00
1.988196611404418945e+00,1.987994194030761719e+00,1.987791895866394043e+00,1.987589359283447266e+00,1.987387061119079590e+00,1.987184882164001465e+00,1.986982703208923340e+00,1.986780643463134766e+00,1.986578583717346191e+00,1.986376285552978516e+00,1.986174225807189941e+00,1.985972285270690918e+00,1.985770344734191895e+00,1.985568523406982422e+00,1.985366702079772949e+00,1.985164642333984375e+00,1.984962940216064453e+00,1.984761238098144531e+00,1.984559535980224609e+00,1.984357833862304688e+00,1.984156250953674316e+00,1.983954787254333496e+00,1.983752965927124023e+00,1.983551502227783203e+00,1.983350157737731934e+00,1.983148694038391113e+00,1.982947349548339844e+00,1.982746124267578125e+00,1.982544660568237305e+00,1.982343316078186035e+00,1.982142210006713867e+00,1.981941103935241699e+00,1.981739997863769531e+00,1.981538891792297363e+00,1.981337666511535645e+00,1.981136679649353027e+00,1.980935692787170410e+00,1.980734825134277344e+00,1.980533957481384277e+00,1.980333209037780762e+00,1.980132341384887695e+00,1.979931473731994629e+00,1.979730725288391113e+00,1.979530096054077148e+00,1.979329466819763184e+00,1.979128837585449219e+00,1.978928327560424805e+00,1.978727698326110840e+00,1.978527188301086426e+00,1.978326797485351562e+00,1.978126406669616699e+00,1.977926135063171387e+00,1.977725744247436523e+00,1.977525353431701660e+00,1.977325081825256348e+00,1.977124929428100586e+00,1.976924777030944824e+00,1.976724743843078613e+00,1.976524710655212402e+00,1.976324439048767090e+00,1.976124525070190430e+00,1.975924611091613770e+00,1.975724697113037109e+00,1.975524783134460449e+00,1.975324988365173340e+00,1.975125312805175781e+00,1.974925279617309570e+00,1.974725604057312012e+00,1.974526047706604004e+00,1.974326372146606445e+00,1.974126815795898438e+00,1.973927378654479980e+00,1.973727583885192871e+00,1.973528146743774414e+00,1.973328828811645508e+00,1.966430902481079102e+00,1.934457898139953613e+00,1.903508067131042480e+00,1.873533010482788086e+00,1.844487428665161133e+00
1.777710914611816406e+00,1.777549147605895996e+00,1.777387380599975586e+00,1.777225375175476074e+00,1.777063727378845215e+00,1.776902079582214355e+00,1.776740431785583496e+00,1.776578783988952637e+00,1.776417255401611328e+00,1.776255488395690918e+00,1.776093959808349609e+00,1.775932431221008301e+00,1.775771021842956543e+00,1.775609612464904785e+00,1.775448203086853027e+00,1.775286555290222168e+00,1.775125265121459961e+00,1.774963855743408203e+00,1.774802565574645996e+00,1.774641394615173340e+00,1.774480104446411133e+00,1.774318695068359375e+00,1.774157524108886719e+00,1.773996353149414062e+00,1.773835301399230957e+00,1.773674249649047852e+00,1.773513197898864746e+00,1.773352146148681641e+00,1.773190975189208984e+00,1.773029923439025879e+00,1.772868990898132324e+00,1.772708058357238770e+00,1.772547245025634766e+00,1.772386312484741211e+00,1.772225379943847656e+00,1.772064566612243652e+00,1.771903753280639648e+00,1.771743059158325195e+00,1.771582365036010742e+00,1.771421670913696289e+00,1.771260857582092285e+00,1.771100163459777832e+00,1.770939588546752930e+00,1.770779013633728027e+00,1.770618557929992676e+00,1.770457983016967773e+00,1.770297288894653320e+00,1.770136833190917969e+00,1.769976496696472168e+00,1.769816040992736816e+00,1.769655704498291016e+00,1.769495368003845215e+00,1.769335031509399414e+00,1.769174575805664062e+00,1.769014358520507812e+00,1.768854141235351562e+00,1.768693923950195312e+00,1.768533825874328613e+00,1.768373727798461914e+00,1.768213391304016113e+00,1.768053293228149414e+00,1.767893314361572266e+00,1.767733335494995117e+00,1.767573356628417969e+00,1.767413377761840820e+00,1.767253279685974121e+00,1.767093420028686523e+00,1.766933441162109375e+00,1.766773700714111328e+00,1.766613841056823730e+00,1.766454100608825684e+00,1.766294360160827637e+00,1.766134381294250488e+00,1.765974760055541992e+00,1.765815019607543945e+00,1.765655398368835449e+00,1.765495896339416504e+00,1.765336275100708008e+00,1.765176534652709961e+00,1.765017032623291016e+00
1.607525944709777832e+00,1.607393622398376465e+00,1.607261180877685547e+00,1.607128977775573730e+00,1.606996774673461914e+00,1.606864571571350098e+00,1.606732368469238281e+00,1.606600165367126465e+00,1.606467843055725098e+00,1.606335759162902832e+00,1.606203675270080566e+00,1.606071591377258301e+00,1.605939507484436035e+00,1.605807423591613770e+00,1.605675458908081055e+00,1.605543255805969238e+00,1.605411291122436523e+00,1.605279326438903809e+00,1.605147480964660645e+00,1.605015516281127930e+00,1.604883670806884766e+00,1.604751586914062500e+00,1.604619860649108887e+00,1.604488015174865723e+00,1.604356169700622559e+00,1.604224443435668945e+00,1.604092597961425781e+00,1.603960752487182617e+00,1.603829026222229004e+00,1.603697299957275391e+00,1.603565692901611328e+00,1.603434085845947266e+00,1.603302359580993652e+00,1.603170752525329590e+00,1.603039026260375977e+00,1.602907538414001465e+00,1.602775931358337402e+00,1.602644443511962891e+00,1.602512955665588379e+00,1.602381467819213867e+00,1.602249860763549805e+00,1.602118492126464844e+00,1.601987004280090332e+00,1.601855635643005371e+00,1.601724267005920410e+00,1.601592898368835449e+00,1.601461529731750488e+00,1.601330161094665527e+00,1.601198911666870117e+00,1.601067662239074707e+00,1.600936412811279297e+00,1.600805163383483887e+00,1.600673794746398926e+00,1.600542664527893066e+00,1.600411534309387207e+00,1.600280404090881348e+00,1.600149273872375488e+00,1.600018262863159180e+00,1.599887132644653320e+00,1.599755883216857910e+00,1.599624872207641602e+00,1.599493861198425293e+00,1.599362850189208984e+00,1.599231958389282227e+00,1.599101066589355469e+00,1.598969936370849609e+00,1.598839044570922852e+00,1.598708152770996094e+00,1.598577380180358887e+00,1.598446488380432129e+00,1.598315715789794922e+00,1.598184823989868164e+00,1.598054051399230957e+00,1.597923278808593750e+00,1.597792506217956543e+00,1.597661852836608887e+00,1.597531199455261230e+00,1.597400307655334473e+00,1.597269654273986816e+00,1.597139120101928711e+00
1.467078685760498047e+00,1.466968417167663574e+00,1.466858148574829102e+00,1.466747999191284180e+00,1.466637849807739258e+00,1.466527700424194336e+00,1.466417551040649414e+00,1.466307520866394043e+00,1.466197252273559570e+00,1.466087222099304199e+00,1.465977191925048828e+00,1.465867161750793457e+00,1.465757131576538086e+00,1.465647220611572266e+00,1.465537071228027344e+00,1.465427041053771973e+00,1.465317130088806152e+00,1.465207219123840332e+00,1.465097308158874512e+00,1.464987397193908691e+00,1.464877486228942871e+00,1.464767575263977051e+00,1.464657664299011230e+00,1.464547872543334961e+00,1.464438080787658691e+00,1.464328289031982422e+00,1.464218497276306152e+00,1.464108586311340332e+00,1.463998794555664062e+00,1.463889122009277344e+00,1.463779449462890625e+00,1.463669657707214355e+00,1.463559985160827637e+00,1.463450193405151367e+00,1.463340640068054199e+00,1.463230967521667480e+00,1.463121294975280762e+00,1.463011741638183594e+00,1.462902188301086426e+00,1.462792515754699707e+00,1.462682962417602539e+00,1.462573409080505371e+00,1.462463855743408203e+00,1.462354421615600586e+00,1.462244868278503418e+00,1.462135434150695801e+00,1.462025880813598633e+00,1.461916446685791016e+00,1.461807012557983398e+00,1.461697578430175781e+00,1.461588263511657715e+00,1.461478829383850098e+00,1.461369395256042480e+00,1.461260080337524414e+00,1.461150765419006348e+00,1.461041450500488281e+00,1.460932135581970215e+00,1.460822939872741699e+00,1.460713505744934082e+00,1.460604310035705566e+00,1.460494995117187500e+00,1.460385799407958984e+00,1.460276603698730469e+00,1.460167527198791504e+00,1.460058212280273438e+00,1.459949016571044922e+00,1.459839940071105957e+00,1.459730863571166992e+00,1.459621787071228027e+00,1.459512710571289062e+00,1.459403634071350098e+00,1.459294438362121582e+00,1.459185361862182617e+00,1.459076404571533203e+00,1.458967447280883789e+00,1.458858489990234375e+00,1.458749532699584961e+00,1.458640456199645996e+00,1.458531498908996582e+00,1.458422541618347168e+00
1.349200725555419922e+00,1.349107503890991211e+00,1.349014282226562500e+00,1.348921179771423340e+00,1.348827958106994629e+00,1.348734855651855469e+00,1.348641633987426758e+00,1.348548531532287598e+00,1.348455309867858887e+00,1.348362207412719727e+00,1.348269224166870117e+00,1.348176121711730957e+00,1.348083019256591797e+00,1.347990036010742188e+00,1.347896933555603027e+00,1.347803831100463867e+00,1.347710847854614258e+00,1.347617864608764648e+00,1.347524881362915039e+00,1.347431898117065430e+00,1.347338914871215820e+00,1.347245931625366211e+00,1.347153067588806152e+00,1.347060084342956543e+00,1.346967220306396484e+00,1.346874356269836426e+00,1.346781373023986816e+00,1.346688508987426758e+00,1.346595644950866699e+00,1.346502780914306641e+00,1.346410036087036133e+00,1.346317172050476074e+00,1.346224427223205566e+00,1.346131563186645508e+00,1.346038699150085449e+00,1.345945954322814941e+00,1.345853209495544434e+00,1.345760464668273926e+00,1.345667719841003418e+00,1.345574975013732910e+00,1.345482230186462402e+00,1.345389604568481445e+00,1.345296859741210938e+00,1.345204234123229980e+00,1.345111608505249023e+00,1.345018863677978516e+00,1.344926238059997559e+00,1.344833612442016602e+00,1.344740986824035645e+00,1.344648480415344238e+00,1.344555854797363281e+00,1.344463348388671875e+00,1.344370722770690918e+00,1.344278097152709961e+00,1.344185590744018555e+00,1.344093084335327148e+00,1.344000577926635742e+00,1.343908190727233887e+00,1.343815565109252930e+00,1.343723177909851074e+00,1.343630671501159668e+00,1.343538284301757812e+00,1.343445897102355957e+00,1.343353390693664551e+00,1.343260884284973145e+00,1.343168616294860840e+00,1.343076229095458984e+00,1.342983841896057129e+00,1.342891454696655273e+00,1.342799186706542969e+00,1.342706799507141113e+00,1.342614412307739258e+00,1.342522144317626953e+00,1.342429876327514648e+00,1.342337608337402344e+00,1.342245340347290039e+00,1.342153072357177734e+00,1.342060804367065430e+00,1.341968536376953125e+00,1.341876387596130371e+00
1.248856782913208008e+00,1.248776912689208984e+00,1.248697042465209961e+00,1.248617172241210938e+00,1.248537421226501465e+00,1.248457551002502441e+00,1.248377799987792969e+00,1.248297929763793945e+00,1.248218059539794922e+00,1.248138308525085449e+00,1.248058557510375977e+00,1.247978806495666504e+00,1.247899055480957031e+00,1.247819423675537109e+00,1.247739553451538086e+00,1.247659921646118164e+00,1.247580170631408691e+00,1.247500538825988770e+00,1.247420787811279297e+00,1.247341156005859375e+00,1.247261404991149902e+00,1.247181773185729980e+00,1.247102141380310059e+00,1.247022509574890137e+00,1.246942877769470215e+00,1.246863245964050293e+00,1.246783614158630371e+00,1.246703982353210449e+00,1.246624469757080078e+00,1.246544837951660156e+00,1.246465325355529785e+00,1.246385812759399414e+00,1.246306180953979492e+00,1.246226549148559570e+00,1.246147036552429199e+00,1.246067643165588379e+00,1.245988130569458008e+00,1.245908617973327637e+00,1.245829105377197266e+00,1.245749592781066895e+00,1.245670080184936523e+00,1.245590686798095703e+00,1.245511293411254883e+00,1.245431780815124512e+00,1.245352387428283691e+00,1.245272874832153320e+00,1.245193481445312500e+00,1.245114207267761230e+00,1.245034813880920410e+00,1.244955420494079590e+00,1.244876027107238770e+00,1.244796633720397949e+00,1.244717359542846680e+00,1.244637966156005859e+00,1.244558691978454590e+00,1.244479417800903320e+00,1.244400024414062500e+00,1.244320750236511230e+00,1.244241476058959961e+00,1.244162201881408691e+00,1.244082927703857422e+00,1.244003653526306152e+00,1.243924498558044434e+00,1.243845224380493164e+00,1.243765950202941895e+00,1.243686795234680176e+00,1.243607521057128906e+00,1.243528366088867188e+00,1.243449211120605469e+00,1.243370056152343750e+00,1.243290781974792480e+00,1.243211627006530762e+00,1.243132591247558594e+00,1.243053436279296875e+00,1.242974281311035156e+00,1.242895245552062988e+00,1.242816090583801270e+00,1.242736935615539551e+00,1.242657899856567383e+00,1.242578864097595215e+00
1.162405371665954590e+00,1.162336111068725586e+00,1.162266969680786133e+00,1.162197828292846680e+00,1.162128686904907227e+00,1.162059426307678223e+00,1.161990404129028320e+00,1.161921143531799316e+00,1.161852002143859863e+00,1.161782860755920410e+00,1.161713838577270508e+00,1.161644697189331055e+00,1.161575675010681152e+00,1.161506414413452148e+00,1.161437392234802246e+00,1.161368370056152344e+00,1.161299228668212891e+00,1.161230206489562988e+00,1.161161184310913086e+00,1.161092042922973633e+00,1.161023020744323730e+00,1.160953998565673828e+00,1.160885095596313477e+00,1.160816073417663574e+00,1.160747051239013672e+00,1.160678029060363770e+00,1.160609006881713867e+00,1.160540103912353516e+00,1.160471081733703613e+00,1.160402178764343262e+00,1.160333156585693359e+00,1.160264253616333008e+00,1.160195231437683105e+00,1.160126328468322754e+00,1.160057425498962402e+00,1.159988522529602051e+00,1.159919619560241699e+00,1.159850835800170898e+00,1.159781813621520996e+00,1.159712910652160645e+00,1.159644126892089844e+00,1.159575223922729492e+00,1.159506440162658691e+00,1.159437537193298340e+00,1.159368634223937988e+00,1.159299850463867188e+00,1.159231066703796387e+00,1.159162282943725586e+00,1.159093499183654785e+00,1.159024715423583984e+00,1.158955931663513184e+00,1.158887028694152832e+00,1.158818244934082031e+00,1.158749461174011230e+00,1.158680796623229980e+00,1.158612012863159180e+00,1.158543348312377930e+00,1.158474564552307129e+00,1.158405780792236328e+00,1.158337116241455078e+00,1.158268451690673828e+00,1.158199787139892578e+00,1.158131122589111328e+00,1.158062338829040527e+00,1.157993674278259277e+00,1.157925009727478027e+00,1.157856345176696777e+00,1.157787680625915527e+00,1.157719135284423828e+00,1.157650470733642578e+00,1.157581806182861328e+00,1.157513141632080078e+00,1.157444596290588379e+00,1.157376050949096680e+00,1.157307386398315430e+00,1.157238841056823730e+00,1.157170176506042480e+00,1.157101631164550781e+00,1.157033085823059082e+00,1.156964540481567383e+00
1.087148070335388184e+00,1.087087512016296387e+00,1.087026953697204590e+00,1.086966514587402344e+00,1.086905956268310547e+00,1.086845517158508301e+00,1.086784958839416504e+00,1.086724519729614258e+00,1.086664080619812012e+00,1.086603641510009766e+00,1.086543202400207520e+00,1.086482763290405273e+00,1.086422324180603027e+00,1.086361765861511230e+00,1.086301326751708984e+00,1.086240887641906738e+00,1.086180567741394043e+00,1.086120128631591797e+00,1.086059689521789551e+00,1.085999250411987305e+00,1.085938930511474609e+00,1.085878491401672363e+00,1.085818171501159668e+00,1.085757732391357422e+00,1.085697412490844727e+00,1.085636973381042480e+00,1.085576653480529785e+00,1.085516333580017090e+00,1.085456013679504395e+00,1.085395693778991699e+00,1.085335373878479004e+00,1.085275053977966309e+00,1.085214734077453613e+00,1.085154414176940918e+00,1.085094094276428223e+00,1.085033893585205078e+00,1.084973573684692383e+00,1.084913253784179688e+00,1.084852933883666992e+00,1.084792733192443848e+00,1.084732413291931152e+00,1.084672212600708008e+00,1.084612011909484863e+00,1.084551692008972168e+00,1.084491491317749023e+00,1.084431290626525879e+00,1.084371089935302734e+00,1.084310889244079590e+00,1.084250688552856445e+00,1.084190487861633301e+00,1.084130167961120605e+00,1.084070086479187012e+00,1.084009885787963867e+00,1.083949685096740723e+00,1.083889603614807129e+00,1.083829402923583984e+00,1.083769321441650391e+00,1.083709120750427246e+00,1.083648920059204102e+00,1.083588838577270508e+00,1.083528757095336914e+00,1.083468556404113770e+00,1.083408474922180176e+00,1.083348274230957031e+00,1.083288192749023438e+00,1.083228111267089844e+00,1.083168029785156250e+00,1.083108067512512207e+00,1.083047986030578613e+00,1.082987785339355469e+00,1.082927823066711426e+00,1.082867741584777832e+00,1.082807660102844238e+00,1.082747697830200195e+00,1.082687616348266602e+00,1.082627534866333008e+00,1.082567572593688965e+00,1.082507610321044922e+00,1.082447528839111328e+00,1.082387566566467285e+00
1.021042943000793457e+00,1.020989537239074707e+00,1.020936250686645508e+00,1.020882844924926758e+00,1.020829439163208008e+00,1.020776152610778809e+00,1.020722746849060059e+00,1.020669341087341309e+00,1.020616054534912109e+00,1.020562648773193359e+00,1.020509362220764160e+00,1.020456075668334961e+00,1.020402669906616211e+00,1.020349383354187012e+00,1.020296096801757812e+00,1.020242810249328613e+00,1.020189523696899414e+00,1.020136237144470215e+00,1.020082950592041016e+00,1.020029544830322266e+00,1.019976258277893066e+00,1.019923090934753418e+00,1.019869804382324219e+00,1.019816517829895020e+00,1.019763350486755371e+00,1.019709944725036621e+00,1.019656777381896973e+00,1.019603490829467773e+00,1.019550323486328125e+00,1.019497036933898926e+00,1.019443869590759277e+00,1.019390583038330078e+00,1.019337415695190430e+00,1.019284248352050781e+00,1.019230961799621582e+00,1.019177794456481934e+00,1.019124627113342285e+00,1.019071459770202637e+00,1.019018292427062988e+00,1.018965125083923340e+00,1.018911957740783691e+00,1.018858790397644043e+00,1.018805623054504395e+00,1.018752455711364746e+00,1.018699288368225098e+00,1.018646121025085449e+00,1.018593072891235352e+00,1.018539905548095703e+00,1.018486857414245605e+00,1.018433690071105957e+00,1.018380522727966309e+00,1.018327474594116211e+00,1.018274307250976562e+00,1.018221259117126465e+00,1.018168210983276367e+00,1.018115043640136719e+00,1.018061995506286621e+00,1.018008947372436523e+00,1.017955899238586426e+00,1.017902851104736328e+00,1.017849802970886230e+00,1.017796754837036133e+00,1.017743587493896484e+00,1.017690539360046387e+00,1.017637610435485840e+00,1.017584562301635742e+00,1.017531514167785645e+00,1.017478466033935547e+00,1.017425537109375000e+00,1.017372488975524902e+00,1.017319440841674805e+00,1.017266511917114258e+00,1.017213463783264160e+00,1.017160534858703613e+00,1.017107486724853516e+00,1.017054557800292969e+00,1.017001509666442871e+00,1.016948580741882324e+00,1.016895651817321777e+00,1.016842722892761230e+00
9.625162482261657715e-01,9.624688625335693359e-01,9.624213576316833496e-01,9.623739719390869141e-01,9.623265266418457031e-01,9.622791409492492676e-01,9.622316956520080566e-01,9.621842503547668457e-01,9.621369242668151855e-01,9.620894789695739746e-01,9.620421528816223145e-01,9.619947075843811035e-01,9.619472622871398926e-01,9.618999361991882324e-01,9.618524909019470215e-01,9.618052244186401367e-01,9.617577791213989258e-01,9.617104530334472656e-01,9.616630673408508301e-01,9.616156816482543945e-01,9.615683555603027344e-01,9.615209698677062988e-01,9.614737033843994141e-01,9.614263176918029785e-01,9.613789319992065430e-01,9.613316655158996582e-01,9.612843394279479980e-01,9.612370729446411133e-01,9.611896872520446777e-01,9.611424803733825684e-01,9.610950946807861328e-01,9.610477685928344727e-01,9.610005021095275879e-01,9.609531760215759277e-01,9.609059691429138184e-01,9.608586430549621582e-01,9.608114361763000488e-01,9.607641100883483887e-01,9.607167840003967285e-01,9.606695771217346191e-01,9.606223106384277344e-01,9.605751037597656250e-01,9.605277776718139648e-01,9.604805111885070801e-01,9.604333639144897461e-01,9.603860378265380859e-01,9.603388905525207520e-01,9.602916240692138672e-01,9.602444767951965332e-01,9.601972103118896484e-01,9.601499438285827637e-01,9.601027965545654297e-01,9.600555300712585449e-01,9.600083827972412109e-01,9.599611759185791016e-01,9.599140286445617676e-01,9.598668217658996582e-01,9.598196148872375488e-01,9.597724676132202148e-01,9.597252607345581055e-01,9.596781730651855469e-01,9.596309661865234375e-01,9.595837593078613281e-01,9.595366716384887695e-01,9.594894647598266602e-01,9.594423770904541016e-01,9.593951702117919922e-01,9.593481421470642090e-01,9.593009352684020996e-01,9.592537879943847656e-01,9.592067003250122070e-01,9.591595530509948730e-01,9.591125249862670898e-01,9.590653777122497559e-01,9.590183496475219727e-01,9.589712023735046387e-01,9.589240550994873047e-01,9.588770270347595215e-01,9.588298797607421875e-01,9.587828516960144043e-01
9.103353023529052734e-01,9.102929234504699707e-01,9.102504849433898926e-01,9.102081060409545898e-01,9.101656079292297363e-01,9.101231694221496582e-01,9.100807905197143555e-01,9.100383520126342773e-01,9.099960327148437500e-01,9.099535346031188965e-01,9.099112153053283691e-01,9.098687767982482910e-01,9.098263382911682129e-01,9.097840189933776855e-01,9.097415804862976074e-01,9.096992611885070801e-01,9.096568226814270020e-01,9.096145033836364746e-01,9.095721244812011719e-01,9.095296859741210938e-01,9.094874262809753418e-01,9.094449877738952637e-01,9.094027280807495117e-01,9.093603491783142090e-01,9.093179106712341309e-01,9.092756509780883789e-01,9.092332720756530762e-01,9.091910123825073242e-01,9.091486334800720215e-01,9.091063737869262695e-01,9.090639948844909668e-01,9.090216159820556641e-01,9.089793562889099121e-01,9.089370369911193848e-01,9.088947772979736328e-01,9.088524580001831055e-01,9.088101983070373535e-01,9.087678790092468262e-01,9.087255001068115234e-01,9.086833000183105469e-01,9.086409807205200195e-01,9.085987806320190430e-01,9.085564613342285156e-01,9.085141420364379883e-01,9.084719419479370117e-01,9.084296226501464844e-01,9.083874225616455078e-01,9.083451032638549805e-01,9.083029031753540039e-01,9.082606434822082520e-01,9.082183241844177246e-01,9.081761837005615234e-01,9.081339240074157715e-01,9.080917239189147949e-01,9.080494642257690430e-01,9.080072045326232910e-01,9.079650044441223145e-01,9.079227447509765625e-01,9.078806042671203613e-01,9.078384041786193848e-01,9.077962040901184082e-01,9.077539443969726562e-01,9.077117443084716797e-01,9.076696038246154785e-01,9.076274037361145020e-01,9.075852632522583008e-01,9.075430035591125488e-01,9.075009226799011230e-01,9.074587225914001465e-01,9.074164628982543945e-01,9.073743820190429688e-01,9.073321819305419922e-01,9.072901010513305664e-01,9.072479009628295898e-01,9.072057008743286133e-01,9.071636199951171875e-01,9.071214199066162109e-01,9.070793390274047852e-01,9.070371985435485840e-01,9.069951176643371582e-01
8.635212182998657227e-01,8.634831309318542480e-01,8.634448647499084473e-01,8.634067773818969727e-01,8.633685708045959473e-01,8.633303642272949219e-01,8.632922172546386719e-01,8.632540106773376465e-01,8.632159233093261719e-01,8.631777167320251465e-01,8.631396293640136719e-01,8.631014227867126465e-01,8.630632758140563965e-01,8.630251884460449219e-01,8.629869818687438965e-01,8.629488945007324219e-01,8.629107475280761719e-01,8.628725409507751465e-01,8.628344535827636719e-01,8.627963066101074219e-01,8.627582788467407227e-01,8.627200722694396973e-01,8.626820445060729980e-01,8.626438975334167480e-01,8.626057505607604980e-01,8.625677227973937988e-01,8.625295758247375488e-01,8.624914884567260742e-01,8.624534010887145996e-01,8.624153137207031250e-01,8.623772263526916504e-01,8.623390793800354004e-01,8.623010516166687012e-01,8.622629642486572266e-01,8.622249364852905273e-01,8.621868491172790527e-01,8.621487021446228027e-01,8.621107339859008789e-01,8.620726466178894043e-01,8.620346188545227051e-01,8.619965314865112305e-01,8.619585037231445312e-01,8.619204163551330566e-01,8.618823885917663574e-01,8.618443608283996582e-01,8.618062734603881836e-01,8.617683053016662598e-01,8.617302775382995605e-01,8.616922497749328613e-01,8.616542220115661621e-01,8.616161346435546875e-01,8.615782260894775391e-01,8.615401387214660645e-01,8.615021705627441406e-01,8.614641427993774414e-01,8.614261150360107422e-01,8.613881468772888184e-01,8.613501191139221191e-01,8.613122105598449707e-01,8.612741827964782715e-01,8.612362146377563477e-01,8.611981868743896484e-01,8.611602187156677246e-01,8.611222505569458008e-01,8.610842823982238770e-01,8.610463142395019531e-01,8.610083460807800293e-01,8.609704375267028809e-01,8.609324097633361816e-01,8.608944416046142578e-01,8.608565330505371094e-01,8.608185648918151855e-01,8.607806563377380371e-01,8.607426881790161133e-01,8.607047200202941895e-01,8.606668114662170410e-01,8.606288433074951172e-01,8.605909943580627441e-01,8.605530261993408203e-01,8.605151176452636719e-01
8.212864995002746582e-01,8.212519884109497070e-01,8.212174177169799805e-01,8.211829662322998047e-01,8.211483955383300781e-01,8.211138248443603516e-01,8.210793137550354004e-01,8.210448026657104492e-01,8.210102915763854980e-01,8.209757804870605469e-01,8.209412693977355957e-01,8.209067583084106445e-01,8.208721876144409180e-01,8.208377361297607422e-01,8.208032250404357910e-01,8.207687735557556152e-01,8.207342028617858887e-01,8.206996917724609375e-01,8.206652402877807617e-01,8.206307291984558105e-01,8.205962777137756348e-01,8.205617666244506836e-01,8.205273747444152832e-01,8.204928636550903320e-01,8.204583525657653809e-01,8.204239010810852051e-01,8.203894495964050293e-01,8.203549981117248535e-01,8.203204870223999023e-01,8.202860951423645020e-01,8.202515840530395508e-01,8.202171325683593750e-01,8.201827406883239746e-01,8.201482295989990234e-01,8.201138377189636230e-01,8.200793862342834473e-01,8.200448751449584961e-01,8.200104832649230957e-01,8.199760317802429199e-01,8.199416399002075195e-01,8.199071884155273438e-01,8.198727965354919434e-01,8.198383450508117676e-01,8.198038935661315918e-01,8.197695612907409668e-01,8.197351098060607910e-01,8.197007179260253906e-01,8.196662664413452148e-01,8.196318149566650391e-01,8.195974826812744141e-01,8.195630311965942383e-01,8.195286989212036133e-01,8.194943070411682129e-01,8.194599151611328125e-01,8.194255232810974121e-01,8.193910717964172363e-01,8.193567395210266113e-01,8.193223476409912109e-01,8.192880153656005859e-01,8.192536234855651855e-01,8.192192912101745605e-01,8.191848993301391602e-01,8.191505074501037598e-01,8.191161751747131348e-01,8.190817832946777344e-01,8.190474510192871094e-01,8.190131187438964844e-01,8.189787268638610840e-01,8.189443945884704590e-01,8.189100623130798340e-01,8.188757300376892090e-01,8.188413977622985840e-01,8.188070654869079590e-01,8.187727332115173340e-01,8.187383413314819336e-01,8.187040686607360840e-01,8.186697363853454590e-01,8.186354637145996094e-01,8.186010718345642090e-01,8.185667991638183594e-01
7.829905152320861816e-01,7.829591631889343262e-01,7.829277515411376953e-01,7.828963994979858398e-01,7.828649878501892090e-01,7.828335762023925781e-01,7.828022241592407227e-01,7.827708125114440918e-01,7.827394604682922363e-01,7.827081084251403809e-01,7.826766967773437500e-01,7.826453447341918945e-01,7.826139330863952637e-01,7.825826406478881836e-01,7.825512290000915527e-01,7.825199365615844727e-01,7.824885249137878418e-01,7.824571728706359863e-01,7.824258208274841309e-01,7.823944687843322754e-01,7.823631763458251953e-01,7.823317646980285645e-01,7.823004722595214844e-01,7.822691202163696289e-01,7.822377681732177734e-01,7.822064757347106934e-01,7.821750640869140625e-01,7.821438312530517578e-01,7.821124196052551270e-01,7.820810675621032715e-01,7.820498347282409668e-01,7.820184826850891113e-01,7.819871902465820312e-01,7.819558382034301758e-01,7.819245457649230957e-01,7.818932533264160156e-01,7.818619012832641602e-01,7.818306088447570801e-01,7.817993164062500000e-01,7.817680239677429199e-01,7.817367315292358398e-01,7.817054390907287598e-01,7.816741466522216797e-01,7.816427946090698242e-01,7.816115617752075195e-01,7.815802693367004395e-01,7.815490365028381348e-01,7.815177440643310547e-01,7.814863920211791992e-01,7.814551591873168945e-01,7.814238667488098145e-01,7.813926339149475098e-01,7.813613414764404297e-01,7.813301086425781250e-01,7.812988162040710449e-01,7.812675237655639648e-01,7.812363505363464355e-01,7.812050580978393555e-01,7.811738252639770508e-01,7.811425328254699707e-01,7.811113595962524414e-01,7.810800671577453613e-01,7.810488343238830566e-01,7.810176014900207520e-01,7.809863686561584473e-01,7.809551358222961426e-01,7.809239029884338379e-01,7.808926105499267578e-01,7.808614373207092285e-01,7.808302044868469238e-01,7.807990312576293945e-01,7.807677388191223145e-01,7.807365655899047852e-01,7.807053327560424805e-01,7.806740999221801758e-01,7.806429266929626465e-01,7.806116938591003418e-01,7.805805206298828125e-01,7.805492877960205078e-01,7.805180549621582031e-01
7.481068372726440430e-01,7.480782270431518555e-01,7.480495572090148926e-01,7.480209469795227051e-01,7.479922175407409668e-01,7.479635477066040039e-01,7.479349374771118164e-01,7.479062676429748535e-01,7.478776574134826660e-01,7.478489875793457031e-01,7.478203177452087402e-01,7.477917671203613281e-01,7.477630972862243652e-01,7.477344870567321777e-01,7.477058172225952148e-01,7.476772069931030273e-01,7.476485967636108398e-01,7.476199269294738770e-01,7.475913166999816895e-01,7.475627064704895020e-01,7.475340962409973145e-01,7.475054860115051270e-01,7.474768757820129395e-01,7.474482655525207520e-01,7.474196553230285645e-01,7.473910450935363770e-01,7.473624348640441895e-01,7.473338842391967773e-01,7.473052144050598145e-01,7.472766041755676270e-01,7.472480535507202148e-01,7.472194433212280273e-01,7.471908926963806152e-01,7.471622824668884277e-01,7.471337318420410156e-01,7.471051216125488281e-01,7.470765113830566406e-01,7.470479607582092285e-01,7.470193505287170410e-01,7.469907999038696289e-01,7.469621896743774414e-01,7.469335794448852539e-01,7.469050884246826172e-01,7.468764781951904297e-01,7.468479275703430176e-01,7.468193769454956055e-01,7.467908263206481934e-01,7.467622160911560059e-01,7.467336654663085938e-01,7.467051148414611816e-01,7.466765642166137695e-01,7.466480731964111328e-01,7.466194629669189453e-01,7.465909719467163086e-01,7.465624213218688965e-01,7.465338110923767090e-01,7.465053200721740723e-01,7.464767694473266602e-01,7.464482784271240234e-01,7.464197278022766113e-01,7.463911175727844238e-01,7.463626265525817871e-01,7.463340759277343750e-01,7.463056445121765137e-01,7.462770938873291016e-01,7.462486028671264648e-01,7.462200522422790527e-01,7.461915016174316406e-01,7.461630105972290039e-01,7.461344599723815918e-01,7.461060285568237305e-01,7.460774779319763184e-01,7.460490465164184570e-01,7.460204958915710449e-01,7.459919452667236328e-01,7.459635138511657715e-01,7.459349632263183594e-01,7.459065318107604980e-01,7.458779811859130859e-01,7.458494901657104492e-01
