5.000000000000000000e+00,5.000000000000000000e+00,5.000000000000000000e+00,5.000000000000000000e+00,5.000000000000000000e+00,5.000000000000000000e+00,5.000000000000000000e+00,5.000000000000000000e+00,5.000000000000000000e+00,5.000000000000000000e+00,5.000000000000000000e+00,5.000000000000000000e+00,5.000000000000000000e+00,5.000000000000000000e+00,5.000000000000000000e+00,5.000000000000000000e+00,5.000000000000000000e+00,5.000000000000000000e+00,5.000000000000000000e+00,5.000000000000000000e+00,5.000000000000000000e+00,5.000000000000000000e+00,5.000000000000000000e+00,5.000000000000000000e+00,5.000000000000000000e+00,5.000000000000000000e+00,5.000000000000000000e+00,5.000000000000000000e+00,5.000000000000000000e+00,1.279898047447204590e+00,1.278109669685363770e+00,1.280853509902954102e+00,1.243107318878173828e+00,1.223980665206909180e+00,1.219504594802856445e+00,1.215065240859985352e+00,1.227968811988830566e+00,1.230950474739074707e+00,1.233946442604064941e+00,1.225002408027648926e+00,1.242045640945434570e+00,1.250310063362121582e+00,1.258685350418090820e+00,1.279286503791809082e+00,1.313155412673950195e+00,1.407228946685791016e+00,1.390835881233215332e+00,1.384811043739318848e+00,1.388463497161865234e+00,3.447962760925292969e+00,3.350836992263793945e+00,3.259033441543579102e+00,3.172126054763793945e+00,3.089733123779296875e+00,3.011512517929077148e+00,2.937154293060302734e+00,2.866379499435424805e+00,2.798935413360595703e+00,2.734591960906982422e+00,2.673140764236450195e+00,2.614390611648559570e+00,2.558167219161987305e+00,2.504311084747314453e+00,2.452675819396972656e+00,2.403126716613769531e+00,2.355540513992309570e+00,2.309801816940307617e+00,2.265805482864379883e+00,2.223453998565673828e+00,2.182656764984130859e+00,2.143329858779907227e+00,2.105394840240478516e+00,2.068779230117797852e+00,2.033415555953979492e+00,1.999240398406982422e+00,1.966195344924926758e+00,1.934224724769592285e+00,1.903277039527893066e+00,1.873304247856140137e+00,1.844260692596435547e+00
5.000000000000000000e+00,5.000000000000000000e+00,5.000000000000000000e+00,5.000000000000000000e+00,5.000000000000000000e+00,5.000000000000000000e+00,5.000000000000000000e+00,5.000000000000000000e+00,5.000000000000000000e+00,5.000000000000000000e+00,5.000000000000000000e+00,5.000000000000000000e+00,5.000000000000000000e+00,5.000000000000000000e+00,5.000000000000000000e+00,5.000000000000000000e+00,5.000000000000000000e+00,5.000000000000000000e+00,5.000000000000000000e+00,5.000000000000000000e+00,5.000000000000000000e+00,5.000000000000000000e+00,5.000000000000000000e+00,5.000000000000000000e+00,5.000000000000000000e+00,5.000000000000000000e+00,5.000000000000000000e+00,5.000000000000000000e+00,5.000000000000000000e+00,1.274420857429504395e+00,1.271383166313171387e+00,1.275874853134155273e+00,1.238011598587036133e+00,1.217325448989868164e+00,1.214729666709899902e+00,1.212091922760009766e+00,1.219105601310729980e+00,1.241924643516540527e+00,1.244974374771118164e+00,1.234667420387268066e+00,1.252454400062561035e+00,1.260858416557312012e+00,1.264815449714660645e+00,1.270228505134582520e+00,1.306405305862426758e+00,1.402806282043457031e+00,1.386842966079711914e+00,1.374619841575622559e+00,1.379304766654968262e+00,3.448032617568969727e+00,3.350903034210205078e+00,3.259095907211303711e+00,3.172185182571411133e+00,3.089789628982543945e+00,3.011565685272216797e+00,2.937205076217651367e+00,2.866427659988403320e+00,2.798981428146362305e+00,2.734636068344116211e+00,2.673182964324951172e+00,2.614430665969848633e+00,2.558205604553222656e+00,2.504347801208496094e+00,2.452711105346679688e+00,2.403160810470581055e+00,2.355572938919067383e+00,2.309833049774169922e+00,2.265835523605346680e+00,2.223483085632324219e+00,2.182684898376464844e+00,2.143356800079345703e+00,2.105420827865600586e+00,2.068804264068603516e+00,2.033439874649047852e+00,1.999264001846313477e+00,1.966218113899230957e+00,1.934246659278869629e+00,1.903298497200012207e+00,1.873324751853942871e+00,1.844280719757080078e+00
5.000000000000000000e+00,5.000000000000000000e+00,5.000000000000000000e+00,5.000000000000000000e+00,5.000000000000000000e+00,5.000000000000000000e+00,5.000000000000000000e+00,5.000000000000000000e+00,5.000000000000000000e+00,5.000000000000000000e+00,5.000000000000000000e+00,5.000000000000000000e+00,5.000000000000000000e+00,5.000000000000000000e+00,5.000000000000000000e+00,5.000000000000000000e+00,5.000000000000000000e+00,5.000000000000000000e+00,5.000000000000000000e+00,5.000000000000000000e+00,5.000000000000000000e+00,5.000000000000000000e+00,5.000000000000000000e+00,5.000000000000000000e+00,5.000000000000000000e+00,5.000000000000000000e+00,5.000000000000000000e+00,5.000000000000000000e+00,5.000000000000000000e+00,1.268990278244018555e+00,1.263919949531555176e+00,1.270934820175170898e+00,1.231433153152465820e+00,1.208198428153991699e+00,1.205472707748413086e+00,1.202838420867919922e+00,1.204910516738891602e+00,1.234787344932556152e+00,1.255562424659729004e+00,1.253805279731750488e+00,1.263039112091064453e+00,1.258851647377014160e+00,1.254843831062316895e+00,1.248907327651977539e+00,1.287153601646423340e+00,1.418559432029724121e+00,1.384895920753479004e+00,1.368353366851806641e+00,1.369683980941772461e+00,1.407183647155761719e+00,3.350968837738037109e+00,3.259158372879028320e+00,3.172244310379028320e+00,3.089845657348632812e+00,3.011619091033935547e+00,2.937255620956420898e+00,2.866476058959960938e+00,2.799027442932128906e+00,2.734680175781250000e+00,2.673224687576293945e+00,2.614470958709716797e+00,2.558243989944458008e+00,2.504384756088256836e+00,2.452746629714965820e+00,2.403194904327392578e+00,2.355605602264404297e+00,2.309864282608032227e+00,2.265865802764892578e+00,2.223512172698974609e+00,2.182712793350219727e+00,2.143383741378784180e+00,2.105446815490722656e+00,2.068829298019409180e+00,2.033464193344116211e+00,1.999287605285644531e+00,1.966240763664245605e+00,1.934268712997436523e+00,1.903319597244262695e+00,1.873345494270324707e+00,1.844300866127014160e+00
5.000000000000000000e+00,5.000000000000000000e+00,5.000000000000000000e+00,5.000000000000000000e+00,5.000000000000000000e+00,5.000000000000000000e+00,5.000000000000000000e+00,5.000000000000000000e+00,5.000000000000000000e+00,5.000000000000000000e+00,5.000000000000000000e+00,5.000000000000000000e+00,5.000000000000000000e+00,5.000000000000000000e+00,5.000000000000000000e+00,5.000000000000000000e+00,5.000000000000000000e+00,5.000000000000000000e+00,5.000000000000000000e+00,5.000000000000000000e+00,5.000000000000000000e+00,5.000000000000000000e+00,5.000000000000000000e+00,5.000000000000000000e+00,5.000000000000000000e+00,5.000000000000000000e+00,5.000000000000000000e+00,5.000000000000000000e+00,5.000000000000000000e+00,1.256973147392272949e+00,1.251989364624023438e+00,1.268718719482421875e+00,1.224398493766784668e+00,1.200997948646545410e+00,1.197432398796081543e+00,1.193887948989868164e+00,1.191186904907226562e+00,1.216941118240356445e+00,1.250550985336303711e+00,1.273545742034912109e+00,1.252943873405456543e+00,1.244243144989013672e+00,1.234993815422058105e+00,1.225881218910217285e+00,1.235590338706970215e+00,1.280187964439392090e+00,1.384783029556274414e+00,1.363395452499389648e+00,1.354022860527038574e+00,1.371114850044250488e+00,3.351034879684448242e+00,3.259220600128173828e+00,3.172303676605224609e+00,3.089901685714721680e+00,3.011672258377075195e+00,2.937306165695190430e+00,2.866524219512939453e+00,2.799073696136474609e+00,2.734724044799804688e+00,2.673266649246215820e+00,2.614511013031005859e+00,2.558282375335693359e+00,2.504421710968017578e+00,2.452781915664672852e+00,2.403228759765625000e+00,2.355638265609741211e+00,2.309895753860473633e+00,2.265895843505859375e+00,2.223541259765625000e+00,2.182740926742553711e+00,2.143410682678222656e+00,2.105472803115844727e+00,2.068854570388793945e+00,2.033488512039184570e+00,1.999310970306396484e+00,1.966263532638549805e+00,1.934290528297424316e+00,1.903340935707092285e+00,1.873366236686706543e+00,1.844320654869079590e+00
5.000000000000000000e+00,5.000000000000000000e+00,5.000000000000000000e+00,5.000000000000000000e+00,5.000000000000000000e+00,5.000000000000000000e+00,5.000000000000000000e+00,5.000000000000000000e+00,5.000000000000000000e+00,5.000000000000000000e+00,5.000000000000000000e+00,5.000000000000000000e+00,5.000000000000000000e+00,5.000000000000000000e+00,5.000000000000000000e+00,5.000000000000000000e+00,5.000000000000000000e+00,5.000000000000000000e+00,5.000000000000000000e+00,5.000000000000000000e+00,5.000000000000000000e+00,5.000000000000000000e+00,5.000000000000000000e+00,5.000000000000000000e+00,5.000000000000000000e+00,5.000000000000000000e+00,5.000000000000000000e+00,5.000000000000000000e+00,5.000000000000000000e+00,1.247923851013183594e+00,1.242981910705566406e+00,1.260333180427551270e+00,1.222805142402648926e+00,1.199544906616210938e+00,1.195760369300842285e+00,1.192124128341674805e+00,1.188611030578613281e+00,1.202146649360656738e+00,1.230992674827575684e+00,1.271575570106506348e+00,1.238841891288757324e+00,1.226268172264099121e+00,1.219705581665039062e+00,1.215419411659240723e+00,1.217007517814636230e+00,1.251397728919982910e+00,1.402281045913696289e+00,1.361890554428100586e+00,1.344337344169616699e+00,1.348423719406127930e+00,3.351100683212280273e+00,3.259283304214477539e+00,3.172362565994262695e+00,3.089957714080810547e+00,3.011725425720214844e+00,2.937356948852539062e+00,2.866572856903076172e+00,2.799119710922241211e+00,2.734767913818359375e+00,2.673308610916137695e+00,2.614551067352294922e+00,2.558320760726928711e+00,2.504458427429199219e+00,2.452817201614379883e+00,2.403262615203857422e+00,2.355670690536499023e+00,2.309926986694335938e+00,2.265926122665405273e+00,2.223570346832275391e+00,2.182768821716308594e+00,2.143437623977661133e+00,2.105499029159545898e+00,2.068879842758178711e+00,2.033512830734252930e+00,1.999334573745727539e+00,1.966286182403564453e+00,1.934312582015991211e+00,1.903362154960632324e+00,1.873386740684509277e+00,1.844340801239013672e+00
5.000000000000000000e+00,5.000000000000000000e+00,5.000000000000000000e+00,5.000000000000000000e+00,5.000000000000000000e+00,5.000000000000000000e+00,5.000000000000000000e+00,5.000000000000000000e+00,5.000000000000000000e+00,5.000000000000000000e+00,5.000000000000000000e+00,5.000000000000000000e+00,5.000000000000000000e+00,5.000000000000000000e+00,5.000000000000000000e+00,5.000000000000000000e+00,5.000000000000000000e+00,5.000000000000000000e+00,5.000000000000000000e+00,5.000000000000000000e+00,5.000000000000000000e+00,5.000000000000000000e+00,5.000000000000000000e+00,5.000000000000000000e+00,5.000000000000000000e+00,5.000000000000000000e+00,5.000000000000000000e+00,5.000000000000000000e+00,5.000000000000000000e+00,1.238847017288208008e+00,1.234277606010437012e+00,1.258651614189147949e+00,1.216465234756469727e+00,1.198104977607727051e+00,1.194329500198364258e+00,1.190577745437622070e+00,1.186862707138061523e+00,1.196776628494262695e+00,1.219741344451904297e+00,1.268673419952392578e+00,1.236090779304504395e+00,1.217531085014343262e+00,1.213045597076416016e+00,1.208593010902404785e+00,1.204417586326599121e+00,1.236472010612487793e+00,1.272897005081176758e+00,1.368052721023559570e+00,1.346631288528442383e+00,1.355805039405822754e+00,3.351166963577270508e+00,3.259345769882202148e+00,3.172421693801879883e+00,3.090013742446899414e+00,3.011778831481933594e+00,2.937407732009887695e+00,2.866621017456054688e+00,2.799165725708007812e+00,2.734811782836914062e+00,2.673350572586059570e+00,2.614591360092163086e+00,2.558359384536743164e+00,2.504495382308959961e+00,2.452852487564086914e+00,2.403296470642089844e+00,2.355703353881835938e+00,2.309958457946777344e+00,2.265956401824951172e+00,2.223599433898925781e+00,2.182796716690063477e+00,2.143464565277099609e+00,2.105525016784667969e+00,2.068904876708984375e+00,2.033537149429321289e+00,1.999357819557189941e+00,1.966308951377868652e+00,1.934334516525268555e+00,1.903383493423461914e+00,1.873407363891601562e+00,1.844360709190368652e+00
5.000000000000000000e+00,5.000000000000000000e+00,5.000000000000000000e+00,5.000000000000000000e+00,5.000000000000000000e+00,5.000000000000000000e+00,5.000000000000000000e+00,5.000000000000000000e+00,5.000000000000000000e+00,5.000000000000000000e+00,5.000000000000000000e+00,5.000000000000000000e+00,5.000000000000000000e+00,5.000000000000000000e+00,5.000000000000000000e+00,5.000000000000000000e+00,5.000000000000000000e+00,5.000000000000000000e+00,5.000000000000000000e+00,5.000000000000000000e+00,5.000000000000000000e+00,5.000000000000000000e+00,5.000000000000000000e+00,5.000000000000000000e+00,5.000000000000000000e+00,5.000000000000000000e+00,5.000000000000000000e+00,5.000000000000000000e+00,5.000000000000000000e+00,1.249832510948181152e+00,1.249091029167175293e+00,1.269743680953979492e+00,1.213378429412841797e+00,1.197659373283386230e+00,1.193875551223754883e+00,1.190115571022033691e+00,1.186379075050354004e+00,1.193651795387268066e+00,1.216333508491516113e+00,1.267339944839477539e+00,1.237109422683715820e+00,1.212317466735839844e+00,1.208207964897155762e+00,1.204577326774597168e+00,1.200968503952026367e+00,1.224863290786743164e+00,1.258850932121276855e+00,1.386026620864868164e+00,1.346395730972290039e+00,1.342501044273376465e+00,3.351233005523681641e+00,3.259407997131347656e+00,3.172480821609497070e+00,3.090069770812988281e+00,3.011831998825073242e+00,2.937458515167236328e+00,2.866669178009033203e+00,2.799211502075195312e+00,2.734855651855468750e+00,2.673392534255981445e+00,2.614631652832031250e+00,2.558398008346557617e+00,2.504532098770141602e+00,2.452888011932373047e+00,2.403330326080322266e+00,2.355736017227172852e+00,2.309989929199218750e+00,2.265986442565917969e+00,2.223628282546997070e+00,2.182824850082397461e+00,2.143491744995117188e+00,2.105551004409790039e+00,2.068930149078369141e+00,2.033561229705810547e+00,1.999381422996520996e+00,1.966331481933593750e+00,1.934356570243835449e+00,1.903404951095581055e+00,1.873427867889404297e+00,1.844380736351013184e+00
5.000000000000000000e+00,5.000000000000000000e+00,5.000000000000000000e+00,5.000000000000000000e+00,5.000000000000000000e+00,5.000000000000000000e+00,5.000000000000000000e+00,5.000000000000000000e+00,5.000000000000000000e+00,5.000000000000000000e+00,5.000000000000000000e+00,5.000000000000000000e+00,5.000000000000000000e+00,5.000000000000000000e+00,5.000000000000000000e+00,5.000000000000000000e+00,5.000000000000000000e+00,5.000000000000000000e+00,5.000000000000000000e+00,5.000000000000000000e+00,5.000000000000000000e+00,5.000000000000000000e+00,5.000000000000000000e+00,5.000000000000000000e+00,5.000000000000000000e+00,5.000000000000000000e+00,5.000000000000000000e+00,5.000000000000000000e+00,5.000000000000000000e+00,1.238820195198059082e+00,1.234627842903137207e+00,5.000000000000000000e+00,1.223737478256225586e+00,1.198242425918579102e+00,1.194020032882690430e+00,1.190259099006652832e+00,1.186521768569946289e+00,1.192822575569152832e+00,1.214524030685424805e+00,1.266532421112060547e+00,1.238292813301086426e+00,1.209631443023681641e+00,1.204737186431884766e+00,1.201127290725708008e+00,1.197539091110229492e+00,1.214472293853759766e+00,1.247877955436706543e+00,3.660695314407348633e+00,1.310490012168884277e+00,1.315610408782958984e+00,3.351299047470092773e+00,3.259470462799072266e+00,3.172539949417114258e+00,3.090125799179077148e+00,3.011885643005371094e+00,2.937509059906005859e+00,2.866717576980590820e+00,2.799257516860961914e+00,2.734899520874023438e+00,2.673434734344482422e+00,2.614671707153320312e+00,2.558436393737792969e+00,2.504569053649902344e+00,2.452923297882080078e+00,2.403364419937133789e+00,2.355768680572509766e+00,2.310021162033081055e+00,2.266016721725463867e+00,2.223657369613647461e+00,2.182852745056152344e+00,2.143518686294555664e+00,2.105577230453491211e+00,2.068955183029174805e+00,2.033585548400878906e+00,1.999404788017272949e+00,1.966354370117187500e+00,1.934378623962402344e+00,1.903426051139831543e+00,1.873448610305786133e+00,1.844400644302368164e+00
5.000000000000000000e+00,5.000000000000000000e+00,5.000000000000000000e+00,5.000000000000000000e+00,5.000000000000000000e+00,5.000000000000000000e+00,5.000000000000000000e+00,5.000000000000000000e+00,5.000000000000000000e+00,5.000000000000000000e+00,5.000000000000000000e+00,5.000000000000000000e+00,5.000000000000000000e+00,5.000000000000000000e+00,5.000000000000000000e+00,5.000000000000000000e+00,5.000000000000000000e+00,5.000000000000000000e+00,5.000000000000000000e+00,5.000000000000000000e+00,5.000000000000000000e+00,5.000000000000000000e+00,5.000000000000000000e+00,5.000000000000000000e+00,5.000000000000000000e+00,5.000000000000000000e+00,5.000000000000000000e+00,5.000000000000000000e+00,5.000000000000000000e+00,1.219416499137878418e+00,1.216851115226745605e+00,1.217497944831848145e+00,1.234274864196777344e+00,1.199213027954101562e+00,1.194359064102172852e+00,1.190402626991271973e+00,1.186664462089538574e+00,1.191994667053222656e+00,1.213665485382080078e+00,1.277549624443054199e+00,1.238943219184875488e+00,1.209888458251953125e+00,1.200021266937255859e+00,1.197697043418884277e+00,1.194129228591918945e+00,1.204256296157836914e+00,1.238075733184814453e+00,3.660773992538452148e+00,1.295253276824951172e+00,1.313097715377807617e+00,1.306657671928405762e+00,3.259532690048217773e+00,3.172599077224731445e+00,3.090182304382324219e+00,3.011938810348510742e+00,2.937559843063354492e+00,2.866765737533569336e+00,2.799303531646728516e+00,2.734943866729736328e+00,2.673476696014404297e+00,2.614711761474609375e+00,2.558474779129028320e+00,2.504605770111083984e+00,2.452958583831787109e+00,2.403398513793945312e+00,2.355801343917846680e+00,2.310052394866943359e+00,2.266046762466430664e+00,2.223686456680297852e+00,2.182880878448486328e+00,2.143545627593994141e+00,2.105603218078613281e+00,2.068980216979980469e+00,2.033609867095947266e+00,1.999428391456604004e+00,1.966377139091491699e+00,1.934400439262390137e+00,1.903447389602661133e+00,1.873469114303588867e+00,1.844420671463012695e+00
5.000000000000000000e+00,5.000000000000000000e+00,5.000000000000000000e+00,5.000000000000000000e+00,5.000000000000000000e+00,5.000000000000000000e+00,5.000000000000000000e+00,5.000000000000000000e+00,5.000000000000000000e+00,5.000000000000000000e+00,5.000000000000000000e+00,5.000000000000000000e+00,5.000000000000000000e+00,5.000000000000000000e+00,5.000000000000000000e+00,5.000000000000000000e+00,5.000000000000000000e+00,5.000000000000000000e+00,5.000000000000000000e+00,5.000000000000000000e+00,5.000000000000000000e+00,5.000000000000000000e+00,5.000000000000000000e+00,5.000000000000000000e+00,5.000000000000000000e+00,5.000000000000000000e+00,5.000000000000000000e+00,5.000000000000000000e+00,5.000000000000000000e+00,1.205404520034790039e+00,1.217613577842712402e+00,1.204723358154296875e+00,1.244995474815368652e+00,1.200185179710388184e+00,1.195323348045349121e+00,1.190546274185180664e+00,1.186807155609130859e+00,1.191167712211608887e+00,1.212594628334045410e+00,1.289556503295898438e+00,1.239291548728942871e+00,1.210145473480224609e+00,1.194813132286071777e+00,1.192944049835205078e+00,1.190738677978515625e+00,1.194210529327392578e+00,1.229049444198608398e+00,3.660853147506713867e+00,1.288473248481750488e+00,1.320490956306457520e+00,1.291903495788574219e+00,3.259595155715942383e+00,3.172658443450927734e+00,3.090238332748413086e+00,3.011991977691650391e+00,2.937610387802124023e+00,2.866813898086547852e+00,2.799349546432495117e+00,2.734987735748291016e+00,2.673518657684326172e+00,2.614752054214477539e+00,2.558513164520263672e+00,2.504642724990844727e+00,2.452994108200073242e+00,2.403432369232177734e+00,2.355833768844604492e+00,2.310083866119384766e+00,2.266077041625976562e+00,2.223715543746948242e+00,2.182908773422241211e+00,2.143572807312011719e+00,2.105629205703735352e+00,2.069005489349365234e+00,2.033634185791015625e+00,1.999451994895935059e+00,1.966399788856506348e+00,1.934422612190246582e+00,1.903468608856201172e+00,1.873489856719970703e+00,1.844440698623657227e+00
5.000000000000000000e+00,5.000000000000000000e+00,5.000000000000000000e+00,5.000000000000000000e+00,5.000000000000000000e+00,5.000000000000000000e+00,5.000000000000000000e+00,5.000000000000000000e+00,5.000000000000000000e+00,5.000000000000000000e+00,5.000000000000000000e+00,5.000000000000000000e+00,5.000000000000000000e+00,5.000000000000000000e+00,5.000000000000000000e+00,5.000000000000000000e+00,5.000000000000000000e+00,5.000000000000000000e+00,5.000000000000000000e+00,5.000000000000000000e+00,5.000000000000000000e+00,5.000000000000000000e+00,5.000000000000000000e+00,5.000000000000000000e+00,5.000000000000000000e+00,5.000000000000000000e+00,5.000000000000000000e+00,5.000000000000000000e+00,1.239888191223144531e+00,1.197424173355102539e+00,5.000000000000000000e+00,1.197024583816528320e+00,1.264657974243164062e+00,1.209144830703735352e+00,1.196289300918579102e+00,1.191458821296691895e+00,1.186949729919433594e+00,1.190341949462890625e+00,1.210469841957092285e+00,1.230158567428588867e+00,1.239639997482299805e+00,1.210402727127075195e+00,1.189649939537048340e+00,1.187796950340270996e+00,1.185949802398681641e+00,1.184331178665161133e+00,1.220153808593750000e+00,3.660931825637817383e+00,3.551627635955810547e+00,3.448661088943481445e+00,1.279479146003723145e+00,3.259657859802246094e+00,3.172717571258544922e+00,3.090294361114501953e+00,3.012045383453369141e+00,2.937661170959472656e+00,2.866862297058105469e+00,2.799395799636840820e+00,2.735031604766845703e+00,2.673560619354248047e+00,2.614792108535766602e+00,2.558551549911499023e+00,2.504679679870605469e+00,2.453029394149780273e+00,2.403466224670410156e+00,2.355866432189941406e+00,2.310115098953247070e+00,2.266107320785522461e+00,2.223744630813598633e+00,2.182936906814575195e+00,2.143599748611450195e+00,2.105655193328857422e+00,2.069030523300170898e+00,2.033658504486083984e+00,1.999475359916687012e+00,1.966422557830810547e+00,1.934444427490234375e+00,1.903489947319030762e+00,1.873510599136352539e+00,1.844460606575012207e+00
5.000000000000000000e+00,5.000000000000000000e+00,5.000000000000000000e+00,5.000000000000000000e+00,5.000000000000000000e+00,5.000000000000000000e+00,5.000000000000000000e+00,5.000000000000000000e+00,5.000000000000000000e+00,5.000000000000000000e+00,5.000000000000000000e+00,5.000000000000000000e+00,5.000000000000000000e+00,5.000000000000000000e+00,5.000000000000000000e+00,5.000000000000000000e+00,5.000000000000000000e+00,5.000000000000000000e+00,5.000000000000000000e+00,5.000000000000000000e+00,5.000000000000000000e+00,5.000000000000000000e+00,5.000000000000000000e+00,5.000000000000000000e+00,5.000000000000000000e+00,5.000000000000000000e+00,5.000000000000000000e+00,5.000000000000000000e+00,1.240743637084960938e+00,1.185484647750854492e+00,5.000000000000000000e+00,1.194587826728820801e+00,1.295479297637939453e+00,1.220000624656677246e+00,1.197256684303283691e+00,1.192418336868286133e+00,1.187619090080261230e+00,1.189350366592407227e+00,1.208352446556091309e+00,1.227971792221069336e+00,1.239988803863525391e+00,1.210660099983215332e+00,1.184640526771545410e+00,1.183209896087646484e+00,1.181782722473144531e+00,1.180358886718750000e+00,1.209941267967224121e+00,3.661010503768920898e+00,3.551701784133911133e+00,3.448730945587158203e+00,1.280162334442138672e+00,1.307453036308288574e+00,3.172776699066162109e+00,3.090350389480590820e+00,3.012098550796508789e+00,2.937711715698242188e+00,2.866910696029663086e+00,2.799441814422607422e+00,2.735075473785400391e+00,2.673602581024169922e+00,2.614832401275634766e+00,2.558590173721313477e+00,2.504716396331787109e+00,2.453064680099487305e+00,2.403500080108642578e+00,2.355899095535278320e+00,2.310146570205688477e+00,2.266137361526489258e+00,2.223773717880249023e+00,2.182964801788330078e+00,2.143626689910888672e+00,2.105681180953979492e+00,2.069055795669555664e+00,2.033682823181152344e+00,1.999498963356018066e+00,1.966445088386535645e+00,1.934466481208801270e+00,1.903511404991149902e+00,1.873531103134155273e+00,1.844480752944946289e+00
5.000000000000000000e+00,5.000000000000000000e+00,5.000000000000000000e+00,5.000000000000000000e+00,5.000000000000000000e+00,5.000000000000000000e+00,5.000000000000000000e+00,5.000000000000000000e+00,5.000000000000000000e+00,5.000000000000000000e+00,5.000000000000000000e+00,5.000000000000000000e+00,5.000000000000000000e+00,5.000000000000000000e+00,5.000000000000000000e+00,5.000000000000000000e+00,5.000000000000000000e+00,5.000000000000000000e+00,5.000000000000000000e+00,5.000000000000000000e+00,5.000000000000000000e+00,5.000000000000000000e+00,5.000000000000000000e+00,5.000000000000000000e+00,5.000000000000000000e+00,5.000000000000000000e+00,5.000000000000000000e+00,5.000000000000000000e+00,1.233577132225036621e+00,1.176658749580383301e+00,5.000000000000000000e+00,5.000000000000000000e+00,5.000000000000000000e+00,1.231053113937377930e+00,1.196915626525878906e+00,1.191972613334655762e+00,1.187070250511169434e+00,1.187429308891296387e+00,1.206292748451232910e+00,1.225792884826660156e+00,1.240337610244750977e+00,1.210344314575195312e+00,1.182647943496704102e+00,1.179718732833862305e+00,1.178299784660339355e+00,1.176884412765502930e+00,1.197311162948608398e+00,3.661089181900024414e+00,3.551775932312011719e+00,3.448800802230834961e+00,1.371078252792358398e+00,1.293780446052551270e+00,3.172835826873779297e+00,3.090406417846679688e+00,3.012151956558227539e+00,2.937762737274169922e+00,2.866959095001220703e+00,2.799487829208374023e+00,2.735119342803955078e+00,2.673644542694091797e+00,2.614872694015502930e+00,2.558628797531127930e+00,2.504753351211547852e+00,2.453099966049194336e+00,2.403534173965454102e+00,2.355931520462036133e+00,2.310178041458129883e+00,2.266167640686035156e+00,2.223802804946899414e+00,2.182992696762084961e+00,2.143653631210327148e+00,2.105707406997680664e+00,2.069081068038940430e+00,2.033707141876220703e+00,1.999522328376770020e+00,1.966467976570129395e+00,1.934488654136657715e+00,1.903532505035400391e+00,1.873551726341247559e+00,1.844500541687011719e+00
5.000000000000000000e+00,5.000000000000000000e+00,5.000000000000000000e+00,5.000000000000000000e+00,5.000000000000000000e+00,5.000000000000000000e+00,5.000000000000000000e+00,5.000000000000000000e+00,5.000000000000000000e+00,5.000000000000000000e+00,5.000000000000000000e+00,5.000000000000000000e+00,5.000000000000000000e+00,5.000000000000000000e+00,5.000000000000000000e+00,5.000000000000000000e+00,5.000000000000000000e+00,5.000000000000000000e+00,5.000000000000000000e+00,5.000000000000000000e+00,5.000000000000000000e+00,5.000000000000000000e+00,5.000000000000000000e+00,5.000000000000000000e+00,5.000000000000000000e+00,5.000000000000000000e+00,5.000000000000000000e+00,5.000000000000000000e+00,1.202377915382385254e+00,1.176588535308837891e+00,5.000000000000000000e+00,5.000000000000000000e+00,5.000000000000000000e+00,1.243331909179687500e+00,1.197989463806152344e+00,1.190518140792846680e+00,1.185627579689025879e+00,1.185603857040405273e+00,1.204408884048461914e+00,1.222973823547363281e+00,1.243916392326354980e+00,1.208178162574768066e+00,1.182007074356079102e+00,1.174505591392517090e+00,1.174837470054626465e+00,1.173430323600769043e+00,1.184942245483398438e+00,3.661167860031127930e+00,3.551849842071533203e+00,3.448871135711669922e+00,3.351695060729980469e+00,3.259845018386840820e+00,3.172894716262817383e+00,3.090462684631347656e+00,3.012205362319946289e+00,2.937813520431518555e+00,2.867007255554199219e+00,2.799533843994140625e+00,2.735163450241088867e+00,2.673686504364013672e+00,2.614912748336791992e+00,2.558667182922363281e+00,2.504790067672729492e+00,2.453135490417480469e+00,2.403568029403686523e+00,2.355964422225952148e+00,2.310209274291992188e+00,2.266197681427001953e+00,2.223831653594970703e+00,2.183020830154418945e+00,2.143680810928344727e+00,2.105733394622802734e+00,2.069106101989746094e+00,2.033731460571289062e+00,1.999545812606811523e+00,1.966490507125854492e+00,1.934510469436645508e+00,1.903553962707519531e+00,1.873572230339050293e+00,1.844520688056945801e+00
5.000000000000000000e+00,5.000000000000000000e+00,5.000000000000000000e+00,5.000000000000000000e+00,5.000000000000000000e+00,5.000000000000000000e+00,5.000000000000000000e+00,5.000000000000000000e+00,5.000000000000000000e+00,5.000000000000000000e+00,5.000000000000000000e+00,5.000000000000000000e+00,5.000000000000000000e+00,5.000000000000000000e+00,5.000000000000000000e+00,5.000000000000000000e+00,5.000000000000000000e+00,5.000000000000000000e+00,5.000000000000000000e+00,5.000000000000000000e+00,5.000000000000000000e+00,5.000000000000000000e+00,5.000000000000000000e+00,5.000000000000000000e+00,5.000000000000000000e+00,5.000000000000000000e+00,5.000000000000000000e+00,5.000000000000000000e+00,1.191896677017211914e+00,5.000000000000000000e+00,5.000000000000000000e+00,5.000000000000000000e+00,5.000000000000000000e+00,1.263708353042602539e+00,1.205326437950134277e+00,1.189067125320434570e+00,1.184188485145568848e+00,1.183784008026123047e+00,1.202530980110168457e+00,1.219259619712829590e+00,1.259944915771484375e+00,1.206019759178161621e+00,1.181366920471191406e+00,1.168581604957580566e+00,1.170276403427124023e+00,1.169996261596679688e+00,1.172826170921325684e+00,3.661246538162231445e+00,3.551924228668212891e+00,3.448940753936767578e+00,3.351760864257812500e+00,3.259907484054565430e+00,3.172953844070434570e+00,3.090518951416015625e+00,3.012258768081665039e+00,2.937864065170288086e+00,2.867055416107177734e+00,2.799579858779907227e+00,2.735207319259643555e+00,2.673728704452514648e+00,2.614953041076660156e+00,2.558705568313598633e+00,2.504827022552490234e+00,2.453170776367187500e+00,2.403602123260498047e+00,2.355996847152709961e+00,2.310240745544433594e+00,2.266227960586547852e+00,2.223860740661621094e+00,2.183048963546752930e+00,2.143707752227783203e+00,2.105759382247924805e+00,2.069131135940551758e+00,2.033755779266357422e+00,1.999569177627563477e+00,1.966513395309448242e+00,1.934532523155212402e+00,1.903575062751770020e+00,1.873592972755432129e+00,1.844540476799011230e+00
5.000000000000000000e+00,5.000000000000000000e+00,5.000000000000000000e+00,5.000000000000000000e+00,5.000000000000000000e+00,5.000000000000000000e+00,5.000000000000000000e+00,5.000000000000000000e+00,5.000000000000000000e+00,5.000000000000000000e+00,5.000000000000000000e+00,5.000000000000000000e+00,5.000000000000000000e+00,5.000000000000000000e+00,5.000000000000000000e+00,5.000000000000000000e+00,5.000000000000000000e+00,5.000000000000000000e+00,5.000000000000000000e+00,5.000000000000000000e+00,5.000000000000000000e+00,5.000000000000000000e+00,5.000000000000000000e+00,5.000000000000000000e+00,5.000000000000000000e+00,5.000000000000000000e+00,5.000000000000000000e+00,5.000000000000000000e+00,5.000000000000000000e+00,5.000000000000000000e+00,5.000000000000000000e+00,5.000000000000000000e+00,5.000000000000000000e+00,1.290176630020141602e+00,1.218876242637634277e+00,1.191088676452636719e+00,1.182752966880798340e+00,1.181969761848449707e+00,1.200263142585754395e+00,1.215567946434020996e+00,4.666805744171142578e+00,1.203869104385375977e+00,1.180727362632751465e+00,1.162716984748840332e+00,1.164394736289978027e+00,1.166077375411987305e+00,1.165195107460021973e+00,1.211595654487609863e+00,3.551998376846313477e+00,3.449010610580444336e+00,3.351826906204223633e+00,3.259969711303710938e+00,3.173012971878051758e+00,3.090574979782104492e+00,3.012311935424804688e+00,2.937914848327636719e+00,2.867103815078735352e+00,2.799625873565673828e+00,2.735251426696777344e+00,2.673770666122436523e+00,2.614993095397949219e+00,2.558743953704833984e+00,2.504863739013671875e+00,2.453206300735473633e+00,2.403635978698730469e+00,2.356029510498046875e+00,2.310271978378295898e+00,2.266258001327514648e+00,2.223889827728271484e+00,2.183076858520507812e+00,2.143734693527221680e+00,2.105785608291625977e+00,2.069156408309936523e+00,2.033779859542846680e+00,1.999592781066894531e+00,1.966536164283752441e+00,1.934554457664489746e+00,1.903596401214599609e+00,1.873613476753234863e+00,1.844560623168945312e+00
5.000000000000000000e+00,5.000000000000000000e+00,5.000000000000000000e+00,5.000000000000000000e+00,5.000000000000000000e+00,5.000000000000000000e+00,5.000000000000000000e+00,5.000000000000000000e+00,5.000000000000000000e+00,5.000000000000000000e+00,5.000000000000000000e+00,5.000000000000000000e+00,5.000000000000000000e+00,5.000000000000000000e+00,5.000000000000000000e+00,5.000000000000000000e+00,5.000000000000000000e+00,5.000000000000000000e+00,5.000000000000000000e+00,5.000000000000000000e+00,5.000000000000000000e+00,5.000000000000000000e+00,5.000000000000000000e+00,5.000000000000000000e+00,5.000000000000000000e+00,5.000000000000000000e+00,5.000000000000000000e+00,5.000000000000000000e+00,5.000000000000000000e+00,5.000000000000000000e+00,5.000000000000000000e+00,5.000000000000000000e+00,5.000000000000000000e+00,5.000000000000000000e+00,1.231077432632446289e+00,1.193388342857360840e+00,1.182002305984497070e+00,1.180160999298095703e+00,1.196685433387756348e+00,1.211898565292358398e+00,4.666933536529541016e+00,1.201725959777832031e+00,1.180088639259338379e+00,1.161784529685974121e+00,1.158571958541870117e+00,1.160237669944763184e+00,1.161809206008911133e+00,1.200572490692138672e+00,3.552072525024414062e+00,3.449080467224121094e+00,3.351892948150634766e+00,3.260032176971435547e+00,3.173072338104248047e+00,3.090631008148193359e+00,3.012365102767944336e+00,2.937965393066406250e+00,2.867151975631713867e+00,2.799672126770019531e+00,2.735295295715332031e+00,2.673812627792358398e+00,2.615033149719238281e+00,2.558782339096069336e+00,2.504900932312011719e+00,2.453241586685180664e+00,2.403669834136962891e+00,2.356062173843383789e+00,2.310303211212158203e+00,2.266288280487060547e+00,2.223918914794921875e+00,2.183104753494262695e+00,2.143761634826660156e+00,2.105811595916748047e+00,2.069181442260742188e+00,2.033804416656494141e+00,1.999616384506225586e+00,1.966558814048767090e+00,1.934576511383056641e+00,1.903617620468139648e+00,1.873634219169616699e+00,1.844580650329589844e+00
5.000000000000000000e+00,5.000000000000000000e+00,5.000000000000000000e+00,5.000000000000000000e+00,5.000000000000000000e+00,5.000000000000000000e+00,5.000000000000000000e+00,5.000000000000000000e+00,5.000000000000000000e+00,5.000000000000000000e+00,5.000000000000000000e+00,5.000000000000000000e+00,5.000000000000000000e+00,5.000000000000000000e+00,5.000000000000000000e+00,5.000000000000000000e+00,5.000000000000000000e+00,5.000000000000000000e+00,5.000000000000000000e+00,5.000000000000000000e+00,5.000000000000000000e+00,5.000000000000000000e+00,5.000000000000000000e+00,5.000000000000000000e+00,5.000000000000000000e+00,5.000000000000000000e+00,5.000000000000000000e+00,5.000000000000000000e+00,5.000000000000000000e+00,5.000000000000000000e+00,5.000000000000000000e+00,5.000000000000000000e+00,5.000000000000000000e+00,5.000000000000000000e+00,1.245042681694030762e+00,1.195696830749511719e+00,1.184266924858093262e+00,1.178357958793640137e+00,1.193129062652587891e+00,1.208251357078552246e+00,4.667061805725097656e+00,1.200482845306396484e+00,1.179450511932373047e+00,1.161172270774841309e+00,1.154208898544311523e+00,1.156359314918518066e+00,1.158517599105834961e+00,1.191347241401672363e+00,3.552146434783935547e+00,3.449150323867797852e+00,3.351958751678466797e+00,3.260094881057739258e+00,3.173131465911865234e+00,3.090687274932861328e+00,3.012418508529663086e+00,2.938016176223754883e+00,2.867200613021850586e+00,2.799718141555786133e+00,2.735339403152465820e+00,2.673854589462280273e+00,2.615073442459106445e+00,2.558820962905883789e+00,2.504937648773193359e+00,2.453276872634887695e+00,2.403703927993774414e+00,2.356094598770141602e+00,2.310334682464599609e+00,2.266318559646606445e+00,2.223948001861572266e+00,2.183132886886596680e+00,2.143788576126098633e+00,2.105837583541870117e+00,2.069206714630126953e+00,2.033828735351562500e+00,1.999639749526977539e+00,1.966581583023071289e+00,1.934598326683044434e+00,1.903638958930969238e+00,1.873654961585998535e+00,1.844600558280944824e+00
5.000000000000000000e+00,5.000000000000000000e+00,5.000000000000000000e+00,5.000000000000000000e+00,5.000000000000000000e+00,5.000000000000000000e+00,5.000000000000000000e+00,5.000000000000000000e+00,5.000000000000000000e+00,5.000000000000000000e+00,5.000000000000000000e+00,5.000000000000000000e+00,5.000000000000000000e+00,5.000000000000000000e+00,5.000000000000000000e+00,5.000000000000000000e+00,5.000000000000000000e+00,5.000000000000000000e+00,5.000000000000000000e+00,5.000000000000000000e+00,5.000000000000000000e+00,5.000000000000000000e+00,5.000000000000000000e+00,5.000000000000000000e+00,5.000000000000000000e+00,5.000000000000000000e+00,5.000000000000000000e+00,5.000000000000000000e+00,5.000000000000000000e+00,5.000000000000000000e+00,5.000000000000000000e+00,5.000000000000000000e+00,5.000000000000000000e+00,5.000000000000000000e+00,1.263827800750732422e+00,1.200780034065246582e+00,1.185714125633239746e+00,1.177624821662902832e+00,1.191977977752685547e+00,1.206031203269958496e+00,4.667189598083496094e+00,4.490986347198486328e+00,1.178897500038146973e+00,1.162946701049804688e+00,1.155294179916381836e+00,1.158111333847045898e+00,1.160282254219055176e+00,3.661561727523803711e+00,3.552220582962036133e+00,3.449220180511474609e+00,3.352025032043457031e+00,3.260157346725463867e+00,3.173190593719482422e+00,3.090743303298950195e+00,3.012471675872802734e+00,2.938066959381103516e+00,2.867248773574829102e+00,2.799764156341552734e+00,2.735383272171020508e+00,2.673896789550781250e+00,2.615113496780395508e+00,2.558859586715698242e+00,2.504974603652954102e+00,2.453312158584594727e+00,2.403737783432006836e+00,2.356127262115478516e+00,2.310366153717041016e+00,2.266348600387573242e+00,2.223977088928222656e+00,2.183160781860351562e+00,2.143815755844116211e+00,2.105863809585571289e+00,2.069231986999511719e+00,2.033853054046630859e+00,1.999663352966308594e+00,1.966604232788085938e+00,1.934620380401611328e+00,1.903660416603088379e+00,1.873675465583801270e+00,1.844620585441589355e+00
5.000000000000000000e+00,5.000000000000000000e+00,5.000000000000000000e+00,5.000000000000000000e+00,5.000000000000000000e+00,5.000000000000000000e+00,5.000000000000000000e+00,5.000000000000000000e+00,5.000000000000000000e+00,5.000000000000000000e+00,5.000000000000000000e+00,5.000000000000000000e+00,5.000000000000000000e+00,5.000000000000000000e+00,5.000000000000000000e+00,5.000000000000000000e+00,5.000000000000000000e+00,5.000000000000000000e+00,5.000000000000000000e+00,5.000000000000000000e+00,5.000000000000000000e+00,5.000000000000000000e+00,5.000000000000000000e+00,5.000000000000000000e+00,5.000000000000000000e+00,5.000000000000000000e+00,5.000000000000000000e+00,5.000000000000000000e+00,5.000000000000000000e+00,5.000000000000000000e+00,5.000000000000000000e+00,5.000000000000000000e+00,5.000000000000000000e+00,5.000000000000000000e+00,1.279211282730102539e+00,1.215511202812194824e+00,1.189722776412963867e+00,1.178088665008544922e+00,1.191202282905578613e+00,1.204664111137390137e+00,4.667317867279052734e+00,4.491105079650878906e+00,1.183400988578796387e+00,1.165636539459228516e+00,1.156166911125183105e+00,1.158988356590270996e+00,1.161823749542236328e+00,3.661640644073486328e+00,3.552294731140136719e+00,3.449290513992309570e+00,3.352091073989868164e+00,3.260219812393188477e+00,3.173249721527099609e+00,3.090799331665039062e+00,3.012525081634521484e+00,2.938117742538452148e+00,2.867297172546386719e+00,2.799810171127319336e+00,2.735427141189575195e+00,2.673938751220703125e+00,2.615153789520263672e+00,2.558897972106933594e+00,2.505011320114135742e+00,2.453347444534301758e+00,2.403771638870239258e+00,2.356159925460815430e+00,2.310397386550903320e+00,2.266378879547119141e+00,2.224006175994873047e+00,2.183188915252685547e+00,2.143842697143554688e+00,2.105889797210693359e+00,2.069257020950317383e+00,2.033877134323120117e+00,1.999686717987060547e+00,1.966627001762390137e+00,1.934642553329467773e+00,1.903681516647338867e+00,1.873696088790893555e+00,1.844640493392944336e+00
5.000000000000000000e+00,5.000000000000000000e+00,5.000000000000000000e+00,5.000000000000000000e+00,5.000000000000000000e+00,5.000000000000000000e+00,5.000000000000000000e+00,5.000000000000000000e+00,5.000000000000000000e+00,5.000000000000000000e+00,5.000000000000000000e+00,5.000000000000000000e+00,5.000000000000000000e+00,5.000000000000000000e+00,5.000000000000000000e+00,5.000000000000000000e+00,5.000000000000000000e+00,5.000000000000000000e+00,5.000000000000000000e+00,5.000000000000000000e+00,5.000000000000000000e+00,5.000000000000000000e+00,5.000000000000000000e+00,5.000000000000000000e+00,5.000000000000000000e+00,5.000000000000000000e+00,5.000000000000000000e+00,5.000000000000000000e+00,5.000000000000000000e+00,5.000000000000000000e+00,5.000000000000000000e+00,5.000000000000000000e+00,5.000000000000000000e+00,5.000000000000000000e+00,5.000000000000000000e+00,1.221310019493103027e+00,1.196676611900329590e+00,1.186490178108215332e+00,1.200220108032226562e+00,1.214753746986389160e+00,4.667446136474609375e+00,1.291848897933959961e+00,1.192570805549621582e+00,1.173573493957519531e+00,1.165440440177917480e+00,1.167528510093688965e+00,1.170248031616210938e+00,3.661719322204589844e+00,3.552369117736816406e+00,3.449360370635986328e+00,3.352157115936279297e+00,3.260282039642333984e+00,3.173308849334716797e+00,3.090855360031127930e+00,3.012578487396240234e+00,2.938168525695800781e+00,2.867345333099365234e+00,2.799856185913085938e+00,2.735471010208129883e+00,2.673980951309204102e+00,2.615194082260131836e+00,2.558936357498168945e+00,2.505048274993896484e+00,2.453382968902587891e+00,2.403805732727050781e+00,2.356192588806152344e+00,2.310428857803344727e+00,2.266408920288085938e+00,2.224035263061523438e+00,2.183216810226440430e+00,2.143869876861572266e+00,2.105915784835815430e+00,2.069282293319702148e+00,2.033901453018188477e+00,1.999710321426391602e+00,1.966649889945983887e+00,1.934664368629455566e+00,1.903702974319458008e+00,1.873716592788696289e+00,1.844660520553588867e+00
5.000000000000000000e+00,5.000000000000000000e+00,5.000000000000000000e+00,5.000000000000000000e+00,5.000000000000000000e+00,5.000000000000000000e+00,5.000000000000000000e+00,5.000000000000000000e+00,5.000000000000000000e+00,5.000000000000000000e+00,5.000000000000000000e+00,5.000000000000000000e+00,5.000000000000000000e+00,5.000000000000000000e+00,5.000000000000000000e+00,5.000000000000000000e+00,5.000000000000000000e+00,5.000000000000000000e+00,5.000000000000000000e+00,5.000000000000000000e+00,5.000000000000000000e+00,5.000000000000000000e+00,5.000000000000000000e+00,5.000000000000000000e+00,5.000000000000000000e+00,5.000000000000000000e+00,5.000000000000000000e+00,5.000000000000000000e+00,5.000000000000000000e+00,5.000000000000000000e+00,5.000000000000000000e+00,5.000000000000000000e+00,5.000000000000000000e+00,5.000000000000000000e+00,1.297470808029174805e+00,1.229280829429626465e+00,1.208152413368225098e+00,1.196888923645019531e+00,1.211492538452148438e+00,1.227606058120727539e+00,4.667573928833007812e+00,1.240442514419555664e+00,1.211895465850830078e+00,1.184632897377014160e+00,1.176840186119079590e+00,1.178259849548339844e+00,1.180243492126464844e+00,3.661798000335693359e+00,3.552443265914916992e+00,3.449430227279663086e+00,3.352222919464111328e+00,3.260344505310058594e+00,3.173367977142333984e+00,3.090911865234375000e+00,3.012631893157958984e+00,2.938219070434570312e+00,2.867393493652343750e+00,2.799902200698852539e+00,2.735515117645263672e+00,2.674022912979125977e+00,2.615234136581420898e+00,2.558974742889404297e+00,2.505084991455078125e+00,2.453418254852294922e+00,2.403839826583862305e+00,2.356225252151489258e+00,2.310460090637207031e+00,2.266439199447631836e+00,2.224064111709594727e+00,2.183244943618774414e+00,2.143896818161010742e+00,2.105941772460937500e+00,2.069307327270507812e+00,2.033925771713256836e+00,1.999733924865722656e+00,1.966672420501708984e+00,1.934686422348022461e+00,1.903724074363708496e+00,1.873737335205078125e+00,1.844680428504943848e+00
5.000000000000000000e+00,5.000000000000000000e+00,5.000000000000000000e+00,5.000000000000000000e+00,5.000000000000000000e+00,5.000000000000000000e+00,5.000000000000000000e+00,5.000000000000000000e+00,5.000000000000000000e+00,5.000000000000000000e+00,5.000000000000000000e+00,5.000000000000000000e+00,5.000000000000000000e+00,5.000000000000000000e+00,5.000000000000000000e+00,5.000000000000000000e+00,5.000000000000000000e+00,5.000000000000000000e+00,5.000000000000000000e+00,5.000000000000000000e+00,5.000000000000000000e+00,5.000000000000000000e+00,5.000000000000000000e+00,5.000000000000000000e+00,5.000000000000000000e+00,5.000000000000000000e+00,5.000000000000000000e+00,5.000000000000000000e+00,5.000000000000000000e+00,5.000000000000000000e+00,5.000000000000000000e+00,5.000000000000000000e+00,5.000000000000000000e+00,5.000000000000000000e+00,1.289606571197509766e+00,1.234475731849670410e+00,1.221828579902648926e+00,1.208731770515441895e+00,1.223627686500549316e+00,1.247022509574890137e+00,4.667701721191406250e+00,1.264764666557312012e+00,1.230167150497436523e+00,1.207117795944213867e+00,1.202045917510986328e+00,1.202199816703796387e+00,3.778183460235595703e+00,3.661877155303955078e+00,3.552517414093017578e+00,3.449500083923339844e+00,3.352288961410522461e+00,3.260406970977783203e+00,3.173427581787109375e+00,3.090967893600463867e+00,3.012685298919677734e+00,2.938269853591918945e+00,2.867441892623901367e+00,2.799948453903198242e+00,2.735559225082397461e+00,2.674064874649047852e+00,2.615274429321289062e+00,2.559013366699218750e+00,2.505121946334838867e+00,2.453453779220581055e+00,2.403873682022094727e+00,2.356257915496826172e+00,2.310491561889648438e+00,2.266469240188598633e+00,2.224093437194824219e+00,2.183272838592529297e+00,2.143923759460449219e+00,2.105967998504638672e+00,2.069332361221313477e+00,2.033950328826904297e+00,1.999757289886474609e+00,1.966695308685302734e+00,1.934708356857299805e+00,1.903745532035827637e+00,1.873757839202880859e+00,1.844700574874877930e+00
5.000000000000000000e+00,5.000000000000000000e+00,5.000000000000000000e+00,5.000000000000000000e+00,5.000000000000000000e+00,5.000000000000000000e+00,5.000000000000000000e+00,5.000000000000000000e+00,5.000000000000000000e+00,5.000000000000000000e+00,5.000000000000000000e+00,5.000000000000000000e+00,5.000000000000000000e+00,5.000000000000000000e+00,5.000000000000000000e+00,5.000000000000000000e+00,5.000000000000000000e+00,5.000000000000000000e+00,5.000000000000000000e+00,5.000000000000000000e+00,5.000000000000000000e+00,5.000000000000000000e+00,5.000000000000000000e+00,5.000000000000000000e+00,5.000000000000000000e+00,5.000000000000000000e+00,5.000000000000000000e+00,5.000000000000000000e+00,5.000000000000000000e+00,5.000000000000000000e+00,5.000000000000000000e+00,5.000000000000000000e+00,5.000000000000000000e+00,5.000000000000000000e+00,1.281836986541748047e+00,1.243087172508239746e+00,1.233209848403930664e+00,1.220811247825622559e+00,1.236008286476135254e+00,4.858478069305419922e+00,1.315592646598815918e+00,1.278780698776245117e+00,1.247703671455383301e+00,1.235007047653198242e+00,1.228355050086975098e+00,1.255858421325683594e+00,3.778267621994018555e+00,3.661955833435058594e+00,3.552591562271118164e+00,3.449569940567016602e+00,3.352355003356933594e+00,3.260469675064086914e+00,3.173486709594726562e+00,3.091023921966552734e+00,3.012738466262817383e+00,2.938320398330688477e+00,2.867490053176879883e+00,2.799994468688964844e+00,2.735603094100952148e+00,2.674106836318969727e+00,2.615314483642578125e+00,2.559051752090454102e+00,2.505158901214599609e+00,2.453489065170288086e+00,2.403907537460327148e+00,2.356290340423583984e+00,2.310522794723510742e+00,2.266499519348144531e+00,2.224122524261474609e+00,2.183300971984863281e+00,2.143950700759887695e+00,2.105993986129760742e+00,2.069357633590698242e+00,2.033974409103393555e+00,1.999780893325805664e+00,1.966717839241027832e+00,1.934730410575866699e+00,1.903766632080078125e+00,1.873778581619262695e+00,1.844720602035522461e+00
5.000000000000000000e+00,5.000000000000000000e+00,5.000000000000000000e+00,5.000000000000000000e+00,5.000000000000000000e+00,5.000000000000000000e+00,5.000000000000000000e+00,5.000000000000000000e+00,5.000000000000000000e+00,5.000000000000000000e+00,5.000000000000000000e+00,5.000000000000000000e+00,5.000000000000000000e+00,5.000000000000000000e+00,5.000000000000000000e+00,5.000000000000000000e+00,5.000000000000000000e+00,5.000000000000000000e+00,5.000000000000000000e+00,5.000000000000000000e+00,5.000000000000000000e+00,5.000000000000000000e+00,5.000000000000000000e+00,5.000000000000000000e+00,5.000000000000000000e+00,5.000000000000000000e+00,5.000000000000000000e+00,5.000000000000000000e+00,5.000000000000000000e+00,5.000000000000000000e+00,5.000000000000000000e+00,5.000000000000000000e+00,5.000000000000000000e+00,5.000000000000000000e+00,1.279544472694396973e+00,1.251819729804992676e+00,1.242949128150939941e+00,1.233134627342224121e+00,1.255308866500854492e+00,4.858616352081298828e+00,1.325237631797790527e+00,1.289790272712707520e+00,1.277522921562194824e+00,1.264215469360351562e+00,1.255841612815856934e+00,3.902299880981445312e+00,3.778351306915283203e+00,3.662034511566162109e+00,3.552665472030639648e+00,3.449639797210693359e+00,3.352421283721923828e+00,3.260532140731811523e+00,3.173545837402343750e+00,3.091080188751220703e+00,3.012791872024536133e+00,2.938371181488037109e+00,2.867538690567016602e+00,2.800040721893310547e+00,2.735646963119506836e+00,2.674148797988891602e+00,2.615354537963867188e+00,2.559090375900268555e+00,2.505195856094360352e+00,2.453524351119995117e+00,2.403941392898559570e+00,2.356323003768920898e+00,2.310554265975952148e+00,2.266529798507690430e+00,2.224151372909545898e+00,2.183328866958618164e+00,2.143977642059326172e+00,2.106019973754882812e+00,2.069382905960083008e+00,2.033998727798461914e+00,1.999804258346557617e+00,1.966740727424621582e+00,1.934752345085144043e+00,1.903788089752197266e+00,1.873799324035644531e+00,1.844740509986877441e+00
5.000000000000000000e+00,5.000000000000000000e+00,5.000000000000000000e+00,5.000000000000000000e+00,5.000000000000000000e+00,5.000000000000000000e+00,5.000000000000000000e+00,5.000000000000000000e+00,5.000000000000000000e+00,5.000000000000000000e+00,5.000000000000000000e+00,5.000000000000000000e+00,5.000000000000000000e+00,5.000000000000000000e+00,5.000000000000000000e+00,5.000000000000000000e+00,5.000000000000000000e+00,5.000000000000000000e+00,5.000000000000000000e+00,5.000000000000000000e+00,5.000000000000000000e+00,5.000000000000000000e+00,5.000000000000000000e+00,5.000000000000000000e+00,5.000000000000000000e+00,5.000000000000000000e+00,5.000000000000000000e+00,5.000000000000000000e+00,5.000000000000000000e+00,5.000000000000000000e+00,5.000000000000000000e+00,5.000000000000000000e+00,5.000000000000000000e+00,5.000000000000000000e+00,1.286704421043395996e+00,1.260675787925720215e+00,1.252843618392944336e+00,1.245709419250488281e+00,1.273856878280639648e+00,4.858755588531494141e+00,1.335024952888488770e+00,1.301545381546020508e+00,1.295074224472045898e+00,1.287576913833618164e+00,1.298136591911315918e+00,3.902389287948608398e+00,3.778435230255126953e+00,3.662113189697265625e+00,3.552739620208740234e+00,3.449709653854370117e+00,3.352487325668334961e+00,3.260594367980957031e+00,3.173604965209960938e+00,3.091136217117309570e+00,3.012845039367675781e+00,2.938422203063964844e+00,2.867586851119995117e+00,2.800086736679077148e+00,2.735691070556640625e+00,2.674190759658813477e+00,2.615395069122314453e+00,2.559128761291503906e+00,2.505232572555541992e+00,2.453559875488281250e+00,2.403975486755371094e+00,2.356355667114257812e+00,2.310585737228393555e+00,2.266559839248657227e+00,2.224180459976196289e+00,2.183356761932373047e+00,2.144004583358764648e+00,2.106046199798583984e+00,2.069407939910888672e+00,2.034023046493530273e+00,1.999827861785888672e+00,1.966763257980346680e+00,1.934774398803710938e+00,1.903809428215026855e+00,1.873819828033447266e+00,1.844760537147521973e+00
5.000000000000000000e+00,5.000000000000000000e+00,5.000000000000000000e+00,5.000000000000000000e+00,5.000000000000000000e+00,5.000000000000000000e+00,5.000000000000000000e+00,5.000000000000000000e+00,5.000000000000000000e+00,5.000000000000000000e+00,5.000000000000000000e+00,5.000000000000000000e+00,5.000000000000000000e+00,5.000000000000000000e+00,5.000000000000000000e+00,5.000000000000000000e+00,5.000000000000000000e+00,5.000000000000000000e+00,5.000000000000000000e+00,5.000000000000000000e+00,5.000000000000000000e+00,5.000000000000000000e+00,5.000000000000000000e+00,5.000000000000000000e+00,5.000000000000000000e+00,5.000000000000000000e+00,5.000000000000000000e+00,5.000000000000000000e+00,5.000000000000000000e+00,5.000000000000000000e+00,5.000000000000000000e+00,5.000000000000000000e+00,5.000000000000000000e+00,5.000000000000000000e+00,1.295479059219360352e+00,1.269065499305725098e+00,1.258786439895629883e+00,1.252318501472473145e+00,1.277347087860107422e+00,4.858893871307373047e+00,1.345401287078857422e+00,1.318940997123718262e+00,1.312766313552856445e+00,1.305063247680664062e+00,1.332233190536499023e+00,3.902478694915771484e+00,3.778519153594970703e+00,3.662192106246948242e+00,3.552813768386840820e+00,3.449779748916625977e+00,3.352553367614746094e+00,3.260656833648681641e+00,3.173664093017578125e+00,3.091192245483398438e+00,3.012898683547973633e+00,2.938472747802734375e+00,2.867635250091552734e+00,2.800132751464843750e+00,2.735734939575195312e+00,2.674232721328735352e+00,2.615435123443603516e+00,2.559167385101318359e+00,2.505269527435302734e+00,2.453595161437988281e+00,2.404009342193603516e+00,2.356388330459594727e+00,2.310616970062255859e+00,2.266590118408203125e+00,2.224209547042846680e+00,2.183384895324707031e+00,2.144031763076782227e+00,2.106072187423706055e+00,2.069433212280273438e+00,2.034047365188598633e+00,1.999851226806640625e+00,1.966786146163940430e+00,1.934796452522277832e+00,1.903830647468566895e+00,1.873840570449829102e+00,1.844780445098876953e+00
5.000000000000000000e+00,5.000000000000000000e+00,5.000000000000000000e+00,5.000000000000000000e+00,5.000000000000000000e+00,5.000000000000000000e+00,5.000000000000000000e+00,5.000000000000000000e+00,5.000000000000000000e+00,5.000000000000000000e+00,5.000000000000000000e+00,5.000000000000000000e+00,5.000000000000000000e+00,5.000000000000000000e+00,5.000000000000000000e+00,5.000000000000000000e+00,5.000000000000000000e+00,5.000000000000000000e+00,5.000000000000000000e+00,5.000000000000000000e+00,5.000000000000000000e+00,5.000000000000000000e+00,5.000000000000000000e+00,5.000000000000000000e+00,5.000000000000000000e+00,5.000000000000000000e+00,5.000000000000000000e+00,5.000000000000000000e+00,5.000000000000000000e+00,5.000000000000000000e+00,5.000000000000000000e+00,5.000000000000000000e+00,5.000000000000000000e+00,5.000000000000000000e+00,1.304023146629333496e+00,1.277377247810363770e+00,1.263084769248962402e+00,1.256572723388671875e+00,1.280856490135192871e+00,4.859031677246093750e+00,1.357201337814331055e+00,1.336807966232299805e+00,1.330848813056945801e+00,1.323031067848205566e+00,4.034942626953125000e+00,3.902568101882934570e+00,3.778602838516235352e+00,3.662270784378051758e+00,3.552888154983520508e+00,3.449849605560302734e+00,3.352619171142578125e+00,3.260719299316406250e+00,3.173723220825195312e+00,3.091248750686645508e+00,3.012951850891113281e+00,2.938523530960083008e+00,2.867683410644531250e+00,2.800178766250610352e+00,2.735778808593750000e+00,2.674274921417236328e+00,2.615475416183471680e+00,2.559205770492553711e+00,2.505306243896484375e+00,2.453630447387695312e+00,2.404043436050415039e+00,2.356420993804931641e+00,2.310648441314697266e+00,2.266620159149169922e+00,2.224238634109497070e+00,2.183413028717041016e+00,2.144058704376220703e+00,2.106098175048828125e+00,2.069458246231079102e+00,2.034071683883666992e+00,1.999874830245971680e+00,1.966808915138244629e+00,1.934818387031555176e+00,1.903851985931396484e+00,1.873861074447631836e+00,1.844800591468811035e+00
5.000000000000000000e+00,5.000000000000000000e+00,5.000000000000000000e+00,5.000000000000000000e+00,5.000000000000000000e+00,5.000000000000000000e+00,5.000000000000000000e+00,5.000000000000000000e+00,5.000000000000000000e+00,5.000000000000000000e+00,5.000000000000000000e+00,5.000000000000000000e+00,5.000000000000000000e+00,5.000000000000000000e+00,5.000000000000000000e+00,5.000000000000000000e+00,5.000000000000000000e+00,5.000000000000000000e+00,5.000000000000000000e+00,5.000000000000000000e+00,5.000000000000000000e+00,5.000000000000000000e+00,5.000000000000000000e+00,5.000000000000000000e+00,5.000000000000000000e+00,5.000000000000000000e+00,5.000000000000000000e+00,5.000000000000000000e+00,5.000000000000000000e+00,5.000000000000000000e+00,5.000000000000000000e+00,5.000000000000000000e+00,5.000000000000000000e+00,5.000000000000000000e+00,1.312680721282958984e+00,1.285798668861389160e+00,1.267504096031188965e+00,1.260855913162231445e+00,1.284216046333312988e+00,4.859169483184814453e+00,1.369395852088928223e+00,1.355165481567382812e+00,1.349041938781738281e+00,1.348130345344543457e+00,4.035037994384765625e+00,3.902657508850097656e+00,3.778686761856079102e+00,3.662349939346313477e+00,3.552962303161621094e+00,3.449919700622558594e+00,3.352685213088989258e+00,3.260781764984130859e+00,3.173782348632812500e+00,3.091304779052734375e+00,3.013005256652832031e+00,2.938574314117431641e+00,2.867731809616088867e+00,2.800224781036376953e+00,2.735822916030883789e+00,2.674316883087158203e+00,2.615515470504760742e+00,2.559244155883789062e+00,2.505343198776245117e+00,2.453665971755981445e+00,2.404077291488647461e+00,2.356453657150268555e+00,2.310679674148559570e+00,2.266650438308715820e+00,2.224267721176147461e+00,2.183440923690795898e+00,2.144085884094238281e+00,2.106124162673950195e+00,2.069483518600463867e+00,2.034096002578735352e+00,1.999898433685302734e+00,1.966831564903259277e+00,1.934840440750122070e+00,1.903873205184936523e+00,1.873881816864013672e+00,1.844820618629455566e+00
5.000000000000000000e+00,5.000000000000000000e+00,5.000000000000000000e+00,5.000000000000000000e+00,5.000000000000000000e+00,5.000000000000000000e+00,5.000000000000000000e+00,5.000000000000000000e+00,5.000000000000000000e+00,5.000000000000000000e+00,5.000000000000000000e+00,5.000000000000000000e+00,5.000000000000000000e+00,5.000000000000000000e+00,5.000000000000000000e+00,5.000000000000000000e+00,5.000000000000000000e+00,5.000000000000000000e+00,5.000000000000000000e+00,5.000000000000000000e+00,5.000000000000000000e+00,5.000000000000000000e+00,5.000000000000000000e+00,5.000000000000000000e+00,5.000000000000000000e+00,5.000000000000000000e+00,5.000000000000000000e+00,5.000000000000000000e+00,5.000000000000000000e+00,5.000000000000000000e+00,5.000000000000000000e+00,5.000000000000000000e+00,5.000000000000000000e+00,5.000000000000000000e+00,5.000000000000000000e+00,1.294331789016723633e+00,1.273593783378601074e+00,1.265168428421020508e+00,1.287153601646423340e+00,1.427335858345031738e+00,1.384903907775878906e+00,1.374561786651611328e+00,1.367781877517700195e+00,4.176817893981933594e+00,4.035133838653564453e+00,3.902746915817260742e+00,3.778770923614501953e+00,3.662428617477416992e+00,3.553036451339721680e+00,3.449989557266235352e+00,3.352751255035400391e+00,3.260844230651855469e+00,3.173841714859008789e+00,3.091360807418823242e+00,3.013058423995971680e+00,2.938624858856201172e+00,2.867779970169067383e+00,2.800271034240722656e+00,2.735867023468017578e+00,2.674358844757080078e+00,2.615555763244628906e+00,2.559282541275024414e+00,2.505380153656005859e+00,2.453701257705688477e+00,2.404111385345458984e+00,2.356486082077026367e+00,2.310711145401000977e+00,2.266680479049682617e+00,2.224296808242797852e+00,2.183469057083129883e+00,2.144112825393676758e+00,2.106150388717651367e+00,2.069508552551269531e+00,2.034120321273803711e+00,1.999921798706054688e+00,1.966854333877563477e+00,1.934862256050109863e+00,1.903894543647766113e+00,1.873902440071105957e+00,1.844840526580810547e+00
5.000000000000000000e+00,5.000000000000000000e+00,5.000000000000000000e+00,5.000000000000000000e+00,5.000000000000000000e+00,5.000000000000000000e+00,5.000000000000000000e+00,5.000000000000000000e+00,5.000000000000000000e+00,5.000000000000000000e+00,5.000000000000000000e+00,5.000000000000000000e+00,5.000000000000000000e+00,5.000000000000000000e+00,5.000000000000000000e+00,5.000000000000000000e+00,5.000000000000000000e+00,5.000000000000000000e+00,5.000000000000000000e+00,5.000000000000000000e+00,5.000000000000000000e+00,5.000000000000000000e+00,5.000000000000000000e+00,5.000000000000000000e+00,5.000000000000000000e+00,5.000000000000000000e+00,5.000000000000000000e+00,5.000000000000000000e+00,5.000000000000000000e+00,5.000000000000000000e+00,5.000000000000000000e+00,5.000000000000000000e+00,5.000000000000000000e+00,5.000000000000000000e+00,5.000000000000000000e+00,1.302978992462158203e+00,1.279742240905761719e+00,1.269510507583618164e+00,1.290104746818542480e+00,1.444397687911987305e+00,1.403835892677307129e+00,1.395148992538452148e+00,1.388165235519409180e+00,4.176920890808105469e+00,4.035229682922363281e+00,3.902836322784423828e+00,3.778854846954345703e+00,3.662507534027099609e+00,3.553110599517822266e+00,3.450059413909912109e+00,3.352817296981811523e+00,3.260906934738159180e+00,3.173900842666625977e+00,3.091417074203491211e+00,3.013111829757690430e+00,2.938675642013549805e+00,2.867828607559204102e+00,2.800317049026489258e+00,2.735910892486572266e+00,2.674400806427001953e+00,2.615595817565917969e+00,2.559321165084838867e+00,2.505417108535766602e+00,2.453736782073974609e+00,2.404145240783691406e+00,2.356518745422363281e+00,2.310742378234863281e+00,2.266710996627807617e+00,2.224325895309448242e+00,2.183496952056884766e+00,2.144139766693115234e+00,2.106176376342773438e+00,2.069533824920654297e+00,2.034144639968872070e+00,1.999945402145385742e+00,1.966876983642578125e+00,1.934884428977966309e+00,1.903915762901306152e+00,1.873922944068908691e+00,1.844860553741455078e+00
5.000000000000000000e+00,5.000000000000000000e+00,5.000000000000000000e+00,5.000000000000000000e+00,5.000000000000000000e+00,5.000000000000000000e+00,5.000000000000000000e+00,5.000000000000000000e+00,5.000000000000000000e+00,5.000000000000000000e+00,5.000000000000000000e+00,5.000000000000000000e+00,5.000000000000000000e+00,5.000000000000000000e+00,5.000000000000000000e+00,5.000000000000000000e+00,5.000000000000000000e+00,5.000000000000000000e+00,5.000000000000000000e+00,5.000000000000000000e+00,5.000000000000000000e+00,5.000000000000000000e+00,5.000000000000000000e+00,5.000000000000000000e+00,5.000000000000000000e+00,5.000000000000000000e+00,5.000000000000000000e+00,5.000000000000000000e+00,5.000000000000000000e+00,5.000000000000000000e+00,5.000000000000000000e+00,5.000000000000000000e+00,5.000000000000000000e+00,5.000000000000000000e+00,5.000000000000000000e+00,1.311742544174194336e+00,1.285950422286987305e+00,1.274325251579284668e+00,1.293291687965393066e+00,1.461578607559204102e+00,1.425347685813903809e+00,1.416362404823303223e+00,4.329033374786376953e+00,4.177022933959960938e+00,4.035325050354003906e+00,3.902926206588745117e+00,3.778938531875610352e+00,3.662586212158203125e+00,3.553184747695922852e+00,3.450129270553588867e+00,3.352883577346801758e+00,3.260969400405883789e+00,3.173959970474243164e+00,3.091473102569580078e+00,3.013164997100830078e+00,2.938726663589477539e+00,2.867877006530761719e+00,2.800363063812255859e+00,2.735954761505126953e+00,2.674443006515502930e+00,2.615636110305786133e+00,2.559359788894653320e+00,2.505454063415527344e+00,2.453772068023681641e+00,2.404179096221923828e+00,2.356551408767700195e+00,2.310773849487304688e+00,2.266741037368774414e+00,2.224354982376098633e+00,2.183524847030639648e+00,2.144166707992553711e+00,2.106202602386474609e+00,2.069559097290039062e+00,2.034168958663940430e+00,1.999968767166137695e+00,1.966899752616882324e+00,1.934906244277954102e+00,1.903937101364135742e+00,1.873943686485290527e+00,1.844880461692810059e+00
5.000000000000000000e+00,5.000000000000000000e+00,5.000000000000000000e+00,5.000000000000000000e+00,5.000000000000000000e+00,5.000000000000000000e+00,5.000000000000000000e+00,5.000000000000000000e+00,5.000000000000000000e+00,5.000000000000000000e+00,5.000000000000000000e+00,5.000000000000000000e+00,5.000000000000000000e+00,5.000000000000000000e+00,5.000000000000000000e+00,5.000000000000000000e+00,5.000000000000000000e+00,5.000000000000000000e+00,5.000000000000000000e+00,5.000000000000000000e+00,5.000000000000000000e+00,5.000000000000000000e+00,5.000000000000000000e+00,5.000000000000000000e+00,5.000000000000000000e+00,5.000000000000000000e+00,5.000000000000000000e+00,5.000000000000000000e+00,5.000000000000000000e+00,5.000000000000000000e+00,5.000000000000000000e+00,5.000000000000000000e+00,5.000000000000000000e+00,5.000000000000000000e+00,5.000000000000000000e+00,1.321472883224487305e+00,1.295261740684509277e+00,1.283994674682617188e+00,1.297442913055419922e+00,1.495110750198364258e+00,1.447528839111328125e+00,1.452845096588134766e+00,4.329142570495605469e+00,4.177125453948974609e+00,4.035420894622802734e+00,3.903015613555908203e+00,3.779022455215454102e+00,3.662664890289306641e+00,3.553258895874023438e+00,3.450199365615844727e+00,3.352949619293212891e+00,3.261031866073608398e+00,3.174019098281860352e+00,3.091529130935668945e+00,3.013218402862548828e+00,2.938777208328247070e+00,2.867925167083740234e+00,2.800409078598022461e+00,2.735998868942260742e+00,2.674484968185424805e+00,2.615676403045654297e+00,2.559398174285888672e+00,2.505490779876708984e+00,2.453807353973388672e+00,2.404213190078735352e+00,2.356584072113037109e+00,2.310805320739746094e+00,2.266771316528320312e+00,2.224384069442749023e+00,2.183552980422973633e+00,2.144193649291992188e+00,2.106228590011596680e+00,2.069584131240844727e+00,2.034193277359008789e+00,1.999992370605468750e+00,1.966922402381896973e+00,1.934928297996520996e+00,1.903958559036254883e+00,1.873964190483093262e+00,1.844900608062744141e+00
4.870526790618896484e+00,4.869318962097167969e+00,4.868111610412597656e+00,4.866904735565185547e+00,4.865698814392089844e+00,4.864492893218994141e+00,4.863287925720214844e+00,4.862083435058593750e+00,4.860879898071289062e+00,4.859676837921142578e+00,4.858474254608154297e+00,4.857272148132324219e+00,4.856070518493652344e+00,4.854869842529296875e+00,4.853669643402099609e+00,4.852469921112060547e+00,4.851271152496337891e+00,4.850072860717773438e+00,4.848874568939208984e+00,4.847677230834960938e+00,4.846480846405029297e+00,4.845284938812255859e+00,4.844089508056640625e+00,4.842894554138183594e+00,4.841700077056884766e+00,4.840506076812744141e+00,4.839313030242919922e+00,4.838120460510253906e+00,4.836928844451904297e+00,4.835737228393554688e+00,4.834546566009521484e+00,4.833356380462646484e+00,4.832166671752929688e+00,4.830977439880371094e+00,4.829789161682128906e+00,1.331652879714965820e+00,1.305171966552734375e+00,1.294733405113220215e+00,1.301620841026306152e+00,1.500066518783569336e+00,1.481588721275329590e+00,4.492761611938476562e+00,4.329252243041992188e+00,4.177227020263671875e+00,4.035516738891601562e+00,3.903105020523071289e+00,3.779106378555297852e+00,3.662743806838989258e+00,3.553333282470703125e+00,3.450269460678100586e+00,3.353015661239624023e+00,3.261094093322753906e+00,3.174078226089477539e+00,3.091585397720336914e+00,3.013272047042846680e+00,2.938827991485595703e+00,2.867973566055297852e+00,2.800455093383789062e+00,2.736042737960815430e+00,2.674527168273925781e+00,2.615716457366943359e+00,2.559436559677124023e+00,2.505527734756469727e+00,2.453842639923095703e+00,2.404247283935546875e+00,2.356616735458374023e+00,2.310836553573608398e+00,2.266801357269287109e+00,2.224413156509399414e+00,2.183580875396728516e+00,2.144220829010009766e+00,2.106254577636718750e+00,2.069609403610229492e+00,2.034217596054077148e+00,2.000015735626220703e+00,1.966945171356201172e+00,1.934950470924377441e+00,1.903979659080505371e+00,1.873984932899475098e+00,1.844920396804809570e+00
3.775584936141967773e+00,3.774858713150024414e+00,3.774132966995239258e+00,3.773407697677612305e+00,3.772682666778564453e+00,3.771957874298095703e+00,3.771233320236206055e+00,3.770509004592895508e+00,3.769785165786743164e+00,3.769061565399169922e+00,3.768337965011596680e+00,3.767615079879760742e+00,3.766892194747924805e+00,3.766169548034667969e+00,3.765446901321411133e+00,3.764724969863891602e+00,3.764003038406372070e+00,3.763281583786010742e+00,3.762560367584228516e+00,3.761839628219604492e+00,3.761118888854980469e+00,3.760398626327514648e+00,3.759678602218627930e+00,3.758958816528320312e+00,3.758239269256591797e+00,3.757519960403442383e+00,3.756800651550292969e+00,3.756081819534301758e+00,3.755363464355468750e+00,3.754645347595214844e+00,3.753927469253540039e+00,3.753209829330444336e+00,3.752492427825927734e+00,3.751775503158569336e+00,3.751058578491210938e+00,1.341990947723388672e+00,1.315234899520874023e+00,1.304488182067871094e+00,1.305825710296630859e+00,1.496576309204101562e+00,1.488362908363342285e+00,3.746048450469970703e+00,3.745333909988403320e+00,3.744619607925415039e+00,3.743905544281005859e+00,3.743191719055175781e+00,3.742478370666503906e+00,3.662822484970092773e+00,3.553407430648803711e+00,3.450339317321777344e+00,3.353081703186035156e+00,3.261156797409057617e+00,3.174137353897094727e+00,3.091641664505004883e+00,3.013325214385986328e+00,2.938878774642944336e+00,2.868021726608276367e+00,2.800501108169555664e+00,2.736086845397949219e+00,2.674569129943847656e+00,2.615756750106811523e+00,2.559475183486938477e+00,2.505564451217651367e+00,2.453878164291381836e+00,2.404281139373779297e+00,2.356649398803710938e+00,2.310868024826049805e+00,2.266831636428833008e+00,2.224442005157470703e+00,2.183609008789062500e+00,2.144247770309448242e+00,2.106280803680419922e+00,2.069634437561035156e+00,2.034241914749145508e+00,2.000039339065551758e+00,1.966968059539794922e+00,1.934972286224365234e+00,1.904001116752624512e+00,1.874005436897277832e+00,1.844940543174743652e+00
3.082588911056518555e+00,3.082104921340942383e+00,3.081621170043945312e+00,3.081137418746948242e+00,3.080653905868530273e+00,3.080170631408691406e+00,3.079687356948852539e+00,3.079204320907592773e+00,3.078721523284912109e+00,3.078238964080810547e+00,3.077756404876708984e+00,3.077274084091186523e+00,3.076791763305664062e+00,3.076309680938720703e+00,3.075827836990356445e+00,3.075345754623413086e+00,3.074864149093627930e+00,3.074382543563842773e+00,3.073901176452636719e+00,3.073420047760009766e+00,3.072938919067382812e+00,3.072458028793334961e+00,3.071977376937866211e+00,3.071496725082397461e+00,3.071016311645507812e+00,3.070536136627197266e+00,3.070055961608886719e+00,3.069576025009155273e+00,3.069095849990844727e+00,3.068616151809692383e+00,3.068136692047119141e+00,3.067657470703125000e+00,3.067178010940551758e+00,3.066699028015136719e+00,3.066220045089721680e+00,1.352490782737731934e+00,1.325454354286193848e+00,1.310064196586608887e+00,1.310057878494262695e+00,1.487094044685363770e+00,1.480851650238037109e+00,1.510803103446960449e+00,3.062393903732299805e+00,3.061916351318359375e+00,3.061438798904418945e+00,3.060961723327636719e+00,3.060484409332275391e+00,3.060007572174072266e+00,3.059530735015869141e+00,3.059053897857666016e+00,3.058577537536621094e+00,3.058100938796997070e+00,3.057624578475952148e+00,3.057148456573486328e+00,3.013378620147705078e+00,2.938929319381713867e+00,2.868070125579833984e+00,2.800547599792480469e+00,2.736130952835083008e+00,2.674611091613769531e+00,2.615796804428100586e+00,2.559513568878173828e+00,2.505601406097412109e+00,2.453913688659667969e+00,2.404315233230590820e+00,2.356682062149047852e+00,2.310899257659912109e+00,2.266861677169799805e+00,2.224471330642700195e+00,2.183637142181396484e+00,2.144274950027465820e+00,2.106306791305541992e+00,2.069659709930419922e+00,2.034266233444213867e+00,2.000062942504882812e+00,1.966990590095520020e+00,1.934994459152221680e+00,1.904022336006164551e+00,1.874026179313659668e+00,1.844960570335388184e+00
2.604534864425659180e+00,2.604189395904541016e+00,2.603844165802001953e+00,2.603498935699462891e+00,2.603153467178344727e+00,2.602808475494384766e+00,2.602463483810424805e+00,2.602118492126464844e+00,2.601773738861083984e+00,2.601428985595703125e+00,2.601084232330322266e+00,2.600739717483520508e+00,2.600395202636718750e+00,2.600050926208496094e+00,2.599706649780273438e+00,2.599362373352050781e+00,2.599018335342407227e+00,2.598674058914184570e+00,2.598330259323120117e+00,2.597986459732055664e+00,2.597642660140991211e+00,2.597299098968505859e+00,2.596955537796020508e+00,2.596612215042114258e+00,2.596268653869628906e+00,2.595925569534301758e+00,2.595582246780395508e+00,2.595239162445068359e+00,2.594896316528320312e+00,2.594552993774414062e+00,2.594210386276245117e+00,2.593867540359497070e+00,2.593524932861328125e+00,2.593182325363159180e+00,2.592839956283569336e+00,2.592497587203979492e+00,1.335833668708801270e+00,1.315687894821166992e+00,1.315379142761230469e+00,1.476821184158325195e+00,1.472754001617431641e+00,1.494006156921386719e+00,2.590103387832641602e+00,2.589761734008789062e+00,2.589420080184936523e+00,2.589078664779663086e+00,2.588737249374389648e+00,2.588396072387695312e+00,2.588054895401000977e+00,2.587713718414306641e+00,2.587372779846191406e+00,2.587031841278076172e+00,2.586691141128540039e+00,2.586350202560424805e+00,2.586009502410888672e+00,2.585668802261352539e+00,2.585328340530395508e+00,2.584988117218017578e+00,2.584647655487060547e+00,2.584307670593261719e+00,2.583967447280883789e+00,2.559551954269409180e+00,2.505638360977172852e+00,2.453948974609375000e+00,2.404349088668823242e+00,2.356714487075805664e+00,2.310930728912353516e+00,2.266891956329345703e+00,2.224500417709350586e+00,2.183665037155151367e+00,2.144301891326904297e+00,2.106332778930664062e+00,2.069684743881225586e+00,2.034290552139282227e+00,2.000086307525634766e+00,1.967013478279113770e+00,1.935016274452209473e+00,1.904043674468994141e+00,1.874046921730041504e+00,1.844980478286743164e+00
2.254834413528442383e+00,2.254575967788696289e+00,2.254317760467529297e+00,2.254059553146362305e+00,2.253801584243774414e+00,2.253543376922607422e+00,2.253285408020019531e+00,2.253027439117431641e+00,2.252769470214843750e+00,2.252511739730834961e+00,2.252254009246826172e+00,2.251996278762817383e+00,2.251738548278808594e+00,2.251480817794799805e+00,2.251223325729370117e+00,2.250966072082519531e+00,2.250708580017089844e+00,2.250451326370239258e+00,2.250193834304809570e+00,2.249936580657958984e+00,2.249679565429687500e+00,2.249422311782836914e+00,2.249165296554565430e+00,2.248908042907714844e+00,2.248650550842285156e+00,2.248393058776855469e+00,2.248135566711425781e+00,2.247878313064575195e+00,2.247620820999145508e+00,2.247363567352294922e+00,2.247106313705444336e+00,2.246849060058593750e+00,2.246592044830322266e+00,2.246335029602050781e+00,2.246078014373779297e+00,2.245820999145507812e+00,1.360662698745727539e+00,1.340419650077819824e+00,1.339945554733276367e+00,1.464583039283752441e+00,1.464362740516662598e+00,1.479408860206604004e+00,2.244024276733398438e+00,2.243767738342285156e+00,2.243511199951171875e+00,2.243254899978637695e+00,2.242998600006103516e+00,2.242742538452148438e+00,2.242486238479614258e+00,2.242230176925659180e+00,2.241974115371704102e+00,2.241718292236328125e+00,2.241462230682373047e+00,2.241206407546997070e+00,2.240950584411621094e+00,2.240694761276245117e+00,2.240438938140869141e+00,2.240183353424072266e+00,2.239927768707275391e+00,2.239672422409057617e+00,2.239416837692260742e+00,2.239161491394042969e+00,2.238906145095825195e+00,2.238650798797607422e+00,2.238395690917968750e+00,2.238140583038330078e+00,2.237885475158691406e+00,2.237630367279052734e+00,2.224529504776000977e+00,2.183692932128906250e+00,2.144328832626342773e+00,2.106358766555786133e+00,2.069710016250610352e+00,2.034314870834350586e+00,2.000109910964965820e+00,1.967036008834838867e+00,1.935038328170776367e+00,1.904065012931823730e+00,1.874067425727844238e+00,1.845000624656677246e+00
1.987896442413330078e+00,1.987695574760437012e+00,1.987494945526123047e+00,1.987294077873229980e+00,1.987093567848205566e+00,1.986892819404602051e+00,1.986692428588867188e+00,1.986491680145263672e+00,1.986291408538818359e+00,1.986090779304504395e+00,1.985890507698059082e+00,1.985689997673034668e+00,1.985489845275878906e+00,1.985289454460144043e+00,1.985089302062988281e+00,1.984888911247253418e+00,1.984688878059387207e+00,1.984488844871520996e+00,1.984288692474365234e+00,1.984088659286499023e+00,1.983888626098632812e+00,1.983688712120056152e+00,1.983488678932189941e+00,1.983288884162902832e+00,1.983088970184326172e+00,1.982889294624328613e+00,1.982689380645751953e+00,1.982489824295043945e+00,1.982290029525756836e+00,1.982090473175048828e+00,1.981890678405761719e+00,1.981691241264343262e+00,1.981491684913635254e+00,1.981292247772216797e+00,1.981092691421508789e+00,1.980893373489379883e+00,1.370493769645690918e+00,1.344719290733337402e+00,1.336741924285888672e+00,1.455025553703308105e+00,1.446651339530944824e+00,1.456308007240295410e+00,1.483310341835021973e+00,1.979299545288085938e+00,1.979100704193115234e+00,1.978901505470275879e+00,1.978702664375305176e+00,1.978503584861755371e+00,1.978304862976074219e+00,1.978105902671813965e+00,1.977907180786132812e+00,1.977708339691162109e+00,1.977509737014770508e+00,1.977310895919799805e+00,1.977112412452697754e+00,1.976913690567016602e+00,1.976715207099914551e+00,1.976516485214233398e+00,1.976318120956420898e+00,1.976119637489318848e+00,1.975921273231506348e+00,1.975723028182983398e+00,1.975524544715881348e+00,1.975326418876647949e+00,1.975128054618835449e+00,1.974929928779602051e+00,1.974731683731079102e+00,1.974533677101135254e+00,1.974335432052612305e+00,1.974137544631958008e+00,1.973939418792724609e+00,1.973741531372070312e+00,1.973543524742126465e+00,1.973345756530761719e+00,1.973147749900817871e+00,1.967058897018432617e+00,1.935060501098632812e+00,1.904086232185363770e+00,1.874088168144226074e+00,1.845020413398742676e+00
1.777470946311950684e+00,1.777310371398925781e+00,1.777149915695190430e+00,1.776989340782165527e+00,1.776829004287719727e+00,1.776668548583984375e+00,1.776508212089538574e+00,1.776347875595092773e+00,1.776187658309936523e+00,1.776027202606201172e+00,1.775866985321044922e+00,1.775706768035888672e+00,1.775546550750732422e+00,1.775386333465576172e+00,1.775226235389709473e+00,1.775066018104553223e+00,1.774906039237976074e+00,1.774745941162109375e+00,1.774585962295532227e+00,1.774425864219665527e+00,1.774266004562377930e+00,1.774106144905090332e+00,1.773946166038513184e+00,1.773786306381225586e+00,1.773626446723937988e+00,1.773466587066650391e+00,1.773306727409362793e+00,1.773147106170654297e+00,1.772987246513366699e+00,1.772827625274658203e+00,1.772667884826660156e+00,1.772508263587951660e+00,1.772348523139953613e+00,1.772189021110534668e+00,1.772029399871826172e+00,1.771869897842407227e+00,1.390347957611083984e+00,1.332969546318054199e+00,1.318781137466430664e+00,1.325576066970825195e+00,1.421408414840698242e+00,1.443442702293395996e+00,1.770753979682922363e+00,1.770594596862792969e+00,1.770435333251953125e+00,1.770276069641113281e+00,1.770116925239562988e+00,1.769957661628723145e+00,1.769798517227172852e+00,1.769639253616333008e+00,1.769480228424072266e+00,1.769321084022521973e+00,1.769162178039550781e+00,1.769003033638000488e+00,1.768844127655029297e+00,1.768684983253479004e+00,1.768526196479797363e+00,1.768367171287536621e+00,1.768208384513854980e+00,1.768049478530883789e+00,1.767890691757202148e+00,1.767731785774230957e+00,1.767573118209838867e+00,1.767414450645446777e+00,1.767255663871765137e+00,1.767097115516662598e+00,1.766938328742980957e+00,1.766779780387878418e+00,1.766621112823486328e+00,1.766462683677673340e+00,1.766304016113281250e+00,1.766145586967468262e+00,1.765987038612365723e+00,1.765828609466552734e+00,1.765670180320739746e+00,1.765511870384216309e+00,1.765353441238403320e+00,1.765195131301879883e+00,1.765036702156066895e+00,1.764878511428833008e+00
1.607329607009887695e+00,1.607198357582092285e+00,1.607067227363586426e+00,1.606935977935791016e+00,1.606804847717285156e+00,1.606673598289489746e+00,1.606542468070983887e+00,1.606411218643188477e+00,1.606280207633972168e+00,1.606149077415466309e+00,1.606018066406250000e+00,1.605886936187744141e+00,1.605755925178527832e+00,1.605624914169311523e+00,1.605494022369384766e+00,1.605362892150878906e+00,1.605232119560241699e+00,1.605101108551025391e+00,1.604970216751098633e+00,1.604839324951171875e+00,1.604708552360534668e+00,1.604577541351318359e+00,1.604446887969970703e+00,1.604316115379333496e+00,1.604185342788696289e+00,1.604054570198059082e+00,1.603923797607421875e+00,1.603793144226074219e+00,1.603662371635437012e+00,1.603531837463378906e+00,1.603401064872741699e+00,1.603270530700683594e+00,1.603139877319335938e+00,1.603009343147277832e+00,1.602878689765930176e+00,1.602748274803161621e+00,1.401030778884887695e+00,1.318295717239379883e+00,1.301216959953308105e+00,1.295636296272277832e+00,1.602095842361450195e+00,1.601965427398681641e+00,1.601835012435913086e+00,1.601704716682434082e+00,1.601574301719665527e+00,1.601444005966186523e+00,1.601313829421997070e+00,1.601183414459228516e+00,1.601053237915039062e+00,1.600922942161560059e+00,1.600792765617370605e+00,1.600662589073181152e+00,1.600532412528991699e+00,1.600402235984802246e+00,1.600272178649902344e+00,1.600142002105712891e+00,1.600011944770812988e+00,1.599881768226623535e+00,1.599751830101013184e+00,1.599621653556823730e+00,1.599491715431213379e+00,1.599361658096313477e+00,1.599231839179992676e+00,1.599101781845092773e+00,1.598971962928771973e+00,1.598841905593872070e+00,1.598712205886840820e+00,1.598582386970520020e+00,1.598452448844909668e+00,1.598322749137878418e+00,1.598192811012268066e+00,1.598063111305236816e+00,1.597933292388916016e+00,1.597803592681884766e+00,1.597673892974853516e+00,1.597544193267822266e+00,1.597414493560791016e+00,1.597284913063049316e+00,1.597155213356018066e+00,1.597025632858276367e+00
1.466915130615234375e+00,1.466805815696716309e+00,1.466696381568908691e+00,1.466587185859680176e+00,1.466477990150451660e+00,1.466368675231933594e+00,1.466259479522705078e+00,1.466150164604187012e+00,1.466040968894958496e+00,1.465931773185729980e+00,1.465822577476501465e+00,1.465713381767272949e+00,1.465604305267333984e+00,1.465495109558105469e+00,1.465386033058166504e+00,1.465276837348937988e+00,1.465167760848999023e+00,1.465058684349060059e+00,1.464949727058410645e+00,1.464840531349182129e+00,1.464731574058532715e+00,1.464622497558593750e+00,1.464513659477233887e+00,1.464404582977294922e+00,1.464295625686645508e+00,1.464186787605285645e+00,1.464077830314636230e+00,1.463968992233276367e+00,1.463860034942626953e+00,1.463751196861267090e+00,1.463642239570617676e+00,1.463533520698547363e+00,1.463424563407897949e+00,1.463315844535827637e+00,1.463207006454467773e+00,1.463098287582397461e+00,1.462989449501037598e+00,1.295369267463684082e+00,1.281543016433715820e+00,1.273658156394958496e+00,1.270287156105041504e+00,1.462445855140686035e+00,1.462337136268615723e+00,1.462228536605834961e+00,1.462119936943054199e+00,1.462011337280273438e+00,1.461902618408203125e+00,1.461794137954711914e+00,1.461685657501220703e+00,1.461577057838439941e+00,1.461468577384948730e+00,1.461359977722167969e+00,1.461251497268676758e+00,1.461143016815185547e+00,1.461034536361694336e+00,1.460926055908203125e+00,1.460817694664001465e+00,1.460709214210510254e+00,1.460600852966308594e+00,1.460492372512817383e+00,1.460384011268615723e+00,1.460275650024414062e+00,1.460167407989501953e+00,1.460058927536010742e+00,1.459950685501098633e+00,1.459842324256896973e+00,1.459734082221984863e+00,1.459625840187072754e+00,1.459517598152160645e+00,1.459409475326538086e+00,1.459301114082336426e+00,1.459192991256713867e+00,1.459084749221801758e+00,1.458976626396179199e+00,1.458868503570556641e+00,1.458760380744934082e+00,1.458652257919311523e+00,1.458544135093688965e+00,1.458436012268066406e+00,1.458328008651733398e+00
1.349062442779541016e+00,1.348970055580139160e+00,1.348877549171447754e+00,1.348785161972045898e+00,1.348692655563354492e+00,1.348600268363952637e+00,1.348507761955261230e+00,1.348415493965148926e+00,1.348323106765747070e+00,1.348230719566345215e+00,1.348138451576232910e+00,1.348046064376831055e+00,1.347953796386718750e+00,1.347861409187316895e+00,1.347769141197204590e+00,1.347676753997802734e+00,1.347584486007690430e+00,1.347492218017578125e+00,1.347400069236755371e+00,1.347307801246643066e+00,1.347215533256530762e+00,1.347123265266418457e+00,1.347031116485595703e+00,1.346938967704772949e+00,1.346846818923950195e+00,1.346754550933837891e+00,1.346662521362304688e+00,1.346570253372192383e+00,1.346478223800659180e+00,1.346386075019836426e+00,1.346293926239013672e+00,1.346201896667480469e+00,1.346109747886657715e+00,1.346017837524414062e+00,1.345925688743591309e+00,1.345833659172058105e+00,1.345741629600524902e+00,1.267909526824951172e+00,1.251668930053710938e+00,1.239343881607055664e+00,1.236756443977355957e+00,1.239153385162353516e+00,1.345189690589904785e+00,1.345097780227661133e+00,1.345005869865417480e+00,1.344913959503173828e+00,1.344822049140930176e+00,1.344730138778686523e+00,1.344638228416442871e+00,1.344546437263488770e+00,1.344454646110534668e+00,1.344362735748291016e+00,1.344270944595336914e+00,1.344179034233093262e+00,1.344087362289428711e+00,1.343995451927185059e+00,1.343903779983520508e+00,1.343811869621276855e+00,1.343720197677612305e+00,1.343628406524658203e+00,1.343536734580993652e+00,1.343444943428039551e+00,1.343353271484375000e+00,1.343261599540710449e+00,1.343169927597045898e+00,1.343078255653381348e+00,1.342986583709716797e+00,1.342894911766052246e+00,1.342803359031677246e+00,1.342711687088012695e+00,1.342620134353637695e+00,1.342528581619262695e+00,1.342437028884887695e+00,1.342345476150512695e+00,1.342253804206848145e+00,1.342162370681762695e+00,1.342070817947387695e+00,1.341979265213012695e+00,1.341887712478637695e+00,1.341796278953552246e+00
1.248738288879394531e+00,1.248659133911132812e+00,1.248579859733581543e+00,1.248500704765319824e+00,1.248421430587768555e+00,1.248342275619506836e+00,1.248263120651245117e+00,1.248183965682983398e+00,1.248104691505432129e+00,1.248025655746459961e+00,1.247946500778198242e+00,1.247867345809936523e+00,1.247788310050964355e+00,1.247709155082702637e+00,1.247630119323730469e+00,1.247550964355468750e+00,1.247471928596496582e+00,1.247392773628234863e+00,1.247313737869262695e+00,1.247234702110290527e+00,1.247155666351318359e+00,1.247076630592346191e+00,1.246997594833374023e+00,1.246918559074401855e+00,1.246839642524719238e+00,1.246760606765747070e+00,1.246681690216064453e+00,1.246602654457092285e+00,1.246523737907409668e+00,1.246444702148437500e+00,1.246365904808044434e+00,1.246286988258361816e+00,1.246207952499389648e+00,1.246129155158996582e+00,1.246050238609313965e+00,1.245971322059631348e+00,1.245892405509948730e+00,1.245813608169555664e+00,1.240089535713195801e+00,1.229098677635192871e+00,1.223756432533264160e+00,1.220107674598693848e+00,1.245419383049011230e+00,1.245340585708618164e+00,1.245261788368225098e+00,1.245182991027832031e+00,1.245104193687438965e+00,1.245025396347045898e+00,1.244946599006652832e+00,1.244867920875549316e+00,1.244789123535156250e+00,1.244710445404052734e+00,1.244631648063659668e+00,1.244553089141845703e+00,1.244474411010742188e+00,1.244395613670349121e+00,1.244317054748535156e+00,1.244238257408142090e+00,1.244159698486328125e+00,1.244081020355224609e+00,1.244002342224121094e+00,1.243923664093017578e+00,1.243845105171203613e+00,1.243766546249389648e+00,1.243687987327575684e+00,1.243609309196472168e+00,1.243530750274658203e+00,1.243452191352844238e+00,1.243373632431030273e+00,1.243295073509216309e+00,1.243216514587402344e+00,1.243137955665588379e+00,1.243059515953063965e+00,1.242980957031250000e+00,1.242902517318725586e+00,1.242824077606201172e+00,1.242745518684387207e+00,1.242667078971862793e+00,1.242588639259338379e+00,1.242510199546813965e+00
1.162302732467651367e+00,1.162234067916870117e+00,1.162165403366088867e+00,1.162096858024597168e+00,1.162028193473815918e+00,1.161959648132324219e+00,1.161890983581542969e+00,1.161822438240051270e+00,1.161753773689270020e+00,1.161685228347778320e+00,1.161616683006286621e+00,1.161548137664794922e+00,1.161479592323303223e+00,1.161411046981811523e+00,1.161342501640319824e+00,1.161273956298828125e+00,1.161205530166625977e+00,1.161136865615844727e+00,1.161068439483642578e+00,1.160999894142150879e+00,1.160931468009948730e+00,1.160862922668457031e+00,1.160794496536254883e+00,1.160726070404052734e+00,1.160657644271850586e+00,1.160589098930358887e+00,1.160520672798156738e+00,1.160452246665954590e+00,1.160383820533752441e+00,1.160315394401550293e+00,1.160247087478637695e+00,1.160178542137145996e+00,1.160110235214233398e+00,1.160041809082031250e+00,1.159973502159118652e+00,1.159905195236206055e+00,1.159836769104003906e+00,1.159768462181091309e+00,1.159700036048889160e+00,1.159631729125976562e+00,1.159563422203063965e+00,1.159495115280151367e+00,1.159426808357238770e+00,1.159358501434326172e+00,1.159290194511413574e+00,1.159221887588500977e+00,1.159153580665588379e+00,1.159085392951965332e+00,1.159017086029052734e+00,1.158948779106140137e+00,1.158880591392517090e+00,1.158812403678894043e+00,1.158744096755981445e+00,1.158675909042358398e+00,1.158607602119445801e+00,1.158539414405822754e+00,1.158471345901489258e+00,1.158403038978576660e+00,1.158334970474243164e+00,1.158266782760620117e+00,1.158198595046997070e+00,1.158130407333374023e+00,1.158062338829040527e+00,1.157994151115417480e+00,1.157926082611083984e+00,1.157857894897460938e+00,1.157789826393127441e+00,1.157721638679504395e+00,1.157653570175170898e+00,1.157585501670837402e+00,1.157517433166503906e+00,1.157449364662170410e+00,1.157381296157836914e+00,1.157313227653503418e+00,1.157245159149169922e+00,1.157177090644836426e+00,1.157109022140502930e+00,1.157041072845458984e+00,1.156973004341125488e+00,1.156905055046081543e+00
1.087058305740356445e+00,1.086998224258422852e+00,1.086938142776489258e+00,1.086878180503845215e+00,1.086818099021911621e+00,1.086758136749267578e+00,1.086698174476623535e+00,1.086638212203979492e+00,1.086578130722045898e+00,1.086518168449401855e+00,1.086458206176757812e+00,1.086398243904113770e+00,1.086338162422180176e+00,1.086278319358825684e+00,1.086218237876892090e+00,1.086158394813537598e+00,1.086098432540893555e+00,1.086038470268249512e+00,1.085978627204895020e+00,1.085918664932250977e+00,1.085858821868896484e+00,1.085798859596252441e+00,1.085739016532897949e+00,1.085679054260253906e+00,1.085619211196899414e+00,1.085559248924255371e+00,1.085499405860900879e+00,1.085439562797546387e+00,1.085379719734191895e+00,1.085319757461547852e+00,1.085260033607482910e+00,1.085200071334838867e+00,1.085140347480773926e+00,1.085080385208129883e+00,1.085020661354064941e+00,1.084960818290710449e+00,1.084900975227355957e+00,1.084841251373291016e+00,1.084781408309936523e+00,1.084721684455871582e+00,1.084661841392517090e+00,1.084602117538452148e+00,1.084542274475097656e+00,1.084482550621032715e+00,1.084422707557678223e+00,1.084363102912902832e+00,1.084303259849548340e+00,1.084243535995483398e+00,1.084183812141418457e+00,1.084124088287353516e+00,1.084064364433288574e+00,1.084004640579223633e+00,1.083944916725158691e+00,1.083885312080383301e+00,1.083825588226318359e+00,1.083765864372253418e+00,1.083706140518188477e+00,1.083646535873413086e+00,1.083586931228637695e+00,1.083527207374572754e+00,1.083467602729797363e+00,1.083407878875732422e+00,1.083348274230957031e+00,1.083288669586181641e+00,1.083229064941406250e+00,1.083169460296630859e+00,1.083109855651855469e+00,1.083050251007080078e+00,1.082990646362304688e+00,1.082931041717529297e+00,1.082871437072753906e+00,1.082811832427978516e+00,1.082752346992492676e+00,1.082692742347717285e+00,1.082633137702941895e+00,1.082573533058166504e+00,1.082514047622680664e+00,1.082454442977905273e+00,1.082394957542419434e+00,1.082335472106933594e+00
1.020963788032531738e+00,1.020910859107971191e+00,1.020857810974121094e+00,1.020804882049560547e+00,1.020751953125000000e+00,1.020699024200439453e+00,1.020646095275878906e+00,1.020593166351318359e+00,1.020540237426757812e+00,1.020487308502197266e+00,1.020434379577636719e+00,1.020381569862365723e+00,1.020328640937805176e+00,1.020275712013244629e+00,1.020222783088684082e+00,1.020169973373413086e+00,1.020117044448852539e+00,1.020064234733581543e+00,1.020011305809020996e+00,1.019958496093750000e+00,1.019905686378479004e+00,1.019852757453918457e+00,1.019799947738647461e+00,1.019747018814086914e+00,1.019694209098815918e+00,1.019641399383544922e+00,1.019588589668273926e+00,1.019535779953002930e+00,1.019482970237731934e+00,1.019430160522460938e+00,1.019377350807189941e+00,1.019324541091918945e+00,1.019271731376647949e+00,1.019218921661376953e+00,1.019166231155395508e+00,1.019113421440124512e+00,1.019060611724853516e+00,1.019007802009582520e+00,1.018955111503601074e+00,1.018902420997619629e+00,1.018849611282348633e+00,1.018796920776367188e+00,1.018744111061096191e+00,1.018691420555114746e+00,1.018638730049133301e+00,1.018586039543151855e+00,1.018533229827880859e+00,1.018480539321899414e+00,1.018427848815917969e+00,1.018375158309936523e+00,1.018322467803955078e+00,1.018269777297973633e+00,1.018217086791992188e+00,1.018164396286010742e+00,1.018111705780029297e+00,1.018059015274047852e+00,1.018006324768066406e+00,1.017953753471374512e+00,1.017901062965393066e+00,1.017848491668701172e+00,1.017795801162719727e+00,1.017743229866027832e+00,1.017690539360046387e+00,1.017637968063354492e+00,1.017585277557373047e+00,1.017532706260681152e+00,1.017480134963989258e+00,1.017427444458007812e+00,1.017374873161315918e+00,1.017322301864624023e+00,1.017269730567932129e+00,1.017217159271240234e+00,1.017164587974548340e+00,1.017112016677856445e+00,1.017059445381164551e+00,1.017006874084472656e+00,1.016954302787780762e+00,1.016901731491088867e+00,1.016849279403686523e+00,1.016796708106994629e+00
