5.000000000000000000e+00,5.000000000000000000e+00,5.000000000000000000e+00,5.000000000000000000e+00,5.000000000000000000e+00,5.000000000000000000e+00,5.000000000000000000e+00,5.000000000000000000e+00,5.000000000000000000e+00,5.000000000000000000e+00,5.000000000000000000e+00,5.000000000000000000e+00,5.000000000000000000e+00,5.000000000000000000e+00,5.000000000000000000e+00,5.000000000000000000e+00,5.000000000000000000e+00,5.000000000000000000e+00,5.000000000000000000e+00,5.000000000000000000e+00,5.000000000000000000e+00,5.000000000000000000e+00,5.000000000000000000e+00,5.000000000000000000e+00,5.000000000000000000e+00,5.000000000000000000e+00,5.000000000000000000e+00,5.000000000000000000e+00,5.000000000000000000e+00,5.000000000000000000e+00,5.000000000000000000e+00,5.000000000000000000e+00,5.000000000000000000e+00,5.000000000000000000e+00,5.000000000000000000e+00,5.000000000000000000e+00,5.000000000000000000e+00,5.000000000000000000e+00,5.000000000000000000e+00,5.000000000000000000e+00,5.000000000000000000e+00,5.000000000000000000e+00,4.321208477020263672e+00,4.169765472412109375e+00,4.028577804565429688e+00,3.896638870239257812e+00,3.773067474365234375e+00,3.657093048095703125e+00,3.548035144805908203e+00,3.445293426513671875e+00,3.348334550857543945e+00,3.256683588027954102e+00,3.169916152954101562e+00,1.026234149932861328e+00,9.983135461807250977e-01,9.812588691711425781e-01,9.680762290954589844e-01,9.627358913421630859e-01,9.679749011993408203e-01,1.036561727523803711e+00,1.034670829772949219e+00,1.032949924468994141e+00,1.031252026557922363e+00,1.036249041557312012e+00,1.097168922424316406e+00,1.081391572952270508e+00,1.064754605293273926e+00,1.049443721771240234e+00,1.035438895225524902e+00,1.021677613258361816e+00,1.017341375350952148e+00,1.014690399169921875e+00,1.012053251266479492e+00,1.009429693222045898e+00,1.998506903648376465e+00,1.965492129325866699e+00,1.933550238609313965e+00,1.902629971504211426e+00,1.872683048248291016e+00,1.843664407730102539e+00
5.000000000000000000e+00,5.000000000000000000e+00,5.000000000000000000e+00,5.000000000000000000e+00,5.000000000000000000e+00,5.000000000000000000e+00,5.000000000000000000e+00,5.000000000000000000e+00,5.000000000000000000e+00,5.000000000000000000e+00,5.000000000000000000e+00,5.000000000000000000e+00,5.000000000000000000e+00,5.000000000000000000e+00,5.000000000000000000e+00,5.000000000000000000e+00,5.000000000000000000e+00,5.000000000000000000e+00,5.000000000000000000e+00,5.000000000000000000e+00,5.000000000000000000e+00,5.000000000000000000e+00,5.000000000000000000e+00,5.000000000000000000e+00,5.000000000000000000e+00,5.000000000000000000e+00,5.000000000000000000e+00,5.000000000000000000e+00,5.000000000000000000e+00,5.000000000000000000e+00,5.000000000000000000e+00,5.000000000000000000e+00,5.000000000000000000e+00,5.000000000000000000e+00,5.000000000000000000e+00,5.000000000000000000e+00,5.000000000000000000e+00,5.000000000000000000e+00,5.000000000000000000e+00,5.000000000000000000e+00,5.000000000000000000e+00,4.484185218811035156e+00,4.321318626403808594e+00,4.169867992401123047e+00,4.028673648834228516e+00,3.896728515625000000e+00,3.773151397705078125e+00,3.657171726226806641e+00,3.548109054565429688e+00,3.445363283157348633e+00,3.348400592803955078e+00,3.256746053695678711e+00,3.169975519180297852e+00,1.173355221748352051e+00,9.926835298538208008e-01,9.729447960853576660e-01,9.582120180130004883e-01,9.439038038253784180e-01,9.547852873802185059e-01,9.546245932579040527e-01,1.035406708717346191e+00,1.033520221710205078e+00,1.031747102737426758e+00,1.032512307167053223e+00,1.083716511726379395e+00,1.079112648963928223e+00,1.063269615173339844e+00,1.049196362495422363e+00,1.035069465637207031e+00,1.021026968955993652e+00,1.009678483009338379e+00,1.008251667022705078e+00,1.005647778511047363e+00,1.003057241439819336e+00,1.000480175018310547e+00,1.965514898300170898e+00,1.933572292327880859e+00,1.902651309967041016e+00,1.872703790664672852e+00,1.843684315681457520e+00
5.000000000000000000e+00,5.000000000000000000e+00,5.000000000000000000e+00,5.000000000000000000e+00,5.000000000000000000e+00,5.000000000000000000e+00,5.000000000000000000e+00,5.000000000000000000e+00,5.000000000000000000e+00,5.000000000000000000e+00,5.000000000000000000e+00,5.000000000000000000e+00,5.000000000000000000e+00,5.000000000000000000e+00,5.000000000000000000e+00,5.000000000000000000e+00,5.000000000000000000e+00,5.000000000000000000e+00,5.000000000000000000e+00,5.000000000000000000e+00,5.000000000000000000e+00,5.000000000000000000e+00,5.000000000000000000e+00,5.000000000000000000e+00,5.000000000000000000e+00,5.000000000000000000e+00,5.000000000000000000e+00,5.000000000000000000e+00,5.000000000000000000e+00,5.000000000000000000e+00,5.000000000000000000e+00,5.000000000000000000e+00,5.000000000000000000e+00,5.000000000000000000e+00,5.000000000000000000e+00,5.000000000000000000e+00,5.000000000000000000e+00,5.000000000000000000e+00,5.000000000000000000e+00,5.000000000000000000e+00,4.659937381744384766e+00,4.484303951263427734e+00,4.321428298950195312e+00,4.169970035552978516e+00,4.028769016265869141e+00,3.896817445755004883e+00,3.773234844207763672e+00,3.657250642776489258e+00,3.548183441162109375e+00,3.445433139801025391e+00,3.348466396331787109e+00,3.256808519363403320e+00,3.170034408569335938e+00,3.087764501571655273e+00,9.886161684989929199e-01,9.653117656707763672e-01,9.502104520797729492e-01,9.387685060501098633e-01,9.327520728111267090e-01,9.521961212158203125e-01,9.429947733879089355e-01,1.034254431724548340e+00,1.032371997833251953e+00,1.030547022819519043e+00,1.072735905647277832e+00,1.078846096992492676e+00,1.063092589378356934e+00,1.048817157745361328e+00,1.034365534782409668e+00,1.020259380340576172e+00,1.006379127502441406e+00,9.996023774147033691e-01,9.983592033386230469e-01,9.967649579048156738e-01,9.942198991775512695e-01,1.965537428855895996e+00,1.933594346046447754e+00,1.902672648429870605e+00,1.872724413871765137e+00,1.843704342842102051e+00
5.000000000000000000e+00,5.000000000000000000e+00,5.000000000000000000e+00,5.000000000000000000e+00,5.000000000000000000e+00,5.000000000000000000e+00,5.000000000000000000e+00,5.000000000000000000e+00,5.000000000000000000e+00,5.000000000000000000e+00,5.000000000000000000e+00,5.000000000000000000e+00,5.000000000000000000e+00,5.000000000000000000e+00,5.000000000000000000e+00,5.000000000000000000e+00,5.000000000000000000e+00,5.000000000000000000e+00,5.000000000000000000e+00,5.000000000000000000e+00,5.000000000000000000e+00,5.000000000000000000e+00,5.000000000000000000e+00,5.000000000000000000e+00,5.000000000000000000e+00,5.000000000000000000e+00,5.000000000000000000e+00,5.000000000000000000e+00,5.000000000000000000e+00,5.000000000000000000e+00,5.000000000000000000e+00,5.000000000000000000e+00,5.000000000000000000e+00,5.000000000000000000e+00,5.000000000000000000e+00,5.000000000000000000e+00,5.000000000000000000e+00,5.000000000000000000e+00,5.000000000000000000e+00,4.850028038024902344e+00,4.660065174102783203e+00,4.484422206878662109e+00,4.321537971496582031e+00,4.170072555541992188e+00,4.028864383697509766e+00,3.896906614303588867e+00,3.773319005966186523e+00,3.657329082489013672e+00,3.548257350921630859e+00,3.445502996444702148e+00,3.348532438278198242e+00,3.256870746612548828e+00,3.170093774795532227e+00,3.087820768356323242e+00,9.835514426231384277e-01,9.616917371749877930e-01,9.440007805824279785e-01,9.465698003768920898e-01,9.204524159431457520e-01,1.040015816688537598e+00,9.346945881843566895e-01,1.036031484603881836e+00,1.034050703048706055e+00,1.032077550888061523e+00,1.073179841041564941e+00,1.084263086318969727e+00,1.063274979591369629e+00,1.048057436943054199e+00,1.033581018447875977e+00,1.019477009773254395e+00,1.005617856979370117e+00,9.921304583549499512e-01,9.897254109382629395e-01,9.885066151618957520e-01,9.872907996177673340e-01,9.855369329452514648e-01,1.933616161346435547e+00,1.902693867683410645e+00,1.872745156288146973e+00,1.843724489212036133e+00
5.000000000000000000e+00,5.000000000000000000e+00,5.000000000000000000e+00,5.000000000000000000e+00,5.000000000000000000e+00,5.000000000000000000e+00,5.000000000000000000e+00,5.000000000000000000e+00,5.000000000000000000e+00,5.000000000000000000e+00,5.000000000000000000e+00,5.000000000000000000e+00,5.000000000000000000e+00,5.000000000000000000e+00,5.000000000000000000e+00,5.000000000000000000e+00,5.000000000000000000e+00,5.000000000000000000e+00,5.000000000000000000e+00,5.000000000000000000e+00,5.000000000000000000e+00,5.000000000000000000e+00,5.000000000000000000e+00,5.000000000000000000e+00,5.000000000000000000e+00,5.000000000000000000e+00,5.000000000000000000e+00,5.000000000000000000e+00,5.000000000000000000e+00,5.000000000000000000e+00,5.000000000000000000e+00,5.000000000000000000e+00,5.000000000000000000e+00,5.000000000000000000e+00,5.000000000000000000e+00,5.000000000000000000e+00,5.000000000000000000e+00,5.000000000000000000e+00,5.000000000000000000e+00,4.850166320800781250e+00,4.660192966461181641e+00,4.484539985656738281e+00,4.321648120880126953e+00,4.170175075531005859e+00,4.028959751129150391e+00,3.896996259689331055e+00,3.773402452468872070e+00,3.657407522201538086e+00,3.548331737518310547e+00,3.445572853088378906e+00,3.348598241806030273e+00,3.256933450698852539e+00,3.170152902603149414e+00,3.087876796722412109e+00,9.834926128387451172e-01,9.621393084526062012e-01,9.376166462898254395e-01,9.401700496673583984e-01,9.183779358863830566e-01,9.050137996673583984e-01,9.373221993446350098e-01,1.037932872772216797e+00,1.035944700241088867e+00,1.034351348876953125e+00,1.074426770210266113e+00,1.088889837265014648e+00,1.066019654273986816e+00,1.047251939773559570e+00,1.032797574996948242e+00,1.018695831298828125e+00,1.004857778549194336e+00,9.913907647132873535e-01,9.812395572662353516e-01,9.800416231155395508e-01,9.788465499877929688e-01,9.778669476509094238e-01,1.933638215065002441e+00,1.902715206146240234e+00,1.872765660285949707e+00,1.843744277954101562e+00
5.000000000000000000e+00,5.000000000000000000e+00,5.000000000000000000e+00,5.000000000000000000e+00,5.000000000000000000e+00,5.000000000000000000e+00,5.000000000000000000e+00,5.000000000000000000e+00,5.000000000000000000e+00,5.000000000000000000e+00,5.000000000000000000e+00,5.000000000000000000e+00,5.000000000000000000e+00,5.000000000000000000e+00,5.000000000000000000e+00,5.000000000000000000e+00,5.000000000000000000e+00,5.000000000000000000e+00,5.000000000000000000e+00,5.000000000000000000e+00,5.000000000000000000e+00,5.000000000000000000e+00,5.000000000000000000e+00,5.000000000000000000e+00,5.000000000000000000e+00,5.000000000000000000e+00,5.000000000000000000e+00,5.000000000000000000e+00,5.000000000000000000e+00,5.000000000000000000e+00,5.000000000000000000e+00,5.000000000000000000e+00,5.000000000000000000e+00,5.000000000000000000e+00,5.000000000000000000e+00,5.000000000000000000e+00,5.000000000000000000e+00,5.000000000000000000e+00,5.000000000000000000e+00,4.850304603576660156e+00,4.660320758819580078e+00,4.484658718109130859e+00,4.321757793426513672e+00,4.170277118682861328e+00,4.029055595397949219e+00,3.897085428237915039e+00,3.773486137390136719e+00,3.657486438751220703e+00,3.548405647277832031e+00,3.445642471313476562e+00,3.348664522171020508e+00,3.256995677947998047e+00,3.170211791992187500e+00,3.087933063507080078e+00,9.860492348670959473e-01,9.548844099044799805e-01,9.408710598945617676e-01,9.237095713615417480e-01,1.049828529357910156e+00,8.977488875389099121e-01,1.041844248771667480e+00,1.039841175079345703e+00,1.037845849990844727e+00,1.038032293319702148e+00,1.078235507011413574e+00,1.091653466224670410e+00,1.068748354911804199e+00,1.046784520149230957e+00,1.032015442848205566e+00,1.017915844917297363e+00,1.004098892211914062e+00,9.906519651412963867e-01,9.773370623588562012e-01,9.723548293113708496e-01,9.715012311935424805e-01,9.706491827964782715e-01,9.697985053062438965e-01,1.902736544609069824e+00,1.872786283493041992e+00,1.843764305114746094e+00
3.448330640792846680e+00,5.000000000000000000e+00,5.000000000000000000e+00,5.000000000000000000e+00,5.000000000000000000e+00,5.000000000000000000e+00,5.000000000000000000e+00,5.000000000000000000e+00,5.000000000000000000e+00,5.000000000000000000e+00,5.000000000000000000e+00,5.000000000000000000e+00,5.000000000000000000e+00,5.000000000000000000e+00,5.000000000000000000e+00,5.000000000000000000e+00,5.000000000000000000e+00,5.000000000000000000e+00,5.000000000000000000e+00,5.000000000000000000e+00,5.000000000000000000e+00,5.000000000000000000e+00,5.000000000000000000e+00,5.000000000000000000e+00,5.000000000000000000e+00,5.000000000000000000e+00,5.000000000000000000e+00,5.000000000000000000e+00,5.000000000000000000e+00,5.000000000000000000e+00,5.000000000000000000e+00,5.000000000000000000e+00,5.000000000000000000e+00,5.000000000000000000e+00,5.000000000000000000e+00,5.000000000000000000e+00,5.000000000000000000e+00,5.000000000000000000e+00,5.000000000000000000e+00,4.850443363189697266e+00,4.660448074340820312e+00,4.484776973724365234e+00,4.321867942810058594e+00,4.170379161834716797e+00,4.029150962829589844e+00,3.897175073623657227e+00,3.773570299148559570e+00,3.657565116882324219e+00,3.548479557037353516e+00,3.445712566375732422e+00,3.348730325698852539e+00,3.257057905197143555e+00,3.170271158218383789e+00,3.087989091873168945e+00,9.823462367057800293e-01,9.514344334602355957e-01,1.093740701675415039e+00,9.147729277610778809e-01,1.054676294326782227e+00,1.047017455101013184e+00,1.044185996055603027e+00,1.041756629943847656e+00,1.039753913879394531e+00,1.041739463806152344e+00,1.079704046249389648e+00,1.094515085220336914e+00,1.071491003036499023e+00,1.049415588378906250e+00,1.031234383583068848e+00,1.017137050628662109e+00,1.003341078758239746e+00,9.894173145294189453e-01,9.755655527114868164e-01,9.646570682525634766e-01,9.639737010002136230e-01,9.635371565818786621e-01,9.626988768577575684e-01,9.618621468544006348e-01,1.872807025909423828e+00,1.843784451484680176e+00
3.403083801269531250e+00,5.000000000000000000e+00,5.000000000000000000e+00,5.000000000000000000e+00,5.000000000000000000e+00,5.000000000000000000e+00,5.000000000000000000e+00,5.000000000000000000e+00,5.000000000000000000e+00,5.000000000000000000e+00,5.000000000000000000e+00,5.000000000000000000e+00,5.000000000000000000e+00,5.000000000000000000e+00,5.000000000000000000e+00,5.000000000000000000e+00,5.000000000000000000e+00,5.000000000000000000e+00,5.000000000000000000e+00,5.000000000000000000e+00,5.000000000000000000e+00,5.000000000000000000e+00,5.000000000000000000e+00,5.000000000000000000e+00,5.000000000000000000e+00,5.000000000000000000e+00,5.000000000000000000e+00,5.000000000000000000e+00,5.000000000000000000e+00,5.000000000000000000e+00,5.000000000000000000e+00,5.000000000000000000e+00,5.000000000000000000e+00,5.000000000000000000e+00,5.000000000000000000e+00,5.000000000000000000e+00,5.000000000000000000e+00,5.000000000000000000e+00,5.000000000000000000e+00,4.850581645965576172e+00,4.660575866699218750e+00,4.484895229339599609e+00,4.321977615356445312e+00,4.170481681823730469e+00,4.029246330261230469e+00,3.897264242172241211e+00,3.773653745651245117e+00,3.657644033432006836e+00,3.548553705215454102e+00,3.445782184600830078e+00,3.348796367645263672e+00,3.257120609283447266e+00,3.170330047607421875e+00,3.088045120239257812e+00,9.780176281929016113e-01,9.479038715362548828e-01,9.340208768844604492e-01,9.101033210754394531e-01,1.059569001197814941e+00,1.049510717391967773e+00,1.046665787696838379e+00,1.043836236000061035e+00,1.041668891906738281e+00,1.045473337173461914e+00,1.081176638603210449e+00,1.098495602607727051e+00,1.074588060379028320e+00,1.052059769630432129e+00,1.030769824981689453e+00,1.016359567642211914e+00,1.001799821853637695e+00,9.876017570495605469e-01,9.738004207611083984e-01,9.630050659179687500e-01,9.527902007102966309e-01,9.548140764236450195e-01,9.557024240493774414e-01,9.548778533935546875e-01,1.872827529907226562e+00,1.843804478645324707e+00
3.413025856018066406e+00,3.514382839202880859e+00,5.000000000000000000e+00,5.000000000000000000e+00,5.000000000000000000e+00,5.000000000000000000e+00,5.000000000000000000e+00,5.000000000000000000e+00,5.000000000000000000e+00,5.000000000000000000e+00,5.000000000000000000e+00,5.000000000000000000e+00,5.000000000000000000e+00,5.000000000000000000e+00,5.000000000000000000e+00,5.000000000000000000e+00,5.000000000000000000e+00,5.000000000000000000e+00,5.000000000000000000e+00,5.000000000000000000e+00,5.000000000000000000e+00,5.000000000000000000e+00,5.000000000000000000e+00,5.000000000000000000e+00,5.000000000000000000e+00,5.000000000000000000e+00,5.000000000000000000e+00,5.000000000000000000e+00,5.000000000000000000e+00,5.000000000000000000e+00,5.000000000000000000e+00,5.000000000000000000e+00,5.000000000000000000e+00,5.000000000000000000e+00,5.000000000000000000e+00,5.000000000000000000e+00,5.000000000000000000e+00,5.000000000000000000e+00,5.000000000000000000e+00,4.850720405578613281e+00,4.660703659057617188e+00,4.485013484954833984e+00,4.322087287902832031e+00,4.170584201812744141e+00,4.029342174530029297e+00,3.897353410720825195e+00,3.773737907409667969e+00,3.657722473144531250e+00,3.548627614974975586e+00,3.445852279663085938e+00,3.348862409591674805e+00,3.257182836532592773e+00,3.170389413833618164e+00,3.088101387023925781e+00,3.009976863861083984e+00,1.138450741767883301e+00,1.106791496276855469e+00,1.084958910942077637e+00,1.064507246017456055e+00,1.052015781402587891e+00,1.049157261848449707e+00,1.046314358711242676e+00,1.043591141700744629e+00,1.049234032630920410e+00,1.082653284072875977e+00,2.354701042175292969e+00,1.079769134521484375e+00,1.056661128997802734e+00,1.034521460533142090e+00,1.014496326446533203e+00,9.999387860298156738e-01,9.857928752899169922e-01,9.720416665077209473e-01,9.613587856292724609e-01,9.511784911155700684e-01,9.438348412513732910e-01,9.458268880844116211e-01,9.478273987770080566e-01,9.471827745437622070e-01,1.843824386596679688e+00
3.423975706100463867e+00,5.000000000000000000e+00,5.000000000000000000e+00,5.000000000000000000e+00,5.000000000000000000e+00,5.000000000000000000e+00,5.000000000000000000e+00,5.000000000000000000e+00,5.000000000000000000e+00,5.000000000000000000e+00,5.000000000000000000e+00,5.000000000000000000e+00,5.000000000000000000e+00,5.000000000000000000e+00,5.000000000000000000e+00,5.000000000000000000e+00,5.000000000000000000e+00,5.000000000000000000e+00,5.000000000000000000e+00,5.000000000000000000e+00,5.000000000000000000e+00,5.000000000000000000e+00,5.000000000000000000e+00,5.000000000000000000e+00,5.000000000000000000e+00,5.000000000000000000e+00,5.000000000000000000e+00,5.000000000000000000e+00,5.000000000000000000e+00,5.000000000000000000e+00,5.000000000000000000e+00,5.000000000000000000e+00,5.000000000000000000e+00,5.000000000000000000e+00,5.000000000000000000e+00,5.000000000000000000e+00,5.000000000000000000e+00,5.000000000000000000e+00,5.000000000000000000e+00,4.850858211517333984e+00,4.660831451416015625e+00,4.485132217407226562e+00,4.322197437286376953e+00,4.170686244964599609e+00,4.029437541961669922e+00,3.897443056106567383e+00,3.773821353912353516e+00,3.657801151275634766e+00,3.548702001571655273e+00,3.445922136306762695e+00,3.348928213119506836e+00,3.257245540618896484e+00,3.170448541641235352e+00,3.088157176971435547e+00,3.010030269622802734e+00,1.145491123199462891e+00,1.114271163940429688e+00,1.090137362480163574e+00,1.069491863250732422e+00,1.054532885551452637e+00,1.051660776138305664e+00,1.048804283142089844e+00,1.045963287353515625e+00,1.051723599433898926e+00,1.084133863449096680e+00,2.354733467102050781e+00,1.085000395774841309e+00,1.061670422554016113e+00,1.038794398307800293e+00,1.016417384147644043e+00,9.980843663215637207e-01,9.839906096458435059e-01,9.702891707420349121e-01,9.597181081771850586e-01,9.495723843574523926e-01,9.396389126777648926e-01,9.350522756576538086e-01,9.370073676109313965e-01,9.389705657958984375e-01,9.396107792854309082e-01
3.482244491577148438e+00,3.502536773681640625e+00,5.000000000000000000e+00,5.000000000000000000e+00,5.000000000000000000e+00,5.000000000000000000e+00,5.000000000000000000e+00,5.000000000000000000e+00,5.000000000000000000e+00,5.000000000000000000e+00,5.000000000000000000e+00,5.000000000000000000e+00,5.000000000000000000e+00,5.000000000000000000e+00,5.000000000000000000e+00,5.000000000000000000e+00,5.000000000000000000e+00,5.000000000000000000e+00,5.000000000000000000e+00,5.000000000000000000e+00,5.000000000000000000e+00,5.000000000000000000e+00,5.000000000000000000e+00,5.000000000000000000e+00,5.000000000000000000e+00,5.000000000000000000e+00,5.000000000000000000e+00,5.000000000000000000e+00,5.000000000000000000e+00,5.000000000000000000e+00,5.000000000000000000e+00,5.000000000000000000e+00,5.000000000000000000e+00,5.000000000000000000e+00,5.000000000000000000e+00,5.000000000000000000e+00,5.000000000000000000e+00,5.000000000000000000e+00,5.000000000000000000e+00,4.850996971130371094e+00,4.660959720611572266e+00,4.485249996185302734e+00,4.322307586669921875e+00,4.170788764953613281e+00,4.029532909393310547e+00,3.897532224655151367e+00,3.773905515670776367e+00,3.657880067825317383e+00,3.548775911331176758e+00,3.445991754531860352e+00,3.348994255065917969e+00,3.257307767868041992e+00,3.170507431030273438e+00,3.088213682174682617e+00,3.010083436965942383e+00,1.152619242668151855e+00,1.121123194694519043e+00,1.095455169677734375e+00,1.074825882911682129e+00,1.056312441825866699e+00,1.052773714065551758e+00,1.049960732460021973e+00,1.047162890434265137e+00,1.053289294242858887e+00,1.085618615150451660e+00,2.354766130447387695e+00,2.309066057205200195e+00,1.066615343093872070e+00,1.043037295341491699e+00,1.020479083061218262e+00,9.988760948181152344e-01,9.821949601173400879e-01,9.685431122779846191e-01,9.580830335617065430e-01,9.479716420173645020e-01,9.380714893341064453e-01,9.283760786056518555e-01,9.264315962791442871e-01,9.283506870269775391e-01,9.302778244018554688e-01
3.429618358612060547e+00,3.465396881103515625e+00,3.519041776657104492e+00,3.549194574356079102e+00,3.610382795333862305e+00,5.000000000000000000e+00,5.000000000000000000e+00,5.000000000000000000e+00,5.000000000000000000e+00,5.000000000000000000e+00,5.000000000000000000e+00,5.000000000000000000e+00,5.000000000000000000e+00,5.000000000000000000e+00,5.000000000000000000e+00,5.000000000000000000e+00,5.000000000000000000e+00,5.000000000000000000e+00,5.000000000000000000e+00,5.000000000000000000e+00,5.000000000000000000e+00,5.000000000000000000e+00,5.000000000000000000e+00,5.000000000000000000e+00,5.000000000000000000e+00,5.000000000000000000e+00,5.000000000000000000e+00,5.000000000000000000e+00,5.000000000000000000e+00,5.000000000000000000e+00,5.000000000000000000e+00,5.000000000000000000e+00,5.000000000000000000e+00,5.000000000000000000e+00,5.000000000000000000e+00,5.000000000000000000e+00,5.000000000000000000e+00,5.000000000000000000e+00,5.000000000000000000e+00,4.851135253906250000e+00,4.661087512969970703e+00,4.485368728637695312e+00,4.322417259216308594e+00,4.170890808105468750e+00,4.029628753662109375e+00,3.897621870040893555e+00,3.773989200592041016e+00,3.657958745956420898e+00,3.548850297927856445e+00,3.446061849594116211e+00,3.349060297012329102e+00,3.257369995117187500e+00,3.170566797256469727e+00,3.088269472122192383e+00,3.010136604309082031e+00,2.935859918594360352e+00,1.128809094429016113e+00,1.101342320442199707e+00,1.080492854118347168e+00,1.059617757797241211e+00,1.053451776504516602e+00,1.050635337829589844e+00,1.047833800315856934e+00,1.055001854896545410e+00,1.086977124214172363e+00,2.354798793792724609e+00,2.309097290039062500e+00,2.265136241912841797e+00,1.049857735633850098e+00,1.025033831596374512e+00,1.002798438072204590e+00,9.819300174713134766e-01,9.668033123016357422e-01,9.564533829689025879e-01,9.463763236999511719e-01,9.364737868309020996e-01,9.270471930503845215e-01,9.204568266868591309e-01,9.236770868301391602e-01,9.263157844543457031e-01
3.392907381057739258e+00,3.429277181625366211e+00,3.480856418609619141e+00,3.552279710769653320e+00,3.578800916671752930e+00,5.000000000000000000e+00,5.000000000000000000e+00,5.000000000000000000e+00,5.000000000000000000e+00,5.000000000000000000e+00,5.000000000000000000e+00,5.000000000000000000e+00,5.000000000000000000e+00,5.000000000000000000e+00,5.000000000000000000e+00,5.000000000000000000e+00,5.000000000000000000e+00,5.000000000000000000e+00,5.000000000000000000e+00,5.000000000000000000e+00,5.000000000000000000e+00,5.000000000000000000e+00,5.000000000000000000e+00,5.000000000000000000e+00,5.000000000000000000e+00,5.000000000000000000e+00,5.000000000000000000e+00,5.000000000000000000e+00,5.000000000000000000e+00,5.000000000000000000e+00,5.000000000000000000e+00,5.000000000000000000e+00,5.000000000000000000e+00,5.000000000000000000e+00,5.000000000000000000e+00,5.000000000000000000e+00,5.000000000000000000e+00,5.000000000000000000e+00,5.000000000000000000e+00,4.851274013519287109e+00,4.661214828491210938e+00,4.485486984252929688e+00,4.322527408599853516e+00,4.170993328094482422e+00,4.029724121093750000e+00,3.897711038589477539e+00,3.774072647094726562e+00,3.658037662506103516e+00,3.548924207687377930e+00,3.446131467819213867e+00,3.349126338958740234e+00,3.257432699203491211e+00,3.170625925064086914e+00,3.088325738906860352e+00,3.010190010070800781e+00,2.935910463333129883e+00,1.137066006660461426e+00,1.107293009757995605e+00,1.086220026016235352e+00,1.064999341964721680e+00,1.055164217948913574e+00,1.051310777664184570e+00,1.048505663871765137e+00,1.056720137596130371e+00,1.086046218872070312e+00,2.354831457138061523e+00,2.309128761291503906e+00,2.265166521072387695e+00,2.222846746444702148e+00,1.035251140594482422e+00,1.011105298995971680e+00,9.880600571632385254e-01,9.658163785934448242e-01,9.547181725502014160e-01,9.445917606353759766e-01,9.352853298187255859e-01,9.265224337577819824e-01,9.179220795631408691e-01,9.188558459281921387e-01,9.221875071525573730e-01
3.397491455078125000e+00,3.431324958801269531e+00,3.478402376174926758e+00,3.566565990447998047e+00,3.583691835403442383e+00,5.000000000000000000e+00,5.000000000000000000e+00,5.000000000000000000e+00,5.000000000000000000e+00,5.000000000000000000e+00,5.000000000000000000e+00,5.000000000000000000e+00,5.000000000000000000e+00,5.000000000000000000e+00,5.000000000000000000e+00,5.000000000000000000e+00,5.000000000000000000e+00,5.000000000000000000e+00,5.000000000000000000e+00,5.000000000000000000e+00,5.000000000000000000e+00,5.000000000000000000e+00,5.000000000000000000e+00,5.000000000000000000e+00,5.000000000000000000e+00,5.000000000000000000e+00,5.000000000000000000e+00,5.000000000000000000e+00,5.000000000000000000e+00,5.000000000000000000e+00,5.000000000000000000e+00,5.000000000000000000e+00,5.000000000000000000e+00,5.000000000000000000e+00,5.000000000000000000e+00,5.000000000000000000e+00,5.000000000000000000e+00,5.000000000000000000e+00,5.000000000000000000e+00,4.851412296295166016e+00,4.661342620849609375e+00,4.485605239868164062e+00,4.322637081146240234e+00,4.171095848083496094e+00,4.029819965362548828e+00,3.897800207138061523e+00,3.774156808853149414e+00,3.658116102218627930e+00,3.548998117446899414e+00,3.446201562881469727e+00,3.349192142486572266e+00,3.257494926452636719e+00,3.170685052871704102e+00,3.088381767272949219e+00,3.010243177413940430e+00,2.935961246490478516e+00,1.145042061805725098e+00,1.115133523941040039e+00,1.092008113861083984e+00,1.070435762405395508e+00,1.058200836181640625e+00,1.051987051963806152e+00,1.049178242683410645e+00,1.058443903923034668e+00,1.085116863250732422e+00,2.354864120483398438e+00,2.309160232543945312e+00,2.265196561813354492e+00,2.222875833511352539e+00,2.182107448577880859e+00,1.021045565605163574e+00,9.975502490997314453e-01,9.726057052612304688e-01,9.528516530990600586e-01,9.436713457107543945e-01,9.349150657653808594e-01,9.266248941421508789e-01,9.182615280151367188e-01,9.169841408729553223e-01,9.204899072647094727e-01
3.390128850936889648e+00,3.432716131210327148e+00,3.493039608001708984e+00,3.562647342681884766e+00,3.582826852798461914e+00,5.000000000000000000e+00,5.000000000000000000e+00,5.000000000000000000e+00,5.000000000000000000e+00,5.000000000000000000e+00,5.000000000000000000e+00,5.000000000000000000e+00,5.000000000000000000e+00,5.000000000000000000e+00,5.000000000000000000e+00,5.000000000000000000e+00,5.000000000000000000e+00,5.000000000000000000e+00,5.000000000000000000e+00,5.000000000000000000e+00,5.000000000000000000e+00,5.000000000000000000e+00,5.000000000000000000e+00,5.000000000000000000e+00,5.000000000000000000e+00,5.000000000000000000e+00,5.000000000000000000e+00,5.000000000000000000e+00,5.000000000000000000e+00,5.000000000000000000e+00,5.000000000000000000e+00,5.000000000000000000e+00,5.000000000000000000e+00,5.000000000000000000e+00,5.000000000000000000e+00,5.000000000000000000e+00,5.000000000000000000e+00,5.000000000000000000e+00,5.000000000000000000e+00,4.851550579071044922e+00,4.661470890045166016e+00,4.485723972320556641e+00,4.322747230529785156e+00,4.171198368072509766e+00,4.029915332794189453e+00,3.897889852523803711e+00,3.774240493774414062e+00,3.658194780349731445e+00,3.549072504043579102e+00,3.446271419525146484e+00,3.349258184432983398e+00,3.257557630538940430e+00,3.170744180679321289e+00,3.088437795639038086e+00,3.010296821594238281e+00,2.936012029647827148e+00,1.150912165641784668e+00,1.123190760612487793e+00,1.097858190536499023e+00,1.075927853584289551e+00,1.061254978179931641e+00,1.054018378257751465e+00,1.049851894378662109e+00,1.060173273086547852e+00,1.084189176559448242e+00,2.354896783828735352e+00,2.309191465377807617e+00,2.265226840972900391e+00,2.222904920578002930e+00,2.182135343551635742e+00,1.031183123588562012e+00,1.006406068801879883e+00,9.796501994132995605e-01,9.551745057106018066e-01,9.465228319168090820e-01,9.377065300941467285e-01,9.287051558494567871e-01,9.198749065399169922e-01,9.209483861923217773e-01,9.236791133880615234e-01
3.392919301986694336e+00,3.432213306427001953e+00,3.500515937805175781e+00,3.570480346679687500e+00,3.577857255935668945e+00,5.000000000000000000e+00,5.000000000000000000e+00,5.000000000000000000e+00,5.000000000000000000e+00,5.000000000000000000e+00,5.000000000000000000e+00,5.000000000000000000e+00,5.000000000000000000e+00,5.000000000000000000e+00,5.000000000000000000e+00,5.000000000000000000e+00,5.000000000000000000e+00,5.000000000000000000e+00,5.000000000000000000e+00,5.000000000000000000e+00,5.000000000000000000e+00,5.000000000000000000e+00,5.000000000000000000e+00,5.000000000000000000e+00,5.000000000000000000e+00,5.000000000000000000e+00,5.000000000000000000e+00,5.000000000000000000e+00,5.000000000000000000e+00,5.000000000000000000e+00,5.000000000000000000e+00,5.000000000000000000e+00,5.000000000000000000e+00,5.000000000000000000e+00,5.000000000000000000e+00,5.000000000000000000e+00,5.000000000000000000e+00,5.000000000000000000e+00,5.000000000000000000e+00,4.851689338684082031e+00,4.661598682403564453e+00,4.485842227935791016e+00,4.322856903076171875e+00,4.171300411224365234e+00,4.030010700225830078e+00,3.897979259490966797e+00,3.774324417114257812e+00,3.658273696899414062e+00,3.549146413803100586e+00,3.446341514587402344e+00,3.349324226379394531e+00,3.257619857788085938e+00,3.170803308486938477e+00,3.088494062423706055e+00,3.010349988937377930e+00,2.936062574386596680e+00,1.156842708587646484e+00,1.130706667900085449e+00,1.103771209716796875e+00,1.081476807594299316e+00,1.064326763153076172e+00,1.057048439979553223e+00,1.050526261329650879e+00,1.060852766036987305e+00,1.083262920379638672e+00,2.354929447174072266e+00,2.309222936630249023e+00,2.265257120132446289e+00,2.222934007644653320e+00,2.182163476943969727e+00,2.142861604690551758e+00,1.014019012451171875e+00,9.794247150421142578e-01,9.583056569099426270e-01,9.489581584930419922e-01,9.397913217544555664e-01,9.307998418807983398e-01,9.230262041091918945e-01,9.252772927284240723e-01,9.277871251106262207e-01
3.389228820800781250e+00,3.423830509185791016e+00,3.496879577636718750e+00,5.000000000000000000e+00,3.585659027099609375e+00,3.632399082183837891e+00,5.000000000000000000e+00,5.000000000000000000e+00,5.000000000000000000e+00,5.000000000000000000e+00,5.000000000000000000e+00,5.000000000000000000e+00,5.000000000000000000e+00,5.000000000000000000e+00,5.000000000000000000e+00,5.000000000000000000e+00,5.000000000000000000e+00,5.000000000000000000e+00,5.000000000000000000e+00,5.000000000000000000e+00,5.000000000000000000e+00,5.000000000000000000e+00,5.000000000000000000e+00,5.000000000000000000e+00,5.000000000000000000e+00,5.000000000000000000e+00,5.000000000000000000e+00,5.000000000000000000e+00,5.000000000000000000e+00,5.000000000000000000e+00,5.000000000000000000e+00,5.000000000000000000e+00,5.000000000000000000e+00,5.000000000000000000e+00,5.000000000000000000e+00,5.000000000000000000e+00,5.000000000000000000e+00,5.000000000000000000e+00,5.000000000000000000e+00,4.851827621459960938e+00,4.661726474761962891e+00,4.485960483551025391e+00,4.322967052459716797e+00,4.171402931213378906e+00,4.030106067657470703e+00,3.898068904876708984e+00,3.774408102035522461e+00,3.658352136611938477e+00,3.549220800399780273e+00,3.446411132812500000e+00,3.349390029907226562e+00,3.257682561874389648e+00,3.170862436294555664e+00,3.088550090789794922e+00,3.010403156280517578e+00,2.936113357543945312e+00,2.865401744842529297e+00,1.136430382728576660e+00,1.109748363494873047e+00,1.087083220481872559e+00,1.067416310310363770e+00,1.060095906257629395e+00,1.052875280380249023e+00,1.059965968132019043e+00,1.082338333129882812e+00,2.354961872100830078e+00,2.309254169464111328e+00,2.265287399291992188e+00,2.222963094711303711e+00,2.182191610336303711e+00,2.142888545989990234e+00,1.008008956909179688e+00,9.743652939796447754e-01,9.647035002708435059e-01,9.552314281463623047e-01,9.459436535835266113e-01,9.356262087821960449e-01,9.329723715782165527e-01,9.352722764015197754e-01,9.375834465026855469e-01
3.390068054199218750e+00,3.429303646087646484e+00,3.491823196411132812e+00,5.000000000000000000e+00,3.565471649169921875e+00,3.599494457244873047e+00,5.000000000000000000e+00,5.000000000000000000e+00,5.000000000000000000e+00,5.000000000000000000e+00,5.000000000000000000e+00,5.000000000000000000e+00,5.000000000000000000e+00,5.000000000000000000e+00,5.000000000000000000e+00,5.000000000000000000e+00,5.000000000000000000e+00,5.000000000000000000e+00,5.000000000000000000e+00,5.000000000000000000e+00,5.000000000000000000e+00,5.000000000000000000e+00,5.000000000000000000e+00,5.000000000000000000e+00,5.000000000000000000e+00,5.000000000000000000e+00,5.000000000000000000e+00,5.000000000000000000e+00,5.000000000000000000e+00,5.000000000000000000e+00,5.000000000000000000e+00,5.000000000000000000e+00,5.000000000000000000e+00,5.000000000000000000e+00,5.000000000000000000e+00,5.000000000000000000e+00,5.000000000000000000e+00,5.000000000000000000e+00,5.000000000000000000e+00,4.851966381072998047e+00,4.661854267120361328e+00,4.486078739166259766e+00,4.323077201843261719e+00,4.171504974365234375e+00,4.030201911926269531e+00,3.898158073425292969e+00,3.774491786956787109e+00,3.658431291580200195e+00,3.549294710159301758e+00,3.446480989456176758e+00,3.349456310272216797e+00,3.257744789123535156e+00,3.170921564102172852e+00,3.088606357574462891e+00,3.010456562042236328e+00,2.936164140701293945e+00,2.865450143814086914e+00,1.142212271690368652e+00,1.116725802421569824e+00,1.092839717864990234e+00,1.071529507637023926e+00,1.062507271766662598e+00,1.055204033851623535e+00,1.062784194946289062e+00,1.083760261535644531e+00,2.354994535446166992e+00,2.309285640716552734e+00,2.265317440032958984e+00,2.222992181777954102e+00,2.182219505310058594e+00,1.036695241928100586e+00,1.000096797943115234e+00,9.809801578521728516e-01,9.711874723434448242e-01,9.615882039070129395e-01,9.501709938049316406e-01,9.442657232284545898e-01,9.431350827217102051e-01,9.454855322837829590e-01,1.844004511833190918e+00
3.401143312454223633e+00,3.431617975234985352e+00,3.483000278472900391e+00,5.000000000000000000e+00,3.555265426635742188e+00,3.566601276397705078e+00,5.000000000000000000e+00,5.000000000000000000e+00,5.000000000000000000e+00,5.000000000000000000e+00,5.000000000000000000e+00,5.000000000000000000e+00,5.000000000000000000e+00,5.000000000000000000e+00,5.000000000000000000e+00,5.000000000000000000e+00,5.000000000000000000e+00,5.000000000000000000e+00,5.000000000000000000e+00,5.000000000000000000e+00,5.000000000000000000e+00,5.000000000000000000e+00,5.000000000000000000e+00,5.000000000000000000e+00,5.000000000000000000e+00,5.000000000000000000e+00,5.000000000000000000e+00,5.000000000000000000e+00,5.000000000000000000e+00,5.000000000000000000e+00,5.000000000000000000e+00,5.000000000000000000e+00,5.000000000000000000e+00,5.000000000000000000e+00,5.000000000000000000e+00,5.000000000000000000e+00,5.000000000000000000e+00,5.000000000000000000e+00,5.000000000000000000e+00,4.852104663848876953e+00,4.661982059478759766e+00,4.486197471618652344e+00,4.323186874389648438e+00,4.171607494354248047e+00,4.030297279357910156e+00,3.898247718811035156e+00,3.774575710296630859e+00,3.658509731292724609e+00,3.549368619918823242e+00,3.446551084518432617e+00,3.349522113800048828e+00,3.257807016372680664e+00,3.170980930328369141e+00,3.088662385940551758e+00,3.010509967803955078e+00,2.936214923858642578e+00,2.865498304367065430e+00,1.149276852607727051e+00,1.123181343078613281e+00,1.099171638488769531e+00,1.076991200447082520e+00,1.067058682441711426e+00,1.057307720184326172e+00,1.066436529159545898e+00,1.085754156112670898e+00,2.355027198791503906e+00,2.309317111968994141e+00,2.265347719192504883e+00,2.223021268844604492e+00,2.182247638702392578e+00,1.029405355453491211e+00,9.978155493736267090e-01,9.876854419708251953e-01,9.773712754249572754e-01,9.651752710342407227e-01,9.573027491569519043e-01,9.536626935005187988e-01,9.535217285156250000e-01,9.559241533279418945e-01,1.844024300575256348e+00
3.434530019760131836e+00,3.441541194915771484e+00,3.476915597915649414e+00,5.000000000000000000e+00,5.000000000000000000e+00,3.534034490585327148e+00,5.000000000000000000e+00,5.000000000000000000e+00,5.000000000000000000e+00,5.000000000000000000e+00,5.000000000000000000e+00,5.000000000000000000e+00,5.000000000000000000e+00,5.000000000000000000e+00,5.000000000000000000e+00,5.000000000000000000e+00,5.000000000000000000e+00,5.000000000000000000e+00,5.000000000000000000e+00,5.000000000000000000e+00,5.000000000000000000e+00,5.000000000000000000e+00,5.000000000000000000e+00,5.000000000000000000e+00,5.000000000000000000e+00,5.000000000000000000e+00,5.000000000000000000e+00,5.000000000000000000e+00,5.000000000000000000e+00,5.000000000000000000e+00,5.000000000000000000e+00,5.000000000000000000e+00,5.000000000000000000e+00,5.000000000000000000e+00,5.000000000000000000e+00,5.000000000000000000e+00,5.000000000000000000e+00,5.000000000000000000e+00,5.000000000000000000e+00,4.852243423461914062e+00,4.662109851837158203e+00,4.486315727233886719e+00,4.323296546936035156e+00,4.171710014343261719e+00,4.030393123626708984e+00,3.898336887359619141e+00,3.774659395217895508e+00,3.658588886260986328e+00,3.549443006515502930e+00,3.446620702743530273e+00,3.349588155746459961e+00,3.257869720458984375e+00,3.171039819717407227e+00,3.088718414306640625e+00,3.010563373565673828e+00,2.936265468597412109e+00,2.865546464920043945e+00,1.151191592216491699e+00,1.125437140464782715e+00,1.101060152053833008e+00,1.083802461624145508e+00,1.072793006896972656e+00,1.062966942787170410e+00,1.080048441886901855e+00,2.402617216110229492e+00,2.355059862136840820e+00,2.309348344802856445e+00,2.265377998352050781e+00,2.223050355911254883e+00,1.055242300033569336e+00,1.021155118942260742e+00,1.004753589630126953e+00,9.932539463043212891e-01,9.806608557701110840e-01,9.707047343254089355e-01,9.669622778892517090e-01,9.632484912872314453e-01,9.641396999359130859e-01,1.873075246810913086e+00,1.844044446945190430e+00
3.420062541961669922e+00,3.428852796554565430e+00,3.467471122741699219e+00,5.000000000000000000e+00,5.000000000000000000e+00,3.504721641540527344e+00,5.000000000000000000e+00,5.000000000000000000e+00,5.000000000000000000e+00,5.000000000000000000e+00,5.000000000000000000e+00,5.000000000000000000e+00,5.000000000000000000e+00,5.000000000000000000e+00,5.000000000000000000e+00,5.000000000000000000e+00,5.000000000000000000e+00,5.000000000000000000e+00,5.000000000000000000e+00,5.000000000000000000e+00,5.000000000000000000e+00,5.000000000000000000e+00,5.000000000000000000e+00,5.000000000000000000e+00,5.000000000000000000e+00,5.000000000000000000e+00,5.000000000000000000e+00,5.000000000000000000e+00,5.000000000000000000e+00,5.000000000000000000e+00,5.000000000000000000e+00,5.000000000000000000e+00,5.000000000000000000e+00,5.000000000000000000e+00,5.000000000000000000e+00,5.000000000000000000e+00,5.000000000000000000e+00,5.000000000000000000e+00,5.000000000000000000e+00,4.852381706237792969e+00,4.662238121032714844e+00,4.486434459686279297e+00,4.323406696319580078e+00,4.171812534332275391e+00,4.030488491058349609e+00,3.898426055908203125e+00,3.774743556976318359e+00,3.658667325973510742e+00,3.549516916275024414e+00,3.446690797805786133e+00,3.349654197692871094e+00,3.257931947708129883e+00,3.171099185943603516e+00,3.088774681091308594e+00,3.010616540908813477e+00,2.936316251754760742e+00,1.179611325263977051e+00,1.150347471237182617e+00,1.124829888343811035e+00,1.105552792549133301e+00,1.092380762100219727e+00,1.080709218978881836e+00,1.077385067939758301e+00,1.100812673568725586e+00,2.402651071548461914e+00,2.355092525482177734e+00,2.309379816055297852e+00,2.265408039093017578e+00,2.223079442977905273e+00,1.048493623733520508e+00,1.022422194480895996e+00,1.009661197662353516e+00,9.966515302658081055e-01,9.844873547554016113e-01,9.806380271911621094e-01,9.768186807632446289e-01,9.730289578437805176e-01,1.903056025505065918e+00,1.873095989227294922e+00,1.844064474105834961e+00
3.422373533248901367e+00,3.429027557373046875e+00,3.470509767532348633e+00,5.000000000000000000e+00,5.000000000000000000e+00,5.000000000000000000e+00,3.546066761016845703e+00,5.000000000000000000e+00,5.000000000000000000e+00,5.000000000000000000e+00,5.000000000000000000e+00,5.000000000000000000e+00,5.000000000000000000e+00,5.000000000000000000e+00,5.000000000000000000e+00,5.000000000000000000e+00,5.000000000000000000e+00,5.000000000000000000e+00,5.000000000000000000e+00,5.000000000000000000e+00,5.000000000000000000e+00,5.000000000000000000e+00,5.000000000000000000e+00,5.000000000000000000e+00,5.000000000000000000e+00,5.000000000000000000e+00,5.000000000000000000e+00,5.000000000000000000e+00,5.000000000000000000e+00,5.000000000000000000e+00,5.000000000000000000e+00,5.000000000000000000e+00,5.000000000000000000e+00,5.000000000000000000e+00,5.000000000000000000e+00,5.000000000000000000e+00,5.000000000000000000e+00,5.000000000000000000e+00,5.000000000000000000e+00,4.852520465850830078e+00,4.662365913391113281e+00,4.486552715301513672e+00,4.323516845703125000e+00,4.171915054321289062e+00,4.030583858489990234e+00,3.898515939712524414e+00,3.774827241897583008e+00,3.658746004104614258e+00,3.549591302871704102e+00,3.446760654449462891e+00,3.349720239639282227e+00,3.257994651794433594e+00,3.171158313751220703e+00,3.088830709457397461e+00,3.010669946670532227e+00,2.936367034912109375e+00,1.176916956901550293e+00,1.148264050483703613e+00,1.126787185668945312e+00,1.110344767570495605e+00,1.102965831756591797e+00,1.091068267822265625e+00,1.100078821182250977e+00,2.452205896377563477e+00,2.402685165405273438e+00,2.355125188827514648e+00,2.309411048889160156e+00,2.265438318252563477e+00,1.078358173370361328e+00,1.043680071830749512e+00,1.026231646537780762e+00,1.012873649597167969e+00,9.998590946197509766e-01,9.947061538696289062e-01,9.907767176628112793e-01,9.868781566619873047e-01,9.835448265075683594e-01,1.903077363967895508e+00,1.873116493225097656e+00,1.844084382057189941e+00
3.424848318099975586e+00,3.434831857681274414e+00,3.477333545684814453e+00,5.000000000000000000e+00,5.000000000000000000e+00,5.000000000000000000e+00,3.494336605072021484e+00,5.000000000000000000e+00,5.000000000000000000e+00,5.000000000000000000e+00,5.000000000000000000e+00,5.000000000000000000e+00,5.000000000000000000e+00,5.000000000000000000e+00,5.000000000000000000e+00,5.000000000000000000e+00,5.000000000000000000e+00,5.000000000000000000e+00,5.000000000000000000e+00,5.000000000000000000e+00,5.000000000000000000e+00,5.000000000000000000e+00,5.000000000000000000e+00,5.000000000000000000e+00,5.000000000000000000e+00,5.000000000000000000e+00,5.000000000000000000e+00,5.000000000000000000e+00,5.000000000000000000e+00,5.000000000000000000e+00,5.000000000000000000e+00,5.000000000000000000e+00,5.000000000000000000e+00,5.000000000000000000e+00,5.000000000000000000e+00,5.000000000000000000e+00,5.000000000000000000e+00,5.000000000000000000e+00,5.000000000000000000e+00,4.852658748626708984e+00,4.662493705749511719e+00,4.486670970916748047e+00,4.323626995086669922e+00,4.172017097473144531e+00,4.030679702758789062e+00,3.898605108261108398e+00,3.774910926818847656e+00,3.658824920654296875e+00,3.549665212631225586e+00,3.446830272674560547e+00,3.349786281585693359e+00,3.258057117462158203e+00,3.171217441558837891e+00,3.088886976242065430e+00,3.010723352432250977e+00,2.936417579650878906e+00,1.174736142158508301e+00,1.148853302001953125e+00,1.131306171417236328e+00,1.119396328926086426e+00,1.113758206367492676e+00,1.101627826690673828e+00,1.128281474113464355e+00,2.452241420745849609e+00,2.402719259262084961e+00,2.355157613754272461e+00,2.309442520141601562e+00,2.265468358993530273e+00,1.077429175376892090e+00,1.042809844017028809e+00,1.028045058250427246e+00,1.014640092849731445e+00,1.001925349235534668e+00,9.996329545974731445e-01,9.970103502273559570e-01,9.944016337394714355e-01,1.934034347534179688e+00,1.903098702430725098e+00,1.873137116432189941e+00,1.844104409217834473e+00
3.426952123641967773e+00,3.439217805862426758e+00,3.485306739807128906e+00,5.000000000000000000e+00,5.000000000000000000e+00,5.000000000000000000e+00,5.000000000000000000e+00,5.000000000000000000e+00,5.000000000000000000e+00,5.000000000000000000e+00,5.000000000000000000e+00,5.000000000000000000e+00,5.000000000000000000e+00,5.000000000000000000e+00,5.000000000000000000e+00,5.000000000000000000e+00,5.000000000000000000e+00,5.000000000000000000e+00,5.000000000000000000e+00,5.000000000000000000e+00,5.000000000000000000e+00,5.000000000000000000e+00,5.000000000000000000e+00,5.000000000000000000e+00,5.000000000000000000e+00,5.000000000000000000e+00,5.000000000000000000e+00,5.000000000000000000e+00,5.000000000000000000e+00,5.000000000000000000e+00,5.000000000000000000e+00,5.000000000000000000e+00,5.000000000000000000e+00,5.000000000000000000e+00,5.000000000000000000e+00,5.000000000000000000e+00,5.000000000000000000e+00,5.000000000000000000e+00,5.000000000000000000e+00,4.852797508239746094e+00,4.662621974945068359e+00,4.486789703369140625e+00,4.323736667633056641e+00,4.172119617462158203e+00,4.030775547027587891e+00,3.898694753646850586e+00,3.774994850158691406e+00,3.658903598785400391e+00,3.549739599227905273e+00,3.446900367736816406e+00,3.349852323532104492e+00,3.258119344711303711e+00,3.171276569366455078e+00,3.088943004608154297e+00,3.010776519775390625e+00,1.219321250915527344e+00,1.172563433647155762e+00,1.153074026107788086e+00,1.137921571731567383e+00,1.129731774330139160e+00,1.124763727188110352e+00,1.122984647750854492e+00,2.503884553909301758e+00,2.452276706695556641e+00,2.402753114700317383e+00,2.355190515518188477e+00,2.309473991394042969e+00,2.265498399734497070e+00,1.076507091522216797e+00,1.043677687644958496e+00,1.029864668846130371e+00,1.016431570053100586e+00,1.006183743476867676e+00,1.004245042800903320e+00,1.001598119735717773e+00,9.989654421806335449e-01,1.934056162834167480e+00,1.903120160102844238e+00,1.873157858848571777e+00,1.844124436378479004e+00
3.432203769683837891e+00,3.443862438201904297e+00,3.491966009140014648e+00,5.000000000000000000e+00,5.000000000000000000e+00,5.000000000000000000e+00,5.000000000000000000e+00,5.000000000000000000e+00,5.000000000000000000e+00,5.000000000000000000e+00,5.000000000000000000e+00,5.000000000000000000e+00,5.000000000000000000e+00,5.000000000000000000e+00,5.000000000000000000e+00,5.000000000000000000e+00,5.000000000000000000e+00,5.000000000000000000e+00,5.000000000000000000e+00,5.000000000000000000e+00,5.000000000000000000e+00,5.000000000000000000e+00,5.000000000000000000e+00,5.000000000000000000e+00,5.000000000000000000e+00,5.000000000000000000e+00,5.000000000000000000e+00,5.000000000000000000e+00,5.000000000000000000e+00,5.000000000000000000e+00,5.000000000000000000e+00,5.000000000000000000e+00,5.000000000000000000e+00,5.000000000000000000e+00,5.000000000000000000e+00,5.000000000000000000e+00,5.000000000000000000e+00,5.000000000000000000e+00,5.000000000000000000e+00,4.852936267852783203e+00,4.662749290466308594e+00,4.486907958984375000e+00,4.323846817016601562e+00,4.172222137451171875e+00,4.030870914459228516e+00,3.898783922195434570e+00,3.775078535079956055e+00,3.658982515335083008e+00,3.549813747406005859e+00,3.446970224380493164e+00,3.349918365478515625e+00,3.258182048797607422e+00,3.171335697174072266e+00,3.088999032974243164e+00,3.010829925537109375e+00,1.214526414871215820e+00,1.175696134567260742e+00,1.159947395324707031e+00,1.144960880279541016e+00,1.140259861946105957e+00,1.135597348213195801e+00,1.183300375938415527e+00,2.503921508789062500e+00,2.452311992645263672e+00,2.402787208557128906e+00,2.355222940444946289e+00,2.309505462646484375e+00,2.265528678894042969e+00,1.075591444969177246e+00,1.045553326606750488e+00,1.031690955162048340e+00,1.018717527389526367e+00,1.010630488395690918e+00,1.008899807929992676e+00,1.006228566169738770e+00,1.003571271896362305e+00,1.934078216552734375e+00,1.903141260147094727e+00,1.873178362846374512e+00,1.844144582748413086e+00
3.437089681625366211e+00,3.446489810943603516e+00,5.000000000000000000e+00,5.000000000000000000e+00,5.000000000000000000e+00,5.000000000000000000e+00,5.000000000000000000e+00,5.000000000000000000e+00,5.000000000000000000e+00,5.000000000000000000e+00,5.000000000000000000e+00,5.000000000000000000e+00,5.000000000000000000e+00,5.000000000000000000e+00,5.000000000000000000e+00,5.000000000000000000e+00,5.000000000000000000e+00,5.000000000000000000e+00,5.000000000000000000e+00,5.000000000000000000e+00,5.000000000000000000e+00,5.000000000000000000e+00,5.000000000000000000e+00,5.000000000000000000e+00,5.000000000000000000e+00,5.000000000000000000e+00,5.000000000000000000e+00,5.000000000000000000e+00,5.000000000000000000e+00,5.000000000000000000e+00,5.000000000000000000e+00,5.000000000000000000e+00,5.000000000000000000e+00,5.000000000000000000e+00,5.000000000000000000e+00,5.000000000000000000e+00,5.000000000000000000e+00,5.000000000000000000e+00,5.000000000000000000e+00,4.853074550628662109e+00,4.662877559661865234e+00,4.487026691436767578e+00,4.323956489562988281e+00,4.172324657440185547e+00,4.030966758728027344e+00,3.898873329162597656e+00,3.775162696838378906e+00,3.659061193466186523e+00,3.549887657165527344e+00,3.447040319442749023e+00,3.349984407424926758e+00,3.258244276046752930e+00,3.171395063400268555e+00,3.089055299758911133e+00,3.010883092880249023e+00,1.218680858612060547e+00,1.182496666908264160e+00,1.166621565818786621e+00,1.153690934181213379e+00,1.149193167686462402e+00,1.144730329513549805e+00,2.557788372039794922e+00,2.503958463668823242e+00,2.452347517013549805e+00,2.402821063995361328e+00,2.355255603790283203e+00,2.309536695480346680e+00,2.265558958053588867e+00,1.074677348136901855e+00,1.047435522079467773e+00,1.033717632293701172e+00,1.021013855934143066e+00,1.015116691589355469e+00,1.013432502746582031e+00,1.010901927947998047e+00,1.008219957351684570e+00,1.934100389480590820e+00,1.903162598609924316e+00,1.873199105262756348e+00,1.844164371490478516e+00
3.460586309432983398e+00,3.464822530746459961e+00,5.000000000000000000e+00,5.000000000000000000e+00,5.000000000000000000e+00,5.000000000000000000e+00,5.000000000000000000e+00,5.000000000000000000e+00,5.000000000000000000e+00,5.000000000000000000e+00,5.000000000000000000e+00,5.000000000000000000e+00,5.000000000000000000e+00,5.000000000000000000e+00,5.000000000000000000e+00,5.000000000000000000e+00,5.000000000000000000e+00,5.000000000000000000e+00,5.000000000000000000e+00,5.000000000000000000e+00,5.000000000000000000e+00,5.000000000000000000e+00,5.000000000000000000e+00,5.000000000000000000e+00,5.000000000000000000e+00,5.000000000000000000e+00,5.000000000000000000e+00,5.000000000000000000e+00,5.000000000000000000e+00,5.000000000000000000e+00,5.000000000000000000e+00,5.000000000000000000e+00,5.000000000000000000e+00,5.000000000000000000e+00,5.000000000000000000e+00,5.000000000000000000e+00,5.000000000000000000e+00,5.000000000000000000e+00,5.000000000000000000e+00,4.853222370147705078e+00,4.663005352020263672e+00,4.487144947052001953e+00,4.324066638946533203e+00,4.172426700592041016e+00,4.031062126159667969e+00,3.898962974548339844e+00,3.775246381759643555e+00,3.659139633178710938e+00,3.549962043762207031e+00,3.447110176086425781e+00,3.350050210952758789e+00,3.258306980133056641e+00,3.171454191207885742e+00,3.089111328125000000e+00,3.010936737060546875e+00,1.222863674163818359e+00,1.189134001731872559e+00,1.173081398010253906e+00,1.159724235534667969e+00,1.154954671859741211e+00,1.155226230621337891e+00,2.557826995849609375e+00,2.503995180130004883e+00,2.452382802963256836e+00,2.402855157852172852e+00,2.355288267135620117e+00,2.309567928314208984e+00,2.265589237213134766e+00,1.073765039443969727e+00,1.049324870109558105e+00,1.036082148551940918e+00,1.023320436477661133e+00,1.019642710685729980e+00,1.017943620681762695e+00,1.015618920326232910e+00,1.966083168983459473e+00,1.934122204780578613e+00,1.903184056282043457e+00,1.873219728469848633e+00,1.844184517860412598e+00
3.504287481307983398e+00,3.510404825210571289e+00,5.000000000000000000e+00,5.000000000000000000e+00,5.000000000000000000e+00,5.000000000000000000e+00,5.000000000000000000e+00,5.000000000000000000e+00,5.000000000000000000e+00,5.000000000000000000e+00,5.000000000000000000e+00,5.000000000000000000e+00,5.000000000000000000e+00,5.000000000000000000e+00,5.000000000000000000e+00,5.000000000000000000e+00,5.000000000000000000e+00,5.000000000000000000e+00,5.000000000000000000e+00,5.000000000000000000e+00,5.000000000000000000e+00,5.000000000000000000e+00,5.000000000000000000e+00,5.000000000000000000e+00,5.000000000000000000e+00,5.000000000000000000e+00,5.000000000000000000e+00,5.000000000000000000e+00,5.000000000000000000e+00,5.000000000000000000e+00,5.000000000000000000e+00,5.000000000000000000e+00,5.000000000000000000e+00,5.000000000000000000e+00,5.000000000000000000e+00,5.000000000000000000e+00,5.000000000000000000e+00,5.000000000000000000e+00,5.000000000000000000e+00,4.853394985198974609e+00,4.663133144378662109e+00,4.487263202667236328e+00,4.324176788330078125e+00,4.172529220581054688e+00,4.031157493591308594e+00,3.899052143096923828e+00,3.775330543518066406e+00,3.659218788146972656e+00,3.550035953521728516e+00,3.447179794311523438e+00,3.350116491317749023e+00,3.258369207382202148e+00,3.171513080596923828e+00,3.089167833328247070e+00,3.010989904403686523e+00,1.227075338363647461e+00,1.195846319198608398e+00,1.179757833480834961e+00,1.166370153427124023e+00,1.160774350166320801e+00,1.170571684837341309e+00,2.557865381240844727e+00,2.504032135009765625e+00,2.452418088912963867e+00,2.402889013290405273e+00,2.355320930480957031e+00,2.309599399566650391e+00,1.109724164009094238e+00,1.072854042053222656e+00,1.051602005958557129e+00,1.038457632064819336e+00,1.025929808616638184e+00,1.024209618568420410e+00,1.022495150566101074e+00,1.020380020141601562e+00,1.966105937957763672e+00,1.934144258499145508e+00,1.903205156326293945e+00,1.873240470886230469e+00,1.844204545021057129e+00
3.524678230285644531e+00,3.543494701385498047e+00,5.000000000000000000e+00,5.000000000000000000e+00,5.000000000000000000e+00,5.000000000000000000e+00,5.000000000000000000e+00,5.000000000000000000e+00,5.000000000000000000e+00,5.000000000000000000e+00,5.000000000000000000e+00,5.000000000000000000e+00,5.000000000000000000e+00,5.000000000000000000e+00,5.000000000000000000e+00,5.000000000000000000e+00,5.000000000000000000e+00,5.000000000000000000e+00,5.000000000000000000e+00,5.000000000000000000e+00,5.000000000000000000e+00,5.000000000000000000e+00,5.000000000000000000e+00,5.000000000000000000e+00,5.000000000000000000e+00,5.000000000000000000e+00,5.000000000000000000e+00,5.000000000000000000e+00,5.000000000000000000e+00,5.000000000000000000e+00,5.000000000000000000e+00,5.000000000000000000e+00,5.000000000000000000e+00,5.000000000000000000e+00,5.000000000000000000e+00,5.000000000000000000e+00,5.000000000000000000e+00,5.000000000000000000e+00,5.000000000000000000e+00,4.853567600250244141e+00,4.663290500640869141e+00,4.487381935119628906e+00,4.324286937713623047e+00,4.172631740570068359e+00,4.031253337860107422e+00,3.899141788482666016e+00,3.775414228439331055e+00,3.659297466278076172e+00,3.550110340118408203e+00,3.447249889373779297e+00,3.350182294845581055e+00,3.258431673049926758e+00,3.171572446823120117e+00,3.089223861694335938e+00,3.011043071746826172e+00,1.231316089630126953e+00,1.202634692192077637e+00,1.186560869216918945e+00,1.173092603683471680e+00,1.166652917861938477e+00,1.185902833938598633e+00,2.557904005050659180e+00,2.504069089889526367e+00,2.452453613281250000e+00,2.402923107147216797e+00,2.355353593826293945e+00,2.309630870819091797e+00,1.109126687049865723e+00,1.072228670120239258e+00,1.054398655891418457e+00,1.040843844413757324e+00,1.030553102493286133e+00,1.028817415237426758e+00,1.027087569236755371e+00,1.025186061859130859e+00,1.966128706932067871e+00,1.934166312217712402e+00,1.903226494789123535e+00,1.873260974884033203e+00,1.844224452972412109e+00
3.541117429733276367e+00,3.570299625396728516e+00,5.000000000000000000e+00,5.000000000000000000e+00,5.000000000000000000e+00,5.000000000000000000e+00,5.000000000000000000e+00,5.000000000000000000e+00,5.000000000000000000e+00,5.000000000000000000e+00,5.000000000000000000e+00,5.000000000000000000e+00,5.000000000000000000e+00,5.000000000000000000e+00,5.000000000000000000e+00,5.000000000000000000e+00,5.000000000000000000e+00,5.000000000000000000e+00,5.000000000000000000e+00,5.000000000000000000e+00,5.000000000000000000e+00,5.000000000000000000e+00,5.000000000000000000e+00,5.000000000000000000e+00,5.000000000000000000e+00,5.000000000000000000e+00,5.000000000000000000e+00,5.000000000000000000e+00,5.000000000000000000e+00,5.000000000000000000e+00,5.000000000000000000e+00,5.000000000000000000e+00,5.000000000000000000e+00,5.000000000000000000e+00,5.000000000000000000e+00,5.000000000000000000e+00,5.000000000000000000e+00,5.000000000000000000e+00,5.000000000000000000e+00,4.853740215301513672e+00,4.663449764251708984e+00,4.487517833709716797e+00,4.324397087097167969e+00,4.172734260559082031e+00,4.031349182128906250e+00,3.899231195449829102e+00,3.775497913360595703e+00,3.659376382827758789e+00,3.550184249877929688e+00,3.447319746017456055e+00,3.350248575210571289e+00,3.258494138717651367e+00,3.171631574630737305e+00,3.089280128479003906e+00,3.011096715927124023e+00,1.235530138015747070e+00,1.209602355957031250e+00,1.193442821502685547e+00,1.179893136024475098e+00,1.172591209411621094e+00,1.198816657066345215e+00,2.557942390441894531e+00,2.504105806350708008e+00,2.452488899230957031e+00,2.402956962585449219e+00,2.355386257171630859e+00,2.309662342071533203e+00,1.108712553977966309e+00,1.072080016136169434e+00,1.058061122894287109e+00,1.044404149055480957e+00,1.035588383674621582e+00,1.033702254295349121e+00,1.031823039054870605e+00,1.029981732368469238e+00,1.966151356697082520e+00,1.934188365936279297e+00,1.903247952461242676e+00,1.873281717300415039e+00,1.844244480133056641e+00
3.559208393096923828e+00,3.619460821151733398e+00,5.000000000000000000e+00,5.000000000000000000e+00,5.000000000000000000e+00,5.000000000000000000e+00,5.000000000000000000e+00,5.000000000000000000e+00,5.000000000000000000e+00,5.000000000000000000e+00,5.000000000000000000e+00,5.000000000000000000e+00,5.000000000000000000e+00,5.000000000000000000e+00,5.000000000000000000e+00,5.000000000000000000e+00,5.000000000000000000e+00,5.000000000000000000e+00,5.000000000000000000e+00,5.000000000000000000e+00,5.000000000000000000e+00,5.000000000000000000e+00,5.000000000000000000e+00,5.000000000000000000e+00,5.000000000000000000e+00,5.000000000000000000e+00,5.000000000000000000e+00,5.000000000000000000e+00,5.000000000000000000e+00,5.000000000000000000e+00,5.000000000000000000e+00,5.000000000000000000e+00,5.000000000000000000e+00,5.000000000000000000e+00,5.000000000000000000e+00,5.000000000000000000e+00,5.000000000000000000e+00,5.000000000000000000e+00,5.000000000000000000e+00,4.853912830352783203e+00,4.663609504699707031e+00,4.487665176391601562e+00,4.324513912200927734e+00,4.172836780548095703e+00,4.031444549560546875e+00,3.899320363998413086e+00,3.775582075119018555e+00,3.659455060958862305e+00,3.550258398056030273e+00,3.447389841079711914e+00,3.350314378738403320e+00,3.258556604385375977e+00,3.171690940856933594e+00,3.089336156845092773e+00,3.011149883270263672e+00,1.238824486732482910e+00,1.216755032539367676e+00,1.200405001640319824e+00,1.186772704124450684e+00,1.178590416908264160e+00,1.212015151977539062e+00,2.557980775833129883e+00,2.504142761230468750e+00,2.452524423599243164e+00,2.402990818023681641e+00,2.355418920516967773e+00,2.309693574905395508e+00,1.108298778533935547e+00,1.075866580009460449e+00,1.061749100685119629e+00,1.047921657562255859e+00,1.040828824043273926e+00,1.038923621177673340e+00,1.037025332450866699e+00,1.999212026596069336e+00,1.966174125671386719e+00,1.934210300445556641e+00,1.903269052505493164e+00,1.873302340507507324e+00,1.844264507293701172e+00
3.577829122543334961e+00,5.000000000000000000e+00,5.000000000000000000e+00,5.000000000000000000e+00,5.000000000000000000e+00,5.000000000000000000e+00,5.000000000000000000e+00,5.000000000000000000e+00,5.000000000000000000e+00,5.000000000000000000e+00,5.000000000000000000e+00,5.000000000000000000e+00,5.000000000000000000e+00,5.000000000000000000e+00,5.000000000000000000e+00,5.000000000000000000e+00,5.000000000000000000e+00,5.000000000000000000e+00,5.000000000000000000e+00,5.000000000000000000e+00,5.000000000000000000e+00,5.000000000000000000e+00,5.000000000000000000e+00,5.000000000000000000e+00,5.000000000000000000e+00,5.000000000000000000e+00,5.000000000000000000e+00,5.000000000000000000e+00,5.000000000000000000e+00,5.000000000000000000e+00,5.000000000000000000e+00,5.000000000000000000e+00,5.000000000000000000e+00,5.000000000000000000e+00,5.000000000000000000e+00,5.000000000000000000e+00,5.000000000000000000e+00,5.000000000000000000e+00,5.000000000000000000e+00,4.854085445404052734e+00,4.663768768310546875e+00,4.487812995910644531e+00,4.324650764465332031e+00,4.172939300537109375e+00,4.031540393829345703e+00,3.899410247802734375e+00,3.775665760040283203e+00,3.659533739089965820e+00,3.550332784652709961e+00,3.447459697723388672e+00,3.350380420684814453e+00,3.258619308471679688e+00,3.171750068664550781e+00,3.089392185211181641e+00,3.011203289031982422e+00,1.244197249412536621e+00,1.224277734756469727e+00,1.207682132720947266e+00,1.194539189338684082e+00,1.185626506805419922e+00,1.230468630790710449e+00,2.558019399642944336e+00,2.504179716110229492e+00,2.452559709548950195e+00,2.403024911880493164e+00,2.355451583862304688e+00,2.309724807739257812e+00,1.107885241508483887e+00,1.079679965972900391e+00,1.065462946891784668e+00,1.051392793655395508e+00,1.046122670173645020e+00,1.044198036193847656e+00,1.042280435562133789e+00,1.999235630035400391e+00,1.966196894645690918e+00,1.934232354164123535e+00,1.903290510177612305e+00,1.873322844505310059e+00,1.844284415245056152e+00
3.588269233703613281e+00,4.874235153198242188e+00,4.873025417327880859e+00,4.871816158294677734e+00,4.870607852935791016e+00,4.869399547576904297e+00,4.868192195892333984e+00,4.866985797882080078e+00,4.865779399871826172e+00,4.864573955535888672e+00,4.863368511199951172e+00,4.862164020538330078e+00,4.860960483551025391e+00,4.859757423400878906e+00,4.858554840087890625e+00,4.857352733612060547e+00,4.856151103973388672e+00,4.854950428009033203e+00,4.853750228881835938e+00,4.852550983428955078e+00,4.851351737976074219e+00,4.850153446197509766e+00,4.848955631256103516e+00,4.847758293151855469e+00,4.846561908721923828e+00,4.845365524291992188e+00,4.844170093536376953e+00,4.842975139617919922e+00,4.841781139373779297e+00,4.840587139129638672e+00,4.839393615722656250e+00,4.838201045989990234e+00,4.837009429931640625e+00,4.835817813873291016e+00,4.834627151489257812e+00,4.833436965942382812e+00,4.832247257232666016e+00,4.831058502197265625e+00,4.829869747161865234e+00,4.828681945800781250e+00,4.663928031921386719e+00,4.487960338592529297e+00,4.324788093566894531e+00,4.173064708709716797e+00,4.031635761260986328e+00,3.899499416351318359e+00,3.775749921798706055e+00,3.659612655639648438e+00,3.550406694412231445e+00,3.447529792785644531e+00,3.350446701049804688e+00,3.258681535720825195e+00,3.171809196472167969e+00,3.089448451995849609e+00,3.011256694793701172e+00,1.251557469367980957e+00,1.232413291931152344e+00,1.215598106384277344e+00,1.205347180366516113e+00,1.196273207664489746e+00,2.614265203475952148e+00,2.558057785034179688e+00,2.504216670989990234e+00,2.452595233917236328e+00,2.403058767318725586e+00,2.355484247207641602e+00,1.154480457305908203e+00,1.107472062110900879e+00,1.083520531654357910e+00,1.069086074829101562e+00,1.055454969406127930e+00,1.051470637321472168e+00,1.049526333808898926e+00,2.033427953720092773e+00,1.999258995056152344e+00,1.966219782829284668e+00,1.934254407882690430e+00,1.903311848640441895e+00,1.873343586921691895e+00,1.844304442405700684e+00
3.517405033111572266e+00,3.777564525604248047e+00,3.776837825775146484e+00,3.776111364364624023e+00,3.775385379791259766e+00,3.774659395217895508e+00,3.773933887481689453e+00,3.773208618164062500e+00,3.772483587265014648e+00,3.771759033203125000e+00,3.771034479141235352e+00,3.770310401916503906e+00,3.769586563110351562e+00,3.768862962722778320e+00,3.768139600753784180e+00,3.767416477203369141e+00,3.766693830490112305e+00,3.765971422195434570e+00,3.765249252319335938e+00,3.764527082443237305e+00,3.763805150985717773e+00,3.763083696365356445e+00,3.762362718582153320e+00,3.761641740798950195e+00,3.760921239852905273e+00,3.760200977325439453e+00,3.759480953216552734e+00,3.758761167526245117e+00,3.758041858673095703e+00,3.757322549819946289e+00,3.756603717803955078e+00,3.755885124206542969e+00,3.755166769027709961e+00,3.754448652267456055e+00,3.753731012344360352e+00,3.753013372421264648e+00,3.752296209335327148e+00,3.751579046249389648e+00,3.750862360000610352e+00,3.750145912170410156e+00,3.749429941177368164e+00,3.748713970184326172e+00,3.747998476028442383e+00,3.747282981872558594e+00,3.746567964553833008e+00,3.745853185653686523e+00,3.745138645172119141e+00,3.659691333770751953e+00,3.550481081008911133e+00,3.447599649429321289e+00,3.350512504577636719e+00,3.258744239807128906e+00,3.171868562698364258e+00,3.089504480361938477e+00,3.011310100555419922e+00,1.259005308151245117e+00,1.240657806396484375e+00,1.223831653594970703e+00,1.215434789657592773e+00,1.207112789154052734e+00,2.614305257797241211e+00,2.558096408843994141e+00,2.504253387451171875e+00,2.452630519866943359e+00,2.403092861175537109e+00,2.355516672134399414e+00,1.154027104377746582e+00,1.107059121131896973e+00,1.087384819984436035e+00,1.072698950767517090e+00,1.060806393623352051e+00,1.056873559951782227e+00,1.054909110069274902e+00,2.033452272415161133e+00,1.999282598495483398e+00,1.966242313385009766e+00,1.934276223182678223e+00,1.903333187103271484e+00,1.873364329338073730e+00,1.844324588775634766e+00
3.084227085113525391e+00,3.083742618560791016e+00,3.083258390426635742e+00,3.082774400711059570e+00,3.082290410995483398e+00,3.081806659698486328e+00,3.081322908401489258e+00,3.080839395523071289e+00,3.080356121063232422e+00,3.079872846603393555e+00,3.079389810562133789e+00,3.078907012939453125e+00,3.078424215316772461e+00,3.077941656112670898e+00,3.077459096908569336e+00,3.076976776123046875e+00,3.076494693756103516e+00,3.076012611389160156e+00,3.075530767440795898e+00,3.075049161911010742e+00,3.074567556381225586e+00,3.074086189270019531e+00,3.073605060577392578e+00,3.073123931884765625e+00,3.072643041610717773e+00,3.072162151336669922e+00,3.071681499481201172e+00,3.071201086044311523e+00,3.070720672607421875e+00,3.070240497589111328e+00,3.069760322570800781e+00,3.069280385971069336e+00,3.068800687789916992e+00,3.068320989608764648e+00,3.067841529846191406e+00,3.067362308502197266e+00,3.066883325576782227e+00,3.066404342651367188e+00,3.065925359725952148e+00,3.065446853637695312e+00,3.064968347549438477e+00,3.064489841461181641e+00,3.064011573791503906e+00,3.063533544540405273e+00,3.063055753707885742e+00,3.062577962875366211e+00,3.062100172042846680e+00,3.061622619628906250e+00,3.061145305633544922e+00,3.060668230056762695e+00,3.060191154479980469e+00,3.059714317321777344e+00,3.059237480163574219e+00,3.058760881423950195e+00,3.011363267898559570e+00,1.266772389411926270e+00,1.249029517173767090e+00,1.232185006141662598e+00,1.224420189857482910e+00,1.222955942153930664e+00,2.614345550537109375e+00,2.558134794235229492e+00,2.504290342330932617e+00,2.452666044235229492e+00,2.403126716613769531e+00,2.355549335479736328e+00,2.309819221496582031e+00,1.106646656990051270e+00,1.091122746467590332e+00,1.076336383819580078e+00,1.066212534904479980e+00,1.062332153320312500e+00,2.068835496902465820e+00,2.033476591110229492e+00,1.999306201934814453e+00,1.966265201568603516e+00,1.934298396110534668e+00,1.903354406356811523e+00,1.873384833335876465e+00,1.844344615936279297e+00
2.605586290359497070e+00,2.605240583419799805e+00,2.604894876480102539e+00,2.604549407958984375e+00,2.604203939437866211e+00,2.603858470916748047e+00,2.603513240814208984e+00,2.603168010711669922e+00,2.602823019027709961e+00,2.602477788925170898e+00,2.602133035659790039e+00,2.601788282394409180e+00,2.601443529129028320e+00,2.601098775863647461e+00,2.600754261016845703e+00,2.600409746170043945e+00,2.600065469741821289e+00,2.599721193313598633e+00,2.599376916885375977e+00,2.599032878875732422e+00,2.598688840866088867e+00,2.598345041275024414e+00,2.598001241683959961e+00,2.597657442092895508e+00,2.597313880920410156e+00,2.596970319747924805e+00,2.596626758575439453e+00,2.596283435821533203e+00,2.595940113067626953e+00,2.595597028732299805e+00,2.595253944396972656e+00,2.594910860061645508e+00,2.594568014144897461e+00,2.594225168228149414e+00,2.593882322311401367e+00,2.593539714813232422e+00,2.593197107315063477e+00,2.592854738235473633e+00,2.592512369155883789e+00,2.592170000076293945e+00,2.591827630996704102e+00,2.591485738754272461e+00,2.591143608093261719e+00,2.590801715850830078e+00,2.590459823608398438e+00,2.590118169784545898e+00,2.589776515960693359e+00,2.589434862136840820e+00,2.589093446731567383e+00,2.588752031326293945e+00,2.588410854339599609e+00,2.588069677352905273e+00,2.587728500366210938e+00,2.587387561798095703e+00,2.587046623229980469e+00,1.275484561920166016e+00,1.257731676101684570e+00,1.240653157234191895e+00,1.233539462089538574e+00,1.239780664443969727e+00,2.585002899169921875e+00,2.558173418045043945e+00,2.504327297210693359e+00,2.452701330184936523e+00,2.403160810470581055e+00,2.355581998825073242e+00,2.309850454330444336e+00,1.110190510749816895e+00,1.094886541366577148e+00,1.079998612403869629e+00,1.071673989295959473e+00,1.067847609519958496e+00,2.068860530853271484e+00,2.033500909805297852e+00,1.999329805374145508e+00,1.966287970542907715e+00,1.934320449829101562e+00,1.903375744819641113e+00,1.873405575752258301e+00,1.844364523887634277e+00
2.255558729171752930e+00,2.255299091339111328e+00,2.255039691925048828e+00,2.254780292510986328e+00,2.254520893096923828e+00,2.254261732101440430e+00,2.254002332687377930e+00,2.253743171691894531e+00,2.253484010696411133e+00,2.253225088119506836e+00,2.252965927124023438e+00,2.252707004547119141e+00,2.252448081970214844e+00,2.252189159393310547e+00,2.251930475234985352e+00,2.251671791076660156e+00,2.251413106918334961e+00,2.251154422760009766e+00,2.250895977020263672e+00,2.250637531280517578e+00,2.250379085540771484e+00,2.250120639801025391e+00,2.249862432479858398e+00,2.249604225158691406e+00,2.249346256256103516e+00,2.249088764190673828e+00,2.248831033706665039e+00,2.248573541641235352e+00,2.248316049575805664e+00,2.248058557510375977e+00,2.247801303863525391e+00,2.247544050216674805e+00,2.247286796569824219e+00,2.247029542922973633e+00,2.246772289276123047e+00,2.246515274047851562e+00,2.246258258819580078e+00,2.246001243591308594e+00,2.245744466781616211e+00,2.245487451553344727e+00,2.245230674743652344e+00,2.244974136352539062e+00,2.244717359542846680e+00,2.244460821151733398e+00,2.244204282760620117e+00,2.243947744369506836e+00,2.243691205978393555e+00,2.243434906005859375e+00,2.243178367614746094e+00,2.242922306060791016e+00,2.242666006088256836e+00,2.242409944534301758e+00,2.242153882980346680e+00,2.241897821426391602e+00,2.241641759872436523e+00,2.241385936737060547e+00,1.266555905342102051e+00,1.249238491058349609e+00,1.242795467376708984e+00,2.240362882614135742e+00,2.240107297897338867e+00,2.239851713180541992e+00,2.239596128463745117e+00,2.239340782165527344e+00,2.239085435867309570e+00,2.238830089569091797e+00,1.149144172668457031e+00,1.121390581130981445e+00,1.105413079261779785e+00,1.096300482749938965e+00,1.090819120407104492e+00,2.105497837066650391e+00,2.068885564804077148e+00,2.033525228500366211e+00,1.999353051185607910e+00,1.966310501098632812e+00,1.934342503547668457e+00,1.903397083282470703e+00,1.873426198959350586e+00,1.844384551048278809e+00
1.988457679748535156e+00,1.988255977630615234e+00,1.988054275512695312e+00,1.987852573394775391e+00,1.987650752067565918e+00,1.987449288368225098e+00,1.987247705459594727e+00,1.987046241760253906e+00,1.986844778060913086e+00,1.986643433570861816e+00,1.986442089080810547e+00,1.986240744590759277e+00,1.986039519309997559e+00,1.985838294029235840e+00,1.985637187957763672e+00,1.985435962677001953e+00,1.985234856605529785e+00,1.985033869743347168e+00,1.984832882881164551e+00,1.984631896018981934e+00,1.984430909156799316e+00,1.984229922294616699e+00,1.984029054641723633e+00,1.983828306198120117e+00,1.983627557754516602e+00,1.983426809310913086e+00,1.983226060867309570e+00,1.983025431632995605e+00,1.982824802398681641e+00,1.982624292373657227e+00,1.982423782348632812e+00,1.982223272323608398e+00,1.982022762298583984e+00,1.981822371482849121e+00,1.981621980667114258e+00,1.981421709060668945e+00,1.981221079826354980e+00,1.981020927429199219e+00,1.980820655822753906e+00,1.980620503425598145e+00,1.980420351028442383e+00,1.980220317840576172e+00,1.980020284652709961e+00,1.979820251464843750e+00,1.979620218276977539e+00,1.979420304298400879e+00,1.979220390319824219e+00,1.979020595550537109e+00,1.978820800781250000e+00,1.978621006011962891e+00,1.978421211242675781e+00,1.978221535682678223e+00,1.978021979331970215e+00,1.977822303771972656e+00,1.977622747421264648e+00,1.320524334907531738e+00,1.282727122306823730e+00,1.270845651626586914e+00,1.265954375267028809e+00,1.976625561714172363e+00,1.976426243782043457e+00,1.976226925849914551e+00,1.976027607917785645e+00,1.975828409194946289e+00,1.975629329681396484e+00,1.177703261375427246e+00,1.146572113037109375e+00,1.118990182876586914e+00,1.104428410530090332e+00,1.094315409660339355e+00,1.091194748878479004e+00,1.974236011505126953e+00,1.974037170410156250e+00,1.973838329315185547e+00,1.973639607429504395e+00,1.966333389282226562e+00,1.934364318847656250e+00,1.903418302536010742e+00,1.873446941375732422e+00,1.844404697418212891e+00
1.777918100357055664e+00,1.777756810188293457e+00,1.777595639228820801e+00,1.777434468269348145e+00,1.777273297309875488e+00,1.777112126350402832e+00,1.776950955390930176e+00,1.776789903640747070e+00,1.776628851890563965e+00,1.776467800140380859e+00,1.776306867599487305e+00,1.776145815849304199e+00,1.775984764099121094e+00,1.775823831558227539e+00,1.775662899017333984e+00,1.775502085685729980e+00,1.775341272354125977e+00,1.775180459022521973e+00,1.775019645690917969e+00,1.774858951568603516e+00,1.774698257446289062e+00,1.774537563323974609e+00,1.774376869201660156e+00,1.774216294288635254e+00,1.774055719375610352e+00,1.773895144462585449e+00,1.773734569549560547e+00,1.773574113845825195e+00,1.773413538932800293e+00,1.773253202438354492e+00,1.773092746734619141e+00,1.772932291030883789e+00,1.772771954536437988e+00,1.772611618041992188e+00,1.772451281547546387e+00,1.772291064262390137e+00,1.772130846977233887e+00,1.771970629692077637e+00,1.771810412406921387e+00,1.771650195121765137e+00,1.771490097045898438e+00,1.771329998970031738e+00,1.771169900894165039e+00,1.771009922027587891e+00,1.770849823951721191e+00,1.770689725875854492e+00,1.770529747009277344e+00,1.770369768142700195e+00,1.770209908485412598e+00,1.770050048828125000e+00,1.769890189170837402e+00,1.769730329513549805e+00,1.769570589065551758e+00,1.769410848617553711e+00,1.769251108169555664e+00,1.323839545249938965e+00,1.286423921585083008e+00,1.271138668060302734e+00,1.262393355369567871e+00,1.768452882766723633e+00,1.768293380737304688e+00,1.768133878707885742e+00,1.767974376678466797e+00,1.767814874649047852e+00,1.767655491828918457e+00,1.167425990104675293e+00,1.144508123397827148e+00,1.120310425758361816e+00,1.101415276527404785e+00,1.089926242828369141e+00,1.082179784774780273e+00,1.088686347007751465e+00,1.766381025314331055e+00,1.766221761703491211e+00,1.766062617301940918e+00,1.765903592109680176e+00,1.765744447708129883e+00,1.765585422515869141e+00,1.765426158905029297e+00,1.765267252922058105e+00
1.607694149017333984e+00,1.607562303543090820e+00,1.607430458068847656e+00,1.607298612594604492e+00,1.607166886329650879e+00,1.607035040855407715e+00,1.606903314590454102e+00,1.606771588325500488e+00,1.606639862060546875e+00,1.606508135795593262e+00,1.606376528739929199e+00,1.606244802474975586e+00,1.606113195419311523e+00,1.605981588363647461e+00,1.605850100517272949e+00,1.605718493461608887e+00,1.605586886405944824e+00,1.605455398559570312e+00,1.605323910713195801e+00,1.605192422866821289e+00,1.605060815811157227e+00,1.604929447174072266e+00,1.604797959327697754e+00,1.604666590690612793e+00,1.604535222053527832e+00,1.604403853416442871e+00,1.604272603988647461e+00,1.604141235351562500e+00,1.604009985923767090e+00,1.603878736495971680e+00,1.603747487068176270e+00,1.603616237640380859e+00,1.603485107421875000e+00,1.603353857994079590e+00,1.603222727775573730e+00,1.603091597557067871e+00,1.602960467338562012e+00,1.602829456329345703e+00,1.602698326110839844e+00,1.602567315101623535e+00,1.602436304092407227e+00,1.602305293083190918e+00,1.602174282073974609e+00,1.602043390274047852e+00,1.601912379264831543e+00,1.601781487464904785e+00,1.601650595664978027e+00,1.601519703865051270e+00,1.601388812065124512e+00,1.601258039474487305e+00,1.601127266883850098e+00,1.600996494293212891e+00,1.600865721702575684e+00,1.600734829902648926e+00,1.600604057312011719e+00,1.326245307922363281e+00,1.281723260879516602e+00,1.260225892066955566e+00,1.245984911918640137e+00,1.240580916404724121e+00,1.599820137023925781e+00,1.599689602851867676e+00,1.599558949470520020e+00,1.599428415298461914e+00,1.599298000335693359e+00,1.167927742004394531e+00,1.144106507301330566e+00,1.123860478401184082e+00,1.101400494575500488e+00,1.085382461547851562e+00,1.070728302001953125e+00,1.063965559005737305e+00,1.598254680633544922e+00,1.598124384880065918e+00,1.597993969917297363e+00,1.597863793373107910e+00,1.597733497619628906e+00,1.597603201866149902e+00,1.597473025321960449e+00,1.597342848777770996e+00
1.467217683792114258e+00,1.467107892036437988e+00,1.466998100280761719e+00,1.466888308525085449e+00,1.466778516769409180e+00,1.466668725013732910e+00,1.466558933258056641e+00,1.466449260711669922e+00,1.466339588165283203e+00,1.466229796409606934e+00,1.466120123863220215e+00,1.466010451316833496e+00,1.465900897979736328e+00,1.465791225433349609e+00,1.465681552886962891e+00,1.465571999549865723e+00,1.465462446212768555e+00,1.465352892875671387e+00,1.465243339538574219e+00,1.465133786201477051e+00,1.465024232864379883e+00,1.464914798736572266e+00,1.464805245399475098e+00,1.464695811271667480e+00,1.464586377143859863e+00,1.464476943016052246e+00,1.464367508888244629e+00,1.464258074760437012e+00,1.464148640632629395e+00,1.464039206504821777e+00,1.463929891586303711e+00,1.463820576667785645e+00,1.463711261749267578e+00,1.463601946830749512e+00,1.463492631912231445e+00,1.463383316993713379e+00,1.463274121284484863e+00,1.463164806365966797e+00,1.463055610656738281e+00,1.462946414947509766e+00,1.462837219238281250e+00,1.462728023529052734e+00,1.462618947029113770e+00,1.462509751319885254e+00,1.462400674819946289e+00,1.462291598320007324e+00,1.462182402610778809e+00,1.462073445320129395e+00,1.461964368820190430e+00,1.461855292320251465e+00,1.461746215820312500e+00,1.461637258529663086e+00,1.461528301239013672e+00,1.461419343948364258e+00,1.461310267448425293e+00,1.461201429367065430e+00,1.277232408523559570e+00,1.249913930892944336e+00,1.234751701354980469e+00,1.224517583847045898e+00,1.220358371734619141e+00,1.224175453186035156e+00,1.460439085960388184e+00,1.460330247879028320e+00,1.460221529006958008e+00,1.460112690925598145e+00,1.154520392417907715e+00,1.129008889198303223e+00,1.109239697456359863e+00,1.087742567062377930e+00,1.065639257431030273e+00,1.052710890769958496e+00,1.046481609344482422e+00,1.459243059158325195e+00,1.459134340286254883e+00,1.459025740623474121e+00,1.458917140960693359e+00,1.458808541297912598e+00,1.458700060844421387e+00,1.458591461181640625e+00
1.349317669868469238e+00,1.349224805831909180e+00,1.349131941795349121e+00,1.349039077758789062e+00,1.348946094512939453e+00,1.348853230476379395e+00,1.348760366439819336e+00,1.348667621612548828e+00,1.348574757575988770e+00,1.348482012748718262e+00,1.348389267921447754e+00,1.348296523094177246e+00,1.348203778266906738e+00,1.348111033439636230e+00,1.348018288612365723e+00,1.347925543785095215e+00,1.347832918167114258e+00,1.347740173339843750e+00,1.347647547721862793e+00,1.347554922103881836e+00,1.347462296485900879e+00,1.347369551658630371e+00,1.347277045249938965e+00,1.347184419631958008e+00,1.347091794013977051e+00,1.346999287605285645e+00,1.346906661987304688e+00,1.346814155578613281e+00,1.346721649169921875e+00,1.346629023551940918e+00,1.346536517143249512e+00,1.346444010734558105e+00,1.346351504325866699e+00,1.346259117126464844e+00,1.346166610717773438e+00,1.346074104309082031e+00,1.345981597900390625e+00,1.345889210700988770e+00,1.345796823501586914e+00,1.345704317092895508e+00,1.345611929893493652e+00,1.345519542694091797e+00,1.345427274703979492e+00,1.345334887504577637e+00,1.345242500305175781e+00,1.345150232315063477e+00,1.345057845115661621e+00,1.344965577125549316e+00,1.344873309135437012e+00,1.344781041145324707e+00,1.344688773155212402e+00,1.344596505165100098e+00,1.344504237174987793e+00,1.344412088394165039e+00,1.344319820404052734e+00,1.344227671623229980e+00,1.344135403633117676e+00,1.233471870422363281e+00,1.216623187065124512e+00,1.208117604255676270e+00,1.200461030006408691e+00,1.198162078857421875e+00,1.191227793693542480e+00,1.343490481376647949e+00,1.343398451805114746e+00,1.343306303024291992e+00,1.343214273452758789e+00,1.343122243881225586e+00,1.343030214309692383e+00,1.342938065528869629e+00,1.073001027107238770e+00,1.043284893035888672e+00,1.032444119453430176e+00,1.026882052421569824e+00,1.044638156890869141e+00,1.342386126518249512e+00,1.342294216156005859e+00,1.342202305793762207e+00,1.342110395431518555e+00,1.342018485069274902e+00
1.248956203460693359e+00,1.248876571655273438e+00,1.248797059059143066e+00,1.248717427253723145e+00,1.248637914657592773e+00,1.248558402061462402e+00,1.248478889465332031e+00,1.248399376869201660e+00,1.248319864273071289e+00,1.248240351676940918e+00,1.248160839080810547e+00,1.248081326484680176e+00,1.248001813888549805e+00,1.247922301292419434e+00,1.247842907905578613e+00,1.247763395309448242e+00,1.247684001922607422e+00,1.247604608535766602e+00,1.247525215148925781e+00,1.247445702552795410e+00,1.247366309165954590e+00,1.247287034988403320e+00,1.247207641601562500e+00,1.247128248214721680e+00,1.247048854827880859e+00,1.246969580650329590e+00,1.246890187263488770e+00,1.246810913085937500e+00,1.246731638908386230e+00,1.246652245521545410e+00,1.246572971343994141e+00,1.246493697166442871e+00,1.246414422988891602e+00,1.246335148811340332e+00,1.246255993843078613e+00,1.246176719665527344e+00,1.246097445487976074e+00,1.246018290519714355e+00,1.245939016342163086e+00,1.245859861373901367e+00,1.245780706405639648e+00,1.245701432228088379e+00,1.245622277259826660e+00,1.245543122291564941e+00,1.245463967323303223e+00,1.245384812355041504e+00,1.245305657386779785e+00,1.245226502418518066e+00,1.245147466659545898e+00,1.245068311691284180e+00,1.244989275932312012e+00,1.244910120964050293e+00,1.244831085205078125e+00,1.244752049446105957e+00,1.244673013687133789e+00,1.244593977928161621e+00,1.244514942169189453e+00,1.244435906410217285e+00,1.203877568244934082e+00,1.184476971626281738e+00,1.176087021827697754e+00,1.169310808181762695e+00,1.167146682739257812e+00,1.164957880973815918e+00,1.243883013725280762e+00,1.243804097175598145e+00,1.243725180625915527e+00,1.243646264076232910e+00,1.243567347526550293e+00,1.243488430976867676e+00,1.243409633636474609e+00,1.042519211769104004e+00,1.026053309440612793e+00,1.015361666679382324e+00,1.004787802696228027e+00,1.011740446090698242e+00,1.016425728797912598e+00,1.242857694625854492e+00,1.242778778076171875e+00,1.242699980735778809e+00
1.162490844726562500e+00,1.162421822547912598e+00,1.162352919578552246e+00,1.162284016609191895e+00,1.162215113639831543e+00,1.162146210670471191e+00,1.162077307701110840e+00,1.162008404731750488e+00,1.161939501762390137e+00,1.161870598793029785e+00,1.161801695823669434e+00,1.161732912063598633e+00,1.161664009094238281e+00,1.161595225334167480e+00,1.161526322364807129e+00,1.161457538604736328e+00,1.161388635635375977e+00,1.161319851875305176e+00,1.161251068115234375e+00,1.161182284355163574e+00,1.161113381385803223e+00,1.161044597625732422e+00,1.160975813865661621e+00,1.160907030105590820e+00,1.160838246345520020e+00,1.160769581794738770e+00,1.160700798034667969e+00,1.160632014274597168e+00,1.160563349723815918e+00,1.160494565963745117e+00,1.160425901412963867e+00,1.160357236862182617e+00,1.160288572311401367e+00,1.160219788551330566e+00,1.160151124000549316e+00,1.160082459449768066e+00,1.160013794898986816e+00,1.159945130348205566e+00,1.159876465797424316e+00,1.159807920455932617e+00,1.159739255905151367e+00,1.159670591354370117e+00,1.159602046012878418e+00,1.159533381462097168e+00,1.159464836120605469e+00,1.159396171569824219e+00,1.159327626228332520e+00,1.159259080886840820e+00,1.159190535545349121e+00,1.159121990203857422e+00,1.159053444862365723e+00,1.158984899520874023e+00,1.158916354179382324e+00,1.158847689628601074e+00,1.158779263496398926e+00,1.158710718154907227e+00,1.158642172813415527e+00,1.158573746681213379e+00,1.158505201339721680e+00,1.158436775207519531e+00,1.158368349075317383e+00,1.158299803733825684e+00,1.158231377601623535e+00,1.158162951469421387e+00,1.158094525337219238e+00,1.158026099205017090e+00,1.157957673072814941e+00,1.157889246940612793e+00,1.157820940017700195e+00,1.157752513885498047e+00,1.157684087753295898e+00,1.157615780830383301e+00,1.026245355606079102e+00,1.012443065643310547e+00,9.964272379875183105e-01,9.832313060760498047e-01,9.737660288810729980e-01,9.738777279853820801e-01,1.157137274742126465e+00,1.157068967819213867e+00
1.087222218513488770e+00,1.087162017822265625e+00,1.087101697921752930e+00,1.087041378021240234e+00,1.086981058120727539e+00,1.086920857429504395e+00,1.086860537528991699e+00,1.086800217628479004e+00,1.086740016937255859e+00,1.086679697036743164e+00,1.086619496345520020e+00,1.086559295654296875e+00,1.086498975753784180e+00,1.086438775062561035e+00,1.086378574371337891e+00,1.086318373680114746e+00,1.086258172988891602e+00,1.086197972297668457e+00,1.086137771606445312e+00,1.086077570915222168e+00,1.086017370223999023e+00,1.085957288742065430e+00,1.085897088050842285e+00,1.085836887359619141e+00,1.085776805877685547e+00,1.085716605186462402e+00,1.085656523704528809e+00,1.085596323013305664e+00,1.085536122322082520e+00,1.085476040840148926e+00,1.085415959358215332e+00,1.085355758666992188e+00,1.085295677185058594e+00,1.085235595703125000e+00,1.085175514221191406e+00,1.085115432739257812e+00,1.085055351257324219e+00,1.084995269775390625e+00,1.084935307502746582e+00,1.084875226020812988e+00,1.084815144538879395e+00,1.084755182266235352e+00,1.084695100784301758e+00,1.084635019302368164e+00,1.084575057029724121e+00,1.084514975547790527e+00,1.084455013275146484e+00,1.084395051002502441e+00,1.084334969520568848e+00,1.084275007247924805e+00,1.084215044975280762e+00,1.084155082702636719e+00,1.084095120429992676e+00,1.084035158157348633e+00,1.083975195884704590e+00,1.083915233612060547e+00,1.083855271339416504e+00,1.083795428276062012e+00,1.083735466003417969e+00,1.083675503730773926e+00,1.083615660667419434e+00,1.083555698394775391e+00,1.083495736122131348e+00,1.083435893058776855e+00,1.083375930786132812e+00,1.083316087722778320e+00,1.083256244659423828e+00,1.083196282386779785e+00,1.083136439323425293e+00,1.083076596260070801e+00,1.083016753196716309e+00,1.082956910133361816e+00,1.082897067070007324e+00,1.082837224006652832e+00,1.082777500152587891e+00,9.916439652442932129e-01,9.745354056358337402e-01,1.082597970962524414e+00,1.082538247108459473e+00,1.082478404045104980e+00
1.021108031272888184e+00,1.021054863929748535e+00,1.021001577377319336e+00,1.020948410034179688e+00,1.020895242691040039e+00,1.020842075347900391e+00,1.020788908004760742e+00,1.020735740661621094e+00,1.020682573318481445e+00,1.020629405975341797e+00,1.020576238632202148e+00,1.020523071289062500e+00,1.020469903945922852e+00,1.020416855812072754e+00,1.020363688468933105e+00,1.020310640335083008e+00,1.020257472991943359e+00,1.020204424858093262e+00,1.020151257514953613e+00,1.020098209381103516e+00,1.020045042037963867e+00,1.019991993904113770e+00,1.019938945770263672e+00,1.019885897636413574e+00,1.019832730293273926e+00,1.019779682159423828e+00,1.019726634025573730e+00,1.019673585891723633e+00,1.019620537757873535e+00,1.019567489624023438e+00,1.019514441490173340e+00,1.019461512565612793e+00,1.019408464431762695e+00,1.019355416297912598e+00,1.019302368164062500e+00,1.019249439239501953e+00,1.019196391105651855e+00,1.019143342971801758e+00,1.019090414047241211e+00,1.019037365913391113e+00,1.018984436988830566e+00,1.018931388854980469e+00,1.018878459930419922e+00,1.018825531005859375e+00,1.018772482872009277e+00,1.018719553947448730e+00,1.018666625022888184e+00,1.018613696098327637e+00,1.018560767173767090e+00,1.018507838249206543e+00,1.018454909324645996e+00,1.018401980400085449e+00,1.018349051475524902e+00,1.018296122550964355e+00,1.018243312835693359e+00,1.018190383911132812e+00,1.018137454986572266e+00,1.018084526062011719e+00,1.018031716346740723e+00,1.017978787422180176e+00,1.017925977706909180e+00,1.017873048782348633e+00,1.017820239067077637e+00,1.017767429351806641e+00,1.017714500427246094e+00,1.017661690711975098e+00,1.017608880996704102e+00,1.017556071281433105e+00,1.017503142356872559e+00,1.017450332641601562e+00,1.017397522926330566e+00,1.017344713211059570e+00,1.017291903495788574e+00,1.017239093780517578e+00,1.017186284065246582e+00,1.017133474349975586e+00,1.017080664634704590e+00,1.017027974128723145e+00,1.016975164413452148e+00,1.016922354698181152e+00
9.625736474990844727e-01,9.625263810157775879e-01,9.624791145324707031e-01,9.624318480491638184e-01,9.623845815658569336e-01,9.623373150825500488e-01,9.622901082038879395e-01,9.622428417205810547e-01,9.621956348419189453e-01,9.621483683586120605e-01,9.621011614799499512e-01,9.620539546012878418e-01,9.620066285133361816e-01,9.619593620300292969e-01,9.619121551513671875e-01,9.618649482727050781e-01,9.618177413940429688e-01,9.617705941200256348e-01,9.617233872413635254e-01,9.616761803627014160e-01,9.616290330886840820e-01,9.615818262100219727e-01,9.615346789360046387e-01,9.614874720573425293e-01,9.614403247833251953e-01,9.613931775093078613e-01,9.613460302352905273e-01,9.612988829612731934e-01,9.612517356872558594e-01,9.612045884132385254e-01,9.611574411392211914e-01,9.611102938652038574e-01,9.610631465911865234e-01,9.610160589218139648e-01,9.609689116477966309e-01,9.609218239784240723e-01,9.608747363090515137e-01,9.608275890350341797e-01,9.607805013656616211e-01,9.607334136962890625e-01,9.606863260269165039e-01,9.606392383575439453e-01,9.605921506881713867e-01,9.605450630187988281e-01,9.604979753494262695e-01,9.604509472846984863e-01,9.604038596153259277e-01,9.603568315505981445e-01,9.603097438812255859e-01,9.602627158164978027e-01,9.602156281471252441e-01,9.601686000823974609e-01,9.601215720176696777e-01,9.600745439529418945e-01,9.600275158882141113e-01,9.599804878234863281e-01,9.599334597587585449e-01,9.598864912986755371e-01,9.598394632339477539e-01,9.597924351692199707e-01,9.597454667091369629e-01,9.596984386444091797e-01,9.596514701843261719e-01,9.596045017242431641e-01,9.595575332641601562e-01,9.595105051994323730e-01,9.594635367393493652e-01,9.594165682792663574e-01,9.593696594238281250e-01,9.593226909637451172e-01,9.592757225036621094e-01,9.592287540435791016e-01,9.591818451881408691e-01,9.591348767280578613e-01,9.590879678726196289e-01,9.590409994125366211e-01,9.589940905570983887e-01,9.589471817016601562e-01,9.589001536369323730e-01,9.588532447814941406e-01
