5.000000000000000000e+00,5.000000000000000000e+00,5.000000000000000000e+00,5.000000000000000000e+00,5.000000000000000000e+00,5.000000000000000000e+00,5.000000000000000000e+00,5.000000000000000000e+00,5.000000000000000000e+00,5.000000000000000000e+00,5.000000000000000000e+00,5.000000000000000000e+00,5.000000000000000000e+00,5.000000000000000000e+00,5.000000000000000000e+00,5.000000000000000000e+00,5.000000000000000000e+00,5.000000000000000000e+00,5.000000000000000000e+00,5.000000000000000000e+00,5.000000000000000000e+00,5.000000000000000000e+00,5.000000000000000000e+00,5.000000000000000000e+00,5.000000000000000000e+00,5.000000000000000000e+00,5.000000000000000000e+00,2.215097665786743164e+00,2.235673666000366211e+00,2.197250843048095703e+00,2.171942234039306641e+00,2.159895896911621094e+00,2.154721260070800781e+00,2.152296304702758789e+00,2.161325454711914062e+00,2.187074422836303711e+00,2.254827499389648438e+00,2.333307743072509766e+00,2.333580493927001953e+00,4.851742267608642578e+00,4.661643505096435547e+00,4.485880374908447266e+00,4.322888851165771484e+00,4.171327114105224609e+00,4.030032634735107422e+00,3.897996902465820312e+00,3.774338006973266602e+00,3.658283948898315430e+00,3.549154281616210938e+00,3.446346521377563477e+00,3.349326848983764648e+00,3.257620573043823242e+00,3.170801877975463867e+00,3.088490962982177734e+00,3.010345697402954102e+00,2.936056852340698242e+00,2.865346431732177734e+00,2.797961711883544922e+00,2.733673572540283203e+00,2.672273397445678711e+00,2.613570928573608398e+00,2.557391881942749023e+00,2.503577232360839844e+00,2.451980829238891602e+00,2.402467966079711914e+00,2.354915380477905273e+00,2.309208393096923828e+00,2.265242338180541992e+00,2.222918987274169922e+00,2.182147979736328125e+00,2.142845869064331055e+00,2.104934215545654297e+00,2.068340778350830078e+00,2.032998085021972656e+00,1.998842835426330566e+00,1.965816378593444824e+00,1.933863401412963867e+00,1.902932524681091309e+00,1.872975468635559082e+00,1.843947172164916992e+00
5.000000000000000000e+00,5.000000000000000000e+00,5.000000000000000000e+00,5.000000000000000000e+00,5.000000000000000000e+00,5.000000000000000000e+00,5.000000000000000000e+00,5.000000000000000000e+00,5.000000000000000000e+00,5.000000000000000000e+00,5.000000000000000000e+00,5.000000000000000000e+00,5.000000000000000000e+00,5.000000000000000000e+00,5.000000000000000000e+00,5.000000000000000000e+00,5.000000000000000000e+00,5.000000000000000000e+00,5.000000000000000000e+00,5.000000000000000000e+00,5.000000000000000000e+00,5.000000000000000000e+00,5.000000000000000000e+00,5.000000000000000000e+00,5.000000000000000000e+00,5.000000000000000000e+00,2.206084489822387695e+00,2.185940742492675781e+00,2.210901021957397461e+00,2.188895940780639648e+00,2.167627573013305664e+00,2.160606384277343750e+00,2.153865337371826172e+00,2.168762683868408203e+00,2.178110837936401367e+00,2.206906795501708984e+00,2.259296417236328125e+00,2.322495460510253906e+00,2.320234060287475586e+00,4.851880550384521484e+00,4.661770820617675781e+00,4.485998153686523438e+00,4.322998523712158203e+00,4.171428680419921875e+00,4.030128002166748047e+00,3.898086071014404297e+00,3.774421691894531250e+00,3.658362627029418945e+00,3.549227952957153320e+00,3.446415901184082031e+00,3.349392890930175781e+00,3.257682800292968750e+00,3.170861005783081055e+00,3.088546991348266602e+00,3.010398626327514648e+00,2.936107158660888672e+00,2.865394353866577148e+00,2.798007726669311523e+00,2.733717441558837891e+00,2.672315359115600586e+00,2.613610982894897461e+00,2.557430267333984375e+00,2.503613948822021484e+00,2.452016115188598633e+00,2.402501821517944336e+00,2.354947805404663086e+00,2.309239864349365234e+00,2.265272378921508789e+00,2.222947835922241211e+00,2.182175874710083008e+00,2.142872810363769531e+00,2.104960203170776367e+00,2.068365812301635742e+00,2.033022165298461914e+00,1.998866200447082520e+00,1.965838909149169922e+00,1.933885216712951660e+00,1.902953624725341797e+00,1.872995972633361816e+00,1.843966960906982422e+00
5.000000000000000000e+00,5.000000000000000000e+00,5.000000000000000000e+00,5.000000000000000000e+00,5.000000000000000000e+00,5.000000000000000000e+00,5.000000000000000000e+00,5.000000000000000000e+00,5.000000000000000000e+00,5.000000000000000000e+00,5.000000000000000000e+00,5.000000000000000000e+00,5.000000000000000000e+00,5.000000000000000000e+00,5.000000000000000000e+00,5.000000000000000000e+00,5.000000000000000000e+00,5.000000000000000000e+00,5.000000000000000000e+00,5.000000000000000000e+00,5.000000000000000000e+00,5.000000000000000000e+00,5.000000000000000000e+00,5.000000000000000000e+00,5.000000000000000000e+00,5.000000000000000000e+00,2.179483413696289062e+00,2.164793729782104492e+00,2.194875955581665039e+00,2.186928272247314453e+00,2.169522285461425781e+00,2.169334411621093750e+00,2.156753301620483398e+00,2.180143833160400391e+00,2.192771434783935547e+00,2.214041233062744141e+00,2.286891937255859375e+00,2.316083669662475586e+00,2.310776472091674805e+00,4.852018356323242188e+00,4.661898612976074219e+00,4.486115932464599609e+00,4.323107719421386719e+00,4.171530723571777344e+00,4.030222892761230469e+00,3.898174762725830078e+00,3.774504899978637695e+00,3.658441305160522461e+00,3.549301862716674805e+00,3.446485519409179688e+00,3.349458456039428711e+00,3.257744789123535156e+00,3.170919656753540039e+00,3.088603019714355469e+00,3.010451793670654297e+00,2.936157941818237305e+00,2.865442514419555664e+00,2.798053264617919922e+00,2.733761072158813477e+00,2.672357082366943359e+00,2.613651037216186523e+00,2.557468652725219727e+00,2.503650665283203125e+00,2.452051162719726562e+00,2.402535676956176758e+00,2.354980230331420898e+00,2.309271097183227539e+00,2.265302419662475586e+00,2.222976922988891602e+00,2.182203769683837891e+00,2.142899513244628906e+00,2.104986190795898438e+00,2.068390846252441406e+00,2.033046483993530273e+00,1.998889565467834473e+00,1.965861558914184570e+00,1.933907032012939453e+00,1.902974843978881836e+00,1.873016476631164551e+00,1.843987107276916504e+00
5.000000000000000000e+00,5.000000000000000000e+00,5.000000000000000000e+00,5.000000000000000000e+00,5.000000000000000000e+00,5.000000000000000000e+00,5.000000000000000000e+00,5.000000000000000000e+00,5.000000000000000000e+00,5.000000000000000000e+00,5.000000000000000000e+00,5.000000000000000000e+00,5.000000000000000000e+00,5.000000000000000000e+00,5.000000000000000000e+00,5.000000000000000000e+00,5.000000000000000000e+00,5.000000000000000000e+00,5.000000000000000000e+00,5.000000000000000000e+00,5.000000000000000000e+00,5.000000000000000000e+00,5.000000000000000000e+00,5.000000000000000000e+00,5.000000000000000000e+00,5.000000000000000000e+00,2.149440765380859375e+00,2.137033462524414062e+00,2.198557615280151367e+00,2.186081647872924805e+00,2.170687437057495117e+00,2.193174123764038086e+00,2.183470249176025391e+00,2.185847282409667969e+00,2.138851165771484375e+00,2.145704507827758789e+00,2.183099031448364258e+00,2.314322471618652344e+00,2.301760673522949219e+00,4.852156162261962891e+00,4.662025928497314453e+00,4.486234188079833984e+00,4.323217391967773438e+00,4.171632766723632812e+00,4.030318260192871094e+00,3.898263931274414062e+00,3.774588584899902344e+00,3.658519268035888672e+00,3.549375534057617188e+00,3.446554899215698242e+00,3.349524259567260742e+00,3.257807016372680664e+00,3.170978784561157227e+00,3.088658809661865234e+00,3.010504722595214844e+00,2.936208248138427734e+00,2.865490674972534180e+00,2.798099279403686523e+00,2.733804941177368164e+00,2.672399044036865234e+00,2.613690853118896484e+00,2.557506799697875977e+00,2.503687381744384766e+00,2.452086448669433594e+00,2.402569532394409180e+00,2.355012893676757812e+00,2.309302330017089844e+00,2.265332460403442383e+00,2.223005771636962891e+00,2.182231903076171875e+00,2.142926454544067383e+00,2.105012178421020508e+00,2.068415880203247070e+00,2.033070802688598633e+00,1.998912930488586426e+00,1.965884327888488770e+00,1.933929085731506348e+00,1.902996182441711426e+00,1.873037219047546387e+00,1.844006896018981934e+00
5.000000000000000000e+00,5.000000000000000000e+00,5.000000000000000000e+00,5.000000000000000000e+00,5.000000000000000000e+00,5.000000000000000000e+00,5.000000000000000000e+00,5.000000000000000000e+00,5.000000000000000000e+00,5.000000000000000000e+00,5.000000000000000000e+00,5.000000000000000000e+00,5.000000000000000000e+00,5.000000000000000000e+00,5.000000000000000000e+00,5.000000000000000000e+00,5.000000000000000000e+00,5.000000000000000000e+00,5.000000000000000000e+00,5.000000000000000000e+00,5.000000000000000000e+00,5.000000000000000000e+00,5.000000000000000000e+00,5.000000000000000000e+00,5.000000000000000000e+00,5.000000000000000000e+00,2.123269081115722656e+00,2.123924016952514648e+00,5.000000000000000000e+00,2.181912183761596680e+00,2.170034646987915039e+00,2.189177274703979492e+00,2.228986501693725586e+00,2.129684925079345703e+00,2.109075069427490234e+00,2.116338968276977539e+00,2.150145530700683594e+00,2.310324907302856445e+00,2.287056207656860352e+00,4.852293968200683594e+00,4.662153244018554688e+00,4.486351966857910156e+00,4.323327064514160156e+00,4.171734809875488281e+00,4.030413150787353516e+00,3.898352861404418945e+00,3.774672269821166992e+00,3.658597946166992188e+00,3.549449443817138672e+00,3.446624755859375000e+00,3.349589824676513672e+00,3.257869005203247070e+00,3.171037912368774414e+00,3.088714838027954102e+00,3.010557889938354492e+00,2.936258792877197266e+00,2.865538597106933594e+00,2.798145055770874023e+00,2.733848571777343750e+00,2.672440767288208008e+00,2.613730907440185547e+00,2.557545185089111328e+00,2.503724098205566406e+00,2.452121496200561523e+00,2.402603149414062500e+00,2.355045318603515625e+00,2.309333562850952148e+00,2.265362501144409180e+00,2.223034620285034180e+00,2.182259559631347656e+00,2.142953395843505859e+00,2.105038166046142578e+00,2.068441152572631836e+00,2.033094882965087891e+00,1.998936414718627930e+00,1.965906858444213867e+00,1.933950901031494141e+00,1.903017401695251465e+00,1.873057723045349121e+00,1.844026803970336914e+00
5.000000000000000000e+00,5.000000000000000000e+00,5.000000000000000000e+00,5.000000000000000000e+00,5.000000000000000000e+00,5.000000000000000000e+00,5.000000000000000000e+00,5.000000000000000000e+00,5.000000000000000000e+00,5.000000000000000000e+00,5.000000000000000000e+00,5.000000000000000000e+00,5.000000000000000000e+00,5.000000000000000000e+00,5.000000000000000000e+00,5.000000000000000000e+00,5.000000000000000000e+00,5.000000000000000000e+00,5.000000000000000000e+00,5.000000000000000000e+00,5.000000000000000000e+00,5.000000000000000000e+00,5.000000000000000000e+00,5.000000000000000000e+00,5.000000000000000000e+00,5.000000000000000000e+00,2.098792314529418945e+00,2.096924066543579102e+00,5.000000000000000000e+00,2.179525613784790039e+00,2.166787385940551758e+00,2.180530786514282227e+00,2.208299636840820312e+00,2.110321998596191406e+00,2.092760086059570312e+00,2.093411445617675781e+00,2.125742912292480469e+00,5.000000000000000000e+00,2.291160583496093750e+00,4.852432250976562500e+00,4.662280559539794922e+00,4.486469745635986328e+00,4.323436737060546875e+00,4.171836853027343750e+00,4.030508518218994141e+00,3.898442029953002930e+00,3.774755477905273438e+00,3.658676147460937500e+00,3.549523115158081055e+00,3.446694374084472656e+00,3.349655628204345703e+00,3.257931470870971680e+00,3.171096563339233398e+00,3.088770389556884766e+00,3.010610818862915039e+00,2.936309576034545898e+00,2.865586996078491211e+00,2.798191070556640625e+00,2.733892440795898438e+00,2.672482490539550781e+00,2.613770961761474609e+00,2.557583332061767578e+00,2.503760814666748047e+00,2.452156782150268555e+00,2.402637004852294922e+00,2.355077743530273438e+00,2.309364795684814453e+00,2.265392541885375977e+00,2.223063707351684570e+00,2.182287693023681641e+00,2.142980337142944336e+00,2.105064153671264648e+00,2.068465948104858398e+00,2.033119201660156250e+00,1.998959779739379883e+00,1.965929508209228516e+00,1.933972835540771484e+00,1.903038501739501953e+00,1.873078227043151855e+00,1.844046592712402344e+00
5.000000000000000000e+00,5.000000000000000000e+00,5.000000000000000000e+00,5.000000000000000000e+00,5.000000000000000000e+00,5.000000000000000000e+00,5.000000000000000000e+00,5.000000000000000000e+00,5.000000000000000000e+00,5.000000000000000000e+00,5.000000000000000000e+00,5.000000000000000000e+00,5.000000000000000000e+00,5.000000000000000000e+00,5.000000000000000000e+00,5.000000000000000000e+00,5.000000000000000000e+00,5.000000000000000000e+00,5.000000000000000000e+00,5.000000000000000000e+00,5.000000000000000000e+00,5.000000000000000000e+00,5.000000000000000000e+00,5.000000000000000000e+00,5.000000000000000000e+00,5.000000000000000000e+00,2.059251785278320312e+00,2.062944173812866211e+00,5.000000000000000000e+00,2.184562683105468750e+00,2.171267986297607422e+00,2.179292917251586914e+00,2.205803632736206055e+00,2.091143846511840820e+00,2.076333045959472656e+00,2.070975303649902344e+00,2.105113744735717773e+00,5.000000000000000000e+00,2.269800186157226562e+00,4.852570056915283203e+00,4.662407875061035156e+00,4.486587524414062500e+00,4.323545932769775391e+00,4.171938896179199219e+00,4.030603408813476562e+00,3.898531198501586914e+00,3.774839162826538086e+00,3.658754825592041016e+00,3.549597024917602539e+00,3.446763753890991211e+00,3.349721193313598633e+00,3.257993459701538086e+00,3.171155691146850586e+00,3.088826417922973633e+00,3.010663986206054688e+00,2.936359882354736328e+00,2.865634918212890625e+00,2.798236846923828125e+00,2.733936309814453125e+00,2.672524452209472656e+00,2.613811016082763672e+00,2.557621717453002930e+00,2.503797531127929688e+00,2.452192068099975586e+00,2.402670860290527344e+00,2.355110406875610352e+00,2.309396028518676758e+00,2.265422821044921875e+00,2.223092555999755859e+00,2.182315349578857422e+00,2.143007278442382812e+00,2.105090141296386719e+00,2.068491220474243164e+00,2.033143281936645508e+00,1.998983144760131836e+00,1.965952038764953613e+00,1.933994650840759277e+00,1.903059840202331543e+00,1.873098850250244141e+00,1.844066739082336426e+00
5.000000000000000000e+00,5.000000000000000000e+00,5.000000000000000000e+00,5.000000000000000000e+00,5.000000000000000000e+00,5.000000000000000000e+00,5.000000000000000000e+00,5.000000000000000000e+00,5.000000000000000000e+00,5.000000000000000000e+00,5.000000000000000000e+00,5.000000000000000000e+00,5.000000000000000000e+00,5.000000000000000000e+00,5.000000000000000000e+00,5.000000000000000000e+00,5.000000000000000000e+00,5.000000000000000000e+00,5.000000000000000000e+00,5.000000000000000000e+00,5.000000000000000000e+00,5.000000000000000000e+00,5.000000000000000000e+00,5.000000000000000000e+00,5.000000000000000000e+00,5.000000000000000000e+00,2.030761003494262695e+00,2.046558618545532227e+00,5.000000000000000000e+00,2.192073106765747070e+00,2.178338766098022461e+00,2.183974504470825195e+00,2.210082769393920898e+00,2.085332870483398438e+00,2.057382345199584961e+00,2.047526836395263672e+00,2.084085941314697266e+00,2.256342649459838867e+00,2.259387493133544922e+00,2.304303407669067383e+00,4.662535190582275391e+00,4.486705303192138672e+00,4.323655605316162109e+00,4.172040462493896484e+00,4.030698776245117188e+00,3.898620128631591797e+00,3.774922370910644531e+00,3.658833026885986328e+00,3.549670934677124023e+00,3.446833610534667969e+00,3.349786996841430664e+00,3.258055686950683594e+00,3.171214342117309570e+00,3.088882207870483398e+00,3.010717391967773438e+00,2.936410427093505859e+00,2.865683078765869141e+00,2.798282861709594727e+00,2.733979940414428711e+00,2.672566175460815430e+00,2.613850831985473633e+00,2.557660102844238281e+00,2.503834247589111328e+00,2.452227354049682617e+00,2.402704715728759766e+00,2.355142831802368164e+00,2.309427261352539062e+00,2.265452861785888672e+00,2.223121643066406250e+00,2.182343482971191406e+00,2.143034219741821289e+00,2.105115890502929688e+00,2.068516254425048828e+00,2.033167600631713867e+00,1.999006748199462891e+00,1.965974807739257812e+00,1.934016704559326172e+00,1.903081059455871582e+00,1.873119354248046875e+00,1.844086527824401855e+00
5.000000000000000000e+00,5.000000000000000000e+00,5.000000000000000000e+00,5.000000000000000000e+00,5.000000000000000000e+00,5.000000000000000000e+00,5.000000000000000000e+00,5.000000000000000000e+00,5.000000000000000000e+00,5.000000000000000000e+00,5.000000000000000000e+00,5.000000000000000000e+00,5.000000000000000000e+00,5.000000000000000000e+00,5.000000000000000000e+00,5.000000000000000000e+00,5.000000000000000000e+00,5.000000000000000000e+00,5.000000000000000000e+00,5.000000000000000000e+00,5.000000000000000000e+00,5.000000000000000000e+00,5.000000000000000000e+00,5.000000000000000000e+00,5.000000000000000000e+00,5.000000000000000000e+00,5.000000000000000000e+00,5.000000000000000000e+00,5.000000000000000000e+00,2.201550006866455078e+00,2.186348438262939453e+00,2.190366029739379883e+00,2.214833021163940430e+00,2.075206279754638672e+00,2.040493011474609375e+00,2.027774095535278320e+00,2.056668996810913086e+00,5.000000000000000000e+00,5.000000000000000000e+00,2.294131278991699219e+00,4.662662506103515625e+00,4.486823558807373047e+00,4.323764801025390625e+00,4.172142505645751953e+00,4.030794143676757812e+00,3.898709297180175781e+00,3.775006055831909180e+00,3.658911466598510742e+00,3.549744606018066406e+00,3.446902990341186523e+00,3.349852561950683594e+00,3.258118152618408203e+00,3.171273469924926758e+00,3.088938236236572266e+00,3.010770320892333984e+00,2.936460733413696289e+00,2.865731000900268555e+00,2.798328638076782227e+00,2.734023809432983398e+00,2.672608137130737305e+00,2.613891124725341797e+00,2.557698488235473633e+00,2.503870964050292969e+00,2.452262401580810547e+00,2.402738571166992188e+00,2.355175256729125977e+00,2.309458494186401367e+00,2.265482902526855469e+00,2.223150491714477539e+00,2.182371139526367188e+00,2.143061161041259766e+00,2.105141878128051758e+00,2.068541288375854492e+00,2.033191680908203125e+00,1.999030113220214844e+00,1.965997457504272461e+00,1.934038639068603516e+00,1.903102159500122070e+00,1.873139858245849609e+00,1.844106435775756836e+00
5.000000000000000000e+00,5.000000000000000000e+00,5.000000000000000000e+00,5.000000000000000000e+00,5.000000000000000000e+00,5.000000000000000000e+00,5.000000000000000000e+00,5.000000000000000000e+00,5.000000000000000000e+00,5.000000000000000000e+00,5.000000000000000000e+00,5.000000000000000000e+00,5.000000000000000000e+00,5.000000000000000000e+00,5.000000000000000000e+00,5.000000000000000000e+00,5.000000000000000000e+00,5.000000000000000000e+00,5.000000000000000000e+00,5.000000000000000000e+00,5.000000000000000000e+00,5.000000000000000000e+00,5.000000000000000000e+00,5.000000000000000000e+00,5.000000000000000000e+00,5.000000000000000000e+00,5.000000000000000000e+00,5.000000000000000000e+00,5.000000000000000000e+00,2.211435794830322266e+00,2.194912910461425781e+00,2.196624040603637695e+00,2.219603776931762695e+00,2.060347318649291992e+00,2.019003391265869141e+00,2.011365413665771484e+00,2.036561727523803711e+00,5.000000000000000000e+00,5.000000000000000000e+00,2.259793758392333984e+00,4.662789821624755859e+00,4.486941337585449219e+00,4.323874473571777344e+00,4.172244548797607422e+00,4.030889034271240234e+00,3.898797988891601562e+00,3.775089263916015625e+00,3.658990144729614258e+00,3.549818515777587891e+00,3.446972608566284180e+00,3.349918365478515625e+00,3.258180141448974609e+00,3.171332120895385742e+00,3.088994026184082031e+00,3.010823488235473633e+00,2.936511516571044922e+00,2.865779161453247070e+00,2.798374414443969727e+00,2.734067440032958984e+00,2.672649860382080078e+00,2.613931179046630859e+00,2.557736873626708984e+00,2.503907680511474609e+00,2.452297687530517578e+00,2.402772426605224609e+00,2.355207681655883789e+00,2.309489727020263672e+00,2.265512704849243164e+00,2.223179578781127930e+00,2.182399272918701172e+00,2.143087863922119141e+00,2.105167865753173828e+00,2.068566322326660156e+00,2.033215999603271484e+00,1.999053359031677246e+00,1.966019988059997559e+00,1.934060454368591309e+00,1.903123378753662109e+00,1.873160362243652344e+00,1.844126462936401367e+00
5.000000000000000000e+00,5.000000000000000000e+00,5.000000000000000000e+00,5.000000000000000000e+00,5.000000000000000000e+00,5.000000000000000000e+00,5.000000000000000000e+00,5.000000000000000000e+00,5.000000000000000000e+00,5.000000000000000000e+00,5.000000000000000000e+00,5.000000000000000000e+00,5.000000000000000000e+00,5.000000000000000000e+00,5.000000000000000000e+00,5.000000000000000000e+00,5.000000000000000000e+00,5.000000000000000000e+00,5.000000000000000000e+00,5.000000000000000000e+00,5.000000000000000000e+00,5.000000000000000000e+00,5.000000000000000000e+00,5.000000000000000000e+00,5.000000000000000000e+00,5.000000000000000000e+00,5.000000000000000000e+00,5.000000000000000000e+00,5.000000000000000000e+00,5.000000000000000000e+00,2.202789783477783203e+00,2.201452016830444336e+00,2.224508523941040039e+00,2.051356554031372070e+00,1.999411821365356445e+00,1.994421243667602539e+00,2.018329143524169922e+00,5.000000000000000000e+00,5.000000000000000000e+00,4.853121757507324219e+00,4.662917137145996094e+00,4.487059593200683594e+00,4.323984146118164062e+00,4.172346591949462891e+00,4.030984401702880859e+00,3.898887395858764648e+00,3.775172948837280273e+00,3.659068346023559570e+00,3.549892187118530273e+00,3.447042226791381836e+00,3.349984407424926758e+00,3.258242368698120117e+00,3.171391248703002930e+00,3.089050054550170898e+00,3.010876417160034180e+00,2.936561822891235352e+00,2.865827560424804688e+00,2.798420429229736328e+00,2.734111547470092773e+00,2.672691822052001953e+00,2.613970994949340820e+00,2.557775020599365234e+00,2.503944396972656250e+00,2.452332973480224609e+00,2.402806282043457031e+00,2.355240345001220703e+00,2.309520959854125977e+00,2.265542745590209961e+00,2.223208427429199219e+00,2.182427167892456055e+00,2.143114805221557617e+00,2.105193853378295898e+00,2.068591356277465820e+00,2.033240318298339844e+00,1.999076724052429199e+00,1.966042518615722656e+00,1.934082508087158203e+00,1.903144717216491699e+00,1.873181104660034180e+00,1.844146370887756348e+00
5.000000000000000000e+00,5.000000000000000000e+00,5.000000000000000000e+00,5.000000000000000000e+00,5.000000000000000000e+00,5.000000000000000000e+00,5.000000000000000000e+00,5.000000000000000000e+00,5.000000000000000000e+00,5.000000000000000000e+00,5.000000000000000000e+00,5.000000000000000000e+00,5.000000000000000000e+00,5.000000000000000000e+00,5.000000000000000000e+00,5.000000000000000000e+00,5.000000000000000000e+00,5.000000000000000000e+00,5.000000000000000000e+00,5.000000000000000000e+00,5.000000000000000000e+00,5.000000000000000000e+00,5.000000000000000000e+00,5.000000000000000000e+00,5.000000000000000000e+00,5.000000000000000000e+00,5.000000000000000000e+00,5.000000000000000000e+00,5.000000000000000000e+00,5.000000000000000000e+00,2.207871675491333008e+00,2.206574916839599609e+00,2.227307796478271484e+00,2.041034698486328125e+00,1.989153146743774414e+00,1.986783623695373535e+00,2.010889291763305664e+00,5.000000000000000000e+00,5.000000000000000000e+00,4.853259563446044922e+00,4.663044452667236328e+00,4.487177371978759766e+00,4.324093341827392578e+00,4.172448635101318359e+00,4.031079292297363281e+00,3.898976087570190430e+00,3.775256633758544922e+00,3.659147024154663086e+00,3.549966096878051758e+00,3.447111845016479492e+00,3.350049972534179688e+00,3.258304357528686523e+00,3.171449899673461914e+00,3.089106082916259766e+00,3.010929584503173828e+00,2.936612367630004883e+00,2.865875482559204102e+00,2.798466205596923828e+00,2.734155178070068359e+00,2.672733783721923828e+00,2.614011049270629883e+00,2.557813405990600586e+00,2.503981113433837891e+00,2.452368259429931641e+00,2.402839899063110352e+00,2.355272769927978516e+00,2.309552192687988281e+00,2.265573024749755859e+00,2.223237276077270508e+00,2.182455062866210938e+00,2.143141746520996094e+00,2.105219841003417969e+00,2.068616628646850586e+00,2.033264398574829102e+00,1.999100327491760254e+00,1.966065406799316406e+00,1.934104323387145996e+00,1.903165936470031738e+00,1.873201608657836914e+00,1.844166278839111328e+00
5.000000000000000000e+00,5.000000000000000000e+00,5.000000000000000000e+00,5.000000000000000000e+00,5.000000000000000000e+00,5.000000000000000000e+00,5.000000000000000000e+00,5.000000000000000000e+00,5.000000000000000000e+00,5.000000000000000000e+00,5.000000000000000000e+00,5.000000000000000000e+00,5.000000000000000000e+00,5.000000000000000000e+00,5.000000000000000000e+00,5.000000000000000000e+00,5.000000000000000000e+00,5.000000000000000000e+00,5.000000000000000000e+00,5.000000000000000000e+00,5.000000000000000000e+00,5.000000000000000000e+00,5.000000000000000000e+00,5.000000000000000000e+00,5.000000000000000000e+00,5.000000000000000000e+00,5.000000000000000000e+00,5.000000000000000000e+00,5.000000000000000000e+00,5.000000000000000000e+00,2.216455936431884766e+00,2.211721181869506836e+00,2.229814052581787109e+00,5.000000000000000000e+00,1.995943665504455566e+00,1.992571115493774414e+00,2.018809556961059570e+00,5.000000000000000000e+00,5.000000000000000000e+00,4.853397369384765625e+00,4.663171768188476562e+00,4.487295150756835938e+00,4.324203014373779297e+00,4.172550678253173828e+00,4.031174659729003906e+00,3.899065256118774414e+00,3.775339841842651367e+00,3.659225225448608398e+00,3.550039768218994141e+00,3.447181701660156250e+00,3.350115776062011719e+00,3.258366823196411133e+00,3.171509027481079102e+00,3.089161634445190430e+00,3.010982513427734375e+00,2.936662912368774414e+00,2.865923643112182617e+00,2.798512220382690430e+00,2.734199047088623047e+00,2.672775506973266602e+00,2.614051103591918945e+00,2.557851552963256836e+00,2.504018068313598633e+00,2.452403545379638672e+00,2.402873754501342773e+00,2.355305194854736328e+00,2.309583425521850586e+00,2.265602827072143555e+00,2.223266363143920898e+00,2.182482957839965820e+00,2.143168687820434570e+00,2.105245828628540039e+00,2.068641424179077148e+00,2.033288717269897461e+00,1.999123692512512207e+00,1.966087937355041504e+00,1.934126257896423340e+00,1.903187036514282227e+00,1.873222112655639648e+00,1.844186067581176758e+00
5.000000000000000000e+00,5.000000000000000000e+00,5.000000000000000000e+00,5.000000000000000000e+00,5.000000000000000000e+00,5.000000000000000000e+00,5.000000000000000000e+00,5.000000000000000000e+00,5.000000000000000000e+00,5.000000000000000000e+00,5.000000000000000000e+00,5.000000000000000000e+00,5.000000000000000000e+00,5.000000000000000000e+00,5.000000000000000000e+00,5.000000000000000000e+00,5.000000000000000000e+00,5.000000000000000000e+00,5.000000000000000000e+00,5.000000000000000000e+00,5.000000000000000000e+00,5.000000000000000000e+00,5.000000000000000000e+00,5.000000000000000000e+00,5.000000000000000000e+00,5.000000000000000000e+00,5.000000000000000000e+00,5.000000000000000000e+00,5.000000000000000000e+00,5.000000000000000000e+00,2.229599475860595703e+00,2.215263605117797852e+00,2.233003139495849609e+00,5.000000000000000000e+00,2.015583038330078125e+00,2.006545782089233398e+00,2.033765077590942383e+00,5.000000000000000000e+00,5.000000000000000000e+00,4.853535652160644531e+00,4.663299083709716797e+00,4.487413406372070312e+00,4.324312686920166016e+00,4.172652721405029297e+00,4.031269550323486328e+00,3.899154186248779297e+00,3.775423526763916016e+00,3.659303665161132812e+00,3.550113677978515625e+00,3.447251081466674805e+00,3.350181341171264648e+00,3.258428812026977539e+00,3.171568155288696289e+00,3.089217662811279297e+00,3.011035919189453125e+00,2.936713457107543945e+00,2.865971565246582031e+00,2.798557996749877930e+00,2.734242916107177734e+00,2.672817468643188477e+00,2.614091157913208008e+00,2.557890176773071289e+00,2.504054546356201172e+00,2.452438592910766602e+00,2.402907609939575195e+00,2.355337858200073242e+00,2.309614658355712891e+00,2.265633106231689453e+00,2.223295211791992188e+00,2.182510852813720703e+00,2.143195629119873047e+00,2.105271816253662109e+00,2.068666696548461914e+00,2.033312797546386719e+00,1.999147057533264160e+00,1.966110587120056152e+00,1.934148073196411133e+00,1.903208136558532715e+00,1.873242735862731934e+00,1.844206213951110840e+00
5.000000000000000000e+00,5.000000000000000000e+00,5.000000000000000000e+00,5.000000000000000000e+00,5.000000000000000000e+00,5.000000000000000000e+00,5.000000000000000000e+00,5.000000000000000000e+00,5.000000000000000000e+00,5.000000000000000000e+00,5.000000000000000000e+00,5.000000000000000000e+00,5.000000000000000000e+00,5.000000000000000000e+00,5.000000000000000000e+00,5.000000000000000000e+00,5.000000000000000000e+00,5.000000000000000000e+00,5.000000000000000000e+00,5.000000000000000000e+00,5.000000000000000000e+00,5.000000000000000000e+00,5.000000000000000000e+00,5.000000000000000000e+00,5.000000000000000000e+00,5.000000000000000000e+00,5.000000000000000000e+00,5.000000000000000000e+00,5.000000000000000000e+00,5.000000000000000000e+00,2.262707471847534180e+00,2.227245569229125977e+00,2.246803045272827148e+00,5.000000000000000000e+00,2.036297798156738281e+00,2.020717859268188477e+00,2.045983076095581055e+00,5.000000000000000000e+00,5.000000000000000000e+00,4.853673934936523438e+00,4.663426399230957031e+00,4.487531185150146484e+00,4.324422359466552734e+00,4.172754764556884766e+00,4.031364917755126953e+00,3.899243354797363281e+00,3.775506734848022461e+00,3.659381866455078125e+00,3.550187349319458008e+00,3.447320938110351562e+00,3.350247144699096680e+00,3.258491039276123047e+00,3.171626806259155273e+00,3.089273452758789062e+00,3.011088848114013672e+00,2.936764001846313477e+00,2.866019964218139648e+00,2.798604011535644531e+00,2.734286546707153320e+00,2.672859191894531250e+00,2.614131212234497070e+00,2.557928562164306641e+00,2.504091501235961914e+00,2.452473878860473633e+00,2.402941465377807617e+00,2.355370283126831055e+00,2.309645891189575195e+00,2.265663146972656250e+00,2.223324298858642578e+00,2.182538747787475586e+00,2.143222570419311523e+00,2.105297803878784180e+00,2.068691730499267578e+00,2.033337116241455078e+00,1.999170660972595215e+00,1.966133356094360352e+00,1.934170126914978027e+00,1.903229594230651855e+00,1.873263239860534668e+00,1.844226002693176270e+00
5.000000000000000000e+00,5.000000000000000000e+00,5.000000000000000000e+00,5.000000000000000000e+00,5.000000000000000000e+00,5.000000000000000000e+00,5.000000000000000000e+00,5.000000000000000000e+00,5.000000000000000000e+00,5.000000000000000000e+00,5.000000000000000000e+00,5.000000000000000000e+00,5.000000000000000000e+00,5.000000000000000000e+00,5.000000000000000000e+00,5.000000000000000000e+00,5.000000000000000000e+00,5.000000000000000000e+00,5.000000000000000000e+00,5.000000000000000000e+00,5.000000000000000000e+00,5.000000000000000000e+00,5.000000000000000000e+00,5.000000000000000000e+00,5.000000000000000000e+00,5.000000000000000000e+00,5.000000000000000000e+00,5.000000000000000000e+00,5.000000000000000000e+00,5.000000000000000000e+00,2.292823076248168945e+00,2.253545999526977539e+00,2.277952671051025391e+00,5.000000000000000000e+00,2.054040431976318359e+00,2.037996292114257812e+00,2.057889938354492188e+00,5.000000000000000000e+00,5.000000000000000000e+00,4.853811740875244141e+00,4.663554191589355469e+00,4.487648963928222656e+00,4.324532032012939453e+00,4.172856330871582031e+00,4.031460285186767578e+00,3.899332761764526367e+00,3.775590419769287109e+00,3.659460544586181641e+00,3.550261259078979492e+00,3.447390317916870117e+00,3.350312709808349609e+00,3.258553504943847656e+00,3.171685934066772461e+00,3.089329481124877930e+00,3.011142015457153320e+00,2.936814546585083008e+00,2.866067886352539062e+00,2.798649549484252930e+00,2.734330415725708008e+00,2.672901153564453125e+00,2.614171266555786133e+00,2.557966709136962891e+00,2.504127979278564453e+00,2.452509164810180664e+00,2.402975320816040039e+00,2.355402946472167969e+00,2.309677124023437500e+00,2.265693187713623047e+00,2.223353147506713867e+00,2.182566642761230469e+00,2.143249273300170898e+00,2.105323791503906250e+00,2.068716764450073242e+00,2.033361434936523438e+00,1.999193906784057617e+00,1.966155886650085449e+00,1.934191942214965820e+00,1.903250694274902344e+00,1.873283743858337402e+00,1.844245910644531250e+00
5.000000000000000000e+00,5.000000000000000000e+00,5.000000000000000000e+00,5.000000000000000000e+00,5.000000000000000000e+00,5.000000000000000000e+00,5.000000000000000000e+00,5.000000000000000000e+00,5.000000000000000000e+00,5.000000000000000000e+00,5.000000000000000000e+00,5.000000000000000000e+00,5.000000000000000000e+00,5.000000000000000000e+00,5.000000000000000000e+00,5.000000000000000000e+00,5.000000000000000000e+00,5.000000000000000000e+00,5.000000000000000000e+00,5.000000000000000000e+00,5.000000000000000000e+00,5.000000000000000000e+00,5.000000000000000000e+00,5.000000000000000000e+00,5.000000000000000000e+00,5.000000000000000000e+00,5.000000000000000000e+00,5.000000000000000000e+00,5.000000000000000000e+00,5.000000000000000000e+00,2.326908588409423828e+00,2.285226821899414062e+00,2.315393686294555664e+00,5.000000000000000000e+00,2.057613849639892578e+00,2.042344331741333008e+00,2.059212207794189453e+00,5.000000000000000000e+00,5.000000000000000000e+00,4.853949069976806641e+00,4.663681507110595703e+00,4.487767219543457031e+00,4.324641227722167969e+00,4.172958374023437500e+00,4.031555175781250000e+00,3.899421453475952148e+00,3.775673866271972656e+00,3.659538745880126953e+00,3.550335407257080078e+00,3.447459936141967773e+00,3.350378751754760742e+00,3.258615493774414062e+00,3.171744585037231445e+00,3.089385271072387695e+00,3.011195182800292969e+00,2.936865091323852539e+00,2.866116046905517578e+00,2.798695564270019531e+00,2.734374046325683594e+00,2.672942876815795898e+00,2.614211082458496094e+00,2.558005094528198242e+00,2.504164934158325195e+00,2.452544450759887695e+00,2.403009176254272461e+00,2.355435371398925781e+00,2.309708356857299805e+00,2.265723228454589844e+00,2.223382234573364258e+00,2.182594537734985352e+00,2.143276214599609375e+00,2.105349540710449219e+00,2.068741798400878906e+00,2.033385515213012695e+00,1.999217271804809570e+00,1.966178536415100098e+00,1.934213876724243164e+00,1.903271913528442383e+00,1.873304247856140137e+00,1.844265818595886230e+00
5.000000000000000000e+00,5.000000000000000000e+00,5.000000000000000000e+00,5.000000000000000000e+00,5.000000000000000000e+00,5.000000000000000000e+00,5.000000000000000000e+00,5.000000000000000000e+00,5.000000000000000000e+00,5.000000000000000000e+00,5.000000000000000000e+00,5.000000000000000000e+00,5.000000000000000000e+00,5.000000000000000000e+00,5.000000000000000000e+00,5.000000000000000000e+00,5.000000000000000000e+00,5.000000000000000000e+00,5.000000000000000000e+00,5.000000000000000000e+00,5.000000000000000000e+00,5.000000000000000000e+00,5.000000000000000000e+00,5.000000000000000000e+00,5.000000000000000000e+00,5.000000000000000000e+00,5.000000000000000000e+00,5.000000000000000000e+00,5.000000000000000000e+00,5.000000000000000000e+00,2.360390663146972656e+00,2.314019680023193359e+00,2.334399223327636719e+00,5.000000000000000000e+00,2.060832500457763672e+00,2.046711206436157227e+00,2.063541889190673828e+00,5.000000000000000000e+00,5.000000000000000000e+00,4.854086875915527344e+00,4.663808822631835938e+00,4.487885475158691406e+00,4.324750900268554688e+00,4.173060417175292969e+00,4.031650543212890625e+00,3.899510860443115234e+00,3.775757551193237305e+00,3.659617424011230469e+00,3.550409078598022461e+00,3.447529554367065430e+00,3.350444316864013672e+00,3.258677721023559570e+00,3.171803712844848633e+00,3.089441299438476562e+00,3.011248111724853516e+00,2.936915397644042969e+00,2.866163969039916992e+00,2.798741579055786133e+00,2.734417915344238281e+00,2.672984838485717773e+00,2.614251375198364258e+00,2.558043241500854492e+00,2.504201412200927734e+00,2.452579736709594727e+00,2.403043031692504883e+00,2.355467796325683594e+00,2.309739828109741211e+00,2.265753269195556641e+00,2.223411083221435547e+00,2.182622432708740234e+00,2.143303155899047852e+00,2.105375766754150391e+00,2.068766832351684570e+00,2.033409833908081055e+00,1.999240636825561523e+00,1.966201066970825195e+00,1.934235930442810059e+00,1.903293251991271973e+00,1.873324990272521973e+00,1.844285845756530762e+00
5.000000000000000000e+00,5.000000000000000000e+00,5.000000000000000000e+00,5.000000000000000000e+00,5.000000000000000000e+00,5.000000000000000000e+00,5.000000000000000000e+00,5.000000000000000000e+00,5.000000000000000000e+00,5.000000000000000000e+00,5.000000000000000000e+00,5.000000000000000000e+00,5.000000000000000000e+00,5.000000000000000000e+00,5.000000000000000000e+00,5.000000000000000000e+00,5.000000000000000000e+00,5.000000000000000000e+00,5.000000000000000000e+00,5.000000000000000000e+00,5.000000000000000000e+00,5.000000000000000000e+00,5.000000000000000000e+00,5.000000000000000000e+00,5.000000000000000000e+00,5.000000000000000000e+00,5.000000000000000000e+00,5.000000000000000000e+00,5.000000000000000000e+00,5.000000000000000000e+00,5.000000000000000000e+00,2.329493522644042969e+00,2.345144987106323242e+00,5.000000000000000000e+00,2.064061164855957031e+00,2.050609588623046875e+00,2.068396091461181641e+00,5.000000000000000000e+00,5.000000000000000000e+00,4.854224205017089844e+00,4.663935661315917969e+00,4.488003253936767578e+00,4.324860572814941406e+00,4.173162460327148438e+00,4.031745910644531250e+00,3.899599552154541016e+00,3.775840759277343750e+00,3.659696102142333984e+00,3.550482988357543945e+00,3.447599172592163086e+00,3.350510120391845703e+00,3.258739709854125977e+00,3.171862363815307617e+00,3.089497327804565430e+00,3.011301517486572266e+00,2.936966180801391602e+00,2.866212368011474609e+00,2.798787355422973633e+00,2.734461784362792969e+00,2.673026561737060547e+00,2.614291429519653320e+00,2.558081865310668945e+00,2.504238367080688477e+00,2.452614784240722656e+00,2.403076648712158203e+00,2.355500221252441406e+00,2.309771060943603516e+00,2.265783548355102539e+00,2.223440170288085938e+00,2.182650327682495117e+00,2.143330097198486328e+00,2.105401515960693359e+00,2.068791866302490234e+00,2.033433914184570312e+00,1.999264240264892578e+00,1.966223955154418945e+00,1.934257745742797852e+00,1.903314471244812012e+00,1.873345494270324707e+00,1.844305753707885742e+00
5.000000000000000000e+00,5.000000000000000000e+00,5.000000000000000000e+00,5.000000000000000000e+00,5.000000000000000000e+00,5.000000000000000000e+00,5.000000000000000000e+00,5.000000000000000000e+00,5.000000000000000000e+00,5.000000000000000000e+00,5.000000000000000000e+00,5.000000000000000000e+00,5.000000000000000000e+00,5.000000000000000000e+00,5.000000000000000000e+00,5.000000000000000000e+00,5.000000000000000000e+00,5.000000000000000000e+00,5.000000000000000000e+00,5.000000000000000000e+00,5.000000000000000000e+00,5.000000000000000000e+00,5.000000000000000000e+00,5.000000000000000000e+00,5.000000000000000000e+00,5.000000000000000000e+00,5.000000000000000000e+00,5.000000000000000000e+00,5.000000000000000000e+00,5.000000000000000000e+00,5.000000000000000000e+00,2.347547769546508789e+00,2.355463743209838867e+00,5.000000000000000000e+00,2.069123029708862305e+00,2.054241657257080078e+00,2.077231407165527344e+00,5.000000000000000000e+00,5.000000000000000000e+00,4.854362487792968750e+00,4.664062500000000000e+00,4.488120079040527344e+00,4.324969768524169922e+00,4.173264503479003906e+00,4.031841278076171875e+00,3.899688959121704102e+00,3.775924444198608398e+00,3.659774303436279297e+00,3.550556659698486328e+00,3.447668552398681641e+00,3.350576162338256836e+00,3.258802175521850586e+00,3.171921491622924805e+00,3.089553117752075195e+00,3.011354446411132812e+00,2.937016487121582031e+00,2.866260528564453125e+00,2.798833370208740234e+00,2.734505653381347656e+00,2.673068523406982422e+00,2.614331245422363281e+00,2.558120012283325195e+00,2.504274845123291016e+00,2.452650070190429688e+00,2.403110742568969727e+00,2.355532884597778320e+00,2.309802293777465820e+00,2.265813350677490234e+00,2.223469018936157227e+00,2.182678222656250000e+00,2.143357038497924805e+00,2.105427503585815430e+00,2.068817138671875000e+00,2.033458232879638672e+00,1.999287605285644531e+00,1.966246485710144043e+00,1.934279680252075195e+00,1.903335571289062500e+00,1.873365998268127441e+00,1.844325542449951172e+00
5.000000000000000000e+00,5.000000000000000000e+00,5.000000000000000000e+00,5.000000000000000000e+00,5.000000000000000000e+00,5.000000000000000000e+00,5.000000000000000000e+00,5.000000000000000000e+00,5.000000000000000000e+00,5.000000000000000000e+00,5.000000000000000000e+00,5.000000000000000000e+00,5.000000000000000000e+00,5.000000000000000000e+00,5.000000000000000000e+00,5.000000000000000000e+00,5.000000000000000000e+00,5.000000000000000000e+00,5.000000000000000000e+00,5.000000000000000000e+00,5.000000000000000000e+00,5.000000000000000000e+00,5.000000000000000000e+00,5.000000000000000000e+00,5.000000000000000000e+00,5.000000000000000000e+00,5.000000000000000000e+00,5.000000000000000000e+00,5.000000000000000000e+00,5.000000000000000000e+00,5.000000000000000000e+00,2.370553016662597656e+00,2.366775035858154297e+00,5.000000000000000000e+00,2.083184003829956055e+00,2.058640480041503906e+00,2.088387250900268555e+00,5.000000000000000000e+00,5.000000000000000000e+00,4.854499816894531250e+00,4.664189815521240234e+00,4.488238334655761719e+00,4.325078964233398438e+00,4.173366546630859375e+00,4.031936168670654297e+00,3.899777650833129883e+00,3.776008129119873047e+00,3.659852981567382812e+00,3.550630569458007812e+00,3.447738409042358398e+00,3.350641727447509766e+00,3.258864164352416992e+00,3.171980381011962891e+00,3.089609146118164062e+00,3.011407613754272461e+00,2.937067270278930664e+00,2.866308450698852539e+00,2.798879146575927734e+00,2.734549283981323242e+00,2.673110485076904297e+00,2.614371538162231445e+00,2.558158397674560547e+00,2.504311800003051758e+00,2.452685356140136719e+00,2.403144359588623047e+00,2.355565309524536133e+00,2.309833526611328125e+00,2.265843629837036133e+00,2.223497867584228516e+00,2.182706117630004883e+00,2.143383979797363281e+00,2.105453491210937500e+00,2.068842172622680664e+00,2.033482551574707031e+00,1.999310970306396484e+00,1.966269135475158691e+00,1.934301495552062988e+00,1.903356790542602539e+00,1.873386740684509277e+00,1.844345688819885254e+00
5.000000000000000000e+00,5.000000000000000000e+00,5.000000000000000000e+00,5.000000000000000000e+00,5.000000000000000000e+00,5.000000000000000000e+00,5.000000000000000000e+00,5.000000000000000000e+00,5.000000000000000000e+00,5.000000000000000000e+00,5.000000000000000000e+00,5.000000000000000000e+00,5.000000000000000000e+00,5.000000000000000000e+00,5.000000000000000000e+00,5.000000000000000000e+00,5.000000000000000000e+00,5.000000000000000000e+00,5.000000000000000000e+00,5.000000000000000000e+00,5.000000000000000000e+00,5.000000000000000000e+00,5.000000000000000000e+00,5.000000000000000000e+00,5.000000000000000000e+00,5.000000000000000000e+00,5.000000000000000000e+00,5.000000000000000000e+00,5.000000000000000000e+00,5.000000000000000000e+00,5.000000000000000000e+00,2.407128095626831055e+00,2.379078149795532227e+00,5.000000000000000000e+00,2.097437620162963867e+00,2.063058137893676758e+00,2.099720954895019531e+00,5.000000000000000000e+00,5.000000000000000000e+00,4.854638099670410156e+00,4.664317131042480469e+00,4.488356113433837891e+00,4.325188636779785156e+00,4.173468589782714844e+00,4.032031536102294922e+00,3.899867057800292969e+00,3.776091337203979492e+00,3.659931182861328125e+00,3.550704240798950195e+00,3.447808265686035156e+00,3.350707530975341797e+00,3.258926630020141602e+00,3.172039270401000977e+00,3.089664936065673828e+00,3.011460542678833008e+00,2.937117815017700195e+00,2.866356849670410156e+00,2.798925161361694336e+00,2.734593152999877930e+00,2.673152208328247070e+00,2.614411354064941406e+00,2.558196544647216797e+00,2.504348516464233398e+00,2.452720642089843750e+00,2.403178215026855469e+00,2.355597734451293945e+00,2.309864759445190430e+00,2.265873670578002930e+00,2.223526954650878906e+00,2.182734012603759766e+00,2.143410921096801758e+00,2.105479478836059570e+00,2.068867206573486328e+00,2.033506631851196289e+00,1.999334335327148438e+00,1.966291904449462891e+00,1.934323549270629883e+00,1.903378129005432129e+00,1.873407244682312012e+00,1.844365477561950684e+00
4.875556468963623047e+00,4.874345779418945312e+00,4.873135566711425781e+00,4.871925830841064453e+00,4.870717048645019531e+00,4.869508743286132812e+00,4.868300914764404297e+00,4.867094039916992188e+00,4.865887165069580078e+00,4.864681243896484375e+00,4.863476276397705078e+00,4.862271308898925781e+00,4.861067295074462891e+00,4.859863281250000000e+00,4.858660697937011719e+00,4.857458114624023438e+00,4.856256484985351562e+00,4.855055332183837891e+00,4.853854656219482422e+00,4.852654933929443359e+00,4.851455688476562500e+00,4.850256919860839844e+00,4.849058628082275391e+00,4.847860813140869141e+00,4.846663951873779297e+00,4.845467567443847656e+00,4.844271659851074219e+00,4.843076229095458984e+00,4.841881752014160156e+00,4.840687274932861328e+00,4.839493751525878906e+00,2.444849491119384766e+00,2.400158405303955078e+00,4.835916996002197266e+00,2.111887216567993164e+00,2.069310665130615234e+00,2.111178398132324219e+00,4.831156253814697266e+00,4.829967021942138672e+00,4.828779220581054688e+00,4.664443969726562500e+00,4.488473892211914062e+00,4.325297832489013672e+00,4.173570156097412109e+00,4.032126903533935547e+00,3.899956226348876953e+00,3.776175260543823242e+00,3.660009860992431641e+00,3.550778388977050781e+00,3.447877645492553711e+00,3.350773096084594727e+00,3.258988618850708008e+00,3.172098398208618164e+00,3.089720964431762695e+00,3.011513948440551758e+00,2.937168121337890625e+00,2.866404771804809570e+00,2.798970937728881836e+00,2.734637022018432617e+00,2.673194169998168945e+00,2.614451408386230469e+00,2.558234930038452148e+00,2.504385232925415039e+00,2.452755689620971680e+00,2.403212070465087891e+00,2.355630397796630859e+00,2.309895992279052734e+00,2.265903711318969727e+00,2.223555803298950195e+00,2.182761907577514648e+00,2.143437623977661133e+00,2.105505466461181641e+00,2.068892240524291992e+00,2.033530950546264648e+00,1.999357819557189941e+00,1.966314435005187988e+00,1.934345364570617676e+00,1.903399348258972168e+00,1.873427748680114746e+00,1.844385385513305664e+00
3.778381109237670898e+00,3.777653694152832031e+00,3.776926994323730469e+00,3.776200294494628906e+00,3.775474071502685547e+00,3.774747848510742188e+00,3.774022340774536133e+00,3.773296594619750977e+00,3.772571563720703125e+00,3.771846294403076172e+00,3.771121740341186523e+00,3.770397663116455078e+00,3.769673347473144531e+00,3.768949747085571289e+00,3.768225908279418945e+00,3.767502784729003906e+00,3.766779661178588867e+00,3.766057252883911133e+00,3.765334606170654297e+00,3.764612436294555664e+00,3.763890266418457031e+00,3.763169050216674805e+00,3.762447834014892578e+00,3.761726617813110352e+00,3.761005878448486328e+00,3.760285377502441406e+00,3.759565353393554688e+00,3.758845090866088867e+00,3.758125543594360352e+00,3.757405996322631836e+00,3.756687164306640625e+00,3.755967855453491211e+00,2.430958032608032227e+00,3.754531145095825195e+00,3.753813266754150391e+00,2.083911895751953125e+00,3.752377986907958984e+00,3.751661062240600586e+00,3.750943899154663086e+00,3.750227451324462891e+00,3.749510765075683594e+00,3.748794794082641602e+00,3.748078823089599609e+00,3.747363328933715820e+00,3.746647834777832031e+00,3.745933055877685547e+00,3.745218515396118164e+00,3.660088062286376953e+00,3.550852298736572266e+00,3.447947502136230469e+00,3.350839138031005859e+00,3.259050846099853516e+00,3.172157287597656250e+00,3.089776754379272461e+00,3.011566877365112305e+00,2.937218904495239258e+00,2.866452932357788086e+00,2.799016952514648438e+00,2.734680652618408203e+00,2.673235893249511719e+00,2.614491462707519531e+00,2.558273553848266602e+00,2.504421949386596680e+00,2.452790975570678711e+00,2.403245925903320312e+00,2.355662822723388672e+00,2.309927225112915039e+00,2.265933752059936523e+00,2.223584890365600586e+00,2.182789802551269531e+00,2.143464565277099609e+00,2.105531454086303711e+00,2.068917274475097656e+00,2.033555030822753906e+00,1.999381184577941895e+00,1.966337084770202637e+00,1.934367299079895020e+00,1.903420448303222656e+00,1.873448252677917480e+00,1.844405293464660645e+00
3.084302186965942383e+00,3.083817481994628906e+00,3.083333253860473633e+00,3.082849025726318359e+00,3.082364797592163086e+00,3.081881046295166016e+00,3.081397056579589844e+00,3.080913543701171875e+00,3.080429792404174805e+00,3.079946756362915039e+00,3.079463243484497070e+00,3.078980445861816406e+00,3.078497409820556641e+00,3.078014612197875977e+00,3.077532291412353516e+00,3.077049732208251953e+00,3.076567411422729492e+00,3.076085090637207031e+00,3.075603246688842773e+00,3.075121402740478516e+00,3.074639797210693359e+00,3.074157953262329102e+00,3.073676824569702148e+00,3.073195457458496094e+00,3.072714567184448242e+00,3.072233676910400391e+00,3.071752786636352539e+00,3.071272134780883789e+00,3.070791482925415039e+00,3.070311307907104492e+00,3.069831132888793945e+00,3.069351196289062500e+00,2.403810024261474609e+00,2.416108846664428711e+00,3.067911624908447266e+00,2.055392980575561523e+00,3.066952943801879883e+00,3.066473960876464844e+00,3.065995216369628906e+00,3.065516233444213867e+00,3.065037727355957031e+00,3.064558982849121094e+00,3.064080715179443359e+00,3.063602447509765625e+00,3.063124418258666992e+00,3.062646389007568359e+00,3.062168598175048828e+00,3.061690807342529297e+00,3.061213493347167969e+00,3.060736417770385742e+00,3.060258865356445312e+00,3.059782028198242188e+00,3.059304952621459961e+00,3.058828353881835938e+00,3.011620044708251953e+00,2.937269210815429688e+00,2.866501092910766602e+00,2.799062967300415039e+00,2.734724760055541992e+00,2.673277854919433594e+00,2.614531517028808594e+00,2.558311700820922852e+00,2.504458665847778320e+00,2.452826261520385742e+00,2.403279781341552734e+00,2.355695486068725586e+00,2.309958457946777344e+00,2.265963792800903320e+00,2.223613739013671875e+00,2.182817697525024414e+00,2.143491744995117188e+00,2.105557441711425781e+00,2.068942308425903320e+00,2.033579349517822266e+00,1.999404549598693848e+00,1.966359615325927734e+00,1.934389114379882812e+00,1.903441786766052246e+00,1.873468875885009766e+00,1.844425320625305176e+00
2.605650901794433594e+00,2.605304956436157227e+00,2.604959249496459961e+00,2.604613542556762695e+00,2.604267835617065430e+00,2.603922605514526367e+00,2.603577136993408203e+00,2.603231906890869141e+00,2.602886676788330078e+00,2.602541446685791016e+00,2.602196455001831055e+00,2.601851463317871094e+00,2.601506710052490234e+00,2.601161956787109375e+00,2.600817441940307617e+00,2.600472688674926758e+00,2.600128412246704102e+00,2.599783897399902344e+00,2.599439620971679688e+00,2.599095582962036133e+00,2.598751306533813477e+00,2.598407268524169922e+00,2.598063230514526367e+00,2.597719430923461914e+00,2.597375631332397461e+00,2.597032070159912109e+00,2.596688508987426758e+00,2.596345186233520508e+00,2.596001863479614258e+00,2.595658302307128906e+00,2.595315217971801758e+00,2.594972133636474609e+00,2.355949401855468750e+00,2.334429025650024414e+00,2.593943357467651367e+00,2.001662492752075195e+00,2.018095016479492188e+00,2.592915296554565430e+00,2.592572927474975586e+00,2.592230558395385742e+00,2.591888189315795898e+00,2.591546058654785156e+00,2.591203927993774414e+00,2.590862035751342773e+00,2.590519905090332031e+00,2.590178251266479492e+00,2.589836359024047852e+00,2.589494705200195312e+00,2.589153051376342773e+00,2.588811635971069336e+00,2.588470220565795898e+00,2.588129043579101562e+00,2.587787866592407227e+00,2.587446689605712891e+00,2.587105751037597656e+00,2.586764574050903320e+00,2.586423873901367188e+00,2.586082935333251953e+00,2.585742473602294922e+00,2.585401773452758789e+00,2.585061311721801758e+00,2.558350086212158203e+00,2.504495620727539062e+00,2.452861547470092773e+00,2.403313636779785156e+00,2.355727910995483398e+00,2.309989690780639648e+00,2.265994071960449219e+00,2.223642826080322266e+00,2.182845592498779297e+00,2.143518447875976562e+00,2.105583429336547852e+00,2.068967342376708984e+00,2.033603668212890625e+00,1.999428153038024902e+00,1.966382503509521484e+00,1.934411168098449707e+00,1.903463006019592285e+00,1.873489379882812500e+00,1.844445228576660156e+00
2.255614280700683594e+00,2.255354642868041992e+00,2.255095243453979492e+00,2.254835844039916992e+00,2.254576444625854492e+00,2.254317045211791992e+00,2.254057645797729492e+00,2.253798484802246094e+00,2.253539323806762695e+00,2.253280162811279297e+00,2.253021240234375000e+00,2.252762317657470703e+00,2.252503395080566406e+00,2.252244472503662109e+00,2.251985549926757812e+00,2.251726865768432617e+00,2.251468181610107422e+00,2.251209735870361328e+00,2.250951051712036133e+00,2.250692605972290039e+00,2.250434160232543945e+00,2.250175714492797852e+00,2.249917268753051758e+00,2.249659061431884766e+00,2.249401092529296875e+00,2.249143362045288086e+00,2.248885631561279297e+00,2.248627901077270508e+00,2.248370409011840820e+00,2.248112916946411133e+00,2.247855424880981445e+00,2.247598171234130859e+00,2.247340679168701172e+00,2.247083425521850586e+00,2.246826171875000000e+00,1.950542449951171875e+00,1.954387664794921875e+00,1.995789170265197754e+00,2.245797872543334961e+00,2.245541095733642578e+00,2.245284080505371094e+00,2.245027303695678711e+00,2.244770526885986328e+00,2.244513988494873047e+00,2.244257450103759766e+00,2.244000673294067383e+00,2.243744373321533203e+00,2.243487834930419922e+00,2.243231296539306641e+00,2.242974996566772461e+00,2.242718696594238281e+00,2.242462396621704102e+00,2.242206335067749023e+00,2.241950273513793945e+00,2.241694211959838867e+00,2.241438388824462891e+00,2.241182327270507812e+00,2.240926504135131836e+00,2.240670680999755859e+00,2.240414857864379883e+00,2.240159273147583008e+00,2.239903688430786133e+00,2.239647865295410156e+00,2.239392518997192383e+00,2.239136934280395508e+00,2.238881587982177734e+00,2.238626480102539062e+00,2.238370895385742188e+00,2.223671674728393555e+00,2.182873725891113281e+00,2.143545389175415039e+00,2.105609416961669922e+00,2.068992614746093750e+00,2.033627748489379883e+00,1.999451518058776855e+00,1.966405034065246582e+00,1.934433102607727051e+00,1.903484106063842773e+00,1.873509883880615234e+00,1.844465136528015137e+00
1.988503813743591309e+00,1.988301873207092285e+00,1.988100171089172363e+00,1.987898588180541992e+00,1.987697005271911621e+00,1.987495422363281250e+00,1.987293839454650879e+00,1.987092375755310059e+00,1.986890912055969238e+00,1.986689567565917969e+00,1.986488223075866699e+00,1.986286878585815430e+00,1.986085653305053711e+00,1.985884428024291992e+00,1.985683202743530273e+00,1.985482096672058105e+00,1.985280752182006836e+00,1.985079646110534668e+00,1.984878659248352051e+00,1.984677672386169434e+00,1.984476685523986816e+00,1.984275698661804199e+00,1.984074831008911133e+00,1.983874082565307617e+00,1.983673214912414551e+00,1.983472466468811035e+00,1.983271837234497070e+00,1.983071088790893555e+00,1.982870578765869141e+00,1.982669949531555176e+00,1.982469439506530762e+00,1.982268691062927246e+00,1.982068181037902832e+00,1.981867790222167969e+00,1.981667399406433105e+00,1.981467008590698242e+00,1.981266736984252930e+00,1.981066465377807617e+00,1.980866312980651855e+00,1.980666041374206543e+00,1.980466008186340332e+00,1.980265855789184570e+00,1.980065822601318359e+00,1.979865789413452148e+00,1.979665756225585938e+00,1.979465842247009277e+00,1.979265689849853516e+00,1.979065895080566406e+00,1.978865981101989746e+00,1.978666305541992188e+00,1.978466510772705078e+00,1.978266835212707520e+00,1.978067159652709961e+00,1.977867603302001953e+00,1.977667927742004395e+00,1.977468490600585938e+00,1.977268934249877930e+00,1.977069497108459473e+00,1.976870059967041016e+00,1.976670742034912109e+00,1.976471424102783203e+00,1.976271867752075195e+00,1.976072549819946289e+00,1.975873351097106934e+00,1.975674152374267578e+00,1.975475072860717773e+00,1.975275993347167969e+00,1.975076913833618164e+00,1.974877953529357910e+00,1.974678874015808105e+00,1.974480032920837402e+00,1.974281072616577148e+00,1.974082231521606445e+00,1.973883390426635742e+00,1.973684668540954590e+00,1.966427683830261230e+00,1.934454917907714844e+00,1.903505325317382812e+00,1.873530387878417969e+00,1.844485163688659668e+00
1.777957558631896973e+00,1.777796268463134766e+00,1.777634978294372559e+00,1.777473807334899902e+00,1.777312397956848145e+00,1.777151226997375488e+00,1.776990175247192383e+00,1.776829004287719727e+00,1.776667952537536621e+00,1.776506900787353516e+00,1.776345968246459961e+00,1.776184916496276855e+00,1.776023983955383301e+00,1.775863051414489746e+00,1.775702238082885742e+00,1.775541305541992188e+00,1.775380492210388184e+00,1.775219678878784180e+00,1.775058984756469727e+00,1.774898052215576172e+00,1.774737238883972168e+00,1.774576544761657715e+00,1.774415969848632812e+00,1.774255275726318359e+00,1.774094700813293457e+00,1.773934125900268555e+00,1.773773550987243652e+00,1.773613095283508301e+00,1.773452639579772949e+00,1.773292183876037598e+00,1.773131728172302246e+00,1.772971272468566895e+00,1.772810935974121094e+00,1.772650599479675293e+00,1.772490143775939941e+00,1.772329807281494141e+00,1.772169589996337891e+00,1.772009372711181641e+00,1.771849155426025391e+00,1.771688938140869141e+00,1.771528840065002441e+00,1.771368741989135742e+00,1.771208643913269043e+00,1.771048545837402344e+00,1.770888566970825195e+00,1.770728588104248047e+00,1.770568609237670898e+00,1.770408630371093750e+00,1.770248770713806152e+00,1.770088672637939453e+00,1.769928812980651855e+00,1.769769072532653809e+00,1.769609212875366211e+00,1.769449472427368164e+00,1.769289731979370117e+00,1.769129991531372070e+00,1.768970370292663574e+00,1.768810749053955078e+00,1.768651127815246582e+00,1.768491506576538086e+00,1.768332004547119141e+00,1.768172383308410645e+00,1.768012881278991699e+00,1.767853498458862305e+00,1.767693758010864258e+00,1.767534375190734863e+00,1.767374992370605469e+00,1.767215609550476074e+00,1.767056345939636230e+00,1.766897082328796387e+00,1.766737699508666992e+00,1.766578555107116699e+00,1.766419291496276855e+00,1.766260147094726562e+00,1.766101002693176270e+00,1.765941858291625977e+00,1.765782713890075684e+00,1.765623688697814941e+00,1.765464663505554199e+00,1.765305519104003906e+00
1.607728362083435059e+00,1.607596516609191895e+00,1.607464671134948730e+00,1.607332825660705566e+00,1.607200980186462402e+00,1.607069253921508789e+00,1.606937527656555176e+00,1.606805562973022461e+00,1.606673836708068848e+00,1.606542229652404785e+00,1.606410503387451172e+00,1.606278896331787109e+00,1.606147170066833496e+00,1.606015563011169434e+00,1.605883955955505371e+00,1.605752468109130859e+00,1.605620861053466797e+00,1.605489373207092285e+00,1.605357885360717773e+00,1.605226397514343262e+00,1.605094909667968750e+00,1.604963541030883789e+00,1.604831933975219727e+00,1.604700565338134766e+00,1.604569196701049805e+00,1.604437828063964844e+00,1.604306459426879883e+00,1.604175209999084473e+00,1.604043841361999512e+00,1.603912591934204102e+00,1.603781342506408691e+00,1.603650093078613281e+00,1.603518962860107422e+00,1.603387713432312012e+00,1.603256583213806152e+00,1.603125452995300293e+00,1.602994322776794434e+00,1.602863073348999023e+00,1.602732062339782715e+00,1.602600932121276855e+00,1.602469921112060547e+00,1.602338910102844238e+00,1.602208018302917480e+00,1.602077007293701172e+00,1.601945996284484863e+00,1.601815104484558105e+00,1.601684212684631348e+00,1.601553320884704590e+00,1.601422548294067383e+00,1.601291656494140625e+00,1.601160883903503418e+00,1.601030111312866211e+00,1.600899100303649902e+00,1.600768327713012695e+00,1.600637674331665039e+00,1.600506901741027832e+00,1.600376248359680176e+00,1.600245594978332520e+00,1.600114941596984863e+00,1.599984288215637207e+00,1.599853634834289551e+00,1.599723100662231445e+00,1.599592566490173340e+00,1.599462032318115234e+00,1.599331498146057129e+00,1.599200963973999023e+00,1.599070549011230469e+00,1.598939895629882812e+00,1.598809480667114258e+00,1.598679065704345703e+00,1.598548650741577148e+00,1.598418354988098145e+00,1.598287940025329590e+00,1.598157644271850586e+00,1.598027348518371582e+00,1.597897052764892578e+00,1.597766876220703125e+00,1.597636580467224121e+00,1.597506403923034668e+00,1.597376108169555664e+00
1.467247843742370605e+00,1.467138051986694336e+00,1.467028260231018066e+00,1.466918468475341797e+00,1.466808676719665527e+00,1.466698884963989258e+00,1.466589093208312988e+00,1.466479420661926270e+00,1.466369628906250000e+00,1.466259956359863281e+00,1.466150164604187012e+00,1.466040492057800293e+00,1.465930819511413574e+00,1.465821146965026855e+00,1.465711593627929688e+00,1.465601921081542969e+00,1.465492367744445801e+00,1.465382814407348633e+00,1.465273261070251465e+00,1.465163707733154297e+00,1.465054154396057129e+00,1.464944720268249512e+00,1.464835166931152344e+00,1.464725732803344727e+00,1.464616298675537109e+00,1.464506745338439941e+00,1.464397311210632324e+00,1.464287877082824707e+00,1.464178442955017090e+00,1.464069128036499023e+00,1.463959813117980957e+00,1.463850378990173340e+00,1.463741064071655273e+00,1.463631749153137207e+00,1.463522434234619141e+00,1.463413238525390625e+00,1.463303923606872559e+00,1.463194727897644043e+00,1.463085532188415527e+00,1.462976217269897461e+00,1.462866902351379395e+00,1.462757825851440430e+00,1.462648630142211914e+00,1.462539434432983398e+00,1.462430357933044434e+00,1.462321281433105469e+00,1.462212204933166504e+00,1.462103128433227539e+00,1.461994051933288574e+00,1.461884975433349609e+00,1.461775898933410645e+00,1.461666941642761230e+00,1.461557984352111816e+00,1.461448907852172852e+00,1.461339831352233887e+00,1.461230874061584473e+00,1.461122035980224609e+00,1.461013078689575195e+00,1.460904121398925781e+00,1.460795283317565918e+00,1.460686445236206055e+00,1.460577607154846191e+00,1.460468769073486328e+00,1.460359930992126465e+00,1.460251092910766602e+00,1.460142374038696289e+00,1.460033535957336426e+00,1.459924817085266113e+00,1.459816098213195801e+00,1.459707260131835938e+00,1.459598541259765625e+00,1.459489822387695312e+00,1.459381103515625000e+00,1.459272503852844238e+00,1.459163784980773926e+00,1.459055185317993164e+00,1.458946585655212402e+00,1.458837985992431641e+00,1.458729386329650879e+00,1.458620905876159668e+00
1.349344491958618164e+00,1.349251508712768555e+00,1.349158644676208496e+00,1.349065780639648438e+00,1.348972916603088379e+00,1.348880171775817871e+00,1.348787307739257812e+00,1.348694443702697754e+00,1.348601698875427246e+00,1.348508954048156738e+00,1.348416090011596680e+00,1.348323345184326172e+00,1.348230600357055664e+00,1.348137736320495605e+00,1.348044991493225098e+00,1.347952365875244141e+00,1.347859621047973633e+00,1.347766995429992676e+00,1.347674250602722168e+00,1.347581624984741211e+00,1.347488999366760254e+00,1.347396373748779297e+00,1.347303748130798340e+00,1.347211122512817383e+00,1.347118496894836426e+00,1.347025990486145020e+00,1.346933364868164062e+00,1.346840739250183105e+00,1.346748232841491699e+00,1.346655607223510742e+00,1.346563100814819336e+00,1.346470594406127930e+00,1.346378087997436523e+00,1.346285700798034668e+00,1.346193194389343262e+00,1.346100687980651855e+00,1.346008300781250000e+00,1.345915794372558594e+00,1.345823407173156738e+00,1.345731019973754883e+00,1.345638632774353027e+00,1.345546245574951172e+00,1.345453739166259766e+00,1.345361471176147461e+00,1.345269083976745605e+00,1.345176696777343750e+00,1.345084428787231445e+00,1.344992160797119141e+00,1.344899773597717285e+00,1.344807505607604980e+00,1.344715237617492676e+00,1.344622969627380371e+00,1.344530820846557617e+00,1.344438552856445312e+00,1.344346284866333008e+00,1.344254136085510254e+00,1.344161987304687500e+00,1.344069600105285645e+00,1.343977451324462891e+00,1.343885302543640137e+00,1.343793153762817383e+00,1.343701124191284180e+00,1.343608975410461426e+00,1.343516826629638672e+00,1.343424797058105469e+00,1.343332648277282715e+00,1.343240618705749512e+00,1.343148589134216309e+00,1.343056559562683105e+00,1.342964529991149902e+00,1.342872500419616699e+00,1.342780470848083496e+00,1.342688322067260742e+00,1.342596411705017090e+00,1.342504382133483887e+00,1.342412471771240234e+00,1.342320561408996582e+00,1.342228651046752930e+00,1.342136740684509277e+00,1.342044830322265625e+00
1.248980283737182617e+00,1.248900771141052246e+00,1.248821139335632324e+00,1.248741626739501953e+00,1.248662114143371582e+00,1.248582601547241211e+00,1.248502969741821289e+00,1.248423457145690918e+00,1.248343944549560547e+00,1.248264431953430176e+00,1.248184919357299805e+00,1.248105525970458984e+00,1.248026013374328613e+00,1.247946500778198242e+00,1.247867107391357422e+00,1.247787594795227051e+00,1.247708082199096680e+00,1.247628688812255859e+00,1.247549295425415039e+00,1.247469902038574219e+00,1.247390508651733398e+00,1.247311115264892578e+00,1.247231721878051758e+00,1.247152328491210938e+00,1.247073054313659668e+00,1.246993660926818848e+00,1.246914267539978027e+00,1.246834993362426758e+00,1.246755719184875488e+00,1.246676325798034668e+00,1.246597051620483398e+00,1.246517658233642578e+00,1.246438384056091309e+00,1.246359229087829590e+00,1.246279954910278320e+00,1.246200680732727051e+00,1.246121406555175781e+00,1.246042251586914062e+00,1.245962977409362793e+00,1.245883822441101074e+00,1.245804667472839355e+00,1.245725393295288086e+00,1.245646238327026367e+00,1.245567083358764648e+00,1.245487928390502930e+00,1.245408773422241211e+00,1.245329618453979492e+00,1.245250463485717773e+00,1.245171308517456055e+00,1.245092272758483887e+00,1.245013117790222168e+00,1.244934082031250000e+00,1.244855046272277832e+00,1.244775891304016113e+00,1.244696855545043945e+00,1.244617819786071777e+00,1.244538784027099609e+00,1.244459748268127441e+00,1.244380831718444824e+00,1.244301795959472656e+00,1.244222760200500488e+00,1.244143724441528320e+00,1.244064807891845703e+00,1.243985772132873535e+00,1.243906855583190918e+00,1.243827939033508301e+00,1.243749022483825684e+00,1.243670105934143066e+00,1.243591189384460449e+00,1.243512272834777832e+00,1.243433356285095215e+00,1.243354439735412598e+00,1.243275642395019531e+00,1.243196725845336914e+00,1.243117928504943848e+00,1.243039011955261230e+00,1.242960095405578613e+00,1.242881298065185547e+00,1.242802500724792480e+00,1.242723703384399414e+00
1.162512898445129395e+00,1.162443995475769043e+00,1.162374973297119141e+00,1.162305951118469238e+00,1.162237048149108887e+00,1.162168145179748535e+00,1.162099242210388184e+00,1.162030339241027832e+00,1.161961436271667480e+00,1.161892533302307129e+00,1.161823749542236328e+00,1.161754846572875977e+00,1.161685943603515625e+00,1.161617159843444824e+00,1.161548256874084473e+00,1.161479473114013672e+00,1.161410570144653320e+00,1.161341786384582520e+00,1.161272883415222168e+00,1.161204099655151367e+00,1.161135315895080566e+00,1.161066532135009766e+00,1.160997748374938965e+00,1.160928964614868164e+00,1.160860180854797363e+00,1.160791516304016113e+00,1.160722732543945312e+00,1.160653948783874512e+00,1.160585284233093262e+00,1.160516500473022461e+00,1.160447835922241211e+00,1.160379171371459961e+00,1.160310387611389160e+00,1.160241603851318359e+00,1.160172939300537109e+00,1.160104274749755859e+00,1.160035610198974609e+00,1.159966945648193359e+00,1.159898281097412109e+00,1.159829735755920410e+00,1.159761071205139160e+00,1.159692406654357910e+00,1.159623861312866211e+00,1.159555196762084961e+00,1.159486651420593262e+00,1.159417986869812012e+00,1.159349441528320312e+00,1.159280896186828613e+00,1.159212231636047363e+00,1.159143686294555664e+00,1.159075140953063965e+00,1.159006595611572266e+00,1.158938050270080566e+00,1.158869504928588867e+00,1.158800959587097168e+00,1.158732414245605469e+00,1.158663988113403320e+00,1.158595442771911621e+00,1.158527016639709473e+00,1.158458471298217773e+00,1.158390045166015625e+00,1.158321619033813477e+00,1.158253192901611328e+00,1.158184647560119629e+00,1.158116221427917480e+00,1.158047795295715332e+00,1.157979369163513184e+00,1.157910943031311035e+00,1.157842516899108887e+00,1.157774209976196289e+00,1.157705783843994141e+00,1.157637357711791992e+00,1.157569050788879395e+00,1.157500624656677246e+00,1.157432317733764648e+00,1.157364010810852051e+00,1.157295584678649902e+00,1.157227277755737305e+00,1.157158851623535156e+00,1.157090544700622559e+00
1.087242484092712402e+00,1.087182164192199707e+00,1.087121844291687012e+00,1.087061524391174316e+00,1.087001323699951172e+00,1.086941003799438477e+00,1.086880683898925781e+00,1.086820363998413086e+00,1.086760163307189941e+00,1.086699843406677246e+00,1.086639642715454102e+00,1.086579442024230957e+00,1.086519122123718262e+00,1.086458921432495117e+00,1.086398720741271973e+00,1.086338520050048828e+00,1.086278319358825684e+00,1.086218118667602539e+00,1.086157917976379395e+00,1.086097717285156250e+00,1.086037516593933105e+00,1.085977315902709961e+00,1.085917115211486816e+00,1.085856914520263672e+00,1.085796833038330078e+00,1.085736632347106934e+00,1.085676550865173340e+00,1.085616350173950195e+00,1.085556268692016602e+00,1.085496068000793457e+00,1.085435986518859863e+00,1.085375905036926270e+00,1.085315823554992676e+00,1.085255742073059082e+00,1.085195660591125488e+00,1.085135579109191895e+00,1.085075378417968750e+00,1.085015296936035156e+00,1.084955215454101562e+00,1.084895253181457520e+00,1.084835171699523926e+00,1.084775090217590332e+00,1.084715008735656738e+00,1.084655046463012695e+00,1.084594964981079102e+00,1.084535002708435059e+00,1.084475040435791016e+00,1.084414958953857422e+00,1.084354996681213379e+00,1.084295034408569336e+00,1.084235072135925293e+00,1.084174990653991699e+00,1.084115028381347656e+00,1.084055066108703613e+00,1.083995103836059570e+00,1.083935141563415527e+00,1.083875179290771484e+00,1.083815217018127441e+00,1.083755373954772949e+00,1.083695411682128906e+00,1.083635449409484863e+00,1.083575606346130371e+00,1.083515644073486328e+00,1.083455801010131836e+00,1.083395838737487793e+00,1.083335995674133301e+00,1.083276033401489258e+00,1.083216190338134766e+00,1.083156347274780273e+00,1.083096504211425781e+00,1.083036661148071289e+00,1.082976818084716797e+00,1.082916975021362305e+00,1.082857131958007812e+00,1.082797288894653320e+00,1.082737445831298828e+00,1.082677721977233887e+00,1.082617878913879395e+00,1.082558035850524902e+00,1.082498311996459961e+00
1.021126627922058105e+00,1.021073341369628906e+00,1.021020174026489258e+00,1.020967006683349609e+00,1.020913839340209961e+00,1.020860671997070312e+00,1.020807504653930664e+00,1.020754337310791016e+00,1.020701169967651367e+00,1.020648002624511719e+00,1.020594835281372070e+00,1.020541667938232422e+00,1.020488500595092773e+00,1.020435333251953125e+00,1.020382285118103027e+00,1.020329117774963379e+00,1.020276069641113281e+00,1.020222902297973633e+00,1.020169854164123535e+00,1.020116686820983887e+00,1.020063638687133789e+00,1.020010590553283691e+00,1.019957423210144043e+00,1.019904375076293945e+00,1.019851207733154297e+00,1.019798159599304199e+00,1.019745111465454102e+00,1.019692063331604004e+00,1.019639015197753906e+00,1.019585967063903809e+00,1.019532918930053711e+00,1.019479870796203613e+00,1.019426941871643066e+00,1.019373893737792969e+00,1.019320845603942871e+00,1.019267916679382324e+00,1.019214868545532227e+00,1.019161820411682129e+00,1.019108891487121582e+00,1.019055843353271484e+00,1.019002795219421387e+00,1.018949866294860840e+00,1.018896937370300293e+00,1.018843889236450195e+00,1.018790960311889648e+00,1.018738031387329102e+00,1.018685102462768555e+00,1.018632173538208008e+00,1.018579125404357910e+00,1.018526196479797363e+00,1.018473267555236816e+00,1.018420457839965820e+00,1.018367528915405273e+00,1.018314599990844727e+00,1.018261551856994629e+00,1.018208742141723633e+00,1.018155813217163086e+00,1.018102884292602539e+00,1.018050074577331543e+00,1.017997145652770996e+00,1.017944335937500000e+00,1.017891407012939453e+00,1.017838597297668457e+00,1.017785668373107910e+00,1.017732858657836914e+00,1.017680048942565918e+00,1.017627239227294922e+00,1.017574310302734375e+00,1.017521500587463379e+00,1.017468690872192383e+00,1.017415761947631836e+00,1.017362952232360840e+00,1.017310261726379395e+00,1.017257452011108398e+00,1.017204642295837402e+00,1.017151832580566406e+00,1.017099022865295410e+00,1.017046213150024414e+00,1.016993522644042969e+00,1.016940712928771973e+00
9.625908732414245605e-01,9.625436067581176758e-01,9.624963402748107910e-01,9.624490737915039062e-01,9.624018073081970215e-01,9.623545408248901367e-01,9.623073339462280273e-01,9.622600674629211426e-01,9.622128009796142578e-01,9.621655941009521484e-01,9.621183872222900391e-01,9.620711207389831543e-01,9.620237946510314941e-01,9.619765877723693848e-01,9.619293808937072754e-01,9.618821740150451660e-01,9.618349671363830566e-01,9.617877602577209473e-01,9.617405533790588379e-01,9.616934061050415039e-01,9.616461992263793945e-01,9.615990519523620605e-01,9.615518450736999512e-01,9.615046977996826172e-01,9.614574909210205078e-01,9.614103436470031738e-01,9.613631963729858398e-01,9.613160490989685059e-01,9.612689018249511719e-01,9.612217545509338379e-01,9.611746072769165039e-01,9.611274600028991699e-01,9.610803723335266113e-01,9.610332250595092773e-01,9.609860777854919434e-01,9.609389901161193848e-01,9.608919024467468262e-01,9.608447551727294922e-01,9.607976675033569336e-01,9.607505798339843750e-01,9.607034921646118164e-01,9.606562852859497070e-01,9.606091976165771484e-01,9.605621099472045898e-01,9.605150222778320312e-01,9.604679942131042480e-01,9.604209065437316895e-01,9.603738784790039062e-01,9.603267908096313477e-01,9.602797627449035645e-01,9.602326750755310059e-01,9.601856470108032227e-01,9.601386189460754395e-01,9.600915908813476562e-01,9.600445628166198730e-01,9.599975347518920898e-01,9.599505066871643066e-01,9.599034786224365234e-01,9.598565101623535156e-01,9.598094820976257324e-01,9.597624540328979492e-01,9.597154855728149414e-01,9.596685171127319336e-01,9.596214890480041504e-01,9.595745205879211426e-01,9.595275521278381348e-01,9.594805836677551270e-01,9.594336152076721191e-01,9.593866467475891113e-01,9.593396782875061035e-01,9.592927098274230957e-01,9.592456817626953125e-01,9.591987133026123047e-01,9.591518044471740723e-01,9.591048359870910645e-01,9.590579271316528320e-01,9.590109586715698242e-01,9.589640498161315918e-01,9.589171409606933594e-01,9.588702321052551270e-01
9.104022979736328125e-01,9.103600382804870605e-01,9.103177189826965332e-01,9.102754592895507812e-01,9.102331995964050293e-01,9.101909399032592773e-01,9.101486206054687500e-01,9.101063609123229980e-01,9.100641012191772461e-01,9.100218415260314941e-01,9.099796414375305176e-01,9.099373817443847656e-01,9.098951220512390137e-01,9.098528623580932617e-01,9.098106622695922852e-01,9.097684025764465332e-01,9.097262024879455566e-01,9.096839427947998047e-01,9.096417427062988281e-01,9.095995426177978516e-01,9.095573425292968750e-01,9.095150828361511230e-01,9.094728827476501465e-01,9.094306826591491699e-01,9.093885421752929688e-01,9.093463420867919922e-01,9.093041419982910156e-01,9.092619419097900391e-01,9.092197418212890625e-01,9.091774821281433105e-01,9.091353416442871094e-01,9.090931415557861328e-01,9.090510010719299316e-01,9.090088009834289551e-01,9.089666604995727539e-01,9.089245200157165527e-01,9.088823795318603516e-01,9.088402390480041504e-01,9.087980985641479492e-01,9.087559580802917480e-01,9.087138175964355469e-01,9.086716771125793457e-01,9.086295366287231445e-01,9.085874557495117188e-01,9.085453152656555176e-01,9.085032343864440918e-01,9.084610939025878906e-01,9.084190130233764648e-01,9.083768725395202637e-01,9.083347916603088379e-01,9.082927107810974121e-01,9.082506299018859863e-01,9.082085490226745605e-01,9.081664085388183594e-01,9.081243872642517090e-01,9.080823063850402832e-01,9.080402255058288574e-01,9.079981446266174316e-01,9.079560637474060059e-01,9.079139232635498047e-01,9.078719019889831543e-01,9.078298211097717285e-01,9.077877402305603027e-01,9.077457189559936523e-01,9.077036976814270020e-01,9.076616764068603516e-01,9.076195955276489258e-01,9.075775742530822754e-01,9.075355529785156250e-01,9.074935317039489746e-01,9.074515104293823242e-01,9.074094891548156738e-01,9.073675274848937988e-01,9.073255062103271484e-01,9.072834849357604980e-01,9.072415232658386230e-01,9.071995019912719727e-01,9.071575403213500977e-01,9.071155190467834473e-01,9.070735573768615723e-01
8.635817766189575195e-01,8.635437488555908203e-01,8.635056614875793457e-01,8.634676337242126465e-01,8.634296059608459473e-01,8.633915781974792480e-01,8.633535504341125488e-01,8.633155226707458496e-01,8.632774949073791504e-01,8.632394671440124512e-01,8.632014393806457520e-01,8.631634116172790527e-01,8.631253838539123535e-01,8.630874156951904297e-01,8.630493879318237305e-01,8.630114197731018066e-01,8.629733920097351074e-01,8.629353046417236328e-01,8.628973364830017090e-01,8.628593087196350098e-01,8.628213405609130859e-01,8.627833724021911621e-01,8.627454042434692383e-01,8.627074360847473145e-01,8.626694679260253906e-01,8.626314997673034668e-01,8.625935316085815430e-01,8.625555634498596191e-01,8.625175952911376953e-01,8.624796271324157715e-01,8.624416589736938477e-01,8.624037504196166992e-01,8.623657822608947754e-01,8.623278141021728516e-01,8.622899055480957031e-01,8.622519969940185547e-01,8.622140288352966309e-01,8.621761202812194824e-01,8.621381521224975586e-01,8.621002435684204102e-01,8.620623350143432617e-01,8.620244264602661133e-01,8.619865179061889648e-01,8.619486093521118164e-01,8.619107007980346680e-01,8.618727922439575195e-01,8.618348836898803711e-01,8.617969155311584473e-01,8.617590069770812988e-01,8.617211580276489258e-01,8.616832494735717773e-01,8.616453409194946289e-01,8.616074919700622559e-01,8.615696430206298828e-01,8.615317344665527344e-01,8.614938855171203613e-01,8.614560365676879883e-01,8.614181280136108398e-01,8.613802790641784668e-01,8.613424301147460938e-01,8.613045811653137207e-01,8.612667322158813477e-01,8.612288832664489746e-01,8.611910343170166016e-01,8.611531853675842285e-01,8.611153960227966309e-01,8.610775470733642578e-01,8.610396981239318848e-01,8.610019087791442871e-01,8.609640598297119141e-01,8.609262704849243164e-01,8.608884215354919434e-01,8.608506321907043457e-01,8.608127832412719727e-01,8.607749938964843750e-01,8.607372045516967773e-01,8.606994152069091797e-01,8.606615066528320312e-01,8.606237173080444336e-01,8.605859279632568359e-01
8.213415145874023438e-01,8.213070631027221680e-01,8.212726712226867676e-01,8.212382793426513672e-01,8.212038278579711914e-01,8.211693763732910156e-01,8.211349248886108398e-01,8.211005330085754395e-01,8.210661411285400391e-01,8.210317492485046387e-01,8.209973573684692383e-01,8.209629654884338379e-01,8.209285736083984375e-01,8.208942413330078125e-01,8.208598494529724121e-01,8.208254575729370117e-01,8.207910656929016113e-01,8.207567334175109863e-01,8.207223415374755859e-01,8.206880092620849609e-01,8.206536173820495605e-01,8.206192851066589355e-01,8.205848932266235352e-01,8.205505609512329102e-01,8.205162286758422852e-01,8.204818367958068848e-01,8.204475045204162598e-01,8.204131722450256348e-01,8.203788399696350098e-01,8.203445076942443848e-01,8.203101754188537598e-01,8.202758431434631348e-01,8.202415108680725098e-01,8.202071785926818848e-01,8.201728463172912598e-01,8.201384544372558594e-01,8.201041221618652344e-01,8.200697898864746094e-01,8.200355172157287598e-01,8.200011849403381348e-01,8.199669122695922852e-01,8.199325799942016602e-01,8.198983073234558105e-01,8.198639750480651855e-01,8.198297023773193359e-01,8.197954297065734863e-01,8.197610974311828613e-01,8.197268247604370117e-01,8.196925520896911621e-01,8.196582794189453125e-01,8.196240067481994629e-01,8.195897340774536133e-01,8.195554614067077637e-01,8.195211887359619141e-01,8.194869160652160645e-01,8.194526433944702148e-01,8.194183707237243652e-01,8.193841576576232910e-01,8.193498849868774414e-01,8.193156123161315918e-01,8.192813992500305176e-01,8.192471265792846680e-01,8.192129135131835938e-01,8.191786408424377441e-01,8.191444277763366699e-01,8.191100955009460449e-01,8.190758824348449707e-01,8.190416693687438965e-01,8.190073966979980469e-01,8.189731836318969727e-01,8.189389705657958984e-01,8.189047574996948242e-01,8.188705444335937500e-01,8.188363313674926758e-01,8.188021183013916016e-01,8.187679052352905273e-01,8.187336921691894531e-01,8.186995387077331543e-01,8.186653256416320801e-01,8.186311125755310059e-01
7.830406427383422852e-01,7.830094099044799805e-01,7.829781174659729004e-01,7.829468250274658203e-01,7.829155325889587402e-01,7.828842997550964355e-01,7.828530073165893555e-01,7.828217148780822754e-01,7.827904820442199707e-01,7.827591896057128906e-01,7.827279567718505859e-01,7.826966643333435059e-01,7.826654314994812012e-01,7.826341986656188965e-01,7.826029062271118164e-01,7.825716733932495117e-01,7.825404405593872070e-01,7.825092077255249023e-01,7.824779748916625977e-01,7.824467420578002930e-01,7.824154496192932129e-01,7.823842167854309082e-01,7.823529839515686035e-01,7.823216915130615234e-01,7.822904586791992188e-01,7.822592854499816895e-01,7.822280526161193848e-01,7.821968197822570801e-01,7.821655869483947754e-01,7.821344137191772461e-01,7.821031808853149414e-01,7.820719480514526367e-01,7.820407748222351074e-01,7.820095419883728027e-01,7.819783687591552734e-01,7.819471955299377441e-01,7.819159626960754395e-01,7.818847894668579102e-01,7.818536162376403809e-01,7.818223834037780762e-01,7.817912101745605469e-01,7.817600369453430176e-01,7.817288637161254883e-01,7.816976904869079590e-01,7.816665172576904297e-01,7.816353440284729004e-01,7.816041707992553711e-01,7.815729975700378418e-01,7.815418243408203125e-01,7.815106511116027832e-01,7.814794778823852539e-01,7.814483046531677246e-01,7.814171910285949707e-01,7.813859581947326660e-01,7.813547849655151367e-01,7.813236713409423828e-01,7.812924981117248535e-01,7.812613844871520996e-01,7.812302112579345703e-01,7.811990976333618164e-01,7.811679244041442871e-01,7.811368107795715332e-01,7.811056971549987793e-01,7.810745239257812500e-01,7.810434103012084961e-01,7.810122966766357422e-01,7.809811830520629883e-01,7.809500694274902344e-01,7.809189558029174805e-01,7.808878421783447266e-01,7.808567285537719727e-01,7.808256149291992188e-01,7.807945013046264648e-01,7.807633876800537109e-01,7.807322740554809570e-01,7.807012200355529785e-01,7.806701064109802246e-01,7.806389927864074707e-01,7.806079387664794922e-01,7.805768251419067383e-01
7.481527924537658691e-01,7.481242418289184570e-01,7.480956912040710449e-01,7.480671405792236328e-01,7.480385899543762207e-01,7.480100393295288086e-01,7.479814887046813965e-01,7.479529380798339844e-01,7.479244470596313477e-01,7.478958964347839355e-01,7.478673458099365234e-01,7.478387355804443359e-01,7.478101849555969238e-01,7.477816939353942871e-01,7.477531433105468750e-01,7.477245926856994629e-01,7.476961016654968262e-01,7.476675510406494141e-01,7.476390600204467773e-01,7.476105093955993652e-01,7.475820183753967285e-01,7.475535273551940918e-01,7.475249767303466797e-01,7.474964857101440430e-01,7.474679946899414062e-01,7.474394440650939941e-01,7.474109530448913574e-01,7.473824620246887207e-01,7.473539710044860840e-01,7.473254799842834473e-01,7.472969889640808105e-01,7.472684979438781738e-01,7.472400069236755371e-01,7.472115159034729004e-01,7.471830248832702637e-01,7.471545338630676270e-01,7.471260428428649902e-01,7.470975518226623535e-01,7.470691204071044922e-01,7.470406293869018555e-01,7.470120787620544434e-01,7.469835877418518066e-01,7.469551563262939453e-01,7.469266653060913086e-01,7.468982338905334473e-01,7.468697428703308105e-01,7.468413114547729492e-01,7.468128204345703125e-01,7.467843890190124512e-01,7.467559576034545898e-01,7.467274665832519531e-01,7.466990351676940918e-01,7.466706037521362305e-01,7.466421127319335938e-01,7.466136813163757324e-01,7.465852499008178711e-01,7.465568184852600098e-01,7.465283870697021484e-01,7.464999556541442871e-01,7.464715242385864258e-01,7.464430928230285645e-01,7.464146614074707031e-01,7.463862299919128418e-01,7.463577985763549805e-01,7.463293671607971191e-01,7.463009953498840332e-01,7.462725639343261719e-01,7.462441325187683105e-01,7.462157011032104492e-01,7.461873292922973633e-01,7.461588382720947266e-01,7.461304664611816406e-01,7.461020350456237793e-01,7.460736632347106934e-01,7.460452318191528320e-01,7.460168600082397461e-01,7.459884285926818848e-01,7.459600567817687988e-01,7.459316849708557129e-01,7.459032535552978516e-01
7.162411212921142578e-01,7.162149548530578613e-01,7.161887884140014648e-01,7.161626219749450684e-01,7.161364555358886719e-01,7.161102890968322754e-01,7.160841226577758789e-01,7.160579562187194824e-01,7.160317897796630859e-01,7.160056233406066895e-01,7.159794569015502930e-01,7.159532904624938965e-01,7.159271836280822754e-01,7.159010171890258789e-01,7.158748507499694824e-01,7.158487439155578613e-01,7.158225774765014648e-01,7.157964110374450684e-01,7.157703042030334473e-01,7.157441377639770508e-01,7.157180309295654297e-01,7.156918644905090332e-01,7.156657576560974121e-01,7.156395912170410156e-01,7.156134843826293945e-01,7.155873775482177734e-01,7.155612111091613770e-01,7.155351042747497559e-01,7.155089378356933594e-01,7.154828310012817383e-01,7.154566645622253418e-01,7.154305577278137207e-01,7.154044508934020996e-01,7.153783440589904785e-01,7.153522372245788574e-01,7.153261303901672363e-01,7.153000235557556152e-01,7.152739167213439941e-01,7.152478098869323730e-01,7.152217030525207520e-01,7.151955962181091309e-01,7.151695489883422852e-01,7.151434421539306641e-01,7.151173353195190430e-01,7.150912284851074219e-01,7.150651812553405762e-01,7.150390744209289551e-01,7.150129675865173340e-01,7.149869203567504883e-01,7.149608135223388672e-01,7.149347662925720215e-01,7.149086594581604004e-01,7.148826122283935547e-01,7.148565053939819336e-01,7.148304581642150879e-01,7.148043513298034668e-01,7.147783041000366211e-01,7.147522568702697754e-01,7.147260904312133789e-01,7.147000432014465332e-01,7.146739959716796875e-01,7.146479487419128418e-01,7.146219015121459961e-01,7.145957946777343750e-01,7.145697474479675293e-01,7.145437002182006836e-01,7.145176529884338379e-01,7.144916057586669922e-01,7.144655585289001465e-01,7.144395112991333008e-01,7.144134640693664551e-01,7.143874764442443848e-01,7.143614292144775391e-01,7.143353819847106934e-01,7.143093347549438477e-01,7.142832875251770020e-01,7.142572999000549316e-01,7.142312526702880859e-01,7.142052054405212402e-01,7.141792178153991699e-01
6.869404315948486328e-01,6.869163513183593750e-01,6.868922710418701172e-01,6.868681907653808594e-01,6.868441700935363770e-01,6.868200898170471191e-01,6.867960095405578613e-01,6.867719292640686035e-01,6.867478489875793457e-01,6.867238283157348633e-01,6.866997480392456055e-01,6.866756677627563477e-01,6.866516470909118652e-01,6.866275668144226074e-01,6.866035461425781250e-01,6.865794658660888672e-01,6.865553855895996094e-01,6.865313053131103516e-01,6.865072846412658691e-01,6.864832043647766113e-01,6.864591836929321289e-01,6.864351630210876465e-01,6.864110827445983887e-01,6.863870620727539062e-01,6.863630414009094238e-01,6.863390207290649414e-01,6.863149404525756836e-01,6.862909197807312012e-01,6.862668991088867188e-01,6.862428784370422363e-01,6.862188577651977539e-01,6.861948370933532715e-01,6.861708164215087891e-01,6.861467957496643066e-01,6.861227750778198242e-01,6.860987544059753418e-01,6.860747337341308594e-01,6.860507130622863770e-01,6.860266923904418945e-01,6.860026717185974121e-01,6.859786510467529297e-01,6.859546303749084473e-01,6.859306693077087402e-01,6.859066486358642578e-01,6.858826279640197754e-01,6.858586668968200684e-01,6.858345866203308105e-01,6.858105659484863281e-01,6.857866048812866211e-01,6.857625842094421387e-01,6.857386231422424316e-01,6.857146024703979492e-01,6.856906414031982422e-01,6.856666207313537598e-01,6.856426596641540527e-01,6.856186389923095703e-01,6.855946779251098633e-01,6.855707168579101562e-01,6.855466961860656738e-01,6.855227351188659668e-01,6.854987740516662598e-01,6.854748129844665527e-01,6.854507923126220703e-01,6.854268312454223633e-01,6.854028701782226562e-01,6.853789091110229492e-01,6.853549480438232422e-01,6.853309869766235352e-01,6.853070259094238281e-01,6.852830648422241211e-01,6.852591037750244141e-01,6.852351427078247070e-01,6.852111816406250000e-01,6.851872205734252930e-01,6.851632595062255859e-01,6.851392984390258789e-01,6.851153373718261719e-01,6.850913763046264648e-01,6.850674152374267578e-01,6.850434541702270508e-01
6.599428653717041016e-01,6.599206328392028809e-01,6.598984003067016602e-01,6.598761677742004395e-01,6.598539352416992188e-01,6.598317027091979980e-01,6.598094701766967773e-01,6.597872972488403320e-01,6.597650647163391113e-01,6.597428917884826660e-01,6.597206592559814453e-01,6.596984863281250000e-01,6.596762537956237793e-01,6.596540808677673340e-01,6.596318483352661133e-01,6.596096754074096680e-01,6.595874428749084473e-01,6.595652699470520020e-01,6.595430374145507812e-01,6.595208644866943359e-01,6.594986915588378906e-01,6.594765186309814453e-01,6.594542860984802246e-01,6.594321131706237793e-01,6.594099402427673340e-01,6.593877673149108887e-01,6.593655347824096680e-01,6.593433618545532227e-01,6.593211889266967773e-01,6.592990159988403320e-01,6.592768430709838867e-01,6.592546701431274414e-01,6.592324972152709961e-01,6.592103242874145508e-01,6.591880917549133301e-01,6.591659188270568848e-01,6.591437458992004395e-01,6.591215729713439941e-01,6.590994596481323242e-01,6.590772867202758789e-01,6.590551137924194336e-01,6.590329408645629883e-01,6.590107679367065430e-01,6.589886546134948730e-01,6.589664816856384277e-01,6.589443087577819824e-01,6.589221358299255371e-01,6.589000225067138672e-01,6.588778495788574219e-01,6.588557362556457520e-01,6.588335633277893066e-01,6.588114500045776367e-01,6.587892770767211914e-01,6.587671041488647461e-01,6.587449908256530762e-01,6.587228775024414062e-01,6.587007045745849609e-01,6.586785912513732910e-01,6.586564183235168457e-01,6.586343050003051758e-01,6.586121916770935059e-01,6.585900187492370605e-01,6.585679054260253906e-01,6.585457921028137207e-01,6.585236191749572754e-01,6.585015058517456055e-01,6.584793329238891602e-01,6.584572196006774902e-01,6.584351062774658203e-01,6.584129929542541504e-01,6.583908796310424805e-01,6.583687663078308105e-01,6.583466529846191406e-01,6.583245396614074707e-01,6.583024263381958008e-01,6.582803130149841309e-01,6.582581996917724609e-01,6.582360863685607910e-01,6.582139730453491211e-01,6.581918597221374512e-01
6.349870562553405762e-01,6.349664330482482910e-01,6.349458694458007812e-01,6.349253058433532715e-01,6.349047422409057617e-01,6.348841786384582520e-01,6.348636150360107422e-01,6.348430514335632324e-01,6.348224878311157227e-01,6.348019242286682129e-01,6.347813606262207031e-01,6.347607970237731934e-01,6.347402334213256836e-01,6.347197294235229492e-01,6.346991658210754395e-01,6.346786022186279297e-01,6.346580386161804199e-01,6.346374750137329102e-01,6.346169710159301758e-01,6.345964074134826660e-01,6.345758438110351562e-01,6.345552802085876465e-01,6.345347166061401367e-01,6.345141530036926270e-01,6.344936490058898926e-01,6.344730854034423828e-01,6.344525814056396484e-01,6.344320178031921387e-01,6.344114542007446289e-01,6.343909502029418945e-01,6.343703866004943848e-01,6.343498826026916504e-01,6.343293786048889160e-01,6.343088150024414062e-01,6.342883110046386719e-01,6.342677474021911621e-01,6.342472434043884277e-01,6.342267394065856934e-01,6.342061758041381836e-01,6.341856718063354492e-01,6.341651678085327148e-01,6.341446638107299805e-01,6.341241002082824707e-01,6.341035962104797363e-01,6.340830922126770020e-01,6.340625882148742676e-01,6.340420842170715332e-01,6.340215802192687988e-01,6.340010762214660645e-01,6.339805722236633301e-01,6.339600086212158203e-01,6.339395046234130859e-01,6.339190006256103516e-01,6.338984966278076172e-01,6.338779926300048828e-01,6.338574886322021484e-01,6.338369846343994141e-01,6.338164806365966797e-01,6.337959766387939453e-01,6.337754726409912109e-01,6.337550282478332520e-01,6.337345242500305176e-01,6.337140202522277832e-01,6.336935162544250488e-01,6.336730122566223145e-01,6.336525678634643555e-01,6.336320638656616211e-01,6.336115598678588867e-01,6.335911154747009277e-01,6.335706114768981934e-01,6.335501074790954590e-01,6.335296630859375000e-01,6.335091590881347656e-01,6.334887146949768066e-01,6.334682106971740723e-01,6.334477663040161133e-01,6.334272623062133789e-01,6.334068179130554199e-01,6.333863139152526855e-01,6.333658695220947266e-01
6.118499040603637695e-01,6.118308305740356445e-01,6.118117570877075195e-01,6.117926239967346191e-01,6.117735505104064941e-01,6.117544174194335938e-01,6.117353439331054688e-01,6.117162704467773438e-01,6.116971969604492188e-01,6.116780638694763184e-01,6.116589307785034180e-01,6.116398572921752930e-01,6.116207838058471680e-01,6.116017103195190430e-01,6.115825772285461426e-01,6.115635037422180176e-01,6.115444302558898926e-01,6.115253567695617676e-01,6.115062832832336426e-01,6.114872097969055176e-01,6.114681363105773926e-01,6.114490628242492676e-01,6.114299893379211426e-01,6.114109158515930176e-01,6.113918423652648926e-01,6.113727688789367676e-01,6.113536953926086426e-01,6.113346219062805176e-01,6.113155484199523926e-01,6.112964749336242676e-01,6.112774014472961426e-01,6.112583279609680176e-01,6.112392544746398926e-01,6.112202405929565430e-01,6.112011671066284180e-01,6.111820936203002930e-01,6.111630201339721680e-01,6.111440062522888184e-01,6.111249327659606934e-01,6.111058592796325684e-01,6.110867857933044434e-01,6.110677123069763184e-01,6.110486984252929688e-01,6.110296249389648438e-01,6.110105514526367188e-01,6.109915375709533691e-01,6.109724640846252441e-01,6.109534502029418945e-01,6.109343767166137695e-01,6.109153628349304199e-01,6.108962893486022949e-01,6.108772754669189453e-01,6.108582019805908203e-01,6.108391880989074707e-01,6.108201742172241211e-01,6.108011007308959961e-01,6.107820868492126465e-01,6.107630729675292969e-01,6.107439994812011719e-01,6.107249855995178223e-01,6.107059717178344727e-01,6.106868982315063477e-01,6.106678843498229980e-01,6.106488704681396484e-01,6.106298565864562988e-01,6.106108427047729492e-01,6.105917692184448242e-01,6.105727553367614746e-01,6.105537414550781250e-01,6.105346679687500000e-01,6.105156540870666504e-01,6.104966402053833008e-01,6.104776263236999512e-01,6.104586124420166016e-01,6.104395985603332520e-01,6.104205846786499023e-01,6.104015707969665527e-01,6.103825569152832031e-01,6.103636026382446289e-01,6.103445887565612793e-01
