5.000000000000000000e+00,5.000000000000000000e+00,5.000000000000000000e+00,5.000000000000000000e+00,5.000000000000000000e+00,5.000000000000000000e+00,5.000000000000000000e+00,5.000000000000000000e+00,5.000000000000000000e+00,5.000000000000000000e+00,5.000000000000000000e+00,5.000000000000000000e+00,5.000000000000000000e+00,5.000000000000000000e+00,5.000000000000000000e+00,5.000000000000000000e+00,5.000000000000000000e+00,5.000000000000000000e+00,5.000000000000000000e+00,5.000000000000000000e+00,5.000000000000000000e+00,5.000000000000000000e+00,5.000000000000000000e+00,5.000000000000000000e+00,5.000000000000000000e+00,5.000000000000000000e+00,5.000000000000000000e+00,5.000000000000000000e+00,5.000000000000000000e+00,5.000000000000000000e+00,5.000000000000000000e+00,5.000000000000000000e+00,5.000000000000000000e+00,5.000000000000000000e+00,5.000000000000000000e+00,5.000000000000000000e+00,5.000000000000000000e+00,5.000000000000000000e+00,5.000000000000000000e+00,4.862602233886718750e+00,4.671588897705078125e+00,4.495015621185302734e+00,4.331303596496582031e+00,4.179098129272460938e+00,4.037226200103759766e+00,3.904671192169189453e+00,3.780543327331542969e+00,3.664064407348632812e+00,3.554548740386962891e+00,3.451389312744140625e+00,3.354048967361450195e+00,3.262048482894897461e+00,3.174960613250732422e+00,3.092401742935180664e+00,3.014027357101440430e+00,2.939527750015258789e+00,2.868622064590454102e+00,2.801056623458862305e+00,2.736600637435913086e+00,2.675044298171997070e+00,2.616196393966674805e+00,2.559881925582885742e+00,2.505940914154052734e+00,2.454226016998291016e+00,2.404602289199829102e+00,2.356945753097534180e+00,2.311141729354858398e+00,2.267083644866943359e+00,2.224673986434936523e+00,2.183822154998779297e+00,2.144443273544311523e+00,2.106459617614746094e+00,2.069797992706298828e+00,2.034390926361083984e+00,2.000174522399902344e+00,1.967090487480163574e+00,1.935082674026489258e+00,1.904099941253662109e+00,1.874093651771545410e+00,1.845018506050109863e+00
5.000000000000000000e+00,5.000000000000000000e+00,5.000000000000000000e+00,5.000000000000000000e+00,5.000000000000000000e+00,5.000000000000000000e+00,5.000000000000000000e+00,5.000000000000000000e+00,5.000000000000000000e+00,5.000000000000000000e+00,5.000000000000000000e+00,5.000000000000000000e+00,5.000000000000000000e+00,5.000000000000000000e+00,5.000000000000000000e+00,5.000000000000000000e+00,5.000000000000000000e+00,5.000000000000000000e+00,5.000000000000000000e+00,5.000000000000000000e+00,5.000000000000000000e+00,5.000000000000000000e+00,5.000000000000000000e+00,5.000000000000000000e+00,5.000000000000000000e+00,5.000000000000000000e+00,5.000000000000000000e+00,5.000000000000000000e+00,5.000000000000000000e+00,5.000000000000000000e+00,5.000000000000000000e+00,5.000000000000000000e+00,5.000000000000000000e+00,5.000000000000000000e+00,5.000000000000000000e+00,5.000000000000000000e+00,5.000000000000000000e+00,5.000000000000000000e+00,5.000000000000000000e+00,4.862741470336914062e+00,4.671717643737792969e+00,4.495134830474853516e+00,4.331414699554443359e+00,4.179201126098632812e+00,4.037322521209716797e+00,3.904761075973510742e+00,3.780627727508544922e+00,3.664143562316894531e+00,3.554623365402221680e+00,3.451459646224975586e+00,3.354115247726440430e+00,3.262111186981201172e+00,3.175020217895507812e+00,3.092458009719848633e+00,3.014081001281738281e+00,2.939578771591186523e+00,2.868670463562011719e+00,2.801102876663208008e+00,2.736644744873046875e+00,2.675086498260498047e+00,2.616236686706542969e+00,2.559920787811279297e+00,2.505977869033813477e+00,2.454261541366577148e+00,2.404636383056640625e+00,2.356978654861450195e+00,2.311173200607299805e+00,2.267113924026489258e+00,2.224703311920166016e+00,2.183850288391113281e+00,2.144470453262329102e+00,2.106485843658447266e+00,2.069823265075683594e+00,2.034415245056152344e+00,2.000198125839233398e+00,1.967113256454467773e+00,1.935104727745056152e+00,1.904121398925781250e+00,1.874114394187927246e+00,1.845038652420043945e+00
5.000000000000000000e+00,5.000000000000000000e+00,5.000000000000000000e+00,5.000000000000000000e+00,5.000000000000000000e+00,5.000000000000000000e+00,5.000000000000000000e+00,5.000000000000000000e+00,5.000000000000000000e+00,5.000000000000000000e+00,5.000000000000000000e+00,5.000000000000000000e+00,5.000000000000000000e+00,5.000000000000000000e+00,5.000000000000000000e+00,5.000000000000000000e+00,5.000000000000000000e+00,5.000000000000000000e+00,5.000000000000000000e+00,5.000000000000000000e+00,5.000000000000000000e+00,5.000000000000000000e+00,5.000000000000000000e+00,5.000000000000000000e+00,5.000000000000000000e+00,5.000000000000000000e+00,5.000000000000000000e+00,5.000000000000000000e+00,5.000000000000000000e+00,5.000000000000000000e+00,5.000000000000000000e+00,5.000000000000000000e+00,5.000000000000000000e+00,5.000000000000000000e+00,5.000000000000000000e+00,5.000000000000000000e+00,5.000000000000000000e+00,5.000000000000000000e+00,5.000000000000000000e+00,4.862881183624267578e+00,4.671846389770507812e+00,4.495254039764404297e+00,4.331525325775146484e+00,4.179304122924804688e+00,4.037418842315673828e+00,3.904850959777832031e+00,3.780712127685546875e+00,3.664222955703735352e+00,3.554697990417480469e+00,3.451529979705810547e+00,3.354181766510009766e+00,3.262174129486083984e+00,3.175079584121704102e+00,3.092514514923095703e+00,3.014134645462036133e+00,2.939629793167114258e+00,2.868719100952148438e+00,2.801149368286132812e+00,2.736689090728759766e+00,2.675128936767578125e+00,2.616277217864990234e+00,2.559959411621093750e+00,2.506014823913574219e+00,2.454297065734863281e+00,2.404670476913452148e+00,2.357011318206787109e+00,2.311204671859741211e+00,2.267144203186035156e+00,2.224732398986816406e+00,2.183878421783447266e+00,2.144497632980346680e+00,2.106512069702148438e+00,2.069848537445068359e+00,2.034439563751220703e+00,2.000221729278564453e+00,1.967136144638061523e+00,1.935126900672912598e+00,1.904142737388610840e+00,1.874135136604309082e+00,1.845058679580688477e+00
5.000000000000000000e+00,5.000000000000000000e+00,5.000000000000000000e+00,5.000000000000000000e+00,5.000000000000000000e+00,5.000000000000000000e+00,5.000000000000000000e+00,5.000000000000000000e+00,5.000000000000000000e+00,5.000000000000000000e+00,5.000000000000000000e+00,5.000000000000000000e+00,5.000000000000000000e+00,5.000000000000000000e+00,5.000000000000000000e+00,5.000000000000000000e+00,5.000000000000000000e+00,5.000000000000000000e+00,5.000000000000000000e+00,5.000000000000000000e+00,5.000000000000000000e+00,5.000000000000000000e+00,5.000000000000000000e+00,5.000000000000000000e+00,5.000000000000000000e+00,5.000000000000000000e+00,5.000000000000000000e+00,5.000000000000000000e+00,5.000000000000000000e+00,5.000000000000000000e+00,5.000000000000000000e+00,5.000000000000000000e+00,5.000000000000000000e+00,5.000000000000000000e+00,5.000000000000000000e+00,5.000000000000000000e+00,5.000000000000000000e+00,5.000000000000000000e+00,5.000000000000000000e+00,4.863020896911621094e+00,4.671975135803222656e+00,4.495373249053955078e+00,4.331635951995849609e+00,4.179407119750976562e+00,4.037514686584472656e+00,3.904941082000732422e+00,3.780796289443969727e+00,3.664302349090576172e+00,3.554772377014160156e+00,3.451600313186645508e+00,3.354248046875000000e+00,3.262236833572387695e+00,3.175139188766479492e+00,3.092571020126342773e+00,3.014188289642333984e+00,2.939680814743041992e+00,2.868767738342285156e+00,2.801195621490478516e+00,2.736733198165893555e+00,2.675171136856079102e+00,2.616317510604858398e+00,2.559998035430908203e+00,2.506052017211914062e+00,2.454332590103149414e+00,2.404704809188842773e+00,2.357044219970703125e+00,2.311236143112182617e+00,2.267174720764160156e+00,2.224761724472045898e+00,2.183906555175781250e+00,2.144524812698364258e+00,2.106538295745849609e+00,2.069873809814453125e+00,2.034464120864868164e+00,2.000245332717895508e+00,1.967159032821655273e+00,1.935148954391479492e+00,1.904164195060729980e+00,1.874155879020690918e+00,1.845078825950622559e+00
5.000000000000000000e+00,5.000000000000000000e+00,5.000000000000000000e+00,5.000000000000000000e+00,5.000000000000000000e+00,5.000000000000000000e+00,5.000000000000000000e+00,5.000000000000000000e+00,5.000000000000000000e+00,5.000000000000000000e+00,5.000000000000000000e+00,5.000000000000000000e+00,5.000000000000000000e+00,5.000000000000000000e+00,5.000000000000000000e+00,5.000000000000000000e+00,5.000000000000000000e+00,5.000000000000000000e+00,5.000000000000000000e+00,5.000000000000000000e+00,5.000000000000000000e+00,5.000000000000000000e+00,5.000000000000000000e+00,5.000000000000000000e+00,5.000000000000000000e+00,5.000000000000000000e+00,5.000000000000000000e+00,5.000000000000000000e+00,5.000000000000000000e+00,5.000000000000000000e+00,5.000000000000000000e+00,5.000000000000000000e+00,5.000000000000000000e+00,5.000000000000000000e+00,5.000000000000000000e+00,5.000000000000000000e+00,5.000000000000000000e+00,5.000000000000000000e+00,5.000000000000000000e+00,4.863160133361816406e+00,4.672104358673095703e+00,4.495492458343505859e+00,4.331746578216552734e+00,4.179510116577148438e+00,4.037611007690429688e+00,3.905030965805053711e+00,3.780880689620971680e+00,3.664381742477416992e+00,3.554847002029418945e+00,3.451670646667480469e+00,3.354314565658569336e+00,3.262299776077270508e+00,3.175198554992675781e+00,3.092627286911010742e+00,3.014241933822631836e+00,2.939731597900390625e+00,2.868816375732421875e+00,2.801241874694824219e+00,2.736777305603027344e+00,2.675213336944580078e+00,2.616358041763305664e+00,2.560036659240722656e+00,2.506088972091674805e+00,2.454368114471435547e+00,2.404738903045654297e+00,2.357076883316040039e+00,2.311267614364624023e+00,2.267204999923706055e+00,2.224790811538696289e+00,2.183934688568115234e+00,2.144551992416381836e+00,2.106564521789550781e+00,2.069899082183837891e+00,2.034488439559936523e+00,2.000268936157226562e+00,1.967181801795959473e+00,1.935171008110046387e+00,1.904185533523559570e+00,1.874176621437072754e+00,1.845098853111267090e+00
5.000000000000000000e+00,5.000000000000000000e+00,5.000000000000000000e+00,5.000000000000000000e+00,5.000000000000000000e+00,5.000000000000000000e+00,5.000000000000000000e+00,5.000000000000000000e+00,5.000000000000000000e+00,5.000000000000000000e+00,5.000000000000000000e+00,5.000000000000000000e+00,5.000000000000000000e+00,5.000000000000000000e+00,5.000000000000000000e+00,5.000000000000000000e+00,5.000000000000000000e+00,5.000000000000000000e+00,5.000000000000000000e+00,5.000000000000000000e+00,5.000000000000000000e+00,5.000000000000000000e+00,5.000000000000000000e+00,5.000000000000000000e+00,5.000000000000000000e+00,5.000000000000000000e+00,5.000000000000000000e+00,5.000000000000000000e+00,5.000000000000000000e+00,5.000000000000000000e+00,5.000000000000000000e+00,5.000000000000000000e+00,5.000000000000000000e+00,5.000000000000000000e+00,5.000000000000000000e+00,5.000000000000000000e+00,5.000000000000000000e+00,5.000000000000000000e+00,5.000000000000000000e+00,4.863299846649169922e+00,4.672233104705810547e+00,4.495611667633056641e+00,4.331857204437255859e+00,4.179613590240478516e+00,4.037707328796386719e+00,3.905121088027954102e+00,3.780965089797973633e+00,3.664460897445678711e+00,3.554921627044677734e+00,3.451740980148315430e+00,3.354380846023559570e+00,3.262362480163574219e+00,3.175258159637451172e+00,3.092683792114257812e+00,3.014295339584350586e+00,2.939782619476318359e+00,2.868865013122558594e+00,2.801288127899169922e+00,2.736821651458740234e+00,2.675255537033081055e+00,2.616398334503173828e+00,2.560075283050537109e+00,2.506126165390014648e+00,2.454403638839721680e+00,2.404772996902465820e+00,2.357109785079956055e+00,2.311299324035644531e+00,2.267235279083251953e+00,2.224820137023925781e+00,2.183962821960449219e+00,2.144579172134399414e+00,2.106590747833251953e+00,2.069924354553222656e+00,2.034512996673583984e+00,2.000292539596557617e+00,1.967204689979553223e+00,1.935193181037902832e+00,1.904206991195678711e+00,1.874197363853454590e+00,1.845118999481201172e+00
5.000000000000000000e+00,5.000000000000000000e+00,5.000000000000000000e+00,5.000000000000000000e+00,5.000000000000000000e+00,5.000000000000000000e+00,5.000000000000000000e+00,5.000000000000000000e+00,5.000000000000000000e+00,5.000000000000000000e+00,5.000000000000000000e+00,5.000000000000000000e+00,5.000000000000000000e+00,5.000000000000000000e+00,5.000000000000000000e+00,5.000000000000000000e+00,5.000000000000000000e+00,5.000000000000000000e+00,5.000000000000000000e+00,5.000000000000000000e+00,5.000000000000000000e+00,5.000000000000000000e+00,5.000000000000000000e+00,5.000000000000000000e+00,4.280538558959960938e+00,4.264374256134033203e+00,5.000000000000000000e+00,5.000000000000000000e+00,5.000000000000000000e+00,5.000000000000000000e+00,5.000000000000000000e+00,5.000000000000000000e+00,5.000000000000000000e+00,5.000000000000000000e+00,5.000000000000000000e+00,5.000000000000000000e+00,5.000000000000000000e+00,5.000000000000000000e+00,5.000000000000000000e+00,4.863439559936523438e+00,4.672361850738525391e+00,4.495730876922607422e+00,4.331968307495117188e+00,4.179716587066650391e+00,4.037803649902343750e+00,3.905210971832275391e+00,3.781049489974975586e+00,3.664540052413940430e+00,3.554996252059936523e+00,3.451811313629150391e+00,3.354447364807128906e+00,3.262425184249877930e+00,3.175317525863647461e+00,3.092740297317504883e+00,3.014348983764648438e+00,2.939833641052246094e+00,2.868913650512695312e+00,2.801334381103515625e+00,2.736865758895874023e+00,2.675297737121582031e+00,2.616438865661621094e+00,2.560114145278930664e+00,2.506163120269775391e+00,2.454439163208007812e+00,2.404807090759277344e+00,2.357142686843872070e+00,2.311330795288085938e+00,2.267265558242797852e+00,2.224849224090576172e+00,2.183990955352783203e+00,2.144606351852416992e+00,2.106616735458374023e+00,2.069949626922607422e+00,2.034537315368652344e+00,2.000316143035888672e+00,1.967227458953857422e+00,1.935215234756469727e+00,1.904228329658508301e+00,1.874218106269836426e+00,1.845139026641845703e+00
5.000000000000000000e+00,5.000000000000000000e+00,5.000000000000000000e+00,5.000000000000000000e+00,5.000000000000000000e+00,5.000000000000000000e+00,5.000000000000000000e+00,5.000000000000000000e+00,5.000000000000000000e+00,5.000000000000000000e+00,5.000000000000000000e+00,5.000000000000000000e+00,5.000000000000000000e+00,5.000000000000000000e+00,5.000000000000000000e+00,5.000000000000000000e+00,5.000000000000000000e+00,5.000000000000000000e+00,5.000000000000000000e+00,5.000000000000000000e+00,5.000000000000000000e+00,5.000000000000000000e+00,5.000000000000000000e+00,5.000000000000000000e+00,4.292950630187988281e+00,4.271667003631591797e+00,5.000000000000000000e+00,5.000000000000000000e+00,5.000000000000000000e+00,5.000000000000000000e+00,5.000000000000000000e+00,5.000000000000000000e+00,5.000000000000000000e+00,5.000000000000000000e+00,5.000000000000000000e+00,5.000000000000000000e+00,5.000000000000000000e+00,5.000000000000000000e+00,5.000000000000000000e+00,4.863578796386718750e+00,4.672490596771240234e+00,4.495850563049316406e+00,4.332078933715820312e+00,4.179819583892822266e+00,4.037899494171142578e+00,3.905301094055175781e+00,3.781133890151977539e+00,3.664619445800781250e+00,3.555070638656616211e+00,3.451881408691406250e+00,3.354513645172119141e+00,3.262488126754760742e+00,3.175377130508422852e+00,3.092796802520751953e+00,3.014402627944946289e+00,2.939884662628173828e+00,2.868962287902832031e+00,2.801380872726440430e+00,2.736909866333007812e+00,2.675339937210083008e+00,2.616479158401489258e+00,2.560152769088745117e+00,2.506200313568115234e+00,2.454474687576293945e+00,2.404841184616088867e+00,2.357175588607788086e+00,2.311362266540527344e+00,2.267296075820922852e+00,2.224878549575805664e+00,2.184019088745117188e+00,2.144633293151855469e+00,2.106642961502075195e+00,2.069974899291992188e+00,2.034561872482299805e+00,2.000339984893798828e+00,1.967250347137451172e+00,1.935237407684326172e+00,1.904249668121337891e+00,1.874238729476928711e+00,1.845159173011779785e+00
5.000000000000000000e+00,5.000000000000000000e+00,5.000000000000000000e+00,5.000000000000000000e+00,5.000000000000000000e+00,5.000000000000000000e+00,5.000000000000000000e+00,5.000000000000000000e+00,5.000000000000000000e+00,5.000000000000000000e+00,5.000000000000000000e+00,5.000000000000000000e+00,5.000000000000000000e+00,5.000000000000000000e+00,5.000000000000000000e+00,5.000000000000000000e+00,5.000000000000000000e+00,5.000000000000000000e+00,5.000000000000000000e+00,5.000000000000000000e+00,5.000000000000000000e+00,5.000000000000000000e+00,5.000000000000000000e+00,5.000000000000000000e+00,4.343405723571777344e+00,4.286812782287597656e+00,5.000000000000000000e+00,5.000000000000000000e+00,5.000000000000000000e+00,5.000000000000000000e+00,5.000000000000000000e+00,5.000000000000000000e+00,5.000000000000000000e+00,5.000000000000000000e+00,5.000000000000000000e+00,5.000000000000000000e+00,5.000000000000000000e+00,5.000000000000000000e+00,5.000000000000000000e+00,4.863718509674072266e+00,4.672619819641113281e+00,4.495969772338867188e+00,4.332190036773681641e+00,4.179922580718994141e+00,4.037995815277099609e+00,3.905390977859497070e+00,3.781218290328979492e+00,3.664698600769042969e+00,3.555145263671875000e+00,3.451951742172241211e+00,3.354580163955688477e+00,3.262551307678222656e+00,3.175436735153198242e+00,3.092853069305419922e+00,3.014456272125244141e+00,2.939935684204101562e+00,2.869010686874389648e+00,2.801427125930786133e+00,2.736954212188720703e+00,2.675382137298583984e+00,2.616519451141357422e+00,2.560191392898559570e+00,2.506237268447875977e+00,2.454510211944580078e+00,2.404875278472900391e+00,2.357208251953125000e+00,2.311393737792968750e+00,2.267326354980468750e+00,2.224907636642456055e+00,2.184047222137451172e+00,2.144660472869873047e+00,2.106669187545776367e+00,2.070000171661376953e+00,2.034586191177368164e+00,2.000363588333129883e+00,1.967273116111755371e+00,1.935259461402893066e+00,1.904271125793457031e+00,1.874259471893310547e+00,1.845179200172424316e+00
5.000000000000000000e+00,5.000000000000000000e+00,5.000000000000000000e+00,5.000000000000000000e+00,5.000000000000000000e+00,5.000000000000000000e+00,5.000000000000000000e+00,5.000000000000000000e+00,5.000000000000000000e+00,5.000000000000000000e+00,5.000000000000000000e+00,5.000000000000000000e+00,5.000000000000000000e+00,5.000000000000000000e+00,5.000000000000000000e+00,5.000000000000000000e+00,5.000000000000000000e+00,5.000000000000000000e+00,5.000000000000000000e+00,5.000000000000000000e+00,5.000000000000000000e+00,5.000000000000000000e+00,4.184750556945800781e+00,4.233018875122070312e+00,4.241804122924804688e+00,4.347469806671142578e+00,4.362890243530273438e+00,5.000000000000000000e+00,5.000000000000000000e+00,5.000000000000000000e+00,5.000000000000000000e+00,5.000000000000000000e+00,5.000000000000000000e+00,5.000000000000000000e+00,5.000000000000000000e+00,5.000000000000000000e+00,5.000000000000000000e+00,5.000000000000000000e+00,5.000000000000000000e+00,4.863858222961425781e+00,4.672748565673828125e+00,4.496088981628417969e+00,4.332300662994384766e+00,4.180026054382324219e+00,4.038092136383056641e+00,3.905481100082397461e+00,3.781302690505981445e+00,3.664777994155883789e+00,3.555219888687133789e+00,3.452022075653076172e+00,3.354646444320678711e+00,3.262614011764526367e+00,3.175496101379394531e+00,3.092909574508666992e+00,3.014509916305541992e+00,2.939986705780029297e+00,2.869059324264526367e+00,2.801473379135131836e+00,2.736998319625854492e+00,2.675424575805664062e+00,2.616560220718383789e+00,2.560230016708374023e+00,2.506274461746215820e+00,2.454545736312866211e+00,2.404909372329711914e+00,2.357241153717041016e+00,2.311425209045410156e+00,2.267356634140014648e+00,2.224936962127685547e+00,2.184075355529785156e+00,2.144687652587890625e+00,2.106695413589477539e+00,2.070025444030761719e+00,2.034610748291015625e+00,2.000387191772460938e+00,1.967296004295349121e+00,1.935281515121459961e+00,1.904292583465576172e+00,1.874280214309692383e+00,1.845199346542358398e+00
5.000000000000000000e+00,5.000000000000000000e+00,5.000000000000000000e+00,5.000000000000000000e+00,5.000000000000000000e+00,5.000000000000000000e+00,5.000000000000000000e+00,5.000000000000000000e+00,5.000000000000000000e+00,5.000000000000000000e+00,5.000000000000000000e+00,5.000000000000000000e+00,5.000000000000000000e+00,5.000000000000000000e+00,5.000000000000000000e+00,5.000000000000000000e+00,5.000000000000000000e+00,5.000000000000000000e+00,5.000000000000000000e+00,5.000000000000000000e+00,5.000000000000000000e+00,5.000000000000000000e+00,4.184195518493652344e+00,4.207936286926269531e+00,4.210614204406738281e+00,4.254526138305664062e+00,4.312843322753906250e+00,4.421765804290771484e+00,5.000000000000000000e+00,5.000000000000000000e+00,5.000000000000000000e+00,5.000000000000000000e+00,5.000000000000000000e+00,5.000000000000000000e+00,5.000000000000000000e+00,5.000000000000000000e+00,5.000000000000000000e+00,5.000000000000000000e+00,5.000000000000000000e+00,4.863997936248779297e+00,4.672877311706542969e+00,4.496208190917968750e+00,4.332411289215087891e+00,4.180129051208496094e+00,4.038188457489013672e+00,3.905570983886718750e+00,3.781386852264404297e+00,3.664857149124145508e+00,3.555294513702392578e+00,3.452092409133911133e+00,3.354712963104248047e+00,3.262676715850830078e+00,3.175555706024169922e+00,3.092966079711914062e+00,3.014563560485839844e+00,2.940037727355957031e+00,2.869107961654663086e+00,2.801519632339477539e+00,2.737042665481567383e+00,2.675466775894165039e+00,2.616600513458251953e+00,2.560268878936767578e+00,2.506311416625976562e+00,2.454581499099731445e+00,2.404943704605102539e+00,2.357273817062377930e+00,2.311456918716430664e+00,2.267386913299560547e+00,2.224966049194335938e+00,2.184103488922119141e+00,2.144714832305908203e+00,2.106721639633178711e+00,2.070050716400146484e+00,2.034635066986083984e+00,2.000410795211791992e+00,1.967318892478942871e+00,1.935303688049316406e+00,1.904313921928405762e+00,1.874300956726074219e+00,1.845219373703002930e+00
5.000000000000000000e+00,5.000000000000000000e+00,5.000000000000000000e+00,5.000000000000000000e+00,5.000000000000000000e+00,5.000000000000000000e+00,5.000000000000000000e+00,5.000000000000000000e+00,5.000000000000000000e+00,5.000000000000000000e+00,5.000000000000000000e+00,5.000000000000000000e+00,5.000000000000000000e+00,5.000000000000000000e+00,5.000000000000000000e+00,5.000000000000000000e+00,5.000000000000000000e+00,5.000000000000000000e+00,5.000000000000000000e+00,5.000000000000000000e+00,5.000000000000000000e+00,5.000000000000000000e+00,4.205675125122070312e+00,4.225790500640869141e+00,4.213606357574462891e+00,4.238723754882812500e+00,4.285511493682861328e+00,4.465299129486083984e+00,5.000000000000000000e+00,5.000000000000000000e+00,5.000000000000000000e+00,5.000000000000000000e+00,5.000000000000000000e+00,5.000000000000000000e+00,5.000000000000000000e+00,5.000000000000000000e+00,5.000000000000000000e+00,5.000000000000000000e+00,5.000000000000000000e+00,4.864137172698974609e+00,4.673006057739257812e+00,4.496327400207519531e+00,4.332521915435791016e+00,4.180232048034667969e+00,4.038284778594970703e+00,3.905661106109619141e+00,3.781471252441406250e+00,3.664936542510986328e+00,3.555369138717651367e+00,3.452162742614746094e+00,3.354779243469238281e+00,3.262739658355712891e+00,3.175615072250366211e+00,3.093022584915161133e+00,3.014617204666137695e+00,2.940088748931884766e+00,2.869156599044799805e+00,2.801566123962402344e+00,2.737086772918701172e+00,2.675508975982666016e+00,2.616641044616699219e+00,2.560307502746582031e+00,2.506348609924316406e+00,2.454617023468017578e+00,2.404977798461914062e+00,2.357306718826293945e+00,2.311488389968872070e+00,2.267417430877685547e+00,2.224995374679565430e+00,2.184131860733032227e+00,2.144742012023925781e+00,2.106747865676879883e+00,2.070075988769531250e+00,2.034659624099731445e+00,2.000434398651123047e+00,1.967341661453247070e+00,1.935325741767883301e+00,1.904335379600524902e+00,1.874321699142456055e+00,1.845239520072937012e+00
5.000000000000000000e+00,5.000000000000000000e+00,5.000000000000000000e+00,5.000000000000000000e+00,5.000000000000000000e+00,5.000000000000000000e+00,5.000000000000000000e+00,5.000000000000000000e+00,5.000000000000000000e+00,5.000000000000000000e+00,5.000000000000000000e+00,5.000000000000000000e+00,5.000000000000000000e+00,5.000000000000000000e+00,5.000000000000000000e+00,5.000000000000000000e+00,5.000000000000000000e+00,5.000000000000000000e+00,5.000000000000000000e+00,5.000000000000000000e+00,5.000000000000000000e+00,5.000000000000000000e+00,4.208441257476806641e+00,4.230746269226074219e+00,4.219646453857421875e+00,4.232371330261230469e+00,4.285470962524414062e+00,4.466984748840332031e+00,5.000000000000000000e+00,5.000000000000000000e+00,5.000000000000000000e+00,5.000000000000000000e+00,5.000000000000000000e+00,5.000000000000000000e+00,5.000000000000000000e+00,5.000000000000000000e+00,5.000000000000000000e+00,5.000000000000000000e+00,5.000000000000000000e+00,4.864276885986328125e+00,4.673135280609130859e+00,4.496446609497070312e+00,4.332633018493652344e+00,4.180335044860839844e+00,4.038381099700927734e+00,3.905750989913940430e+00,3.781556129455566406e+00,3.665015697479248047e+00,3.555443525314331055e+00,3.452233076095581055e+00,3.354845762252807617e+00,3.262802362442016602e+00,3.175674676895141602e+00,3.093078851699829102e+00,3.014670848846435547e+00,2.940139770507812500e+00,2.869204998016357422e+00,2.801612377166748047e+00,2.737131118774414062e+00,2.675551176071166992e+00,2.616681337356567383e+00,2.560346126556396484e+00,2.506385564804077148e+00,2.454652547836303711e+00,2.405011892318725586e+00,2.357339382171630859e+00,2.311519861221313477e+00,2.267447710037231445e+00,2.225024461746215820e+00,2.184159994125366211e+00,2.144769191741943359e+00,2.106773853302001953e+00,2.070101499557495117e+00,2.034683942794799805e+00,2.000458002090454102e+00,1.967364549636840820e+00,1.935347795486450195e+00,1.904356718063354492e+00,1.874342441558837891e+00,1.845259547233581543e+00
5.000000000000000000e+00,5.000000000000000000e+00,5.000000000000000000e+00,5.000000000000000000e+00,5.000000000000000000e+00,5.000000000000000000e+00,5.000000000000000000e+00,5.000000000000000000e+00,5.000000000000000000e+00,5.000000000000000000e+00,5.000000000000000000e+00,5.000000000000000000e+00,5.000000000000000000e+00,5.000000000000000000e+00,5.000000000000000000e+00,5.000000000000000000e+00,5.000000000000000000e+00,5.000000000000000000e+00,5.000000000000000000e+00,5.000000000000000000e+00,5.000000000000000000e+00,5.000000000000000000e+00,4.215464115142822266e+00,4.244318485260009766e+00,4.215707778930664062e+00,4.235997676849365234e+00,4.281743526458740234e+00,4.483155250549316406e+00,5.000000000000000000e+00,5.000000000000000000e+00,5.000000000000000000e+00,5.000000000000000000e+00,5.000000000000000000e+00,5.000000000000000000e+00,5.000000000000000000e+00,5.000000000000000000e+00,5.000000000000000000e+00,5.000000000000000000e+00,5.000000000000000000e+00,4.864417076110839844e+00,4.673264026641845703e+00,4.496566295623779297e+00,4.332743644714355469e+00,4.180438518524169922e+00,4.038477420806884766e+00,3.905841112136840820e+00,3.781640529632568359e+00,3.665094852447509766e+00,3.555518150329589844e+00,3.452303409576416016e+00,3.354912042617797852e+00,3.262865304946899414e+00,3.175734043121337891e+00,3.093135356903076172e+00,3.014724493026733398e+00,2.940191030502319336e+00,2.869253635406494141e+00,2.801658630371093750e+00,2.737175226211547852e+00,2.675593376159667969e+00,2.616721868515014648e+00,2.560384750366210938e+00,2.506422758102416992e+00,2.454688072204589844e+00,2.405045986175537109e+00,2.357372283935546875e+00,2.311551332473754883e+00,2.267477989196777344e+00,2.225053787231445312e+00,2.184188127517700195e+00,2.144796133041381836e+00,2.106800079345703125e+00,2.070126771926879883e+00,2.034708261489868164e+00,2.000481605529785156e+00,1.967387318611145020e+00,1.935369968414306641e+00,1.904378175735473633e+00,1.874363183975219727e+00,1.845279693603515625e+00
5.000000000000000000e+00,5.000000000000000000e+00,5.000000000000000000e+00,5.000000000000000000e+00,5.000000000000000000e+00,5.000000000000000000e+00,5.000000000000000000e+00,5.000000000000000000e+00,5.000000000000000000e+00,5.000000000000000000e+00,5.000000000000000000e+00,5.000000000000000000e+00,5.000000000000000000e+00,5.000000000000000000e+00,5.000000000000000000e+00,5.000000000000000000e+00,5.000000000000000000e+00,5.000000000000000000e+00,5.000000000000000000e+00,5.000000000000000000e+00,5.000000000000000000e+00,5.000000000000000000e+00,4.202714443206787109e+00,4.236063957214355469e+00,4.222700595855712891e+00,4.234997749328613281e+00,4.266604900360107422e+00,4.518327713012695312e+00,5.000000000000000000e+00,5.000000000000000000e+00,5.000000000000000000e+00,5.000000000000000000e+00,5.000000000000000000e+00,5.000000000000000000e+00,5.000000000000000000e+00,5.000000000000000000e+00,5.000000000000000000e+00,5.000000000000000000e+00,5.000000000000000000e+00,4.864556789398193359e+00,4.673392772674560547e+00,4.496685504913330078e+00,4.332854270935058594e+00,4.180541515350341797e+00,4.038573741912841797e+00,3.905930995941162109e+00,3.781724929809570312e+00,3.665174245834350586e+00,3.555592775344848633e+00,3.452373743057250977e+00,3.354978561401367188e+00,3.262928009033203125e+00,3.175793647766113281e+00,3.093191862106323242e+00,3.014778137207031250e+00,2.940242052078247070e+00,2.869302272796630859e+00,2.801704883575439453e+00,2.737219333648681641e+00,2.675635576248168945e+00,2.616762161254882812e+00,2.560423612594604492e+00,2.506459712982177734e+00,2.454723596572875977e+00,2.405080318450927734e+00,2.357404947280883789e+00,2.311583042144775391e+00,2.267508268356323242e+00,2.225083112716674805e+00,2.184216260910034180e+00,2.144823312759399414e+00,2.106826305389404297e+00,2.070152044296264648e+00,2.034732818603515625e+00,2.000505208969116211e+00,1.967410206794738770e+00,1.935392022132873535e+00,1.904399514198303223e+00,1.874383926391601562e+00,1.845299720764160156e+00
5.000000000000000000e+00,5.000000000000000000e+00,5.000000000000000000e+00,5.000000000000000000e+00,5.000000000000000000e+00,5.000000000000000000e+00,5.000000000000000000e+00,5.000000000000000000e+00,5.000000000000000000e+00,5.000000000000000000e+00,5.000000000000000000e+00,5.000000000000000000e+00,5.000000000000000000e+00,5.000000000000000000e+00,5.000000000000000000e+00,5.000000000000000000e+00,5.000000000000000000e+00,5.000000000000000000e+00,5.000000000000000000e+00,5.000000000000000000e+00,5.000000000000000000e+00,5.000000000000000000e+00,4.166334152221679688e+00,4.177512168884277344e+00,4.219995021820068359e+00,4.244499683380126953e+00,4.292473316192626953e+00,4.500707626342773438e+00,5.000000000000000000e+00,5.000000000000000000e+00,5.000000000000000000e+00,5.000000000000000000e+00,5.000000000000000000e+00,5.000000000000000000e+00,5.000000000000000000e+00,5.000000000000000000e+00,5.000000000000000000e+00,5.000000000000000000e+00,5.000000000000000000e+00,4.864696025848388672e+00,4.673521518707275391e+00,4.496804714202880859e+00,4.332965373992919922e+00,4.180644512176513672e+00,4.038669586181640625e+00,3.906021118164062500e+00,3.781809329986572266e+00,3.665253400802612305e+00,3.555667400360107422e+00,3.452444076538085938e+00,3.355044841766357422e+00,3.262990951538085938e+00,3.175853252410888672e+00,3.093248367309570312e+00,3.014831781387329102e+00,2.940293073654174805e+00,2.869350910186767578e+00,2.801751375198364258e+00,2.737263679504394531e+00,2.675678014755249023e+00,2.616802692413330078e+00,2.560462236404418945e+00,2.506496906280517578e+00,2.454759120941162109e+00,2.405114412307739258e+00,2.357437849044799805e+00,2.311614513397216797e+00,2.267538785934448242e+00,2.225112199783325195e+00,2.184244394302368164e+00,2.144850492477416992e+00,2.106852531433105469e+00,2.070177316665649414e+00,2.034757137298583984e+00,2.000528812408447266e+00,1.967432975769042969e+00,1.935414195060729980e+00,1.904420971870422363e+00,1.874404668807983398e+00,1.845319867134094238e+00
5.000000000000000000e+00,5.000000000000000000e+00,5.000000000000000000e+00,5.000000000000000000e+00,5.000000000000000000e+00,5.000000000000000000e+00,5.000000000000000000e+00,5.000000000000000000e+00,5.000000000000000000e+00,5.000000000000000000e+00,5.000000000000000000e+00,5.000000000000000000e+00,5.000000000000000000e+00,5.000000000000000000e+00,5.000000000000000000e+00,5.000000000000000000e+00,5.000000000000000000e+00,5.000000000000000000e+00,5.000000000000000000e+00,5.000000000000000000e+00,5.000000000000000000e+00,5.000000000000000000e+00,5.000000000000000000e+00,4.134097576141357422e+00,4.213793754577636719e+00,4.306903362274169922e+00,4.257435798645019531e+00,4.298373699188232422e+00,5.000000000000000000e+00,5.000000000000000000e+00,5.000000000000000000e+00,5.000000000000000000e+00,5.000000000000000000e+00,5.000000000000000000e+00,5.000000000000000000e+00,5.000000000000000000e+00,5.000000000000000000e+00,5.000000000000000000e+00,5.000000000000000000e+00,4.864835739135742188e+00,4.673650741577148438e+00,4.496924400329589844e+00,4.333076000213623047e+00,4.180747509002685547e+00,4.038765907287597656e+00,3.906111240386962891e+00,3.781893730163574219e+00,3.665332794189453125e+00,3.555742025375366211e+00,3.452514410018920898e+00,3.355111360549926758e+00,3.263053655624389648e+00,3.175912618637084961e+00,3.093304872512817383e+00,3.014885425567626953e+00,2.940344095230102539e+00,2.869399309158325195e+00,2.801797628402709961e+00,2.737307786941528320e+00,2.675720214843750000e+00,2.616842985153198242e+00,2.560500860214233398e+00,2.506533861160278320e+00,2.454794645309448242e+00,2.405148506164550781e+00,2.357470512390136719e+00,2.311645984649658203e+00,2.267569065093994141e+00,2.225141525268554688e+00,2.184272527694702148e+00,2.144877672195434570e+00,2.106878757476806641e+00,2.070202589035034180e+00,2.034781694412231445e+00,2.000552415847778320e+00,1.967455863952636719e+00,1.935436248779296875e+00,1.904442310333251953e+00,1.874425292015075684e+00,1.845340013504028320e+00
5.000000000000000000e+00,5.000000000000000000e+00,5.000000000000000000e+00,5.000000000000000000e+00,5.000000000000000000e+00,5.000000000000000000e+00,5.000000000000000000e+00,5.000000000000000000e+00,5.000000000000000000e+00,5.000000000000000000e+00,5.000000000000000000e+00,5.000000000000000000e+00,5.000000000000000000e+00,5.000000000000000000e+00,5.000000000000000000e+00,5.000000000000000000e+00,5.000000000000000000e+00,5.000000000000000000e+00,5.000000000000000000e+00,5.000000000000000000e+00,5.000000000000000000e+00,5.000000000000000000e+00,5.000000000000000000e+00,4.076760768890380859e+00,4.207386970520019531e+00,4.334901332855224609e+00,4.230091094970703125e+00,4.258482456207275391e+00,5.000000000000000000e+00,5.000000000000000000e+00,5.000000000000000000e+00,5.000000000000000000e+00,5.000000000000000000e+00,5.000000000000000000e+00,5.000000000000000000e+00,5.000000000000000000e+00,5.000000000000000000e+00,5.000000000000000000e+00,5.000000000000000000e+00,4.864975452423095703e+00,4.673779487609863281e+00,4.497043609619140625e+00,4.333186626434326172e+00,4.180850982666015625e+00,4.038862228393554688e+00,3.906201124191284180e+00,3.781978130340576172e+00,3.665411949157714844e+00,3.555816650390625000e+00,3.452584743499755859e+00,3.355178117752075195e+00,3.263116598129272461e+00,3.175972223281860352e+00,3.093361377716064453e+00,3.014939069747924805e+00,2.940395116806030273e+00,2.869447946548461914e+00,2.801843881607055664e+00,2.737352132797241211e+00,2.675762414932250977e+00,2.616883516311645508e+00,2.560539484024047852e+00,2.506571054458618164e+00,2.454830408096313477e+00,2.405182600021362305e+00,2.357503414154052734e+00,2.311677455902099609e+00,2.267599344253540039e+00,2.225170612335205078e+00,2.184300661087036133e+00,2.144904851913452148e+00,2.106904983520507812e+00,2.070227861404418945e+00,2.034806251525878906e+00,2.000576019287109375e+00,1.967478752136230469e+00,1.935458421707153320e+00,1.904463768005371094e+00,1.874446034431457520e+00,1.845360040664672852e+00
5.000000000000000000e+00,5.000000000000000000e+00,5.000000000000000000e+00,5.000000000000000000e+00,5.000000000000000000e+00,5.000000000000000000e+00,5.000000000000000000e+00,5.000000000000000000e+00,5.000000000000000000e+00,5.000000000000000000e+00,5.000000000000000000e+00,5.000000000000000000e+00,5.000000000000000000e+00,5.000000000000000000e+00,5.000000000000000000e+00,5.000000000000000000e+00,5.000000000000000000e+00,5.000000000000000000e+00,5.000000000000000000e+00,5.000000000000000000e+00,5.000000000000000000e+00,5.000000000000000000e+00,5.000000000000000000e+00,4.017477989196777344e+00,4.214095115661621094e+00,5.000000000000000000e+00,4.208719730377197266e+00,4.224798202514648438e+00,5.000000000000000000e+00,5.000000000000000000e+00,5.000000000000000000e+00,5.000000000000000000e+00,5.000000000000000000e+00,5.000000000000000000e+00,5.000000000000000000e+00,5.000000000000000000e+00,5.000000000000000000e+00,5.000000000000000000e+00,5.000000000000000000e+00,4.865115165710449219e+00,4.673908233642578125e+00,4.497162818908691406e+00,4.333297729492187500e+00,4.180954456329345703e+00,4.038958549499511719e+00,3.906291246414184570e+00,3.782062530517578125e+00,3.665491342544555664e+00,3.555891275405883789e+00,3.452655076980590820e+00,3.355244636535644531e+00,3.263179302215576172e+00,3.176031827926635742e+00,3.093417644500732422e+00,3.014992713928222656e+00,2.940446138381958008e+00,2.869496583938598633e+00,2.801890373229980469e+00,2.737396240234375000e+00,2.675804853439331055e+00,2.616923809051513672e+00,2.560578346252441406e+00,2.506608009338378906e+00,2.454865932464599609e+00,2.405216932296752930e+00,2.357536315917968750e+00,2.311709165573120117e+00,2.267629623413085938e+00,2.225199937820434570e+00,2.184328794479370117e+00,2.144932031631469727e+00,2.106931209564208984e+00,2.070253133773803711e+00,2.034830570220947266e+00,2.000599622726440430e+00,1.967501521110534668e+00,1.935480475425720215e+00,1.904485106468200684e+00,1.874466776847839355e+00,1.845380187034606934e+00
5.000000000000000000e+00,5.000000000000000000e+00,5.000000000000000000e+00,5.000000000000000000e+00,5.000000000000000000e+00,5.000000000000000000e+00,5.000000000000000000e+00,5.000000000000000000e+00,5.000000000000000000e+00,5.000000000000000000e+00,5.000000000000000000e+00,5.000000000000000000e+00,5.000000000000000000e+00,5.000000000000000000e+00,5.000000000000000000e+00,5.000000000000000000e+00,5.000000000000000000e+00,5.000000000000000000e+00,5.000000000000000000e+00,5.000000000000000000e+00,5.000000000000000000e+00,5.000000000000000000e+00,5.000000000000000000e+00,4.257135391235351562e+00,4.222126483917236328e+00,5.000000000000000000e+00,4.197579383850097656e+00,4.198740959167480469e+00,5.000000000000000000e+00,5.000000000000000000e+00,5.000000000000000000e+00,5.000000000000000000e+00,5.000000000000000000e+00,5.000000000000000000e+00,5.000000000000000000e+00,5.000000000000000000e+00,5.000000000000000000e+00,5.000000000000000000e+00,5.000000000000000000e+00,4.865254878997802734e+00,4.674037456512451172e+00,4.497282505035400391e+00,4.333408355712890625e+00,4.181057453155517578e+00,4.039054870605468750e+00,3.906381130218505859e+00,3.782146930694580078e+00,3.665570497512817383e+00,3.555965900421142578e+00,3.452725410461425781e+00,3.355310916900634766e+00,3.263242244720458984e+00,3.176091194152832031e+00,3.093474149703979492e+00,3.015046358108520508e+00,2.940497159957885742e+00,2.869545221328735352e+00,2.801936626434326172e+00,2.737440586090087891e+00,2.675847053527832031e+00,2.616964340209960938e+00,2.560616970062255859e+00,2.506645202636718750e+00,2.454901456832885742e+00,2.405251026153564453e+00,2.357568979263305664e+00,2.311740636825561523e+00,2.267660140991210938e+00,2.225229263305664062e+00,2.184357166290283203e+00,2.144959211349487305e+00,2.106957435607910156e+00,2.070278406143188477e+00,2.034855127334594727e+00,2.000623226165771484e+00,1.967524409294128418e+00,1.935502529144287109e+00,1.904506564140319824e+00,1.874487519264221191e+00,1.845400214195251465e+00
5.000000000000000000e+00,5.000000000000000000e+00,5.000000000000000000e+00,5.000000000000000000e+00,5.000000000000000000e+00,5.000000000000000000e+00,5.000000000000000000e+00,5.000000000000000000e+00,5.000000000000000000e+00,5.000000000000000000e+00,5.000000000000000000e+00,5.000000000000000000e+00,5.000000000000000000e+00,5.000000000000000000e+00,5.000000000000000000e+00,5.000000000000000000e+00,5.000000000000000000e+00,5.000000000000000000e+00,5.000000000000000000e+00,5.000000000000000000e+00,5.000000000000000000e+00,5.000000000000000000e+00,5.000000000000000000e+00,4.301538467407226562e+00,4.225867271423339844e+00,5.000000000000000000e+00,4.186462879180908203e+00,4.176588535308837891e+00,5.000000000000000000e+00,5.000000000000000000e+00,5.000000000000000000e+00,5.000000000000000000e+00,5.000000000000000000e+00,5.000000000000000000e+00,5.000000000000000000e+00,5.000000000000000000e+00,5.000000000000000000e+00,5.000000000000000000e+00,5.000000000000000000e+00,4.865394592285156250e+00,4.674166202545166016e+00,4.497401714324951172e+00,4.333519458770751953e+00,4.181160449981689453e+00,4.039151191711425781e+00,3.906471729278564453e+00,3.782231330871582031e+00,3.665649890899658203e+00,3.556040525436401367e+00,3.452795743942260742e+00,3.355377435684204102e+00,3.263305187225341797e+00,3.176150798797607422e+00,3.093530654907226562e+00,3.015100002288818359e+00,2.940548181533813477e+00,2.869593620300292969e+00,2.801982879638671875e+00,2.737484693527221680e+00,2.675889492034912109e+00,2.617004632949829102e+00,2.560655593872070312e+00,2.506682157516479492e+00,2.454936981201171875e+00,2.405285120010375977e+00,2.357601881027221680e+00,2.311772108078002930e+00,2.267690420150756836e+00,2.225258350372314453e+00,2.184385299682617188e+00,2.144986391067504883e+00,2.106983423233032227e+00,2.070303678512573242e+00,2.034879446029663086e+00,2.000647068023681641e+00,1.967547297477722168e+00,1.935524702072143555e+00,1.904527902603149414e+00,1.874508261680603027e+00,1.845420360565185547e+00
5.000000000000000000e+00,5.000000000000000000e+00,5.000000000000000000e+00,5.000000000000000000e+00,5.000000000000000000e+00,5.000000000000000000e+00,5.000000000000000000e+00,5.000000000000000000e+00,5.000000000000000000e+00,5.000000000000000000e+00,5.000000000000000000e+00,5.000000000000000000e+00,5.000000000000000000e+00,5.000000000000000000e+00,5.000000000000000000e+00,5.000000000000000000e+00,5.000000000000000000e+00,5.000000000000000000e+00,5.000000000000000000e+00,5.000000000000000000e+00,5.000000000000000000e+00,5.000000000000000000e+00,5.000000000000000000e+00,4.321573257446289062e+00,4.235122203826904297e+00,5.000000000000000000e+00,4.202223300933837891e+00,4.191995143890380859e+00,5.000000000000000000e+00,5.000000000000000000e+00,5.000000000000000000e+00,5.000000000000000000e+00,5.000000000000000000e+00,5.000000000000000000e+00,5.000000000000000000e+00,5.000000000000000000e+00,5.000000000000000000e+00,5.000000000000000000e+00,5.000000000000000000e+00,4.865532875061035156e+00,4.674294948577880859e+00,4.497520923614501953e+00,4.333630084991455078e+00,4.181263923645019531e+00,4.039247512817382812e+00,3.906561851501464844e+00,3.782315731048583984e+00,3.665729284286499023e+00,3.556115150451660156e+00,3.452866077423095703e+00,3.355443954467773438e+00,3.263367891311645508e+00,3.176210403442382812e+00,3.093587160110473633e+00,3.015153646469116211e+00,2.940599203109741211e+00,2.869642257690429688e+00,2.802029371261596680e+00,2.737529039382934570e+00,2.675931692123413086e+00,2.617045164108276367e+00,2.560694217681884766e+00,2.506719350814819336e+00,2.454972505569458008e+00,2.405319213867187500e+00,2.357634544372558594e+00,2.311803817749023438e+00,2.267720699310302734e+00,2.225287675857543945e+00,2.184413433074951172e+00,2.145013332366943359e+00,2.107009649276733398e+00,2.070328950881958008e+00,2.034904003143310547e+00,2.000670671463012695e+00,1.967570066452026367e+00,1.935546755790710449e+00,1.904549360275268555e+00,1.874529004096984863e+00,1.845440387725830078e+00
5.000000000000000000e+00,5.000000000000000000e+00,5.000000000000000000e+00,5.000000000000000000e+00,5.000000000000000000e+00,5.000000000000000000e+00,5.000000000000000000e+00,5.000000000000000000e+00,5.000000000000000000e+00,5.000000000000000000e+00,5.000000000000000000e+00,5.000000000000000000e+00,5.000000000000000000e+00,5.000000000000000000e+00,5.000000000000000000e+00,5.000000000000000000e+00,5.000000000000000000e+00,5.000000000000000000e+00,5.000000000000000000e+00,5.000000000000000000e+00,5.000000000000000000e+00,5.000000000000000000e+00,5.000000000000000000e+00,4.333652496337890625e+00,4.315295696258544922e+00,5.000000000000000000e+00,4.214409351348876953e+00,4.230988979339599609e+00,5.000000000000000000e+00,5.000000000000000000e+00,5.000000000000000000e+00,5.000000000000000000e+00,5.000000000000000000e+00,5.000000000000000000e+00,5.000000000000000000e+00,5.000000000000000000e+00,5.000000000000000000e+00,5.000000000000000000e+00,5.000000000000000000e+00,4.865671634674072266e+00,4.674423694610595703e+00,4.497640609741210938e+00,4.333740711212158203e+00,4.181366920471191406e+00,4.039343833923339844e+00,3.906651735305786133e+00,3.782400131225585938e+00,3.665808439254760742e+00,3.556189775466918945e+00,3.452936410903930664e+00,3.355510234832763672e+00,3.263430833816528320e+00,3.176269769668579102e+00,3.093643665313720703e+00,3.015207529067993164e+00,2.940650224685668945e+00,2.869690895080566406e+00,2.802075624465942383e+00,2.737573146820068359e+00,2.675973892211914062e+00,2.617085456848144531e+00,2.560733079910278320e+00,2.506756305694580078e+00,2.455008029937744141e+00,2.405353307723999023e+00,2.357667446136474609e+00,2.311835289001464844e+00,2.267750978469848633e+00,2.225317001342773438e+00,2.184441566467285156e+00,2.145040512084960938e+00,2.107035875320434570e+00,2.070354223251342773e+00,2.034928321838378906e+00,2.000694274902343750e+00,1.967592954635620117e+00,1.935568928718566895e+00,1.904570698738098145e+00,1.874549746513366699e+00,1.845460534095764160e+00
5.000000000000000000e+00,5.000000000000000000e+00,5.000000000000000000e+00,5.000000000000000000e+00,5.000000000000000000e+00,5.000000000000000000e+00,5.000000000000000000e+00,5.000000000000000000e+00,5.000000000000000000e+00,5.000000000000000000e+00,5.000000000000000000e+00,5.000000000000000000e+00,5.000000000000000000e+00,5.000000000000000000e+00,5.000000000000000000e+00,5.000000000000000000e+00,5.000000000000000000e+00,5.000000000000000000e+00,5.000000000000000000e+00,5.000000000000000000e+00,5.000000000000000000e+00,5.000000000000000000e+00,5.000000000000000000e+00,4.407397270202636719e+00,5.000000000000000000e+00,5.000000000000000000e+00,4.212625980377197266e+00,4.235509395599365234e+00,5.000000000000000000e+00,5.000000000000000000e+00,5.000000000000000000e+00,5.000000000000000000e+00,5.000000000000000000e+00,5.000000000000000000e+00,5.000000000000000000e+00,5.000000000000000000e+00,5.000000000000000000e+00,5.000000000000000000e+00,5.000000000000000000e+00,4.865810394287109375e+00,4.674551010131835938e+00,4.497759819030761719e+00,4.333851814270019531e+00,4.181469917297363281e+00,4.039439678192138672e+00,3.906741857528686523e+00,3.782484531402587891e+00,3.665887832641601562e+00,3.556264400482177734e+00,3.453006982803344727e+00,3.355576753616333008e+00,3.263493537902832031e+00,3.176329374313354492e+00,3.093700170516967773e+00,3.015261173248291016e+00,2.940701246261596680e+00,2.869739532470703125e+00,2.802121877670288086e+00,2.737617492675781250e+00,2.676016092300415039e+00,2.617125988006591797e+00,2.560771703720092773e+00,2.506793498992919922e+00,2.455043792724609375e+00,2.405387639999389648e+00,2.357700109481811523e+00,2.311866760253906250e+00,2.267781496047973633e+00,2.225346088409423828e+00,2.184469699859619141e+00,2.145067691802978516e+00,2.107062101364135742e+00,2.070379495620727539e+00,2.034952878952026367e+00,2.000717878341674805e+00,1.967615723609924316e+00,1.935590982437133789e+00,1.904592156410217285e+00,1.874570488929748535e+00,1.845480680465698242e+00
5.000000000000000000e+00,5.000000000000000000e+00,5.000000000000000000e+00,5.000000000000000000e+00,5.000000000000000000e+00,5.000000000000000000e+00,5.000000000000000000e+00,5.000000000000000000e+00,5.000000000000000000e+00,5.000000000000000000e+00,5.000000000000000000e+00,5.000000000000000000e+00,5.000000000000000000e+00,5.000000000000000000e+00,5.000000000000000000e+00,5.000000000000000000e+00,5.000000000000000000e+00,5.000000000000000000e+00,5.000000000000000000e+00,5.000000000000000000e+00,5.000000000000000000e+00,5.000000000000000000e+00,4.652908802032470703e+00,4.507843971252441406e+00,5.000000000000000000e+00,5.000000000000000000e+00,4.213440895080566406e+00,5.000000000000000000e+00,5.000000000000000000e+00,5.000000000000000000e+00,5.000000000000000000e+00,5.000000000000000000e+00,5.000000000000000000e+00,5.000000000000000000e+00,5.000000000000000000e+00,5.000000000000000000e+00,5.000000000000000000e+00,5.000000000000000000e+00,5.000000000000000000e+00,4.865949153900146484e+00,4.674679279327392578e+00,4.497877597808837891e+00,4.333962440490722656e+00,4.181573390960693359e+00,4.039535999298095703e+00,3.906831979751586914e+00,3.782568931579589844e+00,3.665966987609863281e+00,3.556339025497436523e+00,3.453077316284179688e+00,3.355643272399902344e+00,3.263556480407714844e+00,3.176388978958129883e+00,3.093756675720214844e+00,3.015314817428588867e+00,2.940752267837524414e+00,2.869788169860839844e+00,2.802168369293212891e+00,2.737661600112915039e+00,2.676058292388916016e+00,2.617166280746459961e+00,2.560810327529907227e+00,2.506830453872680664e+00,2.455079317092895508e+00,2.405421733856201172e+00,2.357733011245727539e+00,2.311898231506347656e+00,2.267811775207519531e+00,2.225375413894653320e+00,2.184497833251953125e+00,2.145094871520996094e+00,2.107088327407836914e+00,2.070405006408691406e+00,2.034977197647094727e+00,2.000741481781005859e+00,1.967638611793518066e+00,1.935613155364990234e+00,1.904613614082336426e+00,1.874591231346130371e+00,1.845500707626342773e+00
5.000000000000000000e+00,5.000000000000000000e+00,5.000000000000000000e+00,5.000000000000000000e+00,5.000000000000000000e+00,5.000000000000000000e+00,5.000000000000000000e+00,5.000000000000000000e+00,5.000000000000000000e+00,5.000000000000000000e+00,5.000000000000000000e+00,5.000000000000000000e+00,5.000000000000000000e+00,5.000000000000000000e+00,5.000000000000000000e+00,5.000000000000000000e+00,5.000000000000000000e+00,5.000000000000000000e+00,5.000000000000000000e+00,5.000000000000000000e+00,5.000000000000000000e+00,5.000000000000000000e+00,4.603847980499267578e+00,5.000000000000000000e+00,5.000000000000000000e+00,5.000000000000000000e+00,4.218690395355224609e+00,5.000000000000000000e+00,5.000000000000000000e+00,5.000000000000000000e+00,5.000000000000000000e+00,5.000000000000000000e+00,5.000000000000000000e+00,5.000000000000000000e+00,5.000000000000000000e+00,5.000000000000000000e+00,5.000000000000000000e+00,5.000000000000000000e+00,5.000000000000000000e+00,4.866087436676025391e+00,4.674807071685791016e+00,4.497996330261230469e+00,4.334072589874267578e+00,4.181676387786865234e+00,4.039632320404052734e+00,3.906922101974487305e+00,3.782653331756591797e+00,3.666046380996704102e+00,3.556413650512695312e+00,3.453147888183593750e+00,3.355709552764892578e+00,3.263619422912597656e+00,3.176448345184326172e+00,3.093812942504882812e+00,3.015368461608886719e+00,2.940803289413452148e+00,2.869836807250976562e+00,2.802214622497558594e+00,2.737705945968627930e+00,2.676100730895996094e+00,2.617206811904907227e+00,2.560849189758300781e+00,2.506867647171020508e+00,2.455115079879760742e+00,2.405455827713012695e+00,2.357765913009643555e+00,2.311929941177368164e+00,2.267842054367065430e+00,2.225404500961303711e+00,2.184525966644287109e+00,2.145122051239013672e+00,2.107114553451538086e+00,2.070430278778076172e+00,2.035001754760742188e+00,2.000765085220336914e+00,1.967661499977111816e+00,1.935635209083557129e+00,1.904634952545166016e+00,1.874611973762512207e+00,1.845520853996276855e+00
5.000000000000000000e+00,5.000000000000000000e+00,5.000000000000000000e+00,5.000000000000000000e+00,5.000000000000000000e+00,5.000000000000000000e+00,5.000000000000000000e+00,5.000000000000000000e+00,5.000000000000000000e+00,5.000000000000000000e+00,5.000000000000000000e+00,5.000000000000000000e+00,5.000000000000000000e+00,5.000000000000000000e+00,5.000000000000000000e+00,5.000000000000000000e+00,5.000000000000000000e+00,5.000000000000000000e+00,5.000000000000000000e+00,5.000000000000000000e+00,5.000000000000000000e+00,5.000000000000000000e+00,4.593749046325683594e+00,4.619969367980957031e+00,5.000000000000000000e+00,5.000000000000000000e+00,4.233412742614746094e+00,5.000000000000000000e+00,5.000000000000000000e+00,5.000000000000000000e+00,5.000000000000000000e+00,5.000000000000000000e+00,5.000000000000000000e+00,5.000000000000000000e+00,5.000000000000000000e+00,5.000000000000000000e+00,5.000000000000000000e+00,5.000000000000000000e+00,5.000000000000000000e+00,4.866226196289062500e+00,4.674935340881347656e+00,4.498114585876464844e+00,4.334182739257812500e+00,4.181778907775878906e+00,4.039728641510009766e+00,3.907011985778808594e+00,3.782737970352172852e+00,3.666125774383544922e+00,3.556488275527954102e+00,3.453218221664428711e+00,3.355776071548461914e+00,3.263682126998901367e+00,3.176507949829101562e+00,3.093869447708129883e+00,3.015422105789184570e+00,2.940854310989379883e+00,2.869885206222534180e+00,2.802260875701904297e+00,2.737750053405761719e+00,2.676142930984497070e+00,2.617247104644775391e+00,2.560887813568115234e+00,2.506904602050781250e+00,2.455150604248046875e+00,2.405489921569824219e+00,2.357798576354980469e+00,2.311961412429809570e+00,2.267872571945190430e+00,2.225433826446533203e+00,2.184554100036621094e+00,2.145149230957031250e+00,2.107140541076660156e+00,2.070455551147460938e+00,2.035026073455810547e+00,2.000788688659667969e+00,1.967684268951416016e+00,1.935657382011413574e+00,1.904656410217285156e+00,1.874632716178894043e+00,1.845540881156921387e+00
4.875049114227294922e+00,4.873837947845458984e+00,4.872627258300781250e+00,4.871417522430419922e+00,4.870207786560058594e+00,4.868999481201171875e+00,4.867791175842285156e+00,4.866583824157714844e+00,4.865376472473144531e+00,4.864170551300048828e+00,4.862964630126953125e+00,4.861759662628173828e+00,4.860554695129394531e+00,4.859350681304931641e+00,4.858147621154785156e+00,4.856945037841796875e+00,4.855742454528808594e+00,4.854540824890136719e+00,4.853340148925781250e+00,4.852139949798583984e+00,4.850940227508544922e+00,4.849740982055664062e+00,4.848542213439941406e+00,4.847343921661376953e+00,4.846147060394287109e+00,4.844950199127197266e+00,4.143774986267089844e+00,4.197212219238281250e+00,4.841362953186035156e+00,4.840168476104736328e+00,4.838974475860595703e+00,4.837781429290771484e+00,4.836588382720947266e+00,4.835396289825439453e+00,4.834205150604248047e+00,4.833014011383056641e+00,4.831823348999023438e+00,4.830633640289306641e+00,4.829444408416748047e+00,4.828256130218505859e+00,4.675063133239746094e+00,4.498233318328857422e+00,4.334292411804199219e+00,4.181881427764892578e+00,4.039824962615966797e+00,3.907102108001708984e+00,3.782822370529174805e+00,3.666204929351806641e+00,3.556562900543212891e+00,3.453288793563842773e+00,3.355842590332031250e+00,3.263745069503784180e+00,3.176567554473876953e+00,3.093925952911376953e+00,3.015475749969482422e+00,2.940905332565307617e+00,2.869933843612670898e+00,2.802307367324829102e+00,2.737794399261474609e+00,2.676185131072998047e+00,2.617287635803222656e+00,2.560926437377929688e+00,2.506941795349121094e+00,2.455186128616333008e+00,2.405524015426635742e+00,2.357831478118896484e+00,2.311992883682250977e+00,2.267902851104736328e+00,2.225462913513183594e+00,2.184582233428955078e+00,2.145176410675048828e+00,2.107166767120361328e+00,2.070480823516845703e+00,2.035050630569458008e+00,2.000812292098999023e+00,1.967707157135009766e+00,1.935679435729980469e+00,1.904677748680114746e+00,1.874653458595275879e+00,1.845561027526855469e+00
3.777843475341796875e+00,3.777116298675537109e+00,3.776388883590698242e+00,3.775662183761596680e+00,3.774935483932495117e+00,3.774209499359130859e+00,3.773483514785766602e+00,3.772757768630981445e+00,3.772032499313354492e+00,3.771306991577148438e+00,3.770582437515258789e+00,3.769857883453369141e+00,3.769133329391479492e+00,3.768409490585327148e+00,3.767685651779174805e+00,3.766962289810180664e+00,3.766239404678344727e+00,3.765516281127929688e+00,3.764793634414672852e+00,3.764070987701416016e+00,3.763349056243896484e+00,3.762627601623535156e+00,3.761905908584594727e+00,3.761184692382812500e+00,3.760463476181030273e+00,3.759742975234985352e+00,3.759022712707519531e+00,3.758302450180053711e+00,3.757582664489746094e+00,3.756862878799438477e+00,3.756143808364868164e+00,3.755424737930297852e+00,3.754705905914306641e+00,3.753987550735473633e+00,3.753268957138061523e+00,3.752551317214965820e+00,3.751833677291870117e+00,3.751116037368774414e+00,3.750399112701416016e+00,3.749682188034057617e+00,3.748965740203857422e+00,3.748249530792236328e+00,3.747533321380615234e+00,3.746817827224731445e+00,3.746102094650268555e+00,3.745387077331542969e+00,3.744672298431396484e+00,3.666284322738647461e+00,3.556637525558471680e+00,3.453359127044677734e+00,3.355909109115600586e+00,3.263807773590087891e+00,3.176627159118652344e+00,3.093982458114624023e+00,3.015529394149780273e+00,2.940956354141235352e+00,2.869982481002807617e+00,2.802353620529174805e+00,2.737838745117187500e+00,2.676227331161499023e+00,2.617327928543090820e+00,2.560965299606323242e+00,2.506978750228881836e+00,2.455221652984619141e+00,2.405558347702026367e+00,2.357864141464233398e+00,2.312024593353271484e+00,2.267933368682861328e+00,2.225492238998413086e+00,2.184610366821289062e+00,2.145203590393066406e+00,2.107192993164062500e+00,2.070506095886230469e+00,2.035074949264526367e+00,2.000835895538330078e+00,1.967730045318603516e+00,1.935701608657836914e+00,1.904699206352233887e+00,1.874674201011657715e+00,1.845581173896789551e+00
3.083788871765136719e+00,3.083303928375244141e+00,3.082819700241088867e+00,3.082335472106933594e+00,3.081851005554199219e+00,3.081367015838623047e+00,3.080883026123046875e+00,3.080399274826049805e+00,3.079915761947631836e+00,3.079432249069213867e+00,3.078948974609375000e+00,3.078465700149536133e+00,3.077982902526855469e+00,3.077500104904174805e+00,3.077017307281494141e+00,3.076534748077392578e+00,3.076052188873291016e+00,3.075570106506347656e+00,3.075088024139404297e+00,3.074605941772460938e+00,3.074124336242675781e+00,3.073642492294311523e+00,3.073161125183105469e+00,3.072679758071899414e+00,3.072198390960693359e+00,3.071717500686645508e+00,3.071236610412597656e+00,3.070755958557128906e+00,3.070275306701660156e+00,3.069794893264770508e+00,3.069314479827880859e+00,3.068834543228149414e+00,3.068354368209838867e+00,3.067874670028686523e+00,3.067394971847534180e+00,3.066915512084960938e+00,3.066436290740966797e+00,3.065956830978393555e+00,3.065477848052978516e+00,3.064998865127563477e+00,3.064520120620727539e+00,3.064041614532470703e+00,3.063562870025634766e+00,3.063084602355957031e+00,3.062606334686279297e+00,3.062128543853759766e+00,3.061650753021240234e+00,3.061172723770141602e+00,3.060695171356201172e+00,3.060217618942260742e+00,3.059740543365478516e+00,3.059263467788696289e+00,3.058786153793334961e+00,3.058309555053710938e+00,3.015583038330078125e+00,2.941007375717163086e+00,2.870031118392944336e+00,2.802399873733520508e+00,2.737882852554321289e+00,2.676269769668579102e+00,2.617368459701538086e+00,2.561003923416137695e+00,2.507015943527221680e+00,2.455257177352905273e+00,2.405592441558837891e+00,2.357897043228149414e+00,2.312056064605712891e+00,2.267963647842407227e+00,2.225521564483642578e+00,2.184638738632202148e+00,2.145230531692504883e+00,2.107219219207763672e+00,2.070531368255615234e+00,2.035099506378173828e+00,2.000859498977661133e+00,1.967752814292907715e+00,1.935723662376403809e+00,1.904720544815063477e+00,1.874694943428039551e+00,1.845601201057434082e+00
2.605173826217651367e+00,2.604827642440795898e+00,2.604481935501098633e+00,2.604136228561401367e+00,2.603790521621704102e+00,2.603445053100585938e+00,2.603099584579467773e+00,2.602754354476928711e+00,2.602409124374389648e+00,2.602063894271850586e+00,2.601718664169311523e+00,2.601373672485351562e+00,2.601028919219970703e+00,2.600684165954589844e+00,2.600339174270629883e+00,2.599994659423828125e+00,2.599650144577026367e+00,2.599305629730224609e+00,2.598961353302001953e+00,2.598617076873779297e+00,2.598272800445556641e+00,2.597928762435913086e+00,2.597584724426269531e+00,2.597240924835205078e+00,2.596897125244140625e+00,2.596553325653076172e+00,2.596209764480590820e+00,2.595866203308105469e+00,2.595522880554199219e+00,2.595179319381713867e+00,2.594836235046386719e+00,2.594492912292480469e+00,2.594149827957153320e+00,2.593806982040405273e+00,2.593463897705078125e+00,2.593121290206909180e+00,2.592778444290161133e+00,2.592435836791992188e+00,2.592093467712402344e+00,2.591750860214233398e+00,2.591408491134643555e+00,2.591066122055053711e+00,2.590723991394042969e+00,2.590382099151611328e+00,2.590039968490600586e+00,2.589698076248168945e+00,2.589356184005737305e+00,2.589014530181884766e+00,2.588673114776611328e+00,2.588331460952758789e+00,2.587990045547485352e+00,2.587648630142211914e+00,2.587307453155517578e+00,2.586966276168823242e+00,2.586625099182128906e+00,2.586284160614013672e+00,2.585942983627319336e+00,2.585602283477783203e+00,2.585261821746826172e+00,2.584920883178710938e+00,2.584580421447753906e+00,2.561042547225952148e+00,2.507052898406982422e+00,2.455292940139770508e+00,2.405626535415649414e+00,2.357929944992065430e+00,2.312087535858154297e+00,2.267994165420532227e+00,2.225550651550292969e+00,2.184666872024536133e+00,2.145257711410522461e+00,2.107245445251464844e+00,2.070556879043579102e+00,2.035123825073242188e+00,2.000883102416992188e+00,1.967775702476501465e+00,1.935745716094970703e+00,1.904742002487182617e+00,1.874715685844421387e+00,1.845621347427368164e+00
2.255197048187255859e+00,2.254936456680297852e+00,2.254675865173339844e+00,2.254415273666381836e+00,2.254154682159423828e+00,2.253894329071044922e+00,2.253633975982666016e+00,2.253373622894287109e+00,2.253113269805908203e+00,2.252853155136108398e+00,2.252593040466308594e+00,2.252332925796508789e+00,2.252073049545288086e+00,2.251812934875488281e+00,2.251553058624267578e+00,2.251293420791625977e+00,2.251033544540405273e+00,2.250773906707763672e+00,2.250514268875122070e+00,2.250254631042480469e+00,2.249994993209838867e+00,2.249735593795776367e+00,2.249476194381713867e+00,2.249217271804809570e+00,2.248959541320800781e+00,2.248701810836791992e+00,2.248443841934204102e+00,2.248186349868774414e+00,2.247928619384765625e+00,2.247671127319335938e+00,2.247413635253906250e+00,2.247156143188476562e+00,2.246898889541625977e+00,2.246641397476196289e+00,2.246384382247924805e+00,2.246127128601074219e+00,2.245869874954223633e+00,2.245612859725952148e+00,2.245355844497680664e+00,2.245098829269409180e+00,2.244842052459716797e+00,2.244585037231445312e+00,2.244328260421752930e+00,2.244071722030639648e+00,2.243814945220947266e+00,2.243558406829833984e+00,2.243301630020141602e+00,2.243045330047607422e+00,2.242789030075073242e+00,2.242532491683959961e+00,2.242276191711425781e+00,2.242019891738891602e+00,2.241763830184936523e+00,2.241507768630981445e+00,2.241251468658447266e+00,2.240995407104492188e+00,2.240739345550537109e+00,2.240483522415161133e+00,2.240227937698364258e+00,2.239971876144409180e+00,2.239716291427612305e+00,2.239460468292236328e+00,2.239204883575439453e+00,2.238949537277221680e+00,2.238693952560424805e+00,2.238438606262207031e+00,2.238183021545410156e+00,2.237927675247192383e+00,2.225579977035522461e+00,2.184695005416870117e+00,2.145284891128540039e+00,2.107271671295166016e+00,2.070582151412963867e+00,2.035148382186889648e+00,2.000906705856323242e+00,1.967798590660095215e+00,1.935767889022827148e+00,1.904763460159301758e+00,1.874736428260803223e+00,1.845641374588012695e+00
1.988179564476013184e+00,1.987977027893066406e+00,1.987774372100830078e+00,1.987571954727172852e+00,1.987369418144226074e+00,1.987167000770568848e+00,1.986964583396911621e+00,1.986762285232543945e+00,1.986559987068176270e+00,1.986357688903808594e+00,1.986155390739440918e+00,1.985953211784362793e+00,1.985751152038574219e+00,1.985548973083496094e+00,1.985346913337707520e+00,1.985144972801208496e+00,1.984942913055419922e+00,1.984740972518920898e+00,1.984539151191711426e+00,1.984337210655212402e+00,1.984135389328002930e+00,1.983933687210083008e+00,1.983731865882873535e+00,1.983530163764953613e+00,1.983328580856323242e+00,1.983126878738403320e+00,1.982925415039062500e+00,1.982723832130432129e+00,1.982522368431091309e+00,1.982320904731750488e+00,1.982119441032409668e+00,1.981918096542358398e+00,1.981716752052307129e+00,1.981515526771545410e+00,1.981314301490783691e+00,1.981113076210021973e+00,1.980911850929260254e+00,1.980710744857788086e+00,1.980509638786315918e+00,1.980308651924133301e+00,1.980107665061950684e+00,1.979906678199768066e+00,1.979705691337585449e+00,1.979504823684692383e+00,1.979304075241088867e+00,1.979103207588195801e+00,1.978902459144592285e+00,1.978701710700988770e+00,1.978501081466674805e+00,1.978300452232360840e+00,1.978099822998046875e+00,1.977899312973022461e+00,1.977698802947998047e+00,1.977498292922973633e+00,1.977297902107238770e+00,1.977097392082214355e+00,1.976897120475769043e+00,1.976696729660034180e+00,1.976496458053588867e+00,1.976296305656433105e+00,1.976096034049987793e+00,1.975895881652832031e+00,1.975695848464965820e+00,1.975495815277099609e+00,1.975295782089233398e+00,1.975095748901367188e+00,1.974895834922790527e+00,1.974695920944213867e+00,1.974496006965637207e+00,1.974296212196350098e+00,1.974096417427062988e+00,1.973896622657775879e+00,1.973696947097778320e+00,1.973497271537780762e+00,1.973297715187072754e+00,1.967821359634399414e+00,1.935789942741394043e+00,1.904784798622131348e+00,1.874757170677185059e+00,1.845661520957946777e+00
1.777698516845703125e+00,1.777536511421203613e+00,1.777374505996704102e+00,1.777212619781494141e+00,1.777050733566284180e+00,1.776888847351074219e+00,1.776727080345153809e+00,1.776565313339233398e+00,1.776403546333312988e+00,1.776241779327392578e+00,1.776080012321472168e+00,1.775918364524841309e+00,1.775756716728210449e+00,1.775595068931579590e+00,1.775433540344238281e+00,1.775271892547607422e+00,1.775110363960266113e+00,1.774948835372924805e+00,1.774787425994873047e+00,1.774626016616821289e+00,1.774464488029479980e+00,1.774303197860717773e+00,1.774141788482666016e+00,1.773980498313903809e+00,1.773819208145141602e+00,1.773657917976379395e+00,1.773496627807617188e+00,1.773335456848144531e+00,1.773174285888671875e+00,1.773013114929199219e+00,1.772851943969726562e+00,1.772690892219543457e+00,1.772529840469360352e+00,1.772368788719177246e+00,1.772207736968994141e+00,1.772046804428100586e+00,1.771885871887207031e+00,1.771724939346313477e+00,1.771564006805419922e+00,1.771403193473815918e+00,1.771242260932922363e+00,1.771081447601318359e+00,1.770920753479003906e+00,1.770759940147399902e+00,1.770599246025085449e+00,1.770438551902770996e+00,1.770277857780456543e+00,1.770117282867431641e+00,1.769956707954406738e+00,1.769796133041381836e+00,1.769635558128356934e+00,1.769475102424621582e+00,1.769314527511596680e+00,1.769154071807861328e+00,1.768993735313415527e+00,1.768833279609680176e+00,1.768672943115234375e+00,1.768512606620788574e+00,1.768352270126342773e+00,1.768191933631896973e+00,1.768031716346740723e+00,1.767871499061584473e+00,1.767711281776428223e+00,1.767551183700561523e+00,1.767390966415405273e+00,1.767230868339538574e+00,1.767070889472961426e+00,1.766910791397094727e+00,1.766750812530517578e+00,1.766590833663940430e+00,1.766430854797363281e+00,1.766270875930786133e+00,1.766111016273498535e+00,1.765951156616210938e+00,1.765791296958923340e+00,1.765631437301635742e+00,1.765471696853637695e+00,1.765311956405639648e+00,1.765152215957641602e+00,1.764992594718933105e+00
1.607516765594482422e+00,1.607384204864501953e+00,1.607251882553100586e+00,1.607119441032409668e+00,1.606986999511718750e+00,1.606854677200317383e+00,1.606722354888916016e+00,1.606590032577514648e+00,1.606457710266113281e+00,1.606325387954711914e+00,1.606193184852600098e+00,1.606060981750488281e+00,1.605928778648376465e+00,1.605796575546264648e+00,1.605664372444152832e+00,1.605532288551330566e+00,1.605400085449218750e+00,1.605268001556396484e+00,1.605135917663574219e+00,1.605003833770751953e+00,1.604871869087219238e+00,1.604739785194396973e+00,1.604607820510864258e+00,1.604475855827331543e+00,1.604343891143798828e+00,1.604211926460266113e+00,1.604080080986022949e+00,1.603948235511779785e+00,1.603816270828247070e+00,1.603684425354003906e+00,1.603552699089050293e+00,1.603420853614807129e+00,1.603289127349853516e+00,1.603157281875610352e+00,1.603025555610656738e+00,1.602893829345703125e+00,1.602762222290039062e+00,1.602630496025085449e+00,1.602498888969421387e+00,1.602367281913757324e+00,1.602235674858093262e+00,1.602104067802429199e+00,1.601972460746765137e+00,1.601840972900390625e+00,1.601709485054016113e+00,1.601577997207641602e+00,1.601446509361267090e+00,1.601315021514892578e+00,1.601183652877807617e+00,1.601052165031433105e+00,1.600920796394348145e+00,1.600789427757263184e+00,1.600658059120178223e+00,1.600526809692382812e+00,1.600395441055297852e+00,1.600264191627502441e+00,1.600132942199707031e+00,1.600001692771911621e+00,1.599870443344116211e+00,1.599739313125610352e+00,1.599608063697814941e+00,1.599476933479309082e+00,1.599345803260803223e+00,1.599214673042297363e+00,1.599083662033081055e+00,1.598952531814575195e+00,1.598821520805358887e+00,1.598690509796142578e+00,1.598559498786926270e+00,1.598428487777709961e+00,1.598297595977783203e+00,1.598166584968566895e+00,1.598035693168640137e+00,1.597904801368713379e+00,1.597774028778076172e+00,1.597643136978149414e+00,1.597512245178222656e+00,1.597381472587585449e+00,1.597250699996948242e+00,1.597119927406311035e+00
1.467071652412414551e+00,1.466961383819580078e+00,1.466851115226745605e+00,1.466740846633911133e+00,1.466630578041076660e+00,1.466520309448242188e+00,1.466410040855407715e+00,1.466299772262573242e+00,1.466189622879028320e+00,1.466079473495483398e+00,1.465969204902648926e+00,1.465859055519104004e+00,1.465748906135559082e+00,1.465638875961303711e+00,1.465528726577758789e+00,1.465418696403503418e+00,1.465308547019958496e+00,1.465198516845703125e+00,1.465088486671447754e+00,1.464978456497192383e+00,1.464868426322937012e+00,1.464758515357971191e+00,1.464648485183715820e+00,1.464538574218750000e+00,1.464428544044494629e+00,1.464318633079528809e+00,1.464208722114562988e+00,1.464098930358886719e+00,1.463989019393920898e+00,1.463879108428955078e+00,1.463769316673278809e+00,1.463659524917602539e+00,1.463549733161926270e+00,1.463439941406250000e+00,1.463330149650573730e+00,1.463220357894897461e+00,1.463110566139221191e+00,1.463000893592834473e+00,1.462891221046447754e+00,1.462781548500061035e+00,1.462671875953674316e+00,1.462562203407287598e+00,1.462452530860900879e+00,1.462342858314514160e+00,1.462233304977416992e+00,1.462123751640319824e+00,1.462014198303222656e+00,1.461904525756835938e+00,1.461795091629028320e+00,1.461685538291931152e+00,1.461575984954833984e+00,1.461466550827026367e+00,1.461356997489929199e+00,1.461247563362121582e+00,1.461138129234313965e+00,1.461028695106506348e+00,1.460919260978698730e+00,1.460809946060180664e+00,1.460700511932373047e+00,1.460591197013854980e+00,1.460481762886047363e+00,1.460372447967529297e+00,1.460263133049011230e+00,1.460153937339782715e+00,1.460044622421264648e+00,1.459935307502746582e+00,1.459826111793518066e+00,1.459716916084289551e+00,1.459607601165771484e+00,1.459498405456542969e+00,1.459389209747314453e+00,1.459280133247375488e+00,1.459170937538146973e+00,1.459061861038208008e+00,1.458952665328979492e+00,1.458843588829040527e+00,1.458734512329101562e+00,1.458625435829162598e+00,1.458516359329223633e+00,1.458407402038574219e+00
1.349195599555969238e+00,1.349102258682250977e+00,1.349008917808532715e+00,1.348915696144104004e+00,1.348822474479675293e+00,1.348729133605957031e+00,1.348635911941528320e+00,1.348542690277099609e+00,1.348449468612670898e+00,1.348356246948242188e+00,1.348263144493103027e+00,1.348169922828674316e+00,1.348076820373535156e+00,1.347983598709106445e+00,1.347890496253967285e+00,1.347797393798828125e+00,1.347704291343688965e+00,1.347611188888549805e+00,1.347518086433410645e+00,1.347424983978271484e+00,1.347332000732421875e+00,1.347238898277282715e+00,1.347145915031433105e+00,1.347052931785583496e+00,1.346959948539733887e+00,1.346866846084594727e+00,1.346773862838745117e+00,1.346680998802185059e+00,1.346588015556335449e+00,1.346495032310485840e+00,1.346402168273925781e+00,1.346309185028076172e+00,1.346216320991516113e+00,1.346123456954956055e+00,1.346030473709106445e+00,1.345937609672546387e+00,1.345844864845275879e+00,1.345752000808715820e+00,1.345659136772155762e+00,1.345566272735595703e+00,1.345473527908325195e+00,1.345380783081054688e+00,1.345287919044494629e+00,1.345195174217224121e+00,1.345102429389953613e+00,1.345009684562683105e+00,1.344916939735412598e+00,1.344824314117431641e+00,1.344731569290161133e+00,1.344638824462890625e+00,1.344546198844909668e+00,1.344453573226928711e+00,1.344360828399658203e+00,1.344268202781677246e+00,1.344175577163696289e+00,1.344082951545715332e+00,1.343990445137023926e+00,1.343897819519042969e+00,1.343805193901062012e+00,1.343712687492370605e+00,1.343620181083679199e+00,1.343527555465698242e+00,1.343435049057006836e+00,1.343342542648315430e+00,1.343250036239624023e+00,1.343157649040222168e+00,1.343065142631530762e+00,1.342972636222839355e+00,1.342880249023437500e+00,1.342787742614746094e+00,1.342695355415344238e+00,1.342602968215942383e+00,1.342510581016540527e+00,1.342418193817138672e+00,1.342325806617736816e+00,1.342233419418334961e+00,1.342141151428222656e+00,1.342048764228820801e+00,1.341956496238708496e+00,1.341864109039306641e+00
1.248852849006652832e+00,1.248772978782653809e+00,1.248692989349365234e+00,1.248613119125366211e+00,1.248533248901367188e+00,1.248453259468078613e+00,1.248373389244079590e+00,1.248293519020080566e+00,1.248213648796081543e+00,1.248133778572082520e+00,1.248053908348083496e+00,1.247974157333374023e+00,1.247894287109375000e+00,1.247814416885375977e+00,1.247734665870666504e+00,1.247654795646667480e+00,1.247575044631958008e+00,1.247495293617248535e+00,1.247415542602539062e+00,1.247335791587829590e+00,1.247256040573120117e+00,1.247176289558410645e+00,1.247096538543701172e+00,1.247016787528991699e+00,1.246937155723571777e+00,1.246857404708862305e+00,1.246777772903442383e+00,1.246698021888732910e+00,1.246618390083312988e+00,1.246538758277893066e+00,1.246459126472473145e+00,1.246379494667053223e+00,1.246299862861633301e+00,1.246220231056213379e+00,1.246140599250793457e+00,1.246060967445373535e+00,1.245981454849243164e+00,1.245901823043823242e+00,1.245822310447692871e+00,1.245742678642272949e+00,1.245663166046142578e+00,1.245583653450012207e+00,1.245504140853881836e+00,1.245424628257751465e+00,1.245345115661621094e+00,1.245265603065490723e+00,1.245186090469360352e+00,1.245106697082519531e+00,1.245027184486389160e+00,1.244947791099548340e+00,1.244868278503417969e+00,1.244788885116577148e+00,1.244709491729736328e+00,1.244630098342895508e+00,1.244550585746765137e+00,1.244471192359924316e+00,1.244391918182373047e+00,1.244312524795532227e+00,1.244233131408691406e+00,1.244153738021850586e+00,1.244074463844299316e+00,1.243995070457458496e+00,1.243915796279907227e+00,1.243836522102355957e+00,1.243757128715515137e+00,1.243677854537963867e+00,1.243598580360412598e+00,1.243519306182861328e+00,1.243440032005310059e+00,1.243360877037048340e+00,1.243281602859497070e+00,1.243202328681945801e+00,1.243123173713684082e+00,1.243043899536132812e+00,1.242964744567871094e+00,1.242885589599609375e+00,1.242806434631347656e+00,1.242727160453796387e+00,1.242648005485534668e+00,1.242568850517272949e+00
1.162402510643005371e+00,1.162333250045776367e+00,1.162263989448547363e+00,1.162194728851318359e+00,1.162125468254089355e+00,1.162056207656860352e+00,1.161987066268920898e+00,1.161917805671691895e+00,1.161848664283752441e+00,1.161779403686523438e+00,1.161710262298583984e+00,1.161641120910644531e+00,1.161571979522705078e+00,1.161502718925476074e+00,1.161433577537536621e+00,1.161364436149597168e+00,1.161295294761657715e+00,1.161226272583007812e+00,1.161157131195068359e+00,1.161087989807128906e+00,1.161018848419189453e+00,1.160949826240539551e+00,1.160880684852600098e+00,1.160811662673950195e+00,1.160742521286010742e+00,1.160673499107360840e+00,1.160604476928710938e+00,1.160535454750061035e+00,1.160466313362121582e+00,1.160397291183471680e+00,1.160328269004821777e+00,1.160259246826171875e+00,1.160190343856811523e+00,1.160121321678161621e+00,1.160052299499511719e+00,1.159983396530151367e+00,1.159914374351501465e+00,1.159845352172851562e+00,1.159776449203491211e+00,1.159707546234130859e+00,1.159638524055480957e+00,1.159569621086120605e+00,1.159500718116760254e+00,1.159431815147399902e+00,1.159362912178039551e+00,1.159294009208679199e+00,1.159225106239318848e+00,1.159156203269958496e+00,1.159087300300598145e+00,1.159018516540527344e+00,1.158949613571166992e+00,1.158880829811096191e+00,1.158811926841735840e+00,1.158743143081665039e+00,1.158674240112304688e+00,1.158605456352233887e+00,1.158536672592163086e+00,1.158467888832092285e+00,1.158399105072021484e+00,1.158330321311950684e+00,1.158261537551879883e+00,1.158192753791809082e+00,1.158124089241027832e+00,1.158055305480957031e+00,1.157986521720886230e+00,1.157917857170104980e+00,1.157849073410034180e+00,1.157780408859252930e+00,1.157711625099182129e+00,1.157642960548400879e+00,1.157574295997619629e+00,1.157505631446838379e+00,1.157436966896057129e+00,1.157368302345275879e+00,1.157299637794494629e+00,1.157230973243713379e+00,1.157162308692932129e+00,1.157093644142150879e+00,1.157025098800659180e+00,1.156956434249877930e+00
1.087145924568176270e+00,1.087085366249084473e+00,1.087024807929992676e+00,1.086964249610900879e+00,1.086903691291809082e+00,1.086843132972717285e+00,1.086782574653625488e+00,1.086722016334533691e+00,1.086661577224731445e+00,1.086601018905639648e+00,1.086540460586547852e+00,1.086480021476745605e+00,1.086419463157653809e+00,1.086358904838562012e+00,1.086298465728759766e+00,1.086238026618957520e+00,1.086177468299865723e+00,1.086117029190063477e+00,1.086056590080261230e+00,1.085996150970458984e+00,1.085935711860656738e+00,1.085875272750854492e+00,1.085814833641052246e+00,1.085754394531250000e+00,1.085693955421447754e+00,1.085633516311645508e+00,1.085573077201843262e+00,1.085512638092041016e+00,1.085452318191528320e+00,1.085391879081726074e+00,1.085331559181213379e+00,1.085271120071411133e+00,1.085210800170898438e+00,1.085150361061096191e+00,1.085090041160583496e+00,1.085029721260070801e+00,1.084969401359558105e+00,1.084909081459045410e+00,1.084848642349243164e+00,1.084788322448730469e+00,1.084728002548217773e+00,1.084667682647705078e+00,1.084607362747192383e+00,1.084547162055969238e+00,1.084486842155456543e+00,1.084426522254943848e+00,1.084366321563720703e+00,1.084306001663208008e+00,1.084245681762695312e+00,1.084185481071472168e+00,1.084125280380249023e+00,1.084064960479736328e+00,1.084004759788513184e+00,1.083944559097290039e+00,1.083884358406066895e+00,1.083824038505554199e+00,1.083763837814331055e+00,1.083703637123107910e+00,1.083643436431884766e+00,1.083583235740661621e+00,1.083523154258728027e+00,1.083462953567504883e+00,1.083402752876281738e+00,1.083342552185058594e+00,1.083282470703125000e+00,1.083222270011901855e+00,1.083162188529968262e+00,1.083101987838745117e+00,1.083041906356811523e+00,1.082981705665588379e+00,1.082921624183654785e+00,1.082861542701721191e+00,1.082801461219787598e+00,1.082741260528564453e+00,1.082681179046630859e+00,1.082621097564697266e+00,1.082561016082763672e+00,1.082500934600830078e+00,1.082440972328186035e+00,1.082380890846252441e+00
1.021041512489318848e+00,1.020988106727600098e+00,1.020934700965881348e+00,1.020881175994873047e+00,1.020827770233154297e+00,1.020774364471435547e+00,1.020720958709716797e+00,1.020667552947998047e+00,1.020614147186279297e+00,1.020560741424560547e+00,1.020507335662841797e+00,1.020454049110412598e+00,1.020400643348693848e+00,1.020347237586975098e+00,1.020293951034545898e+00,1.020240545272827148e+00,1.020187139511108398e+00,1.020133852958679199e+00,1.020080447196960449e+00,1.020027160644531250e+00,1.019973874092102051e+00,1.019920468330383301e+00,1.019867181777954102e+00,1.019813895225524902e+00,1.019760608673095703e+00,1.019707322120666504e+00,1.019653916358947754e+00,1.019600629806518555e+00,1.019547343254089355e+00,1.019494056701660156e+00,1.019440889358520508e+00,1.019387602806091309e+00,1.019334316253662109e+00,1.019281029701232910e+00,1.019227743148803711e+00,1.019174575805664062e+00,1.019121289253234863e+00,1.019068121910095215e+00,1.019014835357666016e+00,1.018961668014526367e+00,1.018908381462097168e+00,1.018855214118957520e+00,1.018801927566528320e+00,1.018748760223388672e+00,1.018695592880249023e+00,1.018642425537109375e+00,1.018589138984680176e+00,1.018535971641540527e+00,1.018482804298400879e+00,1.018429636955261230e+00,1.018376469612121582e+00,1.018323302268981934e+00,1.018270254135131836e+00,1.018217086791992188e+00,1.018163919448852539e+00,1.018110752105712891e+00,1.018057584762573242e+00,1.018004536628723145e+00,1.017951369285583496e+00,1.017898321151733398e+00,1.017845153808593750e+00,1.017792105674743652e+00,1.017738938331604004e+00,1.017685890197753906e+00,1.017632842063903809e+00,1.017579674720764160e+00,1.017526626586914062e+00,1.017473578453063965e+00,1.017420530319213867e+00,1.017367482185363770e+00,1.017314434051513672e+00,1.017261385917663574e+00,1.017208337783813477e+00,1.017155289649963379e+00,1.017102241516113281e+00,1.017049193382263184e+00,1.016996145248413086e+00,1.016943216323852539e+00,1.016890168190002441e+00,1.016837120056152344e+00
9.625153541564941406e-01,9.624678492546081543e-01,9.624204039573669434e-01,9.623728990554809570e-01,9.623253941535949707e-01,9.622779488563537598e-01,9.622305035591125488e-01,9.621830582618713379e-01,9.621355533599853516e-01,9.620881080627441406e-01,9.620406627655029297e-01,9.619932770729064941e-01,9.619458317756652832e-01,9.618983864784240723e-01,9.618509411811828613e-01,9.618035554885864258e-01,9.617561101913452148e-01,9.617087244987487793e-01,9.616612792015075684e-01,9.616138935089111328e-01,9.615665078163146973e-01,9.615191221237182617e-01,9.614717364311218262e-01,9.614243507385253906e-01,9.613769650459289551e-01,9.613295793533325195e-01,9.612821936607360840e-01,9.612348675727844238e-01,9.611874818801879883e-01,9.611401557922363281e-01,9.610927700996398926e-01,9.610454440116882324e-01,9.609981179237365723e-01,9.609507918357849121e-01,9.609034061431884766e-01,9.608560800552368164e-01,9.608088135719299316e-01,9.607614874839782715e-01,9.607141613960266113e-01,9.606668353080749512e-01,9.606195092201232910e-01,9.605722427368164062e-01,9.605249166488647461e-01,9.604776501655578613e-01,9.604303836822509766e-01,9.603830575942993164e-01,9.603357911109924316e-01,9.602885246276855469e-01,9.602412581443786621e-01,9.601939916610717773e-01,9.601467251777648926e-01,9.600995182991027832e-01,9.600522518157958984e-01,9.600049853324890137e-01,9.599577784538269043e-01,9.599105119705200195e-01,9.598633050918579102e-01,9.598160982131958008e-01,9.597688317298889160e-01,9.597216248512268066e-01,9.596744179725646973e-01,9.596272110939025879e-01,9.595800042152404785e-01,9.595327973365783691e-01,9.594855904579162598e-01,9.594384431838989258e-01,9.593912363052368164e-01,9.593440890312194824e-01,9.592968821525573730e-01,9.592497348785400391e-01,9.592025279998779297e-01,9.591553807258605957e-01,9.591082334518432617e-01,9.590610861778259277e-01,9.590139389038085938e-01,9.589667916297912598e-01,9.589196443557739258e-01,9.588724970817565918e-01,9.588254094123840332e-01,9.587782621383666992e-01
9.103348255157470703e-01,9.102923274040222168e-01,9.102498888969421387e-01,9.102073907852172852e-01,9.101649522781372070e-01,9.101224541664123535e-01,9.100800156593322754e-01,9.100375771522521973e-01,9.099951386451721191e-01,9.099527001380920410e-01,9.099102020263671875e-01,9.098677635192871094e-01,9.098253846168518066e-01,9.097829461097717285e-01,9.097405076026916504e-01,9.096980690956115723e-01,9.096556305885314941e-01,9.096132516860961914e-01,9.095708131790161133e-01,9.095284342765808105e-01,9.094860553741455078e-01,9.094436168670654297e-01,9.094012379646301270e-01,9.093588590621948242e-01,9.093164801597595215e-01,9.092741012573242188e-01,9.092317223548889160e-01,9.091893434524536133e-01,9.091469645500183105e-01,9.091045856475830078e-01,9.090622067451477051e-01,9.090198874473571777e-01,9.089775085449218750e-01,9.089351296424865723e-01,9.088928103446960449e-01,9.088504910469055176e-01,9.088081121444702148e-01,9.087657928466796875e-01,9.087234735488891602e-01,9.086811542510986328e-01,9.086388349533081055e-01,9.085965156555175781e-01,9.085541963577270508e-01,9.085118770599365234e-01,9.084695577621459961e-01,9.084272384643554688e-01,9.083849787712097168e-01,9.083426594734191895e-01,9.083003401756286621e-01,9.082580804824829102e-01,9.082158207893371582e-01,9.081735014915466309e-01,9.081312417984008789e-01,9.080889821052551270e-01,9.080467224121093750e-01,9.080044627189636230e-01,9.079622030258178711e-01,9.079199433326721191e-01,9.078776836395263672e-01,9.078354239463806152e-01,9.077931642532348633e-01,9.077509045600891113e-01,9.077087044715881348e-01,9.076664447784423828e-01,9.076242446899414062e-01,9.075819849967956543e-01,9.075397849082946777e-01,9.074975848197937012e-01,9.074553847312927246e-01,9.074131250381469727e-01,9.073709249496459961e-01,9.073287248611450195e-01,9.072865247726440430e-01,9.072443842887878418e-01,9.072021842002868652e-01,9.071599841117858887e-01,9.071177840232849121e-01,9.070756435394287109e-01,9.070334434509277344e-01,9.069913029670715332e-01
8.635210394859313965e-01,8.634828329086303711e-01,8.634446263313293457e-01,8.634064197540283203e-01,8.633682131767272949e-01,8.633300065994262695e-01,8.632918000221252441e-01,8.632535934448242188e-01,8.632153868675231934e-01,8.631771802902221680e-01,8.631389737129211426e-01,8.631008267402648926e-01,8.630626201629638672e-01,8.630244731903076172e-01,8.629862666130065918e-01,8.629481196403503418e-01,8.629099130630493164e-01,8.628717660903930664e-01,8.628336191177368164e-01,8.627954125404357910e-01,8.627572655677795410e-01,8.627191185951232910e-01,8.626809716224670410e-01,8.626428246498107910e-01,8.626046776771545410e-01,8.625665307044982910e-01,8.625283837318420410e-01,8.624902963638305664e-01,8.624521493911743164e-01,8.624140024185180664e-01,8.623759150505065918e-01,8.623377680778503418e-01,8.622996807098388672e-01,8.622615337371826172e-01,8.622234463691711426e-01,8.621852993965148926e-01,8.621472120285034180e-01,8.621091246604919434e-01,8.620710372924804688e-01,8.620329499244689941e-01,8.619948625564575195e-01,8.619567751884460449e-01,8.619186878204345703e-01,8.618806004524230957e-01,8.618425130844116211e-01,8.618044257164001465e-01,8.617663979530334473e-01,8.617283105850219727e-01,8.616902232170104980e-01,8.616521954536437988e-01,8.616141080856323242e-01,8.615760803222656250e-01,8.615380525588989258e-01,8.614999651908874512e-01,8.614619374275207520e-01,8.614239096641540527e-01,8.613858819007873535e-01,8.613478541374206543e-01,8.613098263740539551e-01,8.612717986106872559e-01,8.612337708473205566e-01,8.611957430839538574e-01,8.611577153205871582e-01,8.611196875572204590e-01,8.610817193984985352e-01,8.610436916351318359e-01,8.610056638717651367e-01,8.609676957130432129e-01,8.609296679496765137e-01,8.608916997909545898e-01,8.608537316322326660e-01,8.608157038688659668e-01,8.607777357101440430e-01,8.607397675514221191e-01,8.607017993927001953e-01,8.606638312339782715e-01,8.606258630752563477e-01,8.605878949165344238e-01,8.605499267578125000e-01,8.605119585990905762e-01
8.212865591049194336e-01,8.212519884109497070e-01,8.212174177169799805e-01,8.211828470230102539e-01,8.211482763290405273e-01,8.211137652397155762e-01,8.210791945457458496e-01,8.210446238517761230e-01,8.210100531578063965e-01,8.209755420684814453e-01,8.209409713745117188e-01,8.209064006805419922e-01,8.208718895912170410e-01,8.208373785018920898e-01,8.208028078079223633e-01,8.207682967185974121e-01,8.207337260246276855e-01,8.206992149353027344e-01,8.206647038459777832e-01,8.206301927566528320e-01,8.205956816673278809e-01,8.205611705780029297e-01,8.205266594886779785e-01,8.204921483993530273e-01,8.204576373100280762e-01,8.204231262207031250e-01,8.203886151313781738e-01,8.203541040420532227e-01,8.203196525573730469e-01,8.202851414680480957e-01,8.202506303787231445e-01,8.202161788940429688e-01,8.201816678047180176e-01,8.201472163200378418e-01,8.201127052307128906e-01,8.200782537460327148e-01,8.200437426567077637e-01,8.200092911720275879e-01,8.199748396873474121e-01,8.199403882026672363e-01,8.199058771133422852e-01,8.198714256286621094e-01,8.198369741439819336e-01,8.198025226593017578e-01,8.197680711746215820e-01,8.197336196899414062e-01,8.196992278099060059e-01,8.196647763252258301e-01,8.196303248405456543e-01,8.195958733558654785e-01,8.195614814758300781e-01,8.195270299911499023e-01,8.194925785064697266e-01,8.194581866264343262e-01,8.194237351417541504e-01,8.193893432617187500e-01,8.193549513816833496e-01,8.193204998970031738e-01,8.192861080169677734e-01,8.192517161369323730e-01,8.192173242568969727e-01,8.191828727722167969e-01,8.191484808921813965e-01,8.191140890121459961e-01,8.190796971321105957e-01,8.190453052520751953e-01,8.190109133720397949e-01,8.189765810966491699e-01,8.189421892166137695e-01,8.189077973365783691e-01,8.188734054565429688e-01,8.188390731811523438e-01,8.188046813011169434e-01,8.187702894210815430e-01,8.187359571456909180e-01,8.187015652656555176e-01,8.186672329902648926e-01,8.186329007148742676e-01,8.185985088348388672e-01,8.185641765594482422e-01
7.829908132553100586e-01,7.829594016075134277e-01,7.829279899597167969e-01,7.828965783119201660e-01,7.828651070594787598e-01,7.828336954116821289e-01,7.828022837638854980e-01,7.827708721160888672e-01,7.827394604682922363e-01,7.827081084251403809e-01,7.826766967773437500e-01,7.826452851295471191e-01,7.826138734817504883e-01,7.825824618339538574e-01,7.825511097908020020e-01,7.825196981430053711e-01,7.824883460998535156e-01,7.824569344520568848e-01,7.824255228042602539e-01,7.823941707611083984e-01,7.823628187179565430e-01,7.823314070701599121e-01,7.823000550270080566e-01,7.822687029838562012e-01,7.822372913360595703e-01,7.822059392929077148e-01,7.821745872497558594e-01,7.821432352066040039e-01,7.821118831634521484e-01,7.820805311203002930e-01,7.820491790771484375e-01,7.820178270339965820e-01,7.819864749908447266e-01,7.819551229476928711e-01,7.819237709045410156e-01,7.818924188613891602e-01,7.818610668182373047e-01,7.818297743797302246e-01,7.817984223365783691e-01,7.817670702934265137e-01,7.817357778549194336e-01,7.817044258117675781e-01,7.816731333732604980e-01,7.816417813301086426e-01,7.816104888916015625e-01,7.815791964530944824e-01,7.815478444099426270e-01,7.815165519714355469e-01,7.814852595329284668e-01,7.814539670944213867e-01,7.814226150512695312e-01,7.813913226127624512e-01,7.813600301742553711e-01,7.813287377357482910e-01,7.812974452972412109e-01,7.812661528587341309e-01,7.812348604202270508e-01,7.812035679817199707e-01,7.811723351478576660e-01,7.811410427093505859e-01,7.811097502708435059e-01,7.810784578323364258e-01,7.810472249984741211e-01,7.810159325599670410e-01,7.809846997261047363e-01,7.809534072875976562e-01,7.809221148490905762e-01,7.808908820152282715e-01,7.808596491813659668e-01,7.808283567428588867e-01,7.807971239089965820e-01,7.807658910751342773e-01,7.807345986366271973e-01,7.807033658027648926e-01,7.806721329689025879e-01,7.806409001350402832e-01,7.806096673011779785e-01,7.805784344673156738e-01,7.805472016334533691e-01,7.805159687995910645e-01
7.481073141098022461e-01,7.480786442756652832e-01,7.480499148368835449e-01,7.480212450027465820e-01,7.479925751686096191e-01,7.479639053344726562e-01,7.479352355003356934e-01,7.479065656661987305e-01,7.478778958320617676e-01,7.478492259979248047e-01,7.478205561637878418e-01,7.477918863296508789e-01,7.477632164955139160e-01,7.477345466613769531e-01,7.477058768272399902e-01,7.476772069931030273e-01,7.476485967636108398e-01,7.476199269294738770e-01,7.475912570953369141e-01,7.475626468658447266e-01,7.475339770317077637e-01,7.475053668022155762e-01,7.474766969680786133e-01,7.474480867385864258e-01,7.474194169044494629e-01,7.473908066749572754e-01,7.473621368408203125e-01,7.473335266113281250e-01,7.473049163818359375e-01,7.472762465476989746e-01,7.472476363182067871e-01,7.472190260887145996e-01,7.471904158592224121e-01,7.471618056297302246e-01,7.471331954002380371e-01,7.471045851707458496e-01,7.470759749412536621e-01,7.470473647117614746e-01,7.470187544822692871e-01,7.469901442527770996e-01,7.469615340232849121e-01,7.469329237937927246e-01,7.469043135643005371e-01,7.468757629394531250e-01,7.468471527099609375e-01,7.468185424804687500e-01,7.467899918556213379e-01,7.467613816261291504e-01,7.467327713966369629e-01,7.467042207717895508e-01,7.466756105422973633e-01,7.466470599174499512e-01,7.466184496879577637e-01,7.465898990631103516e-01,7.465613484382629395e-01,7.465327382087707520e-01,7.465041875839233398e-01,7.464756369590759277e-01,7.464470863342285156e-01,7.464185357093811035e-01,7.463899254798889160e-01,7.463613748550415039e-01,7.463328242301940918e-01,7.463042736053466797e-01,7.462757229804992676e-01,7.462471723556518555e-01,7.462186217308044434e-01,7.461901307106018066e-01,7.461615800857543945e-01,7.461330294609069824e-01,7.461044788360595703e-01,7.460759282112121582e-01,7.460474371910095215e-01,7.460188865661621094e-01,7.459903955459594727e-01,7.459618449211120605e-01,7.459332942962646484e-01,7.459048032760620117e-01,7.458762526512145996e-01,7.458477616310119629e-01
