5.000000000000000000e+00,5.000000000000000000e+00,5.000000000000000000e+00,5.000000000000000000e+00,5.000000000000000000e+00,5.000000000000000000e+00,5.000000000000000000e+00,5.000000000000000000e+00,5.000000000000000000e+00,5.000000000000000000e+00,5.000000000000000000e+00,5.000000000000000000e+00,5.000000000000000000e+00,5.000000000000000000e+00,5.000000000000000000e+00,5.000000000000000000e+00,5.000000000000000000e+00,5.000000000000000000e+00,5.000000000000000000e+00,5.000000000000000000e+00,5.000000000000000000e+00,5.000000000000000000e+00,5.000000000000000000e+00,5.000000000000000000e+00,5.000000000000000000e+00,5.000000000000000000e+00,5.000000000000000000e+00,5.000000000000000000e+00,5.000000000000000000e+00,5.000000000000000000e+00,5.000000000000000000e+00,5.000000000000000000e+00,5.000000000000000000e+00,5.000000000000000000e+00,5.000000000000000000e+00,5.000000000000000000e+00,5.000000000000000000e+00,5.000000000000000000e+00,5.000000000000000000e+00,5.000000000000000000e+00,5.000000000000000000e+00,5.000000000000000000e+00,4.328521728515625000e+00,4.176524639129638672e+00,4.034840583801269531e+00,3.902454614639282227e+00,3.778479576110839844e+00,3.662138938903808594e+00,3.552748680114746094e+00,3.449703931808471680e+00,3.352468252182006836e+00,3.260563373565673828e+00,3.173563480377197266e+00,3.091085433959960938e+00,3.012786149978637695e+00,2.938355445861816406e+00,2.867513656616210938e+00,2.800007343292236328e+00,2.735606431961059570e+00,2.674101352691650391e+00,2.615301132202148438e+00,2.559031248092651367e+00,2.505131721496582031e+00,2.453455686569213867e+00,2.403868675231933594e+00,2.356246471405029297e+00,2.310474157333374023e+00,2.266446352005004883e+00,2.224065303802490234e+00,2.183240175247192383e+00,2.143886804580688477e+00,2.105926990509033203e+00,2.069287776947021484e+00,2.033901929855346680e+00,1.999706029891967773e+00,1.966640710830688477e+00,1.934651374816894531e+00,1.903685808181762695e+00,1.873695969581604004e+00,1.844636321067810059e+00
5.000000000000000000e+00,5.000000000000000000e+00,5.000000000000000000e+00,5.000000000000000000e+00,5.000000000000000000e+00,5.000000000000000000e+00,5.000000000000000000e+00,5.000000000000000000e+00,5.000000000000000000e+00,5.000000000000000000e+00,5.000000000000000000e+00,5.000000000000000000e+00,5.000000000000000000e+00,5.000000000000000000e+00,5.000000000000000000e+00,5.000000000000000000e+00,5.000000000000000000e+00,5.000000000000000000e+00,5.000000000000000000e+00,5.000000000000000000e+00,5.000000000000000000e+00,5.000000000000000000e+00,5.000000000000000000e+00,5.000000000000000000e+00,5.000000000000000000e+00,5.000000000000000000e+00,5.000000000000000000e+00,5.000000000000000000e+00,5.000000000000000000e+00,5.000000000000000000e+00,5.000000000000000000e+00,5.000000000000000000e+00,5.000000000000000000e+00,5.000000000000000000e+00,5.000000000000000000e+00,5.000000000000000000e+00,5.000000000000000000e+00,5.000000000000000000e+00,5.000000000000000000e+00,5.000000000000000000e+00,5.000000000000000000e+00,4.492118358612060547e+00,4.328631877899169922e+00,4.176627635955810547e+00,4.034936904907226562e+00,3.902544498443603516e+00,3.778563261032104492e+00,3.662217617034912109e+00,3.552822828292846680e+00,3.449773788452148438e+00,3.352534055709838867e+00,3.260626077651977539e+00,3.173622846603393555e+00,3.091141939163208008e+00,3.012839555740356445e+00,2.938406467437744141e+00,2.867562294006347656e+00,2.800053596496582031e+00,2.735650539398193359e+00,2.674143552780151367e+00,2.615341663360595703e+00,2.559069871902465820e+00,2.505168676376342773e+00,2.453491210937500000e+00,2.403902769088745117e+00,2.356279134750366211e+00,2.310505628585815430e+00,2.266476869583129883e+00,2.224094629287719727e+00,2.183268308639526367e+00,2.143913984298706055e+00,2.105953216552734375e+00,2.069313049316406250e+00,2.033926248550415039e+00,1.999729514122009277e+00,1.966663599014282227e+00,1.934673428535461426e+00,1.903707146644592285e+00,1.873716473579406738e+00,1.844656348228454590e+00
5.000000000000000000e+00,5.000000000000000000e+00,5.000000000000000000e+00,5.000000000000000000e+00,5.000000000000000000e+00,5.000000000000000000e+00,5.000000000000000000e+00,5.000000000000000000e+00,5.000000000000000000e+00,5.000000000000000000e+00,5.000000000000000000e+00,5.000000000000000000e+00,5.000000000000000000e+00,5.000000000000000000e+00,5.000000000000000000e+00,5.000000000000000000e+00,5.000000000000000000e+00,5.000000000000000000e+00,5.000000000000000000e+00,5.000000000000000000e+00,5.000000000000000000e+00,5.000000000000000000e+00,5.000000000000000000e+00,5.000000000000000000e+00,5.000000000000000000e+00,5.000000000000000000e+00,5.000000000000000000e+00,5.000000000000000000e+00,5.000000000000000000e+00,5.000000000000000000e+00,5.000000000000000000e+00,5.000000000000000000e+00,5.000000000000000000e+00,5.000000000000000000e+00,5.000000000000000000e+00,5.000000000000000000e+00,5.000000000000000000e+00,5.000000000000000000e+00,5.000000000000000000e+00,5.000000000000000000e+00,4.668566703796386719e+00,4.492237091064453125e+00,4.328742504119873047e+00,4.176730632781982422e+00,4.035032749176025391e+00,3.902633905410766602e+00,3.778647661209106445e+00,3.662296772003173828e+00,3.552897214889526367e+00,3.449844121932983398e+00,3.352600574493408203e+00,3.260688781738281250e+00,3.173682212829589844e+00,3.091198205947875977e+00,3.012893199920654297e+00,2.938457250595092773e+00,2.867610692977905273e+00,2.800099849700927734e+00,2.735694885253906250e+00,2.674185752868652344e+00,2.615381956100463867e+00,2.559108495712280273e+00,2.505205631256103516e+00,2.453526735305786133e+00,2.403936862945556641e+00,2.356312036514282227e+00,2.310537099838256836e+00,2.266507148742675781e+00,2.224123716354370117e+00,2.183296442031860352e+00,2.143940925598144531e+00,2.105979204177856445e+00,2.069338321685791016e+00,2.033950567245483398e+00,1.999752879142761230e+00,1.966686367988586426e+00,1.934695243835449219e+00,1.903728485107421875e+00,1.873737215995788574e+00,1.844676494598388672e+00
5.000000000000000000e+00,5.000000000000000000e+00,5.000000000000000000e+00,5.000000000000000000e+00,5.000000000000000000e+00,5.000000000000000000e+00,5.000000000000000000e+00,5.000000000000000000e+00,5.000000000000000000e+00,5.000000000000000000e+00,5.000000000000000000e+00,5.000000000000000000e+00,5.000000000000000000e+00,5.000000000000000000e+00,5.000000000000000000e+00,5.000000000000000000e+00,5.000000000000000000e+00,5.000000000000000000e+00,5.000000000000000000e+00,5.000000000000000000e+00,5.000000000000000000e+00,5.000000000000000000e+00,5.000000000000000000e+00,5.000000000000000000e+00,5.000000000000000000e+00,5.000000000000000000e+00,5.000000000000000000e+00,5.000000000000000000e+00,5.000000000000000000e+00,5.000000000000000000e+00,5.000000000000000000e+00,5.000000000000000000e+00,5.000000000000000000e+00,5.000000000000000000e+00,5.000000000000000000e+00,5.000000000000000000e+00,5.000000000000000000e+00,5.000000000000000000e+00,5.000000000000000000e+00,4.859444141387939453e+00,4.668695449829101562e+00,4.492356300354003906e+00,4.328853130340576172e+00,4.176833152770996094e+00,4.035128593444824219e+00,3.902723789215087891e+00,3.778731822967529297e+00,3.662375926971435547e+00,3.552971839904785156e+00,3.449914216995239258e+00,3.352666854858398438e+00,3.260751724243164062e+00,3.173741817474365234e+00,3.091254711151123047e+00,3.012946844100952148e+00,2.938508272171020508e+00,2.867659330368041992e+00,2.800146341323852539e+00,2.735738992691040039e+00,2.674227952957153320e+00,2.615422248840332031e+00,2.559147119522094727e+00,2.505242824554443359e+00,2.453562259674072266e+00,2.403970956802368164e+00,2.356344699859619141e+00,2.310568571090698242e+00,2.266537189483642578e+00,2.224152803421020508e+00,2.183324575424194336e+00,2.143967866897583008e+00,2.106005430221557617e+00,2.069363117218017578e+00,2.033974885940551758e+00,1.999776482582092285e+00,1.966709256172180176e+00,1.934717416763305664e+00,1.903749942779541016e+00,1.873757958412170410e+00,1.844696521759033203e+00
5.000000000000000000e+00,5.000000000000000000e+00,5.000000000000000000e+00,5.000000000000000000e+00,5.000000000000000000e+00,5.000000000000000000e+00,5.000000000000000000e+00,5.000000000000000000e+00,5.000000000000000000e+00,5.000000000000000000e+00,5.000000000000000000e+00,5.000000000000000000e+00,5.000000000000000000e+00,5.000000000000000000e+00,5.000000000000000000e+00,5.000000000000000000e+00,5.000000000000000000e+00,5.000000000000000000e+00,5.000000000000000000e+00,5.000000000000000000e+00,5.000000000000000000e+00,5.000000000000000000e+00,5.000000000000000000e+00,5.000000000000000000e+00,5.000000000000000000e+00,5.000000000000000000e+00,5.000000000000000000e+00,5.000000000000000000e+00,5.000000000000000000e+00,5.000000000000000000e+00,5.000000000000000000e+00,5.000000000000000000e+00,5.000000000000000000e+00,5.000000000000000000e+00,5.000000000000000000e+00,5.000000000000000000e+00,5.000000000000000000e+00,5.000000000000000000e+00,5.000000000000000000e+00,4.859583377838134766e+00,4.668824195861816406e+00,4.492475509643554688e+00,4.328963279724121094e+00,4.176936149597167969e+00,4.035224437713623047e+00,3.902813673019409180e+00,3.778815984725952148e+00,3.662455081939697266e+00,3.553046226501464844e+00,3.449984550476074219e+00,3.352733135223388672e+00,3.260814428329467773e+00,3.173801183700561523e+00,3.091310977935791016e+00,3.013000249862670898e+00,2.938559293746948242e+00,2.867707729339599609e+00,2.800192594528198242e+00,2.735783100128173828e+00,2.674270153045654297e+00,2.615462541580200195e+00,2.559185743331909180e+00,2.505279541015625000e+00,2.453597545623779297e+00,2.404004812240600586e+00,2.356377363204956055e+00,2.310600042343139648e+00,2.266567468643188477e+00,2.224181890487670898e+00,2.183352708816528320e+00,2.143995046615600586e+00,2.106031179428100586e+00,2.069388389587402344e+00,2.033999204635620117e+00,1.999800086021423340e+00,1.966732025146484375e+00,1.934739470481872559e+00,1.903771281242370605e+00,1.873778700828552246e+00,1.844716668128967285e+00
5.000000000000000000e+00,5.000000000000000000e+00,5.000000000000000000e+00,5.000000000000000000e+00,5.000000000000000000e+00,5.000000000000000000e+00,5.000000000000000000e+00,5.000000000000000000e+00,5.000000000000000000e+00,5.000000000000000000e+00,5.000000000000000000e+00,5.000000000000000000e+00,5.000000000000000000e+00,5.000000000000000000e+00,5.000000000000000000e+00,5.000000000000000000e+00,5.000000000000000000e+00,5.000000000000000000e+00,5.000000000000000000e+00,5.000000000000000000e+00,5.000000000000000000e+00,5.000000000000000000e+00,5.000000000000000000e+00,5.000000000000000000e+00,5.000000000000000000e+00,5.000000000000000000e+00,5.000000000000000000e+00,5.000000000000000000e+00,5.000000000000000000e+00,5.000000000000000000e+00,5.000000000000000000e+00,5.000000000000000000e+00,5.000000000000000000e+00,5.000000000000000000e+00,5.000000000000000000e+00,5.000000000000000000e+00,5.000000000000000000e+00,5.000000000000000000e+00,5.000000000000000000e+00,4.859722614288330078e+00,4.668952465057373047e+00,4.492594242095947266e+00,4.329073905944824219e+00,4.177039146423339844e+00,4.035320758819580078e+00,3.902903556823730469e+00,3.778900384902954102e+00,3.662534236907958984e+00,3.553120851516723633e+00,3.450054645538330078e+00,3.352799415588378906e+00,3.260877132415771484e+00,3.173860549926757812e+00,3.091367483139038086e+00,3.013053655624389648e+00,2.938610076904296875e+00,2.867756128311157227e+00,2.800238609313964844e+00,2.735826969146728516e+00,2.674312353134155273e+00,2.615502834320068359e+00,2.559224367141723633e+00,2.505316734313964844e+00,2.453633069992065430e+00,2.404038906097412109e+00,2.356410026550292969e+00,2.310631513595581055e+00,2.266597986221313477e+00,2.224211215972900391e+00,2.183380603790283203e+00,2.144021987915039062e+00,2.106057405471801758e+00,2.069413661956787109e+00,2.034023761749267578e+00,1.999823689460754395e+00,1.966754794120788574e+00,1.934761524200439453e+00,1.903792738914489746e+00,1.873799443244934082e+00,1.844736695289611816e+00
5.000000000000000000e+00,5.000000000000000000e+00,5.000000000000000000e+00,5.000000000000000000e+00,5.000000000000000000e+00,5.000000000000000000e+00,5.000000000000000000e+00,5.000000000000000000e+00,5.000000000000000000e+00,5.000000000000000000e+00,5.000000000000000000e+00,5.000000000000000000e+00,5.000000000000000000e+00,5.000000000000000000e+00,5.000000000000000000e+00,5.000000000000000000e+00,5.000000000000000000e+00,5.000000000000000000e+00,5.000000000000000000e+00,5.000000000000000000e+00,5.000000000000000000e+00,5.000000000000000000e+00,5.000000000000000000e+00,5.000000000000000000e+00,5.000000000000000000e+00,5.000000000000000000e+00,5.000000000000000000e+00,5.000000000000000000e+00,5.000000000000000000e+00,5.000000000000000000e+00,5.000000000000000000e+00,5.000000000000000000e+00,5.000000000000000000e+00,5.000000000000000000e+00,5.000000000000000000e+00,5.000000000000000000e+00,5.000000000000000000e+00,5.000000000000000000e+00,5.000000000000000000e+00,4.859861850738525391e+00,4.669080734252929688e+00,4.492713451385498047e+00,4.329184532165527344e+00,4.177142143249511719e+00,4.035416603088378906e+00,3.902993440628051758e+00,3.778984546661376953e+00,3.662613391876220703e+00,3.553194761276245117e+00,3.450124502182006836e+00,3.352865457534790039e+00,3.260939598083496094e+00,3.173919677734375000e+00,3.091423511505126953e+00,3.013107299804687500e+00,2.938660860061645508e+00,2.867804527282714844e+00,2.800284862518310547e+00,2.735871315002441406e+00,2.674354553222656250e+00,2.615543127059936523e+00,2.559262990951538086e+00,2.505353689193725586e+00,2.453668594360351562e+00,2.404072999954223633e+00,2.356442928314208984e+00,2.310662984848022461e+00,2.266628265380859375e+00,2.224240303039550781e+00,2.183408498764038086e+00,2.144049167633056641e+00,2.106083631515502930e+00,2.069438934326171875e+00,2.034048080444335938e+00,1.999847292900085449e+00,1.966777682304382324e+00,1.934783577919006348e+00,1.903814077377319336e+00,1.873820066452026367e+00,1.844756841659545898e+00
5.000000000000000000e+00,5.000000000000000000e+00,5.000000000000000000e+00,5.000000000000000000e+00,5.000000000000000000e+00,5.000000000000000000e+00,5.000000000000000000e+00,5.000000000000000000e+00,5.000000000000000000e+00,5.000000000000000000e+00,5.000000000000000000e+00,5.000000000000000000e+00,5.000000000000000000e+00,5.000000000000000000e+00,5.000000000000000000e+00,5.000000000000000000e+00,5.000000000000000000e+00,5.000000000000000000e+00,5.000000000000000000e+00,5.000000000000000000e+00,5.000000000000000000e+00,5.000000000000000000e+00,5.000000000000000000e+00,5.000000000000000000e+00,5.000000000000000000e+00,5.000000000000000000e+00,5.000000000000000000e+00,5.000000000000000000e+00,5.000000000000000000e+00,5.000000000000000000e+00,5.000000000000000000e+00,5.000000000000000000e+00,5.000000000000000000e+00,5.000000000000000000e+00,5.000000000000000000e+00,5.000000000000000000e+00,5.000000000000000000e+00,5.000000000000000000e+00,5.000000000000000000e+00,4.860001087188720703e+00,4.669209480285644531e+00,4.492832183837890625e+00,4.329295158386230469e+00,4.177244663238525391e+00,4.035512447357177734e+00,3.903082847595214844e+00,3.779068470001220703e+00,3.662692070007324219e+00,3.553269386291503906e+00,3.450194835662841797e+00,3.352931737899780273e+00,3.261002302169799805e+00,3.173979282379150391e+00,3.091480016708374023e+00,3.013160705566406250e+00,2.938711881637573242e+00,2.867853164672851562e+00,2.800331115722656250e+00,2.735915422439575195e+00,2.674396753311157227e+00,2.615583658218383789e+00,2.559301614761352539e+00,2.505390644073486328e+00,2.453704118728637695e+00,2.404107093811035156e+00,2.356475591659545898e+00,2.310694456100463867e+00,2.266658544540405273e+00,2.224269390106201172e+00,2.183436632156372070e+00,2.144076347351074219e+00,2.106109857559204102e+00,2.069464206695556641e+00,2.034072637557983398e+00,1.999870896339416504e+00,1.966800332069396973e+00,1.934805750846862793e+00,1.903835296630859375e+00,1.873840808868408203e+00,1.844776630401611328e+00
5.000000000000000000e+00,5.000000000000000000e+00,5.000000000000000000e+00,5.000000000000000000e+00,5.000000000000000000e+00,5.000000000000000000e+00,5.000000000000000000e+00,5.000000000000000000e+00,5.000000000000000000e+00,5.000000000000000000e+00,5.000000000000000000e+00,5.000000000000000000e+00,5.000000000000000000e+00,5.000000000000000000e+00,5.000000000000000000e+00,5.000000000000000000e+00,5.000000000000000000e+00,5.000000000000000000e+00,5.000000000000000000e+00,5.000000000000000000e+00,5.000000000000000000e+00,5.000000000000000000e+00,5.000000000000000000e+00,5.000000000000000000e+00,5.000000000000000000e+00,5.000000000000000000e+00,5.000000000000000000e+00,5.000000000000000000e+00,5.000000000000000000e+00,5.000000000000000000e+00,5.000000000000000000e+00,5.000000000000000000e+00,5.000000000000000000e+00,5.000000000000000000e+00,5.000000000000000000e+00,5.000000000000000000e+00,5.000000000000000000e+00,5.000000000000000000e+00,5.000000000000000000e+00,4.860140323638916016e+00,4.669337749481201172e+00,4.492951393127441406e+00,4.329405307769775391e+00,4.177347660064697266e+00,4.035608768463134766e+00,3.903172731399536133e+00,3.779152631759643555e+00,3.662771224975585938e+00,3.553343772888183594e+00,3.450265169143676758e+00,3.352998256683349609e+00,3.261065006256103516e+00,3.174038648605346680e+00,3.091536283493041992e+00,3.013214349746704102e+00,2.938762903213500977e+00,2.867901563644409180e+00,2.800377368927001953e+00,2.735959529876708984e+00,2.674438953399658203e+00,2.615623950958251953e+00,2.559340238571166992e+00,2.505427837371826172e+00,2.453739643096923828e+00,2.404141187667846680e+00,2.356508255004882812e+00,2.310726165771484375e+00,2.266688585281372070e+00,2.224298477172851562e+00,2.183464765548706055e+00,2.144103288650512695e+00,2.106135845184326172e+00,2.069489479064941406e+00,2.034096717834472656e+00,1.999894499778747559e+00,1.966823101043701172e+00,1.934827804565429688e+00,1.903856635093688965e+00,1.873861551284790039e+00,1.844796776771545410e+00
5.000000000000000000e+00,5.000000000000000000e+00,5.000000000000000000e+00,5.000000000000000000e+00,5.000000000000000000e+00,5.000000000000000000e+00,5.000000000000000000e+00,5.000000000000000000e+00,5.000000000000000000e+00,5.000000000000000000e+00,5.000000000000000000e+00,5.000000000000000000e+00,5.000000000000000000e+00,5.000000000000000000e+00,5.000000000000000000e+00,5.000000000000000000e+00,5.000000000000000000e+00,5.000000000000000000e+00,5.000000000000000000e+00,5.000000000000000000e+00,5.000000000000000000e+00,5.000000000000000000e+00,5.000000000000000000e+00,5.000000000000000000e+00,5.000000000000000000e+00,5.000000000000000000e+00,5.000000000000000000e+00,5.000000000000000000e+00,5.000000000000000000e+00,5.000000000000000000e+00,5.000000000000000000e+00,5.000000000000000000e+00,5.000000000000000000e+00,5.000000000000000000e+00,5.000000000000000000e+00,5.000000000000000000e+00,5.000000000000000000e+00,5.000000000000000000e+00,5.000000000000000000e+00,4.860279560089111328e+00,4.669466495513916016e+00,4.493070125579833984e+00,4.329515933990478516e+00,4.177450656890869141e+00,4.035704612731933594e+00,3.903262615203857422e+00,3.779237031936645508e+00,3.662850379943847656e+00,3.553418397903442383e+00,3.450335264205932617e+00,3.353064537048339844e+00,3.261127710342407227e+00,3.174098014831542969e+00,3.091592788696289062e+00,3.013267993927001953e+00,2.938813924789428711e+00,2.867950201034545898e+00,2.800423622131347656e+00,2.736003637313842773e+00,2.674481153488159180e+00,2.615664243698120117e+00,2.559378862380981445e+00,2.505464792251586914e+00,2.453775167465209961e+00,2.404175281524658203e+00,2.356540918350219727e+00,2.310757160186767578e+00,2.266718864440917969e+00,2.224327564239501953e+00,2.183492898941040039e+00,2.144130468368530273e+00,2.106162071228027344e+00,2.069514751434326172e+00,2.034121274948120117e+00,1.999918103218078613e+00,1.966845870018005371e+00,1.934849858283996582e+00,1.903878092765808105e+00,1.873882293701171875e+00,1.844816803932189941e+00
5.000000000000000000e+00,5.000000000000000000e+00,5.000000000000000000e+00,5.000000000000000000e+00,5.000000000000000000e+00,5.000000000000000000e+00,5.000000000000000000e+00,5.000000000000000000e+00,5.000000000000000000e+00,5.000000000000000000e+00,5.000000000000000000e+00,5.000000000000000000e+00,5.000000000000000000e+00,5.000000000000000000e+00,5.000000000000000000e+00,5.000000000000000000e+00,5.000000000000000000e+00,5.000000000000000000e+00,5.000000000000000000e+00,5.000000000000000000e+00,5.000000000000000000e+00,5.000000000000000000e+00,5.000000000000000000e+00,5.000000000000000000e+00,5.000000000000000000e+00,5.000000000000000000e+00,5.000000000000000000e+00,5.000000000000000000e+00,5.000000000000000000e+00,5.000000000000000000e+00,5.000000000000000000e+00,5.000000000000000000e+00,5.000000000000000000e+00,5.000000000000000000e+00,5.000000000000000000e+00,5.000000000000000000e+00,5.000000000000000000e+00,5.000000000000000000e+00,5.000000000000000000e+00,4.860418796539306641e+00,4.669595241546630859e+00,4.493189334869384766e+00,4.329626083374023438e+00,4.177553176879882812e+00,4.035800457000732422e+00,3.903352499008178711e+00,3.779321193695068359e+00,3.662929534912109375e+00,3.553492784500122070e+00,3.450405597686767578e+00,3.353130817413330078e+00,3.261190652847290039e+00,3.174157619476318359e+00,3.091649055480957031e+00,3.013321399688720703e+00,2.938864707946777344e+00,2.867998838424682617e+00,2.800469636917114258e+00,2.736047744750976562e+00,2.674523115158081055e+00,2.615704536437988281e+00,2.559417247772216797e+00,2.505501747131347656e+00,2.453810691833496094e+00,2.404209375381469727e+00,2.356573581695556641e+00,2.310788631439208984e+00,2.266749143600463867e+00,2.224356651306152344e+00,2.183521032333374023e+00,2.144157409667968750e+00,2.106188058853149414e+00,2.069540023803710938e+00,2.034145593643188477e+00,1.999941706657409668e+00,1.966868758201599121e+00,1.934872031211853027e+00,1.903899431228637695e+00,1.873903036117553711e+00,1.844836950302124023e+00
5.000000000000000000e+00,5.000000000000000000e+00,5.000000000000000000e+00,5.000000000000000000e+00,5.000000000000000000e+00,5.000000000000000000e+00,5.000000000000000000e+00,5.000000000000000000e+00,5.000000000000000000e+00,5.000000000000000000e+00,5.000000000000000000e+00,5.000000000000000000e+00,5.000000000000000000e+00,5.000000000000000000e+00,5.000000000000000000e+00,5.000000000000000000e+00,5.000000000000000000e+00,5.000000000000000000e+00,5.000000000000000000e+00,5.000000000000000000e+00,5.000000000000000000e+00,5.000000000000000000e+00,5.000000000000000000e+00,5.000000000000000000e+00,5.000000000000000000e+00,4.222207069396972656e+00,4.297204494476318359e+00,5.000000000000000000e+00,5.000000000000000000e+00,5.000000000000000000e+00,5.000000000000000000e+00,5.000000000000000000e+00,5.000000000000000000e+00,5.000000000000000000e+00,5.000000000000000000e+00,5.000000000000000000e+00,5.000000000000000000e+00,5.000000000000000000e+00,5.000000000000000000e+00,4.860558032989501953e+00,4.669723510742187500e+00,4.493308067321777344e+00,4.329736709594726562e+00,4.177656173706054688e+00,4.035896778106689453e+00,3.903442382812500000e+00,3.779405593872070312e+00,3.663008928298950195e+00,3.553567409515380859e+00,3.450475931167602539e+00,3.353197097778320312e+00,3.261253118515014648e+00,3.174216747283935547e+00,3.091705322265625000e+00,3.013374805450439453e+00,2.938915491104125977e+00,2.868046998977661133e+00,2.800515890121459961e+00,2.736091852188110352e+00,2.674565315246582031e+00,2.615744829177856445e+00,2.559456110000610352e+00,2.505538702011108398e+00,2.453846216201782227e+00,2.404243230819702148e+00,2.356606245040893555e+00,2.310820102691650391e+00,2.266779422760009766e+00,2.224385976791381836e+00,2.183549165725708008e+00,2.144184589385986328e+00,2.106214284896850586e+00,2.069565296173095703e+00,2.034170150756835938e+00,1.999965310096740723e+00,1.966891527175903320e+00,1.934894084930419922e+00,1.903920769691467285e+00,1.873923659324645996e+00,1.844856977462768555e+00
5.000000000000000000e+00,5.000000000000000000e+00,5.000000000000000000e+00,5.000000000000000000e+00,5.000000000000000000e+00,5.000000000000000000e+00,5.000000000000000000e+00,5.000000000000000000e+00,5.000000000000000000e+00,5.000000000000000000e+00,5.000000000000000000e+00,5.000000000000000000e+00,5.000000000000000000e+00,5.000000000000000000e+00,5.000000000000000000e+00,5.000000000000000000e+00,5.000000000000000000e+00,5.000000000000000000e+00,5.000000000000000000e+00,5.000000000000000000e+00,5.000000000000000000e+00,5.000000000000000000e+00,5.000000000000000000e+00,5.000000000000000000e+00,5.000000000000000000e+00,4.217491626739501953e+00,4.282793045043945312e+00,5.000000000000000000e+00,5.000000000000000000e+00,5.000000000000000000e+00,5.000000000000000000e+00,5.000000000000000000e+00,5.000000000000000000e+00,5.000000000000000000e+00,5.000000000000000000e+00,5.000000000000000000e+00,5.000000000000000000e+00,5.000000000000000000e+00,5.000000000000000000e+00,4.860697269439697266e+00,4.669852256774902344e+00,4.493427276611328125e+00,4.329847335815429688e+00,4.177759170532226562e+00,4.035992622375488281e+00,3.903531789779663086e+00,3.779489517211914062e+00,3.663087606430053711e+00,3.553641557693481445e+00,3.450545787811279297e+00,3.353263139724731445e+00,3.261315822601318359e+00,3.174276113510131836e+00,3.091761589050292969e+00,3.013428449630737305e+00,2.938966512680053711e+00,2.868095636367797852e+00,2.800562143325805664e+00,2.736135959625244141e+00,2.674607515335083008e+00,2.615785360336303711e+00,2.559494733810424805e+00,2.505575656890869141e+00,2.453881502151489258e+00,2.404277324676513672e+00,2.356639146804809570e+00,2.310851812362670898e+00,2.266809701919555664e+00,2.224415063858032227e+00,2.183577299118041992e+00,2.144211769104003906e+00,2.106240510940551758e+00,2.069590568542480469e+00,2.034194469451904297e+00,1.999988913536071777e+00,1.966914415359497070e+00,1.934916138648986816e+00,1.903942227363586426e+00,1.873944282531738281e+00,1.844877123832702637e+00
5.000000000000000000e+00,5.000000000000000000e+00,5.000000000000000000e+00,5.000000000000000000e+00,5.000000000000000000e+00,5.000000000000000000e+00,5.000000000000000000e+00,5.000000000000000000e+00,5.000000000000000000e+00,5.000000000000000000e+00,5.000000000000000000e+00,5.000000000000000000e+00,5.000000000000000000e+00,5.000000000000000000e+00,5.000000000000000000e+00,5.000000000000000000e+00,5.000000000000000000e+00,5.000000000000000000e+00,5.000000000000000000e+00,5.000000000000000000e+00,5.000000000000000000e+00,5.000000000000000000e+00,5.000000000000000000e+00,5.000000000000000000e+00,5.000000000000000000e+00,4.243096351623535156e+00,4.336156368255615234e+00,5.000000000000000000e+00,5.000000000000000000e+00,5.000000000000000000e+00,5.000000000000000000e+00,5.000000000000000000e+00,5.000000000000000000e+00,5.000000000000000000e+00,5.000000000000000000e+00,5.000000000000000000e+00,5.000000000000000000e+00,5.000000000000000000e+00,5.000000000000000000e+00,4.860836982727050781e+00,4.669980525970458984e+00,4.493546009063720703e+00,4.329957962036132812e+00,4.177862167358398438e+00,4.036088943481445312e+00,3.903621912002563477e+00,3.779573678970336914e+00,3.663166761398315430e+00,3.553715944290161133e+00,3.450616121292114258e+00,3.353329658508300781e+00,3.261378526687622070e+00,3.174335718154907227e+00,3.091818094253540039e+00,3.013482093811035156e+00,2.939017534255981445e+00,2.868144035339355469e+00,2.800608634948730469e+00,2.736180305480957031e+00,2.674649715423583984e+00,2.615825653076171875e+00,2.559533357620239258e+00,2.505612611770629883e+00,2.453917026519775391e+00,2.404311418533325195e+00,2.356671810150146484e+00,2.310883283615112305e+00,2.266839981079101562e+00,2.224444389343261719e+00,2.183605432510375977e+00,2.144238948822021484e+00,2.106266736984252930e+00,2.069615602493286133e+00,2.034218788146972656e+00,2.000012159347534180e+00,1.966937184333801270e+00,1.934938073158264160e+00,1.903963565826416016e+00,1.873964905738830566e+00,1.844897150993347168e+00
5.000000000000000000e+00,5.000000000000000000e+00,5.000000000000000000e+00,5.000000000000000000e+00,5.000000000000000000e+00,5.000000000000000000e+00,5.000000000000000000e+00,5.000000000000000000e+00,5.000000000000000000e+00,5.000000000000000000e+00,5.000000000000000000e+00,5.000000000000000000e+00,5.000000000000000000e+00,5.000000000000000000e+00,5.000000000000000000e+00,5.000000000000000000e+00,5.000000000000000000e+00,5.000000000000000000e+00,5.000000000000000000e+00,5.000000000000000000e+00,5.000000000000000000e+00,5.000000000000000000e+00,5.000000000000000000e+00,4.288621902465820312e+00,4.252253532409667969e+00,4.311115264892578125e+00,4.270934104919433594e+00,4.324954032897949219e+00,5.000000000000000000e+00,5.000000000000000000e+00,5.000000000000000000e+00,5.000000000000000000e+00,5.000000000000000000e+00,5.000000000000000000e+00,5.000000000000000000e+00,5.000000000000000000e+00,5.000000000000000000e+00,5.000000000000000000e+00,5.000000000000000000e+00,4.860975742340087891e+00,4.670109272003173828e+00,4.493665218353271484e+00,4.330068588256835938e+00,4.177965164184570312e+00,4.036184787750244141e+00,3.903711795806884766e+00,3.779658079147338867e+00,3.663245916366577148e+00,3.553790569305419922e+00,3.450686216354370117e+00,3.353395938873291016e+00,3.261441230773925781e+00,3.174395084381103516e+00,3.091874599456787109e+00,3.013535499572753906e+00,2.939068317413330078e+00,2.868192672729492188e+00,2.800654888153076172e+00,2.736224412918090820e+00,2.674691915512084961e+00,2.615865945816040039e+00,2.559571981430053711e+00,2.505649566650390625e+00,2.453952550888061523e+00,2.404345512390136719e+00,2.356704473495483398e+00,2.310914516448974609e+00,2.266870260238647461e+00,2.224473476409912109e+00,2.183633327484130859e+00,2.144265890121459961e+00,2.106292724609375000e+00,2.069640874862670898e+00,2.034243106842041016e+00,2.000035762786865234e+00,1.966960072517395020e+00,1.934960126876831055e+00,1.903985023498535156e+00,1.873985648155212402e+00,1.844917297363281250e+00
5.000000000000000000e+00,5.000000000000000000e+00,5.000000000000000000e+00,5.000000000000000000e+00,5.000000000000000000e+00,5.000000000000000000e+00,5.000000000000000000e+00,5.000000000000000000e+00,5.000000000000000000e+00,5.000000000000000000e+00,5.000000000000000000e+00,5.000000000000000000e+00,5.000000000000000000e+00,5.000000000000000000e+00,5.000000000000000000e+00,5.000000000000000000e+00,5.000000000000000000e+00,5.000000000000000000e+00,5.000000000000000000e+00,5.000000000000000000e+00,5.000000000000000000e+00,5.000000000000000000e+00,4.253009796142578125e+00,4.239519119262695312e+00,4.226377010345458984e+00,4.227800369262695312e+00,4.241929054260253906e+00,4.278037548065185547e+00,4.325863838195800781e+00,5.000000000000000000e+00,5.000000000000000000e+00,5.000000000000000000e+00,5.000000000000000000e+00,5.000000000000000000e+00,5.000000000000000000e+00,5.000000000000000000e+00,5.000000000000000000e+00,5.000000000000000000e+00,5.000000000000000000e+00,4.861115455627441406e+00,4.670238018035888672e+00,4.493784427642822266e+00,4.330179214477539062e+00,4.178068161010742188e+00,4.036280632019042969e+00,3.903801679611206055e+00,3.779742240905761719e+00,3.663325071334838867e+00,3.553865194320678711e+00,3.450756549835205078e+00,3.353462219238281250e+00,3.261504173278808594e+00,3.174454450607299805e+00,3.091930866241455078e+00,3.013589143753051758e+00,2.939119338989257812e+00,2.868241071701049805e+00,2.800701141357421875e+00,2.736268520355224609e+00,2.674734115600585938e+00,2.615906000137329102e+00,2.559610128402709961e+00,2.505686521530151367e+00,2.453987836837768555e+00,2.404379367828369141e+00,2.356737136840820312e+00,2.310945987701416016e+00,2.266900539398193359e+00,2.224502563476562500e+00,2.183661460876464844e+00,2.144293069839477539e+00,2.106318950653076172e+00,2.069666147232055664e+00,2.034267663955688477e+00,2.000059366226196289e+00,1.966982960700988770e+00,1.934982180595397949e+00,1.904006361961364746e+00,1.874006390571594238e+00,1.844937324523925781e+00
5.000000000000000000e+00,5.000000000000000000e+00,5.000000000000000000e+00,5.000000000000000000e+00,5.000000000000000000e+00,5.000000000000000000e+00,5.000000000000000000e+00,5.000000000000000000e+00,5.000000000000000000e+00,5.000000000000000000e+00,5.000000000000000000e+00,5.000000000000000000e+00,5.000000000000000000e+00,5.000000000000000000e+00,5.000000000000000000e+00,5.000000000000000000e+00,5.000000000000000000e+00,5.000000000000000000e+00,5.000000000000000000e+00,5.000000000000000000e+00,5.000000000000000000e+00,5.000000000000000000e+00,4.278202533721923828e+00,4.256570816040039062e+00,4.207667350769042969e+00,4.209348201751708984e+00,4.225282192230224609e+00,4.277214527130126953e+00,4.340800285339355469e+00,5.000000000000000000e+00,5.000000000000000000e+00,5.000000000000000000e+00,5.000000000000000000e+00,5.000000000000000000e+00,5.000000000000000000e+00,5.000000000000000000e+00,5.000000000000000000e+00,5.000000000000000000e+00,5.000000000000000000e+00,4.861254215240478516e+00,4.670366287231445312e+00,4.493903636932373047e+00,4.330289363861083984e+00,4.178170680999755859e+00,4.036376953125000000e+00,3.903891563415527344e+00,3.779826641082763672e+00,3.663404226303100586e+00,3.553939580917358398e+00,3.450826883316040039e+00,3.353528738021850586e+00,3.261566877365112305e+00,3.174514055252075195e+00,3.091987371444702148e+00,3.013642549514770508e+00,2.939170122146606445e+00,2.868289470672607422e+00,2.800747156143188477e+00,2.736312389373779297e+00,2.674776077270507812e+00,2.615946292877197266e+00,2.559648752212524414e+00,2.505723476409912109e+00,2.454023361206054688e+00,2.404413700103759766e+00,2.356770038604736328e+00,2.310977697372436523e+00,2.266930818557739258e+00,2.224531888961791992e+00,2.183689594268798828e+00,2.144320249557495117e+00,2.106345176696777344e+00,2.069691419601440430e+00,2.034291982650756836e+00,2.000082969665527344e+00,1.967005729675292969e+00,1.935004353523254395e+00,1.904027819633483887e+00,1.874027132987976074e+00,1.844957470893859863e+00
5.000000000000000000e+00,5.000000000000000000e+00,5.000000000000000000e+00,5.000000000000000000e+00,5.000000000000000000e+00,5.000000000000000000e+00,5.000000000000000000e+00,5.000000000000000000e+00,5.000000000000000000e+00,5.000000000000000000e+00,5.000000000000000000e+00,5.000000000000000000e+00,5.000000000000000000e+00,5.000000000000000000e+00,5.000000000000000000e+00,5.000000000000000000e+00,5.000000000000000000e+00,5.000000000000000000e+00,5.000000000000000000e+00,5.000000000000000000e+00,5.000000000000000000e+00,5.000000000000000000e+00,4.277479171752929688e+00,4.274577617645263672e+00,4.215260028839111328e+00,4.205645561218261719e+00,4.226917743682861328e+00,4.285721302032470703e+00,4.350506782531738281e+00,5.000000000000000000e+00,5.000000000000000000e+00,5.000000000000000000e+00,5.000000000000000000e+00,5.000000000000000000e+00,5.000000000000000000e+00,5.000000000000000000e+00,5.000000000000000000e+00,5.000000000000000000e+00,5.000000000000000000e+00,4.861393928527832031e+00,4.670495033264160156e+00,4.494022369384765625e+00,4.330399990081787109e+00,4.178273677825927734e+00,4.036472797393798828e+00,3.903981447219848633e+00,3.779911041259765625e+00,3.663483619689941406e+00,3.554014205932617188e+00,3.450896739959716797e+00,3.353594779968261719e+00,3.261629343032836914e+00,3.174573183059692383e+00,3.092043399810791016e+00,3.013696193695068359e+00,2.939221143722534180e+00,2.868338108062744141e+00,2.800793409347534180e+00,2.736356496810913086e+00,2.674818038940429688e+00,2.615986824035644531e+00,2.559687614440917969e+00,2.505760669708251953e+00,2.454058885574340820e+00,2.404447793960571289e+00,2.356802701950073242e+00,2.311009168624877930e+00,2.266961097717285156e+00,2.224560976028442383e+00,2.183717727661132812e+00,2.144347190856933594e+00,2.106371164321899414e+00,2.069716691970825195e+00,2.034316539764404297e+00,2.000106573104858398e+00,1.967028617858886719e+00,1.935026407241821289e+00,1.904049158096313477e+00,1.874047875404357910e+00,1.844977498054504395e+00
5.000000000000000000e+00,5.000000000000000000e+00,5.000000000000000000e+00,5.000000000000000000e+00,5.000000000000000000e+00,5.000000000000000000e+00,5.000000000000000000e+00,5.000000000000000000e+00,5.000000000000000000e+00,5.000000000000000000e+00,5.000000000000000000e+00,5.000000000000000000e+00,5.000000000000000000e+00,5.000000000000000000e+00,5.000000000000000000e+00,5.000000000000000000e+00,5.000000000000000000e+00,5.000000000000000000e+00,5.000000000000000000e+00,5.000000000000000000e+00,5.000000000000000000e+00,5.000000000000000000e+00,4.275364398956298828e+00,4.279160976409912109e+00,4.216019630432128906e+00,4.209825038909912109e+00,4.229043960571289062e+00,4.308594703674316406e+00,4.358433246612548828e+00,5.000000000000000000e+00,5.000000000000000000e+00,5.000000000000000000e+00,5.000000000000000000e+00,5.000000000000000000e+00,5.000000000000000000e+00,5.000000000000000000e+00,5.000000000000000000e+00,5.000000000000000000e+00,5.000000000000000000e+00,4.861533164978027344e+00,4.670623779296875000e+00,4.494141578674316406e+00,4.330510616302490234e+00,4.178376674652099609e+00,4.036569118499755859e+00,3.904071092605590820e+00,3.779994726181030273e+00,3.663562297821044922e+00,3.554088354110717773e+00,3.450967073440551758e+00,3.353661060333251953e+00,3.261692047119140625e+00,3.174632549285888672e+00,3.092099905014038086e+00,3.013749599456787109e+00,2.939271926879882812e+00,2.868386507034301758e+00,2.800839662551879883e+00,2.736400604248046875e+00,2.674860239028930664e+00,2.616027116775512695e+00,2.559726238250732422e+00,2.505797624588012695e+00,2.454094409942626953e+00,2.404481887817382812e+00,2.356835603713989258e+00,2.311040639877319336e+00,2.266991615295410156e+00,2.224590301513671875e+00,2.183745861053466797e+00,2.144374370574951172e+00,2.106397390365600586e+00,2.069741964340209961e+00,2.034340858459472656e+00,2.000130176544189453e+00,1.967051148414611816e+00,1.935048460960388184e+00,1.904070377349853516e+00,1.874068617820739746e+00,1.844997406005859375e+00
5.000000000000000000e+00,5.000000000000000000e+00,5.000000000000000000e+00,5.000000000000000000e+00,5.000000000000000000e+00,5.000000000000000000e+00,5.000000000000000000e+00,5.000000000000000000e+00,5.000000000000000000e+00,5.000000000000000000e+00,5.000000000000000000e+00,5.000000000000000000e+00,5.000000000000000000e+00,5.000000000000000000e+00,5.000000000000000000e+00,5.000000000000000000e+00,5.000000000000000000e+00,5.000000000000000000e+00,5.000000000000000000e+00,5.000000000000000000e+00,5.000000000000000000e+00,5.000000000000000000e+00,4.262709617614746094e+00,4.292521953582763672e+00,4.225258350372314453e+00,4.203015804290771484e+00,4.216413497924804688e+00,4.295173645019531250e+00,4.377233028411865234e+00,5.000000000000000000e+00,5.000000000000000000e+00,5.000000000000000000e+00,5.000000000000000000e+00,5.000000000000000000e+00,5.000000000000000000e+00,5.000000000000000000e+00,5.000000000000000000e+00,5.000000000000000000e+00,5.000000000000000000e+00,4.861672401428222656e+00,4.670752048492431641e+00,4.494260787963867188e+00,4.330621242523193359e+00,4.178479671478271484e+00,4.036664962768554688e+00,3.904160976409912109e+00,3.780079126358032227e+00,3.663641452789306641e+00,3.554162740707397461e+00,3.451037168502807617e+00,3.353727340698242188e+00,3.261754989624023438e+00,3.174692153930664062e+00,3.092156171798706055e+00,3.013803243637084961e+00,2.939322948455810547e+00,2.868435144424438477e+00,2.800885677337646484e+00,2.736444711685180664e+00,2.674902439117431641e+00,2.616067409515380859e+00,2.559764862060546875e+00,2.505834579467773438e+00,2.454129934310913086e+00,2.404515981674194336e+00,2.356868267059326172e+00,2.311072111129760742e+00,2.267021894454956055e+00,2.224619388580322266e+00,2.183773994445800781e+00,2.144401311874389648e+00,2.106423616409301758e+00,2.069767236709594727e+00,2.034365177154541016e+00,2.000153779983520508e+00,1.967074036598205566e+00,1.935070633888244629e+00,1.904091715812683105e+00,1.874089241027832031e+00,1.845017552375793457e+00
5.000000000000000000e+00,5.000000000000000000e+00,5.000000000000000000e+00,5.000000000000000000e+00,5.000000000000000000e+00,5.000000000000000000e+00,5.000000000000000000e+00,5.000000000000000000e+00,5.000000000000000000e+00,5.000000000000000000e+00,5.000000000000000000e+00,5.000000000000000000e+00,5.000000000000000000e+00,5.000000000000000000e+00,5.000000000000000000e+00,5.000000000000000000e+00,5.000000000000000000e+00,5.000000000000000000e+00,5.000000000000000000e+00,5.000000000000000000e+00,5.000000000000000000e+00,5.000000000000000000e+00,4.204925537109375000e+00,4.272701740264892578e+00,4.221111774444580078e+00,4.217811584472656250e+00,4.244343280792236328e+00,4.314846992492675781e+00,4.358797550201416016e+00,5.000000000000000000e+00,5.000000000000000000e+00,5.000000000000000000e+00,5.000000000000000000e+00,5.000000000000000000e+00,5.000000000000000000e+00,5.000000000000000000e+00,5.000000000000000000e+00,5.000000000000000000e+00,5.000000000000000000e+00,4.861812114715576172e+00,4.670880794525146484e+00,4.494379997253417969e+00,4.330731868743896484e+00,4.178582668304443359e+00,4.036761283874511719e+00,3.904250860214233398e+00,3.780163526535034180e+00,3.663720607757568359e+00,3.554237365722656250e+00,3.451107501983642578e+00,3.353793859481811523e+00,3.261817693710327148e+00,3.174751520156860352e+00,3.092212677001953125e+00,3.013856887817382812e+00,2.939373970031738281e+00,2.868483543395996094e+00,2.800932168960571289e+00,2.736489057540893555e+00,2.674944877624511719e+00,2.616107940673828125e+00,2.559803485870361328e+00,2.505871772766113281e+00,2.454165458679199219e+00,2.404549837112426758e+00,2.356900930404663086e+00,2.311103582382202148e+00,2.267051935195922852e+00,2.224648475646972656e+00,2.183802127838134766e+00,2.144428491592407227e+00,2.106449604034423828e+00,2.069792509078979492e+00,2.034389495849609375e+00,2.000177383422851562e+00,1.967096805572509766e+00,1.935092687606811523e+00,1.904113173484802246e+00,1.874109983444213867e+00,1.845037579536437988e+00
5.000000000000000000e+00,5.000000000000000000e+00,5.000000000000000000e+00,5.000000000000000000e+00,5.000000000000000000e+00,5.000000000000000000e+00,5.000000000000000000e+00,5.000000000000000000e+00,5.000000000000000000e+00,5.000000000000000000e+00,5.000000000000000000e+00,5.000000000000000000e+00,5.000000000000000000e+00,5.000000000000000000e+00,5.000000000000000000e+00,5.000000000000000000e+00,5.000000000000000000e+00,5.000000000000000000e+00,5.000000000000000000e+00,5.000000000000000000e+00,5.000000000000000000e+00,5.000000000000000000e+00,4.152851104736328125e+00,4.285361766815185547e+00,4.235889434814453125e+00,4.272408485412597656e+00,4.177550315856933594e+00,4.241279602050781250e+00,4.338212966918945312e+00,5.000000000000000000e+00,5.000000000000000000e+00,5.000000000000000000e+00,5.000000000000000000e+00,5.000000000000000000e+00,5.000000000000000000e+00,5.000000000000000000e+00,5.000000000000000000e+00,5.000000000000000000e+00,5.000000000000000000e+00,4.861951351165771484e+00,4.671009540557861328e+00,4.494498729705810547e+00,4.330842494964599609e+00,4.178685188293457031e+00,4.036857128143310547e+00,3.904340744018554688e+00,3.780247688293457031e+00,3.663800001144409180e+00,3.554311990737915039e+00,3.451177835464477539e+00,3.353860139846801758e+00,3.261880397796630859e+00,3.174811124801635742e+00,3.092269182205200195e+00,3.013910531997680664e+00,2.939424753189086914e+00,2.868531942367553711e+00,2.800978183746337891e+00,2.736532926559448242e+00,2.674986839294433594e+00,2.616147994995117188e+00,2.559841871261596680e+00,2.505908489227294922e+00,2.454200983047485352e+00,2.404583930969238281e+00,2.356933593750000000e+00,2.311135053634643555e+00,2.267082452774047852e+00,2.224677562713623047e+00,2.183830261230468750e+00,2.144455671310424805e+00,2.106475830078125000e+00,2.069817781448364258e+00,2.034414052963256836e+00,2.000200986862182617e+00,1.967119693756103516e+00,1.935114860534667969e+00,1.904134511947631836e+00,1.874130725860595703e+00,1.845057725906372070e+00
5.000000000000000000e+00,5.000000000000000000e+00,5.000000000000000000e+00,5.000000000000000000e+00,5.000000000000000000e+00,5.000000000000000000e+00,5.000000000000000000e+00,5.000000000000000000e+00,5.000000000000000000e+00,5.000000000000000000e+00,5.000000000000000000e+00,5.000000000000000000e+00,5.000000000000000000e+00,5.000000000000000000e+00,5.000000000000000000e+00,5.000000000000000000e+00,5.000000000000000000e+00,5.000000000000000000e+00,5.000000000000000000e+00,5.000000000000000000e+00,5.000000000000000000e+00,5.000000000000000000e+00,4.103183269500732422e+00,4.302243709564208984e+00,4.230550289154052734e+00,4.175549030303955078e+00,4.139074802398681641e+00,4.203317642211914062e+00,4.332245826721191406e+00,5.000000000000000000e+00,5.000000000000000000e+00,5.000000000000000000e+00,5.000000000000000000e+00,5.000000000000000000e+00,5.000000000000000000e+00,5.000000000000000000e+00,5.000000000000000000e+00,5.000000000000000000e+00,5.000000000000000000e+00,4.862090587615966797e+00,4.671138286590576172e+00,4.494617938995361328e+00,4.330953121185302734e+00,4.178788185119628906e+00,4.036953449249267578e+00,3.904430866241455078e+00,3.780332088470458984e+00,3.663879156112670898e+00,3.554386377334594727e+00,3.451248168945312500e+00,3.353926420211791992e+00,3.261942863464355469e+00,3.174870252609252930e+00,3.092325210571289062e+00,3.013963460922241211e+00,2.939475536346435547e+00,2.868580341339111328e+00,2.801024436950683594e+00,2.736577272415161133e+00,2.675029039382934570e+00,2.616188526153564453e+00,2.559880733489990234e+00,2.505945682525634766e+00,2.454236507415771484e+00,2.404618024826049805e+00,2.356966495513916016e+00,2.311166524887084961e+00,2.267112731933593750e+00,2.224706888198852539e+00,2.183858394622802734e+00,2.144482851028442383e+00,2.106502056121826172e+00,2.069843053817749023e+00,2.034438371658325195e+00,2.000224590301513672e+00,1.967142462730407715e+00,1.935136914253234863e+00,1.904155969619750977e+00,1.874151468276977539e+00,1.845077753067016602e+00
5.000000000000000000e+00,5.000000000000000000e+00,5.000000000000000000e+00,5.000000000000000000e+00,5.000000000000000000e+00,5.000000000000000000e+00,5.000000000000000000e+00,5.000000000000000000e+00,5.000000000000000000e+00,5.000000000000000000e+00,5.000000000000000000e+00,5.000000000000000000e+00,5.000000000000000000e+00,5.000000000000000000e+00,5.000000000000000000e+00,5.000000000000000000e+00,5.000000000000000000e+00,5.000000000000000000e+00,5.000000000000000000e+00,5.000000000000000000e+00,5.000000000000000000e+00,5.000000000000000000e+00,5.000000000000000000e+00,5.000000000000000000e+00,4.249857902526855469e+00,4.156099319458007812e+00,4.102726936340332031e+00,4.202385425567626953e+00,5.000000000000000000e+00,5.000000000000000000e+00,5.000000000000000000e+00,5.000000000000000000e+00,5.000000000000000000e+00,5.000000000000000000e+00,5.000000000000000000e+00,5.000000000000000000e+00,5.000000000000000000e+00,5.000000000000000000e+00,5.000000000000000000e+00,4.862229824066162109e+00,4.671267032623291016e+00,4.494737148284912109e+00,4.331063747406005859e+00,4.178891658782958984e+00,4.037049293518066406e+00,3.904520750045776367e+00,3.780416011810302734e+00,3.663958072662353516e+00,3.554460763931274414e+00,3.451318025588989258e+00,3.353992462158203125e+00,3.262005567550659180e+00,3.174929618835449219e+00,3.092381477355957031e+00,3.014017105102539062e+00,2.939526557922363281e+00,2.868628978729248047e+00,2.801070690155029297e+00,2.736621379852294922e+00,2.675071239471435547e+00,2.616228818893432617e+00,2.559919357299804688e+00,2.505982637405395508e+00,2.454272031784057617e+00,2.404652357101440430e+00,2.356999158859252930e+00,2.311197996139526367e+00,2.267143011093139648e+00,2.224735975265502930e+00,2.183886528015136719e+00,2.144510030746459961e+00,2.106528282165527344e+00,2.069868326187133789e+00,2.034462928771972656e+00,2.000248193740844727e+00,1.967165350914001465e+00,1.935158967971801758e+00,1.904177308082580566e+00,1.874171972274780273e+00,1.845097899436950684e+00
5.000000000000000000e+00,5.000000000000000000e+00,5.000000000000000000e+00,5.000000000000000000e+00,5.000000000000000000e+00,5.000000000000000000e+00,5.000000000000000000e+00,5.000000000000000000e+00,5.000000000000000000e+00,5.000000000000000000e+00,5.000000000000000000e+00,5.000000000000000000e+00,5.000000000000000000e+00,5.000000000000000000e+00,5.000000000000000000e+00,5.000000000000000000e+00,5.000000000000000000e+00,5.000000000000000000e+00,5.000000000000000000e+00,5.000000000000000000e+00,5.000000000000000000e+00,5.000000000000000000e+00,5.000000000000000000e+00,5.000000000000000000e+00,4.274382591247558594e+00,4.105533599853515625e+00,4.060528755187988281e+00,5.000000000000000000e+00,5.000000000000000000e+00,5.000000000000000000e+00,5.000000000000000000e+00,5.000000000000000000e+00,5.000000000000000000e+00,5.000000000000000000e+00,5.000000000000000000e+00,5.000000000000000000e+00,5.000000000000000000e+00,5.000000000000000000e+00,5.000000000000000000e+00,4.862369537353515625e+00,4.671395301818847656e+00,4.494855880737304688e+00,4.331173896789550781e+00,4.178994178771972656e+00,4.037145614624023438e+00,3.904610157012939453e+00,3.780500411987304688e+00,3.664037227630615234e+00,3.554535150527954102e+00,3.451388359069824219e+00,3.354058980941772461e+00,3.262068510055541992e+00,3.174988985061645508e+00,3.092437982559204102e+00,3.014070749282836914e+00,2.939577341079711914e+00,2.868677377700805664e+00,2.801116943359375000e+00,2.736665487289428711e+00,2.675113439559936523e+00,2.616269111633300781e+00,2.559957981109619141e+00,2.506019830703735352e+00,2.454307556152343750e+00,2.404686450958251953e+00,2.357032060623168945e+00,2.311229467391967773e+00,2.267173290252685547e+00,2.224765300750732422e+00,2.183914661407470703e+00,2.144536972045898438e+00,2.106554508209228516e+00,2.069893598556518555e+00,2.034487247467041016e+00,2.000271558761596680e+00,1.967188119888305664e+00,1.935180902481079102e+00,1.904198765754699707e+00,1.874192714691162109e+00,1.845117926597595215e+00
5.000000000000000000e+00,5.000000000000000000e+00,5.000000000000000000e+00,5.000000000000000000e+00,5.000000000000000000e+00,5.000000000000000000e+00,5.000000000000000000e+00,5.000000000000000000e+00,5.000000000000000000e+00,5.000000000000000000e+00,5.000000000000000000e+00,5.000000000000000000e+00,5.000000000000000000e+00,5.000000000000000000e+00,5.000000000000000000e+00,5.000000000000000000e+00,5.000000000000000000e+00,5.000000000000000000e+00,5.000000000000000000e+00,5.000000000000000000e+00,5.000000000000000000e+00,5.000000000000000000e+00,5.000000000000000000e+00,5.000000000000000000e+00,4.294302463531494141e+00,4.080389022827148438e+00,4.039299011230468750e+00,5.000000000000000000e+00,5.000000000000000000e+00,5.000000000000000000e+00,5.000000000000000000e+00,5.000000000000000000e+00,5.000000000000000000e+00,5.000000000000000000e+00,5.000000000000000000e+00,5.000000000000000000e+00,5.000000000000000000e+00,5.000000000000000000e+00,5.000000000000000000e+00,4.862508773803710938e+00,4.671524047851562500e+00,4.494975090026855469e+00,4.331284999847412109e+00,4.179097175598144531e+00,4.037241458892822266e+00,3.904700279235839844e+00,3.780584812164306641e+00,3.664116382598876953e+00,3.554609775543212891e+00,3.451458692550659180e+00,3.354125261306762695e+00,3.262130975723266602e+00,3.175048351287841797e+00,3.092494249343872070e+00,3.014124393463134766e+00,2.939628362655639648e+00,2.868726015090942383e+00,2.801163196563720703e+00,2.736709833145141602e+00,2.675155639648437500e+00,2.616309642791748047e+00,2.559996604919433594e+00,2.506056785583496094e+00,2.454343080520629883e+00,2.404720544815063477e+00,2.357064723968505859e+00,2.311260938644409180e+00,2.267203569412231445e+00,2.224794387817382812e+00,2.183942556381225586e+00,2.144564151763916016e+00,2.106580495834350586e+00,2.069918870925903320e+00,2.034511566162109375e+00,2.000295162200927734e+00,1.967211008071899414e+00,1.935202956199645996e+00,1.904220104217529297e+00,1.874213457107543945e+00,1.845138072967529297e+00
5.000000000000000000e+00,5.000000000000000000e+00,5.000000000000000000e+00,5.000000000000000000e+00,5.000000000000000000e+00,5.000000000000000000e+00,5.000000000000000000e+00,5.000000000000000000e+00,5.000000000000000000e+00,5.000000000000000000e+00,5.000000000000000000e+00,5.000000000000000000e+00,5.000000000000000000e+00,5.000000000000000000e+00,5.000000000000000000e+00,5.000000000000000000e+00,5.000000000000000000e+00,5.000000000000000000e+00,5.000000000000000000e+00,5.000000000000000000e+00,5.000000000000000000e+00,5.000000000000000000e+00,5.000000000000000000e+00,5.000000000000000000e+00,4.328791618347167969e+00,4.326892375946044922e+00,4.053064346313476562e+00,5.000000000000000000e+00,5.000000000000000000e+00,5.000000000000000000e+00,5.000000000000000000e+00,5.000000000000000000e+00,5.000000000000000000e+00,5.000000000000000000e+00,5.000000000000000000e+00,5.000000000000000000e+00,5.000000000000000000e+00,5.000000000000000000e+00,5.000000000000000000e+00,4.862647056579589844e+00,4.671652793884277344e+00,4.495094299316406250e+00,4.331395626068115234e+00,4.179200172424316406e+00,4.037337303161621094e+00,3.904790163040161133e+00,3.780668973922729492e+00,3.664195537567138672e+00,3.554684400558471680e+00,3.451529026031494141e+00,3.354191541671752930e+00,3.262193918228149414e+00,3.175107955932617188e+00,3.092550754547119141e+00,3.014178037643432617e+00,2.939679384231567383e+00,2.868774652481079102e+00,2.801209688186645508e+00,2.736753940582275391e+00,2.675197839736938477e+00,2.616349697113037109e+00,2.560035228729248047e+00,2.506093740463256836e+00,2.454378366470336914e+00,2.404754400253295898e+00,2.357097387313842773e+00,2.311292409896850586e+00,2.267233848571777344e+00,2.224823474884033203e+00,2.183970928192138672e+00,2.144591331481933594e+00,2.106606721878051758e+00,2.069944143295288086e+00,2.034536123275756836e+00,2.000318765640258789e+00,1.967233777046203613e+00,1.935225129127502441e+00,1.904241561889648438e+00,1.874234199523925781e+00,1.845158100128173828e+00
5.000000000000000000e+00,5.000000000000000000e+00,5.000000000000000000e+00,5.000000000000000000e+00,5.000000000000000000e+00,5.000000000000000000e+00,5.000000000000000000e+00,5.000000000000000000e+00,5.000000000000000000e+00,5.000000000000000000e+00,5.000000000000000000e+00,5.000000000000000000e+00,5.000000000000000000e+00,5.000000000000000000e+00,5.000000000000000000e+00,5.000000000000000000e+00,5.000000000000000000e+00,5.000000000000000000e+00,5.000000000000000000e+00,5.000000000000000000e+00,5.000000000000000000e+00,5.000000000000000000e+00,5.000000000000000000e+00,5.000000000000000000e+00,5.000000000000000000e+00,4.380342006683349609e+00,4.063009262084960938e+00,5.000000000000000000e+00,5.000000000000000000e+00,5.000000000000000000e+00,5.000000000000000000e+00,5.000000000000000000e+00,5.000000000000000000e+00,5.000000000000000000e+00,5.000000000000000000e+00,5.000000000000000000e+00,5.000000000000000000e+00,5.000000000000000000e+00,5.000000000000000000e+00,4.862785339355468750e+00,4.671780586242675781e+00,4.495213508605957031e+00,4.331505775451660156e+00,4.179303169250488281e+00,4.037433624267578125e+00,3.904880046844482422e+00,3.780753374099731445e+00,3.664274930953979492e+00,3.554758787155151367e+00,3.451598882675170898e+00,3.354257822036743164e+00,3.262256622314453125e+00,3.175167560577392578e+00,3.092607259750366211e+00,3.014231204986572266e+00,2.939730167388916016e+00,2.868822813034057617e+00,2.801255702972412109e+00,2.736797809600830078e+00,2.675240039825439453e+00,2.616390228271484375e+00,2.560073852539062500e+00,2.506130695343017578e+00,2.454413890838623047e+00,2.404788494110107422e+00,2.357130289077758789e+00,2.311323881149291992e+00,2.267264127731323242e+00,2.224852800369262695e+00,2.183999061584472656e+00,2.144618272781372070e+00,2.106632947921752930e+00,2.069969415664672852e+00,2.034560441970825195e+00,2.000342369079589844e+00,1.967256665229797363e+00,1.935247182846069336e+00,1.904262900352478027e+00,1.874254941940307617e+00,1.845178246498107910e+00
5.000000000000000000e+00,5.000000000000000000e+00,5.000000000000000000e+00,5.000000000000000000e+00,5.000000000000000000e+00,5.000000000000000000e+00,5.000000000000000000e+00,5.000000000000000000e+00,5.000000000000000000e+00,5.000000000000000000e+00,5.000000000000000000e+00,5.000000000000000000e+00,5.000000000000000000e+00,5.000000000000000000e+00,5.000000000000000000e+00,5.000000000000000000e+00,5.000000000000000000e+00,5.000000000000000000e+00,5.000000000000000000e+00,5.000000000000000000e+00,5.000000000000000000e+00,5.000000000000000000e+00,5.000000000000000000e+00,5.000000000000000000e+00,5.000000000000000000e+00,4.426839828491210938e+00,4.054982662200927734e+00,5.000000000000000000e+00,5.000000000000000000e+00,5.000000000000000000e+00,5.000000000000000000e+00,5.000000000000000000e+00,5.000000000000000000e+00,5.000000000000000000e+00,5.000000000000000000e+00,5.000000000000000000e+00,5.000000000000000000e+00,5.000000000000000000e+00,5.000000000000000000e+00,4.862924098968505859e+00,4.671908378601074219e+00,4.495332717895507812e+00,4.331616401672363281e+00,4.179406166076660156e+00,4.037529945373535156e+00,3.904970169067382812e+00,3.780837774276733398e+00,3.664354085922241211e+00,3.554832935333251953e+00,3.451668977737426758e+00,3.354323863983154297e+00,3.262319087982177734e+00,3.175226688385009766e+00,3.092663288116455078e+00,3.014284849166870117e+00,2.939781188964843750e+00,2.868871450424194336e+00,2.801301956176757812e+00,2.736842155456542969e+00,2.675282239913940430e+00,2.616430521011352539e+00,2.560112476348876953e+00,2.506167888641357422e+00,2.454449653625488281e+00,2.404822587966918945e+00,2.357162952423095703e+00,2.311355590820312500e+00,2.267294406890869141e+00,2.224881887435913086e+00,2.184027194976806641e+00,2.144645452499389648e+00,2.106658935546875000e+00,2.069994688034057617e+00,2.034584999084472656e+00,2.000366210937500000e+00,1.967279553413391113e+00,1.935269236564636230e+00,1.904284358024597168e+00,1.874275684356689453e+00,1.845198273658752441e+00
5.000000000000000000e+00,5.000000000000000000e+00,5.000000000000000000e+00,5.000000000000000000e+00,5.000000000000000000e+00,5.000000000000000000e+00,5.000000000000000000e+00,5.000000000000000000e+00,5.000000000000000000e+00,5.000000000000000000e+00,5.000000000000000000e+00,5.000000000000000000e+00,5.000000000000000000e+00,5.000000000000000000e+00,5.000000000000000000e+00,5.000000000000000000e+00,5.000000000000000000e+00,5.000000000000000000e+00,5.000000000000000000e+00,5.000000000000000000e+00,5.000000000000000000e+00,5.000000000000000000e+00,5.000000000000000000e+00,5.000000000000000000e+00,5.000000000000000000e+00,4.449106693267822266e+00,4.049864292144775391e+00,5.000000000000000000e+00,5.000000000000000000e+00,5.000000000000000000e+00,5.000000000000000000e+00,5.000000000000000000e+00,5.000000000000000000e+00,5.000000000000000000e+00,5.000000000000000000e+00,5.000000000000000000e+00,5.000000000000000000e+00,5.000000000000000000e+00,5.000000000000000000e+00,4.863062858581542969e+00,4.672036647796630859e+00,4.495450496673583984e+00,4.331727504730224609e+00,4.179509162902832031e+00,4.037625789642333984e+00,3.905059576034545898e+00,3.780921697616577148e+00,3.664432764053344727e+00,3.554907321929931641e+00,3.451739311218261719e+00,3.354390382766723633e+00,3.262381792068481445e+00,3.175286054611206055e+00,3.092719793319702148e+00,3.014338493347167969e+00,2.939832210540771484e+00,2.868920087814331055e+00,2.801348209381103516e+00,2.736886262893676758e+00,2.675324440002441406e+00,2.616471052169799805e+00,2.560151100158691406e+00,2.506204843521118164e+00,2.454485177993774414e+00,2.404856920242309570e+00,2.357195854187011719e+00,2.311387062072753906e+00,2.267324924468994141e+00,2.224911212921142578e+00,2.184055328369140625e+00,2.144672632217407227e+00,2.106685161590576172e+00,2.070019960403442383e+00,2.034609317779541016e+00,2.000389814376831055e+00,1.967302083969116211e+00,1.935291409492492676e+00,1.904305458068847656e+00,1.874296307563781738e+00,1.845218181610107422e+00
5.000000000000000000e+00,5.000000000000000000e+00,5.000000000000000000e+00,5.000000000000000000e+00,5.000000000000000000e+00,5.000000000000000000e+00,5.000000000000000000e+00,5.000000000000000000e+00,5.000000000000000000e+00,5.000000000000000000e+00,5.000000000000000000e+00,5.000000000000000000e+00,5.000000000000000000e+00,5.000000000000000000e+00,5.000000000000000000e+00,5.000000000000000000e+00,5.000000000000000000e+00,5.000000000000000000e+00,5.000000000000000000e+00,5.000000000000000000e+00,5.000000000000000000e+00,5.000000000000000000e+00,5.000000000000000000e+00,5.000000000000000000e+00,5.000000000000000000e+00,4.497685432434082031e+00,4.054681777954101562e+00,5.000000000000000000e+00,5.000000000000000000e+00,5.000000000000000000e+00,5.000000000000000000e+00,5.000000000000000000e+00,5.000000000000000000e+00,5.000000000000000000e+00,5.000000000000000000e+00,5.000000000000000000e+00,5.000000000000000000e+00,5.000000000000000000e+00,5.000000000000000000e+00,4.863201141357421875e+00,4.672164440155029297e+00,4.495568752288818359e+00,4.331836700439453125e+00,4.179612159729003906e+00,4.037722110748291016e+00,3.905149698257446289e+00,3.781005859375000000e+00,3.664511919021606445e+00,3.554981946945190430e+00,3.451809644699096680e+00,3.354456663131713867e+00,3.262444734573364258e+00,3.175345659255981445e+00,3.092776298522949219e+00,3.014392137527465820e+00,2.939883232116699219e+00,2.868968486785888672e+00,2.801394701004028320e+00,2.736930608749389648e+00,2.675366640090942383e+00,2.616511344909667969e+00,2.560189723968505859e+00,2.506242036819458008e+00,2.454520702362060547e+00,2.404891014099121094e+00,2.357228517532348633e+00,2.311418533325195312e+00,2.267355203628540039e+00,2.224940299987792969e+00,2.184083223342895508e+00,2.144699573516845703e+00,2.106711387634277344e+00,2.070044994354248047e+00,2.034633636474609375e+00,2.000413179397583008e+00,1.967324972152709961e+00,1.935313463211059570e+00,1.904326915740966797e+00,1.874317049980163574e+00,1.845238327980041504e+00
5.000000000000000000e+00,5.000000000000000000e+00,5.000000000000000000e+00,5.000000000000000000e+00,5.000000000000000000e+00,5.000000000000000000e+00,5.000000000000000000e+00,5.000000000000000000e+00,5.000000000000000000e+00,5.000000000000000000e+00,5.000000000000000000e+00,5.000000000000000000e+00,5.000000000000000000e+00,5.000000000000000000e+00,5.000000000000000000e+00,5.000000000000000000e+00,5.000000000000000000e+00,5.000000000000000000e+00,5.000000000000000000e+00,5.000000000000000000e+00,5.000000000000000000e+00,5.000000000000000000e+00,5.000000000000000000e+00,5.000000000000000000e+00,5.000000000000000000e+00,5.000000000000000000e+00,4.057693481445312500e+00,5.000000000000000000e+00,5.000000000000000000e+00,5.000000000000000000e+00,5.000000000000000000e+00,5.000000000000000000e+00,5.000000000000000000e+00,5.000000000000000000e+00,5.000000000000000000e+00,5.000000000000000000e+00,5.000000000000000000e+00,5.000000000000000000e+00,5.000000000000000000e+00,4.863339900970458984e+00,4.672292232513427734e+00,4.495687484741210938e+00,4.331946849822998047e+00,4.179714679718017578e+00,4.037818431854248047e+00,3.905239343643188477e+00,3.781090259552001953e+00,3.664591073989868164e+00,3.555056571960449219e+00,3.451879978179931641e+00,3.354523181915283203e+00,3.262507438659667969e+00,3.175405025482177734e+00,3.092832565307617188e+00,3.014445781707763672e+00,2.939934253692626953e+00,2.869017124176025391e+00,2.801440954208374023e+00,2.736974716186523438e+00,2.675408840179443359e+00,2.616551876068115234e+00,2.560228586196899414e+00,2.506278991699218750e+00,2.454555988311767578e+00,2.404924869537353516e+00,2.357261180877685547e+00,2.311450004577636719e+00,2.267385482788085938e+00,2.224969387054443359e+00,2.184111356735229492e+00,2.144726753234863281e+00,2.106737375259399414e+00,2.070070266723632812e+00,2.034657955169677734e+00,2.000436782836914062e+00,1.967347741127014160e+00,1.935335516929626465e+00,1.904348254203796387e+00,1.874337792396545410e+00,1.845258355140686035e+00
4.875417709350585938e+00,4.874207019805908203e+00,4.872996330261230469e+00,4.871787071228027344e+00,4.870577812194824219e+00,4.869369506835937500e+00,4.868161201477050781e+00,4.866954326629638672e+00,4.865747451782226562e+00,4.864541053771972656e+00,4.863335609436035156e+00,4.862130641937255859e+00,4.860926628112792969e+00,4.859722614288330078e+00,4.858520030975341797e+00,4.857316970825195312e+00,4.856115341186523438e+00,4.854914188385009766e+00,4.853713035583496094e+00,4.852513313293457031e+00,4.851313591003417969e+00,4.850114822387695312e+00,4.848916530609130859e+00,4.847718238830566406e+00,4.846521377563476562e+00,4.483766555786132812e+00,3.948561668395996094e+00,4.842933177947998047e+00,4.841738700866699219e+00,4.840544223785400391e+00,4.839350700378417969e+00,4.838157653808593750e+00,4.836965084075927734e+00,4.835773468017578125e+00,4.834581851959228516e+00,4.833391189575195312e+00,4.832201004028320312e+00,4.831011295318603516e+00,4.829822540283203125e+00,4.828634262084960938e+00,4.672420501708984375e+00,4.495805740356445312e+00,4.332056999206542969e+00,4.179816722869873047e+00,4.037914276123046875e+00,3.905329465866088867e+00,3.781174421310424805e+00,3.664670467376708984e+00,3.555131196975708008e+00,3.451950073242187500e+00,3.354589462280273438e+00,3.262570381164550781e+00,3.175464630126953125e+00,3.092889070510864258e+00,3.014499425888061523e+00,2.939985275268554688e+00,2.869065761566162109e+00,2.801486968994140625e+00,2.737018585205078125e+00,2.675450801849365234e+00,2.616591930389404297e+00,2.560266971588134766e+00,2.506315946578979492e+00,2.454591512680053711e+00,2.404958963394165039e+00,2.357294082641601562e+00,2.311481475830078125e+00,2.267415761947631836e+00,2.224998712539672852e+00,2.184139490127563477e+00,2.144753932952880859e+00,2.106763601303100586e+00,2.070095539093017578e+00,2.034682512283325195e+00,2.000460386276245117e+00,1.967370629310607910e+00,1.935357689857482910e+00,1.904369711875915527e+00,1.874358534812927246e+00,1.845278501510620117e+00
3.778215646743774414e+00,3.777488470077514648e+00,3.776761293411254883e+00,3.776034593582153320e+00,3.775308370590209961e+00,3.774582147598266602e+00,3.773856163024902344e+00,3.773130655288696289e+00,3.772405624389648438e+00,3.771680593490600586e+00,3.770955801010131836e+00,3.770231246948242188e+00,3.769506931304931641e+00,3.768783330917358398e+00,3.768059730529785156e+00,3.767336130142211914e+00,3.766613006591796875e+00,3.765890121459960938e+00,3.765167951583862305e+00,3.764445543289184570e+00,3.763723611831665039e+00,3.763001918792724609e+00,3.762280702590942383e+00,3.761559486389160156e+00,3.760838747024536133e+00,3.760118007659912109e+00,3.759397506713867188e+00,3.758677959442138672e+00,3.757958173751831055e+00,3.757238626480102539e+00,3.756519317626953125e+00,3.755800247192382812e+00,3.755081892013549805e+00,3.754363536834716797e+00,3.753645181655883789e+00,3.752927303314208984e+00,3.752210140228271484e+00,3.751492738723754883e+00,3.750775575637817383e+00,3.750058889389038086e+00,3.749342203140258789e+00,3.748626470565795898e+00,3.747910499572753906e+00,3.747194766998291016e+00,3.746479272842407227e+00,3.745764017105102539e+00,3.745049715042114258e+00,3.664749622344970703e+00,3.555205583572387695e+00,3.452020406723022461e+00,3.354655981063842773e+00,3.262633085250854492e+00,3.175523757934570312e+00,3.092945337295532227e+00,3.014552831649780273e+00,2.940035820007324219e+00,2.869114160537719727e+00,2.801533222198486328e+00,2.737062931060791016e+00,2.675493240356445312e+00,2.616632461547851562e+00,2.560305595397949219e+00,2.506352901458740234e+00,2.454627037048339844e+00,2.404993057250976562e+00,2.357326745986938477e+00,2.311512947082519531e+00,2.267446041107177734e+00,2.225027799606323242e+00,2.184167623519897461e+00,2.144781112670898438e+00,2.106789827346801758e+00,2.070121049880981445e+00,2.034706830978393555e+00,2.000483989715576172e+00,1.967393517494201660e+00,1.935379743576049805e+00,1.904391050338745117e+00,1.874379277229309082e+00,1.845298528671264648e+00
3.084137201309204102e+00,3.083652496337890625e+00,3.083168029785156250e+00,3.082684040069580078e+00,3.082199811935424805e+00,3.081715822219848633e+00,3.081231832504272461e+00,3.080748319625854492e+00,3.080264806747436523e+00,3.079781293869018555e+00,3.079298019409179688e+00,3.078814744949340820e+00,3.078332185745239258e+00,3.077849149703979492e+00,3.077366590499877930e+00,3.076884031295776367e+00,3.076401710510253906e+00,3.075919628143310547e+00,3.075437545776367188e+00,3.074955701828002930e+00,3.074473857879638672e+00,3.073992490768432617e+00,3.073510885238647461e+00,3.073029518127441406e+00,3.072548389434814453e+00,3.072067499160766602e+00,3.071586847305297852e+00,3.071105957031250000e+00,3.070625543594360352e+00,3.070145130157470703e+00,3.069664716720581055e+00,3.069185018539428711e+00,3.068704843521118164e+00,3.068225145339965820e+00,3.067745447158813477e+00,3.067266225814819336e+00,3.066786766052246094e+00,3.066307544708251953e+00,3.065828561782836914e+00,3.065349578857421875e+00,3.064871072769165039e+00,3.064392566680908203e+00,3.063914060592651367e+00,3.063435792922973633e+00,3.062957525253295898e+00,3.062479734420776367e+00,3.062001943588256836e+00,3.061524152755737305e+00,3.061046600341796875e+00,3.060569286346435547e+00,3.060091972351074219e+00,3.059614896774291992e+00,3.059137821197509766e+00,3.058660984039306641e+00,3.014606475830078125e+00,2.940086841583251953e+00,2.869162559509277344e+00,2.801579713821411133e+00,2.737107038497924805e+00,2.675535440444946289e+00,2.616672754287719727e+00,2.560344457626342773e+00,2.506390094757080078e+00,2.454662799835205078e+00,2.405027389526367188e+00,2.357359647750854492e+00,2.311544418334960938e+00,2.267476320266723633e+00,2.225057125091552734e+00,2.184195756912231445e+00,2.144808292388916016e+00,2.106816053390502930e+00,2.070146322250366211e+00,2.034731388092041016e+00,2.000507593154907227e+00,1.967416286468505859e+00,1.935401916503906250e+00,1.904412508010864258e+00,1.874399781227111816e+00,1.845318675041198730e+00
2.605494022369384766e+00,2.605148315429687500e+00,2.604802370071411133e+00,2.604456663131713867e+00,2.604110956192016602e+00,2.603765487670898438e+00,2.603420257568359375e+00,2.603074789047241211e+00,2.602729558944702148e+00,2.602384328842163086e+00,2.602039337158203125e+00,2.601694583892822266e+00,2.601349592208862305e+00,2.601004838943481445e+00,2.600660085678100586e+00,2.600315809249877930e+00,2.599971055984497070e+00,2.599626779556274414e+00,2.599282264709472656e+00,2.598937988281250000e+00,2.598593950271606445e+00,2.598249912261962891e+00,2.597905874252319336e+00,2.597562074661254883e+00,2.597218275070190430e+00,2.596874713897705078e+00,2.596531152725219727e+00,2.596187591552734375e+00,2.595844030380249023e+00,2.595500946044921875e+00,2.595157623291015625e+00,2.594814538955688477e+00,2.594471454620361328e+00,2.594128370285034180e+00,2.593785762786865234e+00,2.593442916870117188e+00,2.593100309371948242e+00,2.592757701873779297e+00,2.592415094375610352e+00,2.592072725296020508e+00,2.591730356216430664e+00,2.591388225555419922e+00,2.591046094894409180e+00,2.590704202651977539e+00,2.590362071990966797e+00,2.590020179748535156e+00,2.589678287506103516e+00,2.589336633682250977e+00,2.588995218276977539e+00,2.588653564453125000e+00,2.588312149047851562e+00,2.587970733642578125e+00,2.587629556655883789e+00,2.587288618087768555e+00,2.586947441101074219e+00,2.586606502532958984e+00,2.586265563964843750e+00,2.585924863815307617e+00,2.585584163665771484e+00,2.585243701934814453e+00,2.584903001785278320e+00,2.560383081436157227e+00,2.506427049636840820e+00,2.454698324203491211e+00,2.405061483383178711e+00,2.357392311096191406e+00,2.311576128005981445e+00,2.267506837844848633e+00,2.225086212158203125e+00,2.184223890304565430e+00,2.144835472106933594e+00,2.106842279434204102e+00,2.070171356201171875e+00,2.034755706787109375e+00,2.000531196594238281e+00,1.967439174652099609e+00,1.935423731803894043e+00,1.904433846473693848e+00,1.874420523643493652e+00,1.845338702201843262e+00
2.255475759506225586e+00,2.255215883255004883e+00,2.254956007003784180e+00,2.254696130752563477e+00,2.254436254501342773e+00,2.254176616668701172e+00,2.253916978836059570e+00,2.253657341003417969e+00,2.253397703170776367e+00,2.253138303756713867e+00,2.252878665924072266e+00,2.252619266510009766e+00,2.252360105514526367e+00,2.252100706100463867e+00,2.251841545104980469e+00,2.251582384109497070e+00,2.251323461532592773e+00,2.251064300537109375e+00,2.250805377960205078e+00,2.250546455383300781e+00,2.250287532806396484e+00,2.250028848648071289e+00,2.249770164489746094e+00,2.249511718750000000e+00,2.249253988265991211e+00,2.248996019363403320e+00,2.248738288879394531e+00,2.248480796813964844e+00,2.248223304748535156e+00,2.247965812683105469e+00,2.247708082199096680e+00,2.247450828552246094e+00,2.247193336486816406e+00,2.246936321258544922e+00,2.246678829193115234e+00,2.246421813964843750e+00,2.246164560317993164e+00,2.245907545089721680e+00,2.245650529861450195e+00,2.245393514633178711e+00,2.245136737823486328e+00,2.244879961013793945e+00,2.244623184204101562e+00,2.244366407394409180e+00,2.244109869003295898e+00,2.243853092193603516e+00,2.243596553802490234e+00,2.243340253829956055e+00,2.243083953857421875e+00,2.242827415466308594e+00,2.242571115493774414e+00,2.242314815521240234e+00,2.242058753967285156e+00,2.241802692413330078e+00,2.241546630859375000e+00,2.241290569305419922e+00,2.241034746170043945e+00,2.240778923034667969e+00,2.240522861480712891e+00,2.240267276763916016e+00,2.240011453628540039e+00,2.239755868911743164e+00,2.239500284194946289e+00,2.239244699478149414e+00,2.238989114761352539e+00,2.238733768463134766e+00,2.238478422164916992e+00,2.238223075866699219e+00,2.225115299224853516e+00,2.184252023696899414e+00,2.144862413406372070e+00,2.106868267059326172e+00,2.070196628570556641e+00,2.034780025482177734e+00,2.000554800033569336e+00,1.967461943626403809e+00,1.935445904731750488e+00,1.904455304145812988e+00,1.874441266059875488e+00,1.845358848571777344e+00
1.988396883010864258e+00,1.988194704055786133e+00,1.987992763519287109e+00,1.987790703773498535e+00,1.987588882446289062e+00,1.987386822700500488e+00,1.987185120582580566e+00,1.986983180046081543e+00,1.986781597137451172e+00,1.986579656600952148e+00,1.986378192901611328e+00,1.986176371574401855e+00,1.985974907875061035e+00,1.985773205757141113e+00,1.985571861267089844e+00,1.985370159149169922e+00,1.985168933868408203e+00,1.984967350959777832e+00,1.984766125679016113e+00,1.984564661979675293e+00,1.984363555908203125e+00,1.984162211418151855e+00,1.983961105346679688e+00,1.983759760856628418e+00,1.983558773994445801e+00,1.983357667922973633e+00,1.983156681060791016e+00,1.982955574989318848e+00,1.982754826545715332e+00,1.982553720474243164e+00,1.982352972030639648e+00,1.982151985168457031e+00,1.981951355934143066e+00,1.981750488281250000e+00,1.981549859046936035e+00,1.981349110603332520e+00,1.981148600578308105e+00,1.980947852134704590e+00,1.980747461318969727e+00,1.980546832084655762e+00,1.980346441268920898e+00,1.980146169662475586e+00,1.979945659637451172e+00,1.979745388031005859e+00,1.979544997215270996e+00,1.979344844818115234e+00,1.979144573211669922e+00,1.978944420814514160e+00,1.978744149208068848e+00,1.978544235229492188e+00,1.978344082832336426e+00,1.978144168853759766e+00,1.977944016456604004e+00,1.977744221687316895e+00,1.977544188499450684e+00,1.977344393730163574e+00,1.977144479751586914e+00,1.976944804191589355e+00,1.976745009422302246e+00,1.976545453071594238e+00,1.976345658302307129e+00,1.976146101951599121e+00,1.975946426391601562e+00,1.975746989250183105e+00,1.975547432899475098e+00,1.975348114967346191e+00,1.975148558616638184e+00,1.974949240684509277e+00,1.974749803543090820e+00,1.974550604820251465e+00,1.974351286888122559e+00,1.974152207374572754e+00,1.973952889442443848e+00,1.973753809928894043e+00,1.973554611206054688e+00,1.967484831809997559e+00,1.935467958450317383e+00,1.904476642608642578e+00,1.874462008476257324e+00,1.845378875732421875e+00
1.777872562408447266e+00,1.777710914611816406e+00,1.777549505233764648e+00,1.777387857437133789e+00,1.777226567268371582e+00,1.777065038681030273e+00,1.776903748512268066e+00,1.776742339134216309e+00,1.776581048965454102e+00,1.776419639587402344e+00,1.776258468627929688e+00,1.776097178459167480e+00,1.775936007499694824e+00,1.775774717330932617e+00,1.775613665580749512e+00,1.775452494621276855e+00,1.775291442871093750e+00,1.775130271911621094e+00,1.774969339370727539e+00,1.774808287620544434e+00,1.774647355079650879e+00,1.774486303329467773e+00,1.774325489997863770e+00,1.774164438247680664e+00,1.774003744125366211e+00,1.773842811584472656e+00,1.773682117462158203e+00,1.773521184921264648e+00,1.773360490798950195e+00,1.773199677467346191e+00,1.773039102554321289e+00,1.772878408432006836e+00,1.772717833518981934e+00,1.772557139396667480e+00,1.772396683692932129e+00,1.772235989570617676e+00,1.772075533866882324e+00,1.771914958953857422e+00,1.771754622459411621e+00,1.771594166755676270e+00,1.771433830261230469e+00,1.771273493766784668e+00,1.771113038063049316e+00,1.770952820777893066e+00,1.770792484283447266e+00,1.770632386207580566e+00,1.770472049713134766e+00,1.770311951637268066e+00,1.770151615142822266e+00,1.769991636276245117e+00,1.769831418991088867e+00,1.769671440124511719e+00,1.769511222839355469e+00,1.769351363182067871e+00,1.769191265106201172e+00,1.769031405448913574e+00,1.768871307373046875e+00,1.768711566925048828e+00,1.768551588058471680e+00,1.768391728401184082e+00,1.768231868743896484e+00,1.768072128295898438e+00,1.767912268638610840e+00,1.767752647399902344e+00,1.767592906951904297e+00,1.767433285713195801e+00,1.767273545265197754e+00,1.767114043235778809e+00,1.766954302787780762e+00,1.766794919967651367e+00,1.766635298728942871e+00,1.766475796699523926e+00,1.766316294670104980e+00,1.766156911849975586e+00,1.765997409820556641e+00,1.765838146209716797e+00,1.765678644180297852e+00,1.765519380569458008e+00,1.765360116958618164e+00,1.765200853347778320e+00
1.607659339904785156e+00,1.607527136802673340e+00,1.607395172119140625e+00,1.607263088226318359e+00,1.607131123542785645e+00,1.606999039649963379e+00,1.606867194175720215e+00,1.606735110282897949e+00,1.606603264808654785e+00,1.606471300125122070e+00,1.606339454650878906e+00,1.606207489967346191e+00,1.606075763702392578e+00,1.605943799018859863e+00,1.605812072753906250e+00,1.605680227279663086e+00,1.605548501014709473e+00,1.605416655540466309e+00,1.605285048484802246e+00,1.605153322219848633e+00,1.605021715164184570e+00,1.604889988899230957e+00,1.604758381843566895e+00,1.604626655578613281e+00,1.604495167732238770e+00,1.604363560676574707e+00,1.604232072830200195e+00,1.604100465774536133e+00,1.603969097137451172e+00,1.603837490081787109e+00,1.603706121444702148e+00,1.603574633598327637e+00,1.603443264961242676e+00,1.603311777114868164e+00,1.603180408477783203e+00,1.603049039840698242e+00,1.602917790412902832e+00,1.602786421775817871e+00,1.602655172348022461e+00,1.602523803710937500e+00,1.602392673492431641e+00,1.602261543273925781e+00,1.602130293846130371e+00,1.601999163627624512e+00,1.601867914199829102e+00,1.601736783981323242e+00,1.601605653762817383e+00,1.601474642753601074e+00,1.601343512535095215e+00,1.601212501525878906e+00,1.601081371307373047e+00,1.600950479507446289e+00,1.600819349288940430e+00,1.600688457489013672e+00,1.600557446479797363e+00,1.600426673889160156e+00,1.600295662879943848e+00,1.600164890289306641e+00,1.600033879280090332e+00,1.599903106689453125e+00,1.599772214889526367e+00,1.599641561508178711e+00,1.599510669708251953e+00,1.599380016326904297e+00,1.599249124526977539e+00,1.599118590354919434e+00,1.598987817764282227e+00,1.598857164382934570e+00,1.598726511001586914e+00,1.598595976829528809e+00,1.598465204238891602e+00,1.598334789276123047e+00,1.598204135894775391e+00,1.598073601722717285e+00,1.597943067550659180e+00,1.597812652587890625e+00,1.597682118415832520e+00,1.597551703453063965e+00,1.597421169281005859e+00,1.597290873527526855e+00
1.467190742492675781e+00,1.467080712318420410e+00,1.466970801353454590e+00,1.466860651969909668e+00,1.466750741004943848e+00,1.466640830039978027e+00,1.466530919075012207e+00,1.466420888900756836e+00,1.466311097145080566e+00,1.466201186180114746e+00,1.466091394424438477e+00,1.465981364250183105e+00,1.465871691703796387e+00,1.465761780738830566e+00,1.465651988983154297e+00,1.465542197227478027e+00,1.465432524681091309e+00,1.465322613716125488e+00,1.465212941169738770e+00,1.465103149414062500e+00,1.464993596076965332e+00,1.464883804321289062e+00,1.464774250984191895e+00,1.464664459228515625e+00,1.464554905891418457e+00,1.464445233345031738e+00,1.464335680007934570e+00,1.464226007461547852e+00,1.464116454124450684e+00,1.464006900787353516e+00,1.463897466659545898e+00,1.463787794113159180e+00,1.463678359985351562e+00,1.463568806648254395e+00,1.463459372520446777e+00,1.463349938392639160e+00,1.463240504264831543e+00,1.463131070137023926e+00,1.463021636009216309e+00,1.462912201881408691e+00,1.462802886962890625e+00,1.462693691253662109e+00,1.462584257125854492e+00,1.462474942207336426e+00,1.462365627288818359e+00,1.462256431579589844e+00,1.462146997451782227e+00,1.462037801742553711e+00,1.461928486824035645e+00,1.461819410324096680e+00,1.461710095405578613e+00,1.461601018905639648e+00,1.461491703987121582e+00,1.461382627487182617e+00,1.461273431777954102e+00,1.461164355278015137e+00,1.461055159568786621e+00,1.460946202278137207e+00,1.460837006568908691e+00,1.460728049278259277e+00,1.460618853569030762e+00,1.460509896278381348e+00,1.460400819778442383e+00,1.460291862487792969e+00,1.460182905197143555e+00,1.460073947906494141e+00,1.459964990615844727e+00,1.459856033325195312e+00,1.459747076034545898e+00,1.459638237953186035e+00,1.459529280662536621e+00,1.459420442581176758e+00,1.459311604499816895e+00,1.459202766418457031e+00,1.459093928337097168e+00,1.458985209465026855e+00,1.458876371383666992e+00,1.458767652511596680e+00,1.458658814430236816e+00,1.458550095558166504e+00
1.349296450614929199e+00,1.349203348159790039e+00,1.349110364913940430e+00,1.349017381668090820e+00,1.348924398422241211e+00,1.348831295967102051e+00,1.348738431930541992e+00,1.348645329475402832e+00,1.348552465438842773e+00,1.348459482192993164e+00,1.348366618156433105e+00,1.348273634910583496e+00,1.348180770874023438e+00,1.348087787628173828e+00,1.347995042800903320e+00,1.347902059555053711e+00,1.347809314727783203e+00,1.347716331481933594e+00,1.347623586654663086e+00,1.347530722618103027e+00,1.347437977790832520e+00,1.347345232963562012e+00,1.347252488136291504e+00,1.347159624099731445e+00,1.347066998481750488e+00,1.346974134445190430e+00,1.346881508827209473e+00,1.346788763999938965e+00,1.346696138381958008e+00,1.346603393554687500e+00,1.346510767936706543e+00,1.346418023109436035e+00,1.346325397491455078e+00,1.346232771873474121e+00,1.346140146255493164e+00,1.346047520637512207e+00,1.345954895019531250e+00,1.345862269401550293e+00,1.345769762992858887e+00,1.345677137374877930e+00,1.345584630966186523e+00,1.345492243766784668e+00,1.345399618148803711e+00,1.345307111740112305e+00,1.345214605331420898e+00,1.345122218132019043e+00,1.345029592514038086e+00,1.344937205314636230e+00,1.344844698905944824e+00,1.344752311706542969e+00,1.344659924507141113e+00,1.344567537307739258e+00,1.344475030899047852e+00,1.344382762908935547e+00,1.344290375709533691e+00,1.344197988510131836e+00,1.344105601310729980e+00,1.344013333320617676e+00,1.343920946121215820e+00,1.343828678131103516e+00,1.343736410140991211e+00,1.343644142150878906e+00,1.343551874160766602e+00,1.343459606170654297e+00,1.343367338180541992e+00,1.343275189399719238e+00,1.343182802200317383e+00,1.343090653419494629e+00,1.342998504638671875e+00,1.342906355857849121e+00,1.342814087867736816e+00,1.342722058296203613e+00,1.342629790306091309e+00,1.342537760734558105e+00,1.342445611953735352e+00,1.342353463172912598e+00,1.342261314392089844e+00,1.342169284820556641e+00,1.342077255249023438e+00,1.341985225677490234e+00
1.248939514160156250e+00,1.248859763145446777e+00,1.248780131340026855e+00,1.248700380325317383e+00,1.248620748519897461e+00,1.248540997505187988e+00,1.248461365699768066e+00,1.248381733894348145e+00,1.248302102088928223e+00,1.248222351074218750e+00,1.248142838478088379e+00,1.248063087463378906e+00,1.247983574867248535e+00,1.247903943061828613e+00,1.247824430465698242e+00,1.247744798660278320e+00,1.247665286064147949e+00,1.247585654258728027e+00,1.247506141662597656e+00,1.247426509857177734e+00,1.247347116470336914e+00,1.247267484664916992e+00,1.247188091278076172e+00,1.247108459472656250e+00,1.247029066085815430e+00,1.246949553489685059e+00,1.246870160102844238e+00,1.246790647506713867e+00,1.246711254119873047e+00,1.246631741523742676e+00,1.246552348136901855e+00,1.246472835540771484e+00,1.246393561363220215e+00,1.246314048767089844e+00,1.246234774589538574e+00,1.246155381202697754e+00,1.246075987815856934e+00,1.245996594429016113e+00,1.245917320251464844e+00,1.245837926864624023e+00,1.245758652687072754e+00,1.245679378509521484e+00,1.245599985122680664e+00,1.245520830154418945e+00,1.245441436767578125e+00,1.245362162590026855e+00,1.245282888412475586e+00,1.245203733444213867e+00,1.245124459266662598e+00,1.245045185089111328e+00,1.244965910911560059e+00,1.244886755943298340e+00,1.244807481765747070e+00,1.244728326797485352e+00,1.244649171829223633e+00,1.244570016860961914e+00,1.244490861892700195e+00,1.244411706924438477e+00,1.244332551956176758e+00,1.244253396987915039e+00,1.244174242019653320e+00,1.244095206260681152e+00,1.244016051292419434e+00,1.243937015533447266e+00,1.243857860565185547e+00,1.243778824806213379e+00,1.243699789047241211e+00,1.243620753288269043e+00,1.243541598320007324e+00,1.243462681770324707e+00,1.243383646011352539e+00,1.243304610252380371e+00,1.243225574493408203e+00,1.243146657943725586e+00,1.243067622184753418e+00,1.242988705635070801e+00,1.242909669876098633e+00,1.242830753326416016e+00,1.242751836776733398e+00,1.242672920227050781e+00
1.162477731704711914e+00,1.162408590316772461e+00,1.162339568138122559e+00,1.162270426750183105e+00,1.162201523780822754e+00,1.162132382392883301e+00,1.162063479423522949e+00,1.161994338035583496e+00,1.161925435066223145e+00,1.161856412887573242e+00,1.161787390708923340e+00,1.161718368530273438e+00,1.161649465560913086e+00,1.161580443382263184e+00,1.161511540412902832e+00,1.161442518234252930e+00,1.161373615264892578e+00,1.161304712295532227e+00,1.161235809326171875e+00,1.161166787147521973e+00,1.161098003387451172e+00,1.161028981208801270e+00,1.160960197448730469e+00,1.160891175270080566e+00,1.160822391510009766e+00,1.160753488540649414e+00,1.160684704780578613e+00,1.160615801811218262e+00,1.160547018051147461e+00,1.160478115081787109e+00,1.160409331321716309e+00,1.160340428352355957e+00,1.160271644592285156e+00,1.160202860832214355e+00,1.160134077072143555e+00,1.160065293312072754e+00,1.159996509552001953e+00,1.159927725791931152e+00,1.159858942031860352e+00,1.159790158271789551e+00,1.159721493721008301e+00,1.159652709960937500e+00,1.159584045410156250e+00,1.159515261650085449e+00,1.159446597099304199e+00,1.159377932548522949e+00,1.159309148788452148e+00,1.159240484237670898e+00,1.159171819686889648e+00,1.159103155136108398e+00,1.159034371376037598e+00,1.158965826034545898e+00,1.158897161483764648e+00,1.158828496932983398e+00,1.158759832382202148e+00,1.158691287040710449e+00,1.158622622489929199e+00,1.158554077148437500e+00,1.158485412597656250e+00,1.158416867256164551e+00,1.158348202705383301e+00,1.158279657363891602e+00,1.158211112022399902e+00,1.158142566680908203e+00,1.158074021339416504e+00,1.158005475997924805e+00,1.157936930656433105e+00,1.157868385314941406e+00,1.157799839973449707e+00,1.157731413841247559e+00,1.157662868499755859e+00,1.157594442367553711e+00,1.157525897026062012e+00,1.157457470893859863e+00,1.157388925552368164e+00,1.157320499420166016e+00,1.157252073287963867e+00,1.157183647155761719e+00,1.157115101814270020e+00,1.157046794891357422e+00
1.087211966514587402e+00,1.087151408195495605e+00,1.087091088294982910e+00,1.087030649185180664e+00,1.086970329284667969e+00,1.086909890174865723e+00,1.086849570274353027e+00,1.086789131164550781e+00,1.086728811264038086e+00,1.086668372154235840e+00,1.086608052253723145e+00,1.086547732353210449e+00,1.086487412452697754e+00,1.086427092552185059e+00,1.086366772651672363e+00,1.086306452751159668e+00,1.086246132850646973e+00,1.086185812950134277e+00,1.086125493049621582e+00,1.086065173149108887e+00,1.086004972457885742e+00,1.085944652557373047e+00,1.085884451866149902e+00,1.085824131965637207e+00,1.085763931274414062e+00,1.085703611373901367e+00,1.085643410682678223e+00,1.085583090782165527e+00,1.085522890090942383e+00,1.085462689399719238e+00,1.085402488708496094e+00,1.085342288017272949e+00,1.085282087326049805e+00,1.085221886634826660e+00,1.085161685943603516e+00,1.085101485252380371e+00,1.085041403770446777e+00,1.084981203079223633e+00,1.084921002388000488e+00,1.084860801696777344e+00,1.084800720214843750e+00,1.084740638732910156e+00,1.084680438041687012e+00,1.084620356559753418e+00,1.084560155868530273e+00,1.084500074386596680e+00,1.084439992904663086e+00,1.084379911422729492e+00,1.084319710731506348e+00,1.084259629249572754e+00,1.084199547767639160e+00,1.084139466285705566e+00,1.084079384803771973e+00,1.084019422531127930e+00,1.083959341049194336e+00,1.083899259567260742e+00,1.083839178085327148e+00,1.083779215812683105e+00,1.083719134330749512e+00,1.083659172058105469e+00,1.083599090576171875e+00,1.083539128303527832e+00,1.083479046821594238e+00,1.083419084548950195e+00,1.083359122276306152e+00,1.083299160003662109e+00,1.083239197731018066e+00,1.083179235458374023e+00,1.083119153976440430e+00,1.083059310913085938e+00,1.082999348640441895e+00,1.082939386367797852e+00,1.082879424095153809e+00,1.082819461822509766e+00,1.082759499549865723e+00,1.082699656486511230e+00,1.082639694213867188e+00,1.082579851150512695e+00,1.082519888877868652e+00,1.082460045814514160e+00
1.021099805831909180e+00,1.021046519279479980e+00,1.020993232727050781e+00,1.020939946174621582e+00,1.020886659622192383e+00,1.020833373069763184e+00,1.020780205726623535e+00,1.020726919174194336e+00,1.020673632621765137e+00,1.020620346069335938e+00,1.020567178726196289e+00,1.020513892173767090e+00,1.020460724830627441e+00,1.020407438278198242e+00,1.020354270935058594e+00,1.020300984382629395e+00,1.020247817039489746e+00,1.020194649696350098e+00,1.020141482353210449e+00,1.020088195800781250e+00,1.020035147666931152e+00,1.019981861114501953e+00,1.019928812980651855e+00,1.019875526428222656e+00,1.019822478294372559e+00,1.019769191741943359e+00,1.019716143608093262e+00,1.019662976264953613e+00,1.019609808921813965e+00,1.019556641578674316e+00,1.019503593444824219e+00,1.019450426101684570e+00,1.019397377967834473e+00,1.019344210624694824e+00,1.019291162490844727e+00,1.019237995147705078e+00,1.019184947013854980e+00,1.019131779670715332e+00,1.019078731536865234e+00,1.019025683403015137e+00,1.018972635269165039e+00,1.018919587135314941e+00,1.018866539001464844e+00,1.018813490867614746e+00,1.018760442733764648e+00,1.018707394599914551e+00,1.018654346466064453e+00,1.018601298332214355e+00,1.018548250198364258e+00,1.018495321273803711e+00,1.018442273139953613e+00,1.018389225006103516e+00,1.018336176872253418e+00,1.018283247947692871e+00,1.018230199813842773e+00,1.018177270889282227e+00,1.018124222755432129e+00,1.018071293830871582e+00,1.018018245697021484e+00,1.017965316772460938e+00,1.017912387847900391e+00,1.017859458923339844e+00,1.017806410789489746e+00,1.017753601074218750e+00,1.017700552940368652e+00,1.017647624015808105e+00,1.017594695091247559e+00,1.017541766166687012e+00,1.017488837242126465e+00,1.017436027526855469e+00,1.017383098602294922e+00,1.017330169677734375e+00,1.017277240753173828e+00,1.017224431037902832e+00,1.017171502113342285e+00,1.017118692398071289e+00,1.017065763473510742e+00,1.017012953758239746e+00,1.016960024833679199e+00,1.016907215118408203e+00
9.625672698020935059e-01,9.625198841094970703e-01,9.624724984169006348e-01,9.624251127243041992e-01,9.623778462409973145e-01,9.623305201530456543e-01,9.622831344604492188e-01,9.622358083724975586e-01,9.621885418891906738e-01,9.621412158012390137e-01,9.620938897132873535e-01,9.620465636253356934e-01,9.619992971420288086e-01,9.619519710540771484e-01,9.619046449661254883e-01,9.618573784828186035e-01,9.618101716041564941e-01,9.617628455162048340e-01,9.617155790328979492e-01,9.616682529449462891e-01,9.616210460662841797e-01,9.615737795829772949e-01,9.615265130996704102e-01,9.614792466163635254e-01,9.614320397377014160e-01,9.613847732543945312e-01,9.613375067710876465e-01,9.612902402877807617e-01,9.612430930137634277e-01,9.611958861351013184e-01,9.611486196517944336e-01,9.611013531684875488e-01,9.610542654991149902e-01,9.610069990158081055e-01,9.609597921371459961e-01,9.609125852584838867e-01,9.608654379844665527e-01,9.608182311058044434e-01,9.607710242271423340e-01,9.607238173484802246e-01,9.606767296791076660e-01,9.606295228004455566e-01,9.605823755264282227e-01,9.605352878570556641e-01,9.604880809783935547e-01,9.604409337043762207e-01,9.603937268257141113e-01,9.603466987609863281e-01,9.602995514869689941e-01,9.602523446083068848e-01,9.602051973342895508e-01,9.601581692695617676e-01,9.601110219955444336e-01,9.600638747215270996e-01,9.600167870521545410e-01,9.599697589874267578e-01,9.599226117134094238e-01,9.598754644393920898e-01,9.598283767700195312e-01,9.597813487052917480e-01,9.597342610359191895e-01,9.596871733665466309e-01,9.596400856971740723e-01,9.595930576324462891e-01,9.595459699630737305e-01,9.594988822937011719e-01,9.594517946243286133e-01,9.594048261642456055e-01,9.593577980995178223e-01,9.593107104301452637e-01,9.592636823654174805e-01,9.592167139053344727e-01,9.591696262359619141e-01,9.591225981712341309e-01,9.590755701065063477e-01,9.590286016464233398e-01,9.589815735816955566e-01,9.589345455169677734e-01,9.588875174522399902e-01,9.588406085968017578e-01
