5.000000000000000000e+00,5.000000000000000000e+00,5.000000000000000000e+00,5.000000000000000000e+00,5.000000000000000000e+00,5.000000000000000000e+00,5.000000000000000000e+00,5.000000000000000000e+00,5.000000000000000000e+00,5.000000000000000000e+00,5.000000000000000000e+00,5.000000000000000000e+00,5.000000000000000000e+00,5.000000000000000000e+00,5.000000000000000000e+00,5.000000000000000000e+00,5.000000000000000000e+00,5.000000000000000000e+00,5.000000000000000000e+00,5.000000000000000000e+00,5.000000000000000000e+00,5.000000000000000000e+00,5.000000000000000000e+00,5.000000000000000000e+00,5.000000000000000000e+00,5.000000000000000000e+00,5.000000000000000000e+00,5.000000000000000000e+00,5.000000000000000000e+00,5.000000000000000000e+00,5.000000000000000000e+00,5.000000000000000000e+00,5.000000000000000000e+00,5.000000000000000000e+00,1.835282206535339355e+00,1.826928734779357910e+00,1.839929819107055664e+00,1.866290926933288574e+00,1.841067671775817871e+00,1.828485369682312012e+00,1.826795220375061035e+00,1.837589502334594727e+00,1.863688945770263672e+00,1.877379655838012695e+00,1.932393312454223633e+00,2.101653337478637695e+00,3.780122995376586914e+00,3.663673162460327148e+00,3.554183483123779297e+00,3.451048374176025391e+00,3.353729724884033203e+00,3.261749505996704102e+00,3.174679756164550781e+00,3.092137813568115234e+00,3.013779163360595703e+00,2.939293861389160156e+00,2.868401527404785156e+00,2.800848484039306641e+00,2.736403703689575195e+00,2.674858331680297852e+00,2.616020202636718750e+00,2.559714794158935547e+00,2.505782365798950195e+00,2.454075574874877930e+00,2.404459476470947266e+00,2.356810092926025391e+00,2.311012268066406250e+00,2.266960620880126953e+00,2.224556922912597656e+00,2.183710575103759766e+00,2.144336938858032227e+00,2.106358051300048828e+00,2.069701194763183594e+00,2.034298419952392578e+00,2.000086307525634766e+00,1.967005848884582520e+00,1.935001730918884277e+00,1.904022693634033203e+00,1.874019742012023926e+00,1.844947814941406250e+00
5.000000000000000000e+00,5.000000000000000000e+00,5.000000000000000000e+00,5.000000000000000000e+00,5.000000000000000000e+00,5.000000000000000000e+00,5.000000000000000000e+00,5.000000000000000000e+00,5.000000000000000000e+00,5.000000000000000000e+00,5.000000000000000000e+00,5.000000000000000000e+00,5.000000000000000000e+00,5.000000000000000000e+00,5.000000000000000000e+00,5.000000000000000000e+00,5.000000000000000000e+00,5.000000000000000000e+00,5.000000000000000000e+00,5.000000000000000000e+00,5.000000000000000000e+00,5.000000000000000000e+00,5.000000000000000000e+00,5.000000000000000000e+00,5.000000000000000000e+00,5.000000000000000000e+00,5.000000000000000000e+00,5.000000000000000000e+00,5.000000000000000000e+00,5.000000000000000000e+00,5.000000000000000000e+00,5.000000000000000000e+00,5.000000000000000000e+00,5.000000000000000000e+00,1.835602998733520508e+00,1.819848895072937012e+00,1.845251202583312988e+00,1.859835982322692871e+00,1.836604118347167969e+00,1.823672771453857422e+00,1.822821140289306641e+00,1.833170175552368164e+00,1.854748845100402832e+00,1.868234872817993164e+00,1.906514883041381836e+00,3.904309511184692383e+00,3.780208110809326172e+00,3.663753032684326172e+00,3.554258823394775391e+00,3.451119184494018555e+00,3.353796720504760742e+00,3.261812925338745117e+00,3.174739837646484375e+00,3.092194795608520508e+00,3.013833284378051758e+00,2.939345359802246094e+00,2.868450641632080078e+00,2.800895214080810547e+00,2.736448287963867188e+00,2.674900770187377930e+00,2.616060733795166016e+00,2.559753656387329102e+00,2.505819559097290039e+00,2.454111337661743164e+00,2.404493808746337891e+00,2.356842994689941406e+00,2.311043977737426758e+00,2.266991138458251953e+00,2.224586248397827148e+00,2.183738708496093750e+00,2.144364118576049805e+00,2.106384515762329102e+00,2.069726467132568359e+00,2.034322977066040039e+00,2.000109910964965820e+00,1.967028856277465820e+00,1.935024142265319824e+00,1.904044270515441895e+00,1.874040603637695312e+00,1.844968080520629883e+00
5.000000000000000000e+00,5.000000000000000000e+00,5.000000000000000000e+00,5.000000000000000000e+00,5.000000000000000000e+00,5.000000000000000000e+00,5.000000000000000000e+00,5.000000000000000000e+00,5.000000000000000000e+00,5.000000000000000000e+00,5.000000000000000000e+00,5.000000000000000000e+00,5.000000000000000000e+00,5.000000000000000000e+00,5.000000000000000000e+00,5.000000000000000000e+00,5.000000000000000000e+00,5.000000000000000000e+00,5.000000000000000000e+00,5.000000000000000000e+00,5.000000000000000000e+00,5.000000000000000000e+00,5.000000000000000000e+00,5.000000000000000000e+00,5.000000000000000000e+00,5.000000000000000000e+00,5.000000000000000000e+00,5.000000000000000000e+00,5.000000000000000000e+00,5.000000000000000000e+00,5.000000000000000000e+00,5.000000000000000000e+00,5.000000000000000000e+00,5.000000000000000000e+00,1.812360286712646484e+00,1.789711594581604004e+00,1.802643299102783203e+00,1.858177542686462402e+00,1.843477249145507812e+00,1.837856888771057129e+00,1.837383389472961426e+00,1.844056963920593262e+00,1.845920205116271973e+00,1.865100026130676270e+00,1.895418763160705566e+00,3.904399871826171875e+00,3.780292987823486328e+00,3.663832664489746094e+00,3.554333686828613281e+00,3.451189994812011719e+00,3.353863477706909180e+00,3.261876106262207031e+00,3.174799680709838867e+00,3.092251539230346680e+00,3.013887166976928711e+00,2.939396619796752930e+00,2.868499279022216797e+00,2.800941705703735352e+00,2.736492872238159180e+00,2.674943208694458008e+00,2.616101503372192383e+00,2.559792757034301758e+00,2.505856990814208984e+00,2.454147100448608398e+00,2.404528141021728516e+00,2.356876134872436523e+00,2.311075925827026367e+00,2.267021656036376953e+00,2.224615812301635742e+00,2.183767318725585938e+00,2.144391536712646484e+00,2.106410980224609375e+00,2.069751977920532227e+00,2.034347534179687500e+00,2.000133752822875977e+00,1.967051744461059570e+00,1.935046434402465820e+00,1.904065728187561035e+00,1.874061584472656250e+00,1.844988226890563965e+00
5.000000000000000000e+00,5.000000000000000000e+00,5.000000000000000000e+00,5.000000000000000000e+00,5.000000000000000000e+00,5.000000000000000000e+00,5.000000000000000000e+00,5.000000000000000000e+00,5.000000000000000000e+00,5.000000000000000000e+00,5.000000000000000000e+00,5.000000000000000000e+00,5.000000000000000000e+00,5.000000000000000000e+00,5.000000000000000000e+00,5.000000000000000000e+00,5.000000000000000000e+00,5.000000000000000000e+00,5.000000000000000000e+00,5.000000000000000000e+00,5.000000000000000000e+00,5.000000000000000000e+00,5.000000000000000000e+00,5.000000000000000000e+00,5.000000000000000000e+00,5.000000000000000000e+00,5.000000000000000000e+00,5.000000000000000000e+00,5.000000000000000000e+00,5.000000000000000000e+00,5.000000000000000000e+00,5.000000000000000000e+00,5.000000000000000000e+00,5.000000000000000000e+00,1.821517467498779297e+00,1.773778319358825684e+00,1.773733139038085938e+00,1.838142037391662598e+00,1.839250922203063965e+00,1.834611296653747559e+00,1.836354136466979980e+00,1.844044804573059082e+00,1.855385780334472656e+00,1.879651188850402832e+00,1.936180591583251953e+00,3.904490709304809570e+00,3.780378103256225586e+00,3.663912773132324219e+00,3.554409027099609375e+00,3.451260805130004883e+00,3.353930473327636719e+00,3.261939525604248047e+00,3.174859762191772461e+00,3.092308521270751953e+00,3.013941287994384766e+00,2.939447879791259766e+00,2.868548154830932617e+00,2.800988197326660156e+00,2.736537218093872070e+00,2.674985647201538086e+00,2.616142272949218750e+00,2.559831619262695312e+00,2.505894184112548828e+00,2.454182863235473633e+00,2.404562473297119141e+00,2.356909036636352539e+00,2.311107635498046875e+00,2.267052173614501953e+00,2.224645137786865234e+00,2.183795452117919922e+00,2.144418954849243164e+00,2.106437206268310547e+00,2.069777488708496094e+00,2.034372091293334961e+00,2.000157594680786133e+00,1.967074751853942871e+00,1.935068726539611816e+00,1.904087305068969727e+00,1.874082446098327637e+00,1.845008492469787598e+00
5.000000000000000000e+00,5.000000000000000000e+00,5.000000000000000000e+00,5.000000000000000000e+00,5.000000000000000000e+00,5.000000000000000000e+00,5.000000000000000000e+00,5.000000000000000000e+00,5.000000000000000000e+00,5.000000000000000000e+00,5.000000000000000000e+00,5.000000000000000000e+00,5.000000000000000000e+00,5.000000000000000000e+00,5.000000000000000000e+00,5.000000000000000000e+00,5.000000000000000000e+00,5.000000000000000000e+00,5.000000000000000000e+00,5.000000000000000000e+00,5.000000000000000000e+00,5.000000000000000000e+00,5.000000000000000000e+00,5.000000000000000000e+00,5.000000000000000000e+00,5.000000000000000000e+00,5.000000000000000000e+00,5.000000000000000000e+00,5.000000000000000000e+00,5.000000000000000000e+00,5.000000000000000000e+00,5.000000000000000000e+00,5.000000000000000000e+00,5.000000000000000000e+00,5.000000000000000000e+00,1.758477807044982910e+00,1.738732457160949707e+00,1.799414992332458496e+00,1.839083313941955566e+00,1.836844563484191895e+00,1.840789198875427246e+00,1.846398949623107910e+00,1.863023281097412109e+00,1.892981886863708496e+00,1.940167903900146484e+00,3.904581069946289062e+00,3.780462980270385742e+00,3.663992404937744141e+00,3.554483890533447266e+00,3.451331615447998047e+00,3.353997230529785156e+00,3.262002468109130859e+00,3.174919605255126953e+00,3.092365264892578125e+00,3.013995170593261719e+00,2.939499378204345703e+00,2.868597269058227539e+00,2.801034927368164062e+00,2.736581802368164062e+00,2.675028324127197266e+00,2.616183042526245117e+00,2.559870719909667969e+00,2.505931615829467773e+00,2.454218864440917969e+00,2.404597043991088867e+00,2.356942176818847656e+00,2.311139345169067383e+00,2.267082929611206055e+00,2.224674701690673828e+00,2.183823823928833008e+00,2.144446134567260742e+00,2.106463670730590820e+00,2.069802761077880859e+00,2.034396648406982422e+00,2.000181198120117188e+00,1.967097878456115723e+00,1.935090780258178711e+00,1.904108881950378418e+00,1.874103188514709473e+00,1.845028758049011230e+00
5.000000000000000000e+00,5.000000000000000000e+00,5.000000000000000000e+00,5.000000000000000000e+00,5.000000000000000000e+00,5.000000000000000000e+00,5.000000000000000000e+00,5.000000000000000000e+00,5.000000000000000000e+00,5.000000000000000000e+00,5.000000000000000000e+00,5.000000000000000000e+00,5.000000000000000000e+00,5.000000000000000000e+00,5.000000000000000000e+00,5.000000000000000000e+00,5.000000000000000000e+00,5.000000000000000000e+00,5.000000000000000000e+00,5.000000000000000000e+00,5.000000000000000000e+00,5.000000000000000000e+00,5.000000000000000000e+00,5.000000000000000000e+00,5.000000000000000000e+00,5.000000000000000000e+00,5.000000000000000000e+00,5.000000000000000000e+00,5.000000000000000000e+00,5.000000000000000000e+00,5.000000000000000000e+00,5.000000000000000000e+00,5.000000000000000000e+00,5.000000000000000000e+00,5.000000000000000000e+00,1.736959815025329590e+00,1.718833804130554199e+00,1.734471082687377930e+00,1.839797139167785645e+00,1.839005470275878906e+00,1.853831291198730469e+00,1.868229866027832031e+00,1.886010050773620605e+00,1.909160971641540527e+00,1.929927229881286621e+00,3.904671907424926758e+00,3.780548095703125000e+00,3.664072275161743164e+00,3.554559230804443359e+00,3.451402425765991211e+00,3.354064226150512695e+00,3.262065887451171875e+00,3.174979209899902344e+00,3.092422008514404297e+00,3.014049053192138672e+00,2.939550638198852539e+00,2.868646144866943359e+00,2.801081418991088867e+00,2.736626386642456055e+00,2.675070762634277344e+00,2.616223573684692383e+00,2.559909582138061523e+00,2.505968809127807617e+00,2.454254388809204102e+00,2.404631376266479492e+00,2.356975078582763672e+00,2.311171054840087891e+00,2.267113447189331055e+00,2.224704027175903320e+00,2.183852195739746094e+00,2.144473552703857422e+00,2.106489896774291992e+00,2.069828271865844727e+00,2.034421205520629883e+00,2.000205039978027344e+00,1.967120885848999023e+00,1.935113191604614258e+00,1.904130578041076660e+00,1.874124169349670410e+00,1.845049023628234863e+00
5.000000000000000000e+00,5.000000000000000000e+00,5.000000000000000000e+00,5.000000000000000000e+00,5.000000000000000000e+00,5.000000000000000000e+00,5.000000000000000000e+00,5.000000000000000000e+00,5.000000000000000000e+00,5.000000000000000000e+00,5.000000000000000000e+00,5.000000000000000000e+00,5.000000000000000000e+00,5.000000000000000000e+00,5.000000000000000000e+00,5.000000000000000000e+00,5.000000000000000000e+00,5.000000000000000000e+00,5.000000000000000000e+00,5.000000000000000000e+00,5.000000000000000000e+00,5.000000000000000000e+00,5.000000000000000000e+00,5.000000000000000000e+00,5.000000000000000000e+00,5.000000000000000000e+00,5.000000000000000000e+00,5.000000000000000000e+00,5.000000000000000000e+00,5.000000000000000000e+00,5.000000000000000000e+00,5.000000000000000000e+00,5.000000000000000000e+00,5.000000000000000000e+00,5.000000000000000000e+00,1.736028075218200684e+00,1.709772706031799316e+00,1.845202326774597168e+00,1.842960476875305176e+00,1.842831134796142578e+00,1.875839233398437500e+00,1.881585121154785156e+00,1.885887384414672852e+00,1.870706319808959961e+00,1.855250954627990723e+00,1.904970049858093262e+00,3.780632734298706055e+00,3.664151906967163086e+00,3.554634332656860352e+00,3.451473236083984375e+00,3.354130983352661133e+00,3.262129068374633789e+00,3.175039291381835938e+00,3.092478990554809570e+00,3.014103174209594727e+00,2.939602136611938477e+00,2.868695020675659180e+00,2.801128149032592773e+00,2.736670970916748047e+00,2.675113439559936523e+00,2.616264343261718750e+00,2.559948682785034180e+00,2.506006240844726562e+00,2.454290390014648438e+00,2.404665708541870117e+00,2.357008218765258789e+00,2.311203002929687500e+00,2.267143964767456055e+00,2.224733352661132812e+00,2.183880567550659180e+00,2.144500970840454102e+00,2.106516361236572266e+00,2.069853782653808594e+00,2.034445762634277344e+00,2.000228881835937500e+00,1.967143774032592773e+00,1.935135483741760254e+00,1.904151916503906250e+00,1.874145150184631348e+00,1.845069169998168945e+00
5.000000000000000000e+00,5.000000000000000000e+00,5.000000000000000000e+00,5.000000000000000000e+00,5.000000000000000000e+00,5.000000000000000000e+00,5.000000000000000000e+00,5.000000000000000000e+00,5.000000000000000000e+00,5.000000000000000000e+00,5.000000000000000000e+00,5.000000000000000000e+00,5.000000000000000000e+00,5.000000000000000000e+00,5.000000000000000000e+00,5.000000000000000000e+00,5.000000000000000000e+00,5.000000000000000000e+00,5.000000000000000000e+00,5.000000000000000000e+00,5.000000000000000000e+00,5.000000000000000000e+00,5.000000000000000000e+00,5.000000000000000000e+00,5.000000000000000000e+00,5.000000000000000000e+00,5.000000000000000000e+00,5.000000000000000000e+00,5.000000000000000000e+00,5.000000000000000000e+00,5.000000000000000000e+00,5.000000000000000000e+00,5.000000000000000000e+00,5.000000000000000000e+00,5.000000000000000000e+00,1.955678462982177734e+00,1.684704065322875977e+00,1.663402438163757324e+00,1.676387667655944824e+00,1.845935821533203125e+00,1.878543376922607422e+00,1.902810811996459961e+00,1.860564827919006348e+00,1.840527892112731934e+00,1.836729884147644043e+00,1.848969221115112305e+00,3.780718088150024414e+00,3.664232015609741211e+00,3.554709672927856445e+00,3.451543807983398438e+00,3.354197740554809570e+00,3.262192249298095703e+00,3.175099134445190430e+00,3.092535495758056641e+00,3.014157056808471680e+00,2.939653396606445312e+00,2.868743896484375000e+00,2.801174879074096680e+00,2.736715316772460938e+00,2.675155878067016602e+00,2.616304874420166016e+00,2.559987545013427734e+00,2.506043672561645508e+00,2.454326152801513672e+00,2.404700040817260742e+00,2.357041120529174805e+00,2.311234474182128906e+00,2.267174482345581055e+00,2.224762916564941406e+00,2.183908939361572266e+00,2.144528150558471680e+00,2.106542825698852539e+00,2.069879293441772461e+00,2.034470558166503906e+00,2.000252723693847656e+00,1.967166781425476074e+00,1.935157775878906250e+00,1.904173612594604492e+00,1.874166011810302734e+00,1.845089435577392578e+00
5.000000000000000000e+00,5.000000000000000000e+00,5.000000000000000000e+00,5.000000000000000000e+00,5.000000000000000000e+00,5.000000000000000000e+00,5.000000000000000000e+00,5.000000000000000000e+00,5.000000000000000000e+00,5.000000000000000000e+00,5.000000000000000000e+00,5.000000000000000000e+00,5.000000000000000000e+00,5.000000000000000000e+00,5.000000000000000000e+00,5.000000000000000000e+00,5.000000000000000000e+00,5.000000000000000000e+00,5.000000000000000000e+00,5.000000000000000000e+00,5.000000000000000000e+00,5.000000000000000000e+00,5.000000000000000000e+00,5.000000000000000000e+00,5.000000000000000000e+00,5.000000000000000000e+00,5.000000000000000000e+00,5.000000000000000000e+00,5.000000000000000000e+00,5.000000000000000000e+00,5.000000000000000000e+00,5.000000000000000000e+00,5.000000000000000000e+00,5.000000000000000000e+00,5.000000000000000000e+00,1.956416845321655273e+00,1.663630962371826172e+00,1.642212271690368652e+00,1.844530940055847168e+00,1.848306417465209961e+00,1.878751158714294434e+00,1.893553376197814941e+00,1.857002615928649902e+00,1.827101588249206543e+00,1.824623107910156250e+00,1.822151660919189453e+00,1.889804363250732422e+00,3.664311647415161133e+00,3.554784536361694336e+00,3.451614856719970703e+00,3.354264736175537109e+00,3.262255668640136719e+00,3.175159215927124023e+00,3.092592716217041016e+00,3.014211177825927734e+00,2.939704895019531250e+00,2.868793010711669922e+00,2.801221609115600586e+00,2.736759901046752930e+00,2.675198554992675781e+00,2.616345643997192383e+00,2.560026645660400391e+00,2.506081104278564453e+00,2.454361915588378906e+00,2.404734373092651367e+00,2.357074260711669922e+00,2.311266183853149414e+00,2.267204999923706055e+00,2.224792242050170898e+00,2.183937311172485352e+00,2.144555568695068359e+00,2.106569051742553711e+00,2.069904804229736328e+00,2.034495115280151367e+00,2.000276327133178711e+00,1.967189908027648926e+00,1.935179829597473145e+00,1.904195189476013184e+00,1.874186754226684570e+00,1.845109701156616211e+00
5.000000000000000000e+00,5.000000000000000000e+00,5.000000000000000000e+00,5.000000000000000000e+00,5.000000000000000000e+00,5.000000000000000000e+00,5.000000000000000000e+00,5.000000000000000000e+00,5.000000000000000000e+00,5.000000000000000000e+00,5.000000000000000000e+00,5.000000000000000000e+00,5.000000000000000000e+00,5.000000000000000000e+00,5.000000000000000000e+00,5.000000000000000000e+00,5.000000000000000000e+00,5.000000000000000000e+00,5.000000000000000000e+00,5.000000000000000000e+00,5.000000000000000000e+00,5.000000000000000000e+00,5.000000000000000000e+00,5.000000000000000000e+00,5.000000000000000000e+00,5.000000000000000000e+00,5.000000000000000000e+00,5.000000000000000000e+00,5.000000000000000000e+00,5.000000000000000000e+00,5.000000000000000000e+00,5.000000000000000000e+00,5.000000000000000000e+00,5.000000000000000000e+00,5.000000000000000000e+00,1.955541610717773438e+00,1.666214466094970703e+00,1.850446105003356934e+00,1.611270189285278320e+00,1.851986885070800781e+00,1.882407903671264648e+00,1.907056450843811035e+00,1.854874491691589355e+00,1.819575071334838867e+00,1.812990427017211914e+00,1.811144590377807617e+00,1.855238437652587891e+00,3.664391279220581055e+00,3.554859399795532227e+00,3.451685428619384766e+00,3.354331493377685547e+00,3.262318611145019531e+00,3.175219058990478516e+00,3.092649221420288086e+00,3.014265060424804688e+00,2.939756155014038086e+00,2.868841648101806641e+00,2.801268100738525391e+00,2.736804485321044922e+00,2.675240993499755859e+00,2.616386413574218750e+00,2.560065507888793945e+00,2.506118297576904297e+00,2.454397678375244141e+00,2.404768705368041992e+00,2.357107162475585938e+00,2.311298131942749023e+00,2.267235517501831055e+00,2.224821805953979492e+00,2.183965682983398438e+00,2.144582986831665039e+00,2.106595516204833984e+00,2.069930315017700195e+00,2.034519672393798828e+00,2.000300168991088867e+00,1.967212915420532227e+00,1.935202240943908691e+00,1.904216766357421875e+00,1.874207735061645508e+00,1.845129847526550293e+00
5.000000000000000000e+00,5.000000000000000000e+00,5.000000000000000000e+00,5.000000000000000000e+00,5.000000000000000000e+00,5.000000000000000000e+00,5.000000000000000000e+00,5.000000000000000000e+00,5.000000000000000000e+00,5.000000000000000000e+00,5.000000000000000000e+00,5.000000000000000000e+00,5.000000000000000000e+00,5.000000000000000000e+00,5.000000000000000000e+00,5.000000000000000000e+00,5.000000000000000000e+00,5.000000000000000000e+00,5.000000000000000000e+00,5.000000000000000000e+00,5.000000000000000000e+00,5.000000000000000000e+00,5.000000000000000000e+00,5.000000000000000000e+00,5.000000000000000000e+00,5.000000000000000000e+00,5.000000000000000000e+00,5.000000000000000000e+00,5.000000000000000000e+00,5.000000000000000000e+00,5.000000000000000000e+00,5.000000000000000000e+00,5.000000000000000000e+00,5.000000000000000000e+00,5.000000000000000000e+00,1.961621522903442383e+00,1.647742986679077148e+00,1.614450812339782715e+00,1.858617305755615234e+00,1.858909606933593750e+00,1.892700552940368652e+00,1.919349074363708496e+00,1.851946353912353516e+00,1.816687226295471191e+00,1.798815250396728516e+00,1.799039721488952637e+00,1.823513746261596680e+00,3.664471387863159180e+00,3.554934740066528320e+00,3.451756477355957031e+00,3.354398727416992188e+00,3.262382030487060547e+00,3.175279140472412109e+00,3.092706441879272461e+00,3.014319181442260742e+00,2.939807653427124023e+00,2.868890762329101562e+00,2.801314830780029297e+00,2.736849069595336914e+00,2.675283670425415039e+00,2.616427183151245117e+00,2.560104370117187500e+00,2.506155490875244141e+00,2.454433441162109375e+00,2.404803037643432617e+00,2.357140302658081055e+00,2.311329841613769531e+00,2.267266035079956055e+00,2.224851131439208984e+00,2.183994054794311523e+00,2.144610166549682617e+00,2.106621742248535156e+00,2.069955587387084961e+00,2.034544229507446289e+00,2.000324010848999023e+00,1.967235803604125977e+00,1.935224533081054688e+00,1.904238224029541016e+00,1.874228596687316895e+00,1.845150113105773926e+00
5.000000000000000000e+00,5.000000000000000000e+00,5.000000000000000000e+00,5.000000000000000000e+00,5.000000000000000000e+00,5.000000000000000000e+00,5.000000000000000000e+00,5.000000000000000000e+00,5.000000000000000000e+00,5.000000000000000000e+00,5.000000000000000000e+00,5.000000000000000000e+00,5.000000000000000000e+00,5.000000000000000000e+00,5.000000000000000000e+00,5.000000000000000000e+00,5.000000000000000000e+00,5.000000000000000000e+00,5.000000000000000000e+00,5.000000000000000000e+00,5.000000000000000000e+00,5.000000000000000000e+00,5.000000000000000000e+00,5.000000000000000000e+00,5.000000000000000000e+00,5.000000000000000000e+00,5.000000000000000000e+00,5.000000000000000000e+00,5.000000000000000000e+00,5.000000000000000000e+00,5.000000000000000000e+00,5.000000000000000000e+00,5.000000000000000000e+00,5.000000000000000000e+00,5.000000000000000000e+00,5.000000000000000000e+00,1.896210074424743652e+00,1.868579030036926270e+00,1.868064403533935547e+00,1.868031501770019531e+00,1.908585906028747559e+00,4.495716571807861328e+00,1.849879622459411621e+00,1.813808321952819824e+00,1.785041451454162598e+00,1.785834193229675293e+00,1.786399602890014648e+00,3.664551019668579102e+00,3.555009603500366211e+00,3.451827287673950195e+00,3.354465246200561523e+00,3.262445211410522461e+00,3.175338983535766602e+00,3.092763185501098633e+00,3.014373064041137695e+00,2.939858913421630859e+00,2.868939638137817383e+00,2.801361322402954102e+00,2.736893415451049805e+00,2.675326108932495117e+00,2.616467714309692383e+00,2.560143470764160156e+00,2.506192922592163086e+00,2.454469442367553711e+00,2.404837608337402344e+00,2.357173442840576172e+00,2.311361551284790039e+00,2.267296791076660156e+00,2.224880695343017578e+00,2.184022426605224609e+00,2.144637584686279297e+00,2.106648206710815430e+00,2.069981336593627930e+00,2.034569025039672852e+00,2.000347852706909180e+00,1.967258810997009277e+00,1.935246586799621582e+00,1.904259800910949707e+00,1.874249339103698730e+00,1.845170378684997559e+00
5.000000000000000000e+00,5.000000000000000000e+00,5.000000000000000000e+00,5.000000000000000000e+00,5.000000000000000000e+00,5.000000000000000000e+00,5.000000000000000000e+00,5.000000000000000000e+00,5.000000000000000000e+00,5.000000000000000000e+00,5.000000000000000000e+00,5.000000000000000000e+00,5.000000000000000000e+00,5.000000000000000000e+00,5.000000000000000000e+00,5.000000000000000000e+00,5.000000000000000000e+00,5.000000000000000000e+00,5.000000000000000000e+00,5.000000000000000000e+00,5.000000000000000000e+00,5.000000000000000000e+00,5.000000000000000000e+00,5.000000000000000000e+00,5.000000000000000000e+00,5.000000000000000000e+00,5.000000000000000000e+00,5.000000000000000000e+00,5.000000000000000000e+00,5.000000000000000000e+00,5.000000000000000000e+00,5.000000000000000000e+00,5.000000000000000000e+00,5.000000000000000000e+00,5.000000000000000000e+00,5.000000000000000000e+00,1.909305930137634277e+00,1.879010796546936035e+00,1.877608060836791992e+00,1.877574563026428223e+00,1.924935460090637207e+00,4.495836734771728516e+00,1.859340548515319824e+00,1.809199571609497070e+00,1.776923656463623047e+00,1.772542953491210938e+00,1.773933053016662598e+00,3.664631128311157227e+00,3.555084943771362305e+00,3.451898097991943359e+00,3.354532480239868164e+00,3.262508630752563477e+00,3.175399065017700195e+00,3.092820167541503906e+00,3.014427423477172852e+00,2.939910411834716797e+00,2.868988752365112305e+00,2.801408052444458008e+00,2.736937999725341797e+00,2.675368547439575195e+00,2.616508245468139648e+00,2.560182332992553711e+00,2.506230115890502930e+00,2.454505205154418945e+00,2.404871940612792969e+00,2.357206344604492188e+00,2.311393260955810547e+00,2.267327308654785156e+00,2.224910020828247070e+00,2.184050559997558594e+00,2.144665002822875977e+00,2.106674671173095703e+00,2.070006608963012695e+00,2.034593582153320312e+00,2.000371456146240234e+00,1.967281937599182129e+00,1.935268998146057129e+00,1.904281377792358398e+00,1.874270319938659668e+00,1.845190763473510742e+00
5.000000000000000000e+00,5.000000000000000000e+00,5.000000000000000000e+00,5.000000000000000000e+00,5.000000000000000000e+00,5.000000000000000000e+00,5.000000000000000000e+00,5.000000000000000000e+00,5.000000000000000000e+00,5.000000000000000000e+00,5.000000000000000000e+00,5.000000000000000000e+00,5.000000000000000000e+00,5.000000000000000000e+00,5.000000000000000000e+00,5.000000000000000000e+00,5.000000000000000000e+00,5.000000000000000000e+00,5.000000000000000000e+00,5.000000000000000000e+00,5.000000000000000000e+00,5.000000000000000000e+00,5.000000000000000000e+00,5.000000000000000000e+00,5.000000000000000000e+00,5.000000000000000000e+00,5.000000000000000000e+00,5.000000000000000000e+00,5.000000000000000000e+00,5.000000000000000000e+00,5.000000000000000000e+00,5.000000000000000000e+00,5.000000000000000000e+00,5.000000000000000000e+00,5.000000000000000000e+00,5.000000000000000000e+00,1.921571493148803711e+00,1.889559984207153320e+00,1.887651801109313965e+00,1.894618272781372070e+00,1.939747095108032227e+00,4.495956420898437500e+00,1.875369548797607422e+00,1.803523659706115723e+00,1.772624731063842773e+00,1.755103707313537598e+00,1.760218262672424316e+00,1.783244132995605469e+00,3.555160045623779297e+00,3.451968908309936523e+00,3.354599237442016602e+00,3.262571811676025391e+00,3.175458908081054688e+00,3.092876911163330078e+00,3.014481306076049805e+00,2.939961671829223633e+00,2.869037389755249023e+00,2.801454782485961914e+00,2.736982583999633789e+00,2.675411224365234375e+00,2.616549253463745117e+00,2.560221195220947266e+00,2.506267547607421875e+00,2.454540967941284180e+00,2.404906272888183594e+00,2.357239484786987305e+00,2.311425209045410156e+00,2.267357826232910156e+00,2.224939346313476562e+00,2.184079170227050781e+00,2.144692420959472656e+00,2.106701135635375977e+00,2.070032119750976562e+00,2.034618139266967773e+00,2.000395298004150391e+00,1.967304825782775879e+00,1.935291290283203125e+00,1.904302835464477539e+00,1.874291300773620605e+00,1.845210790634155273e+00
5.000000000000000000e+00,5.000000000000000000e+00,5.000000000000000000e+00,5.000000000000000000e+00,5.000000000000000000e+00,5.000000000000000000e+00,5.000000000000000000e+00,5.000000000000000000e+00,5.000000000000000000e+00,5.000000000000000000e+00,5.000000000000000000e+00,5.000000000000000000e+00,5.000000000000000000e+00,5.000000000000000000e+00,5.000000000000000000e+00,5.000000000000000000e+00,5.000000000000000000e+00,5.000000000000000000e+00,5.000000000000000000e+00,5.000000000000000000e+00,5.000000000000000000e+00,5.000000000000000000e+00,5.000000000000000000e+00,5.000000000000000000e+00,5.000000000000000000e+00,5.000000000000000000e+00,5.000000000000000000e+00,5.000000000000000000e+00,5.000000000000000000e+00,5.000000000000000000e+00,5.000000000000000000e+00,5.000000000000000000e+00,5.000000000000000000e+00,5.000000000000000000e+00,5.000000000000000000e+00,5.000000000000000000e+00,1.935034632682800293e+00,1.898751854896545410e+00,1.897681951522827148e+00,1.910448789596557617e+00,4.672729492187500000e+00,4.496076583862304688e+00,4.332293987274169922e+00,1.800971865653991699e+00,1.768346548080444336e+00,1.743692994117736816e+00,1.744499921798706055e+00,1.750343799591064453e+00,3.555235385894775391e+00,3.452039957046508789e+00,3.354666233062744141e+00,3.262635231018066406e+00,3.175518989562988281e+00,3.092933893203735352e+00,3.014535427093505859e+00,2.940013170242309570e+00,2.869086265563964844e+00,2.801501274108886719e+00,2.737026929855346680e+00,2.675453662872314453e+00,2.616589784622192383e+00,2.560260295867919922e+00,2.506304979324340820e+00,2.454576730728149414e+00,2.404940605163574219e+00,2.357272386550903320e+00,2.311456918716430664e+00,2.267388343811035156e+00,2.224968910217285156e+00,2.184107303619384766e+00,2.144719600677490234e+00,2.106727361679077148e+00,2.070057630538940430e+00,2.034642696380615234e+00,2.000419139862060547e+00,1.967327833175659180e+00,1.935313582420349121e+00,1.904324412345886230e+00,1.874312162399291992e+00,1.845231056213378906e+00
5.000000000000000000e+00,5.000000000000000000e+00,5.000000000000000000e+00,5.000000000000000000e+00,5.000000000000000000e+00,5.000000000000000000e+00,5.000000000000000000e+00,5.000000000000000000e+00,5.000000000000000000e+00,5.000000000000000000e+00,5.000000000000000000e+00,5.000000000000000000e+00,5.000000000000000000e+00,5.000000000000000000e+00,5.000000000000000000e+00,5.000000000000000000e+00,5.000000000000000000e+00,5.000000000000000000e+00,5.000000000000000000e+00,5.000000000000000000e+00,5.000000000000000000e+00,5.000000000000000000e+00,5.000000000000000000e+00,5.000000000000000000e+00,5.000000000000000000e+00,5.000000000000000000e+00,5.000000000000000000e+00,5.000000000000000000e+00,5.000000000000000000e+00,5.000000000000000000e+00,5.000000000000000000e+00,5.000000000000000000e+00,5.000000000000000000e+00,5.000000000000000000e+00,5.000000000000000000e+00,5.000000000000000000e+00,1.949245691299438477e+00,1.907094836235046387e+00,1.904928088188171387e+00,1.925310969352722168e+00,4.672859191894531250e+00,4.496196746826171875e+00,4.332405567169189453e+00,1.832130074501037598e+00,1.762984156608581543e+00,1.740192770957946777e+00,1.734413504600524902e+00,1.741972804069519043e+00,3.555310249328613281e+00,3.452110528945922852e+00,3.354732990264892578e+00,3.262698411941528320e+00,3.175578832626342773e+00,3.092990636825561523e+00,3.014589309692382812e+00,2.940064430236816406e+00,2.869135379791259766e+00,2.801548004150390625e+00,2.737071514129638672e+00,2.675496339797973633e+00,2.616630554199218750e+00,2.560299158096313477e+00,2.506342411041259766e+00,2.454612731933593750e+00,2.404975175857543945e+00,2.357305526733398438e+00,2.311488628387451172e+00,2.267419099807739258e+00,2.224998235702514648e+00,2.184135913848876953e+00,2.144746780395507812e+00,2.106753826141357422e+00,2.070082902908325195e+00,2.034667253494262695e+00,2.000442981719970703e+00,1.967350840568542480e+00,1.935335636138916016e+00,1.904345989227294922e+00,1.874332904815673828e+00,1.845251441001892090e+00
5.000000000000000000e+00,5.000000000000000000e+00,5.000000000000000000e+00,5.000000000000000000e+00,5.000000000000000000e+00,5.000000000000000000e+00,5.000000000000000000e+00,5.000000000000000000e+00,5.000000000000000000e+00,5.000000000000000000e+00,5.000000000000000000e+00,5.000000000000000000e+00,5.000000000000000000e+00,5.000000000000000000e+00,5.000000000000000000e+00,5.000000000000000000e+00,5.000000000000000000e+00,5.000000000000000000e+00,5.000000000000000000e+00,5.000000000000000000e+00,5.000000000000000000e+00,5.000000000000000000e+00,5.000000000000000000e+00,5.000000000000000000e+00,5.000000000000000000e+00,5.000000000000000000e+00,5.000000000000000000e+00,5.000000000000000000e+00,5.000000000000000000e+00,5.000000000000000000e+00,5.000000000000000000e+00,5.000000000000000000e+00,5.000000000000000000e+00,5.000000000000000000e+00,5.000000000000000000e+00,5.000000000000000000e+00,1.964570879936218262e+00,1.917816042900085449e+00,1.912229537963867188e+00,1.939892649650573730e+00,4.672988891601562500e+00,4.496316909790039062e+00,4.332517147064208984e+00,4.180232048034667969e+00,1.764966011047363281e+00,1.742315053939819336e+00,1.737895131111145020e+00,1.743950009346008301e+00,3.555385589599609375e+00,3.452181577682495117e+00,3.354799985885620117e+00,3.262761831283569336e+00,3.175638914108276367e+00,3.093047380447387695e+00,3.014643192291259766e+00,2.940115690231323242e+00,2.869184255599975586e+00,2.801594495773315430e+00,2.737116098403930664e+00,2.675538778305053711e+00,2.616671085357666016e+00,2.560338020324707031e+00,2.506379604339599609e+00,2.454648256301879883e+00,2.405009508132934570e+00,2.357338428497314453e+00,2.311520338058471680e+00,2.267449378967285156e+00,2.225027561187744141e+00,2.184164047241210938e+00,2.144774198532104492e+00,2.106780290603637695e+00,2.070108652114868164e+00,2.034692049026489258e+00,2.000466823577880859e+00,1.967373967170715332e+00,1.935358047485351562e+00,1.904367685317993164e+00,1.874353885650634766e+00,1.845271706581115723e+00
5.000000000000000000e+00,5.000000000000000000e+00,5.000000000000000000e+00,5.000000000000000000e+00,5.000000000000000000e+00,5.000000000000000000e+00,5.000000000000000000e+00,5.000000000000000000e+00,5.000000000000000000e+00,5.000000000000000000e+00,5.000000000000000000e+00,5.000000000000000000e+00,5.000000000000000000e+00,5.000000000000000000e+00,5.000000000000000000e+00,5.000000000000000000e+00,5.000000000000000000e+00,5.000000000000000000e+00,5.000000000000000000e+00,5.000000000000000000e+00,5.000000000000000000e+00,5.000000000000000000e+00,5.000000000000000000e+00,5.000000000000000000e+00,5.000000000000000000e+00,5.000000000000000000e+00,5.000000000000000000e+00,5.000000000000000000e+00,5.000000000000000000e+00,5.000000000000000000e+00,5.000000000000000000e+00,5.000000000000000000e+00,5.000000000000000000e+00,5.000000000000000000e+00,5.000000000000000000e+00,5.000000000000000000e+00,1.981561064720153809e+00,1.928658604621887207e+00,1.919587612152099609e+00,1.950223445892333984e+00,4.673118591308593750e+00,4.496437072753906250e+00,4.332628726959228516e+00,4.180335998535156250e+00,1.771882772445678711e+00,1.748282074928283691e+00,1.745409488677978516e+00,1.751517176628112793e+00,3.555460691452026367e+00,3.452252388000488281e+00,3.354866743087768555e+00,3.262825012207031250e+00,3.175698757171630859e+00,3.093104362487792969e+00,3.014697313308715820e+00,2.940167188644409180e+00,2.869233369827270508e+00,2.801641464233398438e+00,2.737160682678222656e+00,2.675581455230712891e+00,2.616712093353271484e+00,2.560377120971679688e+00,2.506417036056518555e+00,2.454684257507324219e+00,2.405043840408325195e+00,2.357371568679809570e+00,2.311552286148071289e+00,2.267480134963989258e+00,2.225057125091552734e+00,2.184192419052124023e+00,2.144801616668701172e+00,2.106806516647338867e+00,2.070133924484252930e+00,2.034716606140136719e+00,2.000490427017211914e+00,1.967396855354309082e+00,1.935380339622497559e+00,1.904389023780822754e+00,1.874374747276306152e+00,1.845291733741760254e+00
5.000000000000000000e+00,5.000000000000000000e+00,5.000000000000000000e+00,5.000000000000000000e+00,5.000000000000000000e+00,5.000000000000000000e+00,5.000000000000000000e+00,5.000000000000000000e+00,5.000000000000000000e+00,5.000000000000000000e+00,5.000000000000000000e+00,5.000000000000000000e+00,5.000000000000000000e+00,5.000000000000000000e+00,5.000000000000000000e+00,5.000000000000000000e+00,5.000000000000000000e+00,5.000000000000000000e+00,5.000000000000000000e+00,5.000000000000000000e+00,5.000000000000000000e+00,5.000000000000000000e+00,5.000000000000000000e+00,5.000000000000000000e+00,5.000000000000000000e+00,5.000000000000000000e+00,5.000000000000000000e+00,5.000000000000000000e+00,5.000000000000000000e+00,5.000000000000000000e+00,5.000000000000000000e+00,5.000000000000000000e+00,5.000000000000000000e+00,5.000000000000000000e+00,5.000000000000000000e+00,5.000000000000000000e+00,1.996930718421936035e+00,1.940227627754211426e+00,1.927738666534423828e+00,1.962801933288574219e+00,4.673248767852783203e+00,4.496557235717773438e+00,4.332740306854248047e+00,4.180439949035644531e+00,1.780015945434570312e+00,1.756762862205505371e+00,1.752989530563354492e+00,1.790271043777465820e+00,3.555536031723022461e+00,3.452323436737060547e+00,3.354933500289916992e+00,3.262888193130493164e+00,3.175758600234985352e+00,3.093161106109619141e+00,3.014751195907592773e+00,2.940218448638916016e+00,2.869282007217407227e+00,2.801687955856323242e+00,2.737205028533935547e+00,2.675623893737792969e+00,2.616752624511718750e+00,2.560415983200073242e+00,2.506454229354858398e+00,2.454720020294189453e+00,2.405078172683715820e+00,2.357404470443725586e+00,2.311583995819091797e+00,2.267510652542114258e+00,2.225086450576782227e+00,2.184220790863037109e+00,2.144829034805297852e+00,2.106832981109619141e+00,2.070159435272216797e+00,2.034741163253784180e+00,2.000514268875122070e+00,1.967419862747192383e+00,1.935402631759643555e+00,1.904410719871520996e+00,1.874395728111267090e+00,1.845312118530273438e+00
5.000000000000000000e+00,5.000000000000000000e+00,5.000000000000000000e+00,5.000000000000000000e+00,5.000000000000000000e+00,5.000000000000000000e+00,5.000000000000000000e+00,5.000000000000000000e+00,5.000000000000000000e+00,5.000000000000000000e+00,5.000000000000000000e+00,5.000000000000000000e+00,5.000000000000000000e+00,5.000000000000000000e+00,5.000000000000000000e+00,5.000000000000000000e+00,5.000000000000000000e+00,5.000000000000000000e+00,5.000000000000000000e+00,5.000000000000000000e+00,5.000000000000000000e+00,5.000000000000000000e+00,5.000000000000000000e+00,5.000000000000000000e+00,5.000000000000000000e+00,5.000000000000000000e+00,5.000000000000000000e+00,5.000000000000000000e+00,5.000000000000000000e+00,5.000000000000000000e+00,5.000000000000000000e+00,5.000000000000000000e+00,5.000000000000000000e+00,5.000000000000000000e+00,5.000000000000000000e+00,2.048825263977050781e+00,1.995561480522155762e+00,1.957734823226928711e+00,1.949634194374084473e+00,4.864534854888916016e+00,4.673378467559814453e+00,4.496677398681640625e+00,4.332851886749267578e+00,4.180543899536132812e+00,1.785565495491027832e+00,1.767266869544982910e+00,1.762986183166503906e+00,3.665189743041992188e+00,3.555610895156860352e+00,3.452394008636474609e+00,3.355000734329223633e+00,3.262951612472534180e+00,3.175818681716918945e+00,3.093218088150024414e+00,3.014805316925048828e+00,2.940270185470581055e+00,2.869331121444702148e+00,2.801734685897827148e+00,2.737249851226806641e+00,2.675666570663452148e+00,2.616793394088745117e+00,2.560455083847045898e+00,2.506491661071777344e+00,2.454756021499633789e+00,2.405112743377685547e+00,2.357437372207641602e+00,2.311615705490112305e+00,2.267541170120239258e+00,2.225116014480590820e+00,2.184249162673950195e+00,2.144856214523315430e+00,2.106859207153320312e+00,2.070184946060180664e+00,2.034765720367431641e+00,2.000538110733032227e+00,1.967442989349365234e+00,1.935424804687500000e+00,1.904432296752929688e+00,1.874416470527648926e+00,1.845332384109497070e+00
5.000000000000000000e+00,5.000000000000000000e+00,5.000000000000000000e+00,5.000000000000000000e+00,5.000000000000000000e+00,5.000000000000000000e+00,5.000000000000000000e+00,5.000000000000000000e+00,5.000000000000000000e+00,5.000000000000000000e+00,5.000000000000000000e+00,5.000000000000000000e+00,5.000000000000000000e+00,5.000000000000000000e+00,5.000000000000000000e+00,5.000000000000000000e+00,5.000000000000000000e+00,5.000000000000000000e+00,5.000000000000000000e+00,5.000000000000000000e+00,5.000000000000000000e+00,5.000000000000000000e+00,5.000000000000000000e+00,5.000000000000000000e+00,5.000000000000000000e+00,5.000000000000000000e+00,5.000000000000000000e+00,5.000000000000000000e+00,5.000000000000000000e+00,5.000000000000000000e+00,5.000000000000000000e+00,5.000000000000000000e+00,5.000000000000000000e+00,5.000000000000000000e+00,5.000000000000000000e+00,2.046003818511962891e+00,2.009762525558471680e+00,1.987496137619018555e+00,2.009341716766357422e+00,4.864675521850585938e+00,4.673508167266845703e+00,4.496798038482666016e+00,4.332963466644287109e+00,4.180647850036621094e+00,1.786746621131896973e+00,1.771007776260375977e+00,1.767825484275817871e+00,3.665269851684570312e+00,3.555685997009277344e+00,3.452464818954467773e+00,3.355067491531372070e+00,3.263014793395996094e+00,3.175878524780273438e+00,3.093274831771850586e+00,3.014859437942504883e+00,2.940321445465087891e+00,2.869379997253417969e+00,2.801781177520751953e+00,2.737294197082519531e+00,2.675709009170532227e+00,2.616833925247192383e+00,2.560493946075439453e+00,2.506529092788696289e+00,2.454791784286499023e+00,2.405147075653076172e+00,2.357470512390136719e+00,2.311647415161132812e+00,2.267571687698364258e+00,2.225145339965820312e+00,2.184277534484863281e+00,2.144883632659912109e+00,2.106885671615600586e+00,2.070210456848144531e+00,2.034790515899658203e+00,2.000561952590942383e+00,1.967465996742248535e+00,1.935447096824645996e+00,1.904453873634338379e+00,1.874437451362609863e+00,1.845352649688720703e+00
5.000000000000000000e+00,5.000000000000000000e+00,5.000000000000000000e+00,5.000000000000000000e+00,5.000000000000000000e+00,5.000000000000000000e+00,5.000000000000000000e+00,5.000000000000000000e+00,5.000000000000000000e+00,5.000000000000000000e+00,5.000000000000000000e+00,5.000000000000000000e+00,5.000000000000000000e+00,5.000000000000000000e+00,5.000000000000000000e+00,5.000000000000000000e+00,5.000000000000000000e+00,5.000000000000000000e+00,5.000000000000000000e+00,5.000000000000000000e+00,5.000000000000000000e+00,5.000000000000000000e+00,5.000000000000000000e+00,5.000000000000000000e+00,5.000000000000000000e+00,5.000000000000000000e+00,5.000000000000000000e+00,5.000000000000000000e+00,5.000000000000000000e+00,5.000000000000000000e+00,5.000000000000000000e+00,5.000000000000000000e+00,5.000000000000000000e+00,5.000000000000000000e+00,5.000000000000000000e+00,2.067115783691406250e+00,2.044754505157470703e+00,2.038462162017822266e+00,5.000000000000000000e+00,4.864815235137939453e+00,4.673638343811035156e+00,4.496918201446533203e+00,4.333075046539306641e+00,4.180751800537109375e+00,1.785066723823547363e+00,1.768710613250732422e+00,1.765959501266479492e+00,3.665349483489990234e+00,3.555761337280273438e+00,3.452535629272460938e+00,3.355134487152099609e+00,3.263078212738037109e+00,3.175938606262207031e+00,3.093331813812255859e+00,3.014913558959960938e+00,2.940372943878173828e+00,2.869429111480712891e+00,2.801828145980834961e+00,2.737338781356811523e+00,2.675751686096191406e+00,2.616874933242797852e+00,2.560533046722412109e+00,2.506566286087036133e+00,2.454827308654785156e+00,2.405181407928466797e+00,2.357503652572631836e+00,2.311679124832153320e+00,2.267602205276489258e+00,2.225174665451049805e+00,2.184305906295776367e+00,2.144911050796508789e+00,2.106912136077880859e+00,2.070235967636108398e+00,2.034815073013305664e+00,2.000585556030273438e+00,1.967488884925842285e+00,1.935469388961791992e+00,1.904475331306457520e+00,1.874458312988281250e+00,1.845372796058654785e+00
5.000000000000000000e+00,5.000000000000000000e+00,5.000000000000000000e+00,5.000000000000000000e+00,5.000000000000000000e+00,5.000000000000000000e+00,5.000000000000000000e+00,5.000000000000000000e+00,5.000000000000000000e+00,5.000000000000000000e+00,5.000000000000000000e+00,5.000000000000000000e+00,5.000000000000000000e+00,5.000000000000000000e+00,5.000000000000000000e+00,5.000000000000000000e+00,5.000000000000000000e+00,5.000000000000000000e+00,5.000000000000000000e+00,5.000000000000000000e+00,5.000000000000000000e+00,5.000000000000000000e+00,5.000000000000000000e+00,5.000000000000000000e+00,5.000000000000000000e+00,5.000000000000000000e+00,5.000000000000000000e+00,5.000000000000000000e+00,5.000000000000000000e+00,5.000000000000000000e+00,5.000000000000000000e+00,5.000000000000000000e+00,5.000000000000000000e+00,5.000000000000000000e+00,2.141897916793823242e+00,2.088111400604248047e+00,2.071492195129394531e+00,2.114679336547851562e+00,5.000000000000000000e+00,4.864953994750976562e+00,4.673767566680908203e+00,4.497038364410400391e+00,4.333186626434326172e+00,4.180855751037597656e+00,1.783603787422180176e+00,1.765906929969787598e+00,1.764097452163696289e+00,3.665429353713989258e+00,3.555836200714111328e+00,3.452606439590454102e+00,3.355201244354248047e+00,3.263141393661499023e+00,3.175998449325561523e+00,3.093388557434082031e+00,3.014967441558837891e+00,2.940424203872680664e+00,2.869477987289428711e+00,2.801874637603759766e+00,2.737383365631103516e+00,2.675794124603271484e+00,2.616915464401245117e+00,2.560571908950805664e+00,2.506603717803955078e+00,2.454863309860229492e+00,2.405215740203857422e+00,2.357536792755126953e+00,2.311711072921752930e+00,2.267632961273193359e+00,2.225204229354858398e+00,2.184334278106689453e+00,2.144938468933105469e+00,2.106938600540161133e+00,2.070261478424072266e+00,2.034839630126953125e+00,2.000609397888183594e+00,1.967511892318725586e+00,1.935491800308227539e+00,1.904496908187866211e+00,1.874479055404663086e+00,1.845393061637878418e+00
5.000000000000000000e+00,5.000000000000000000e+00,5.000000000000000000e+00,5.000000000000000000e+00,5.000000000000000000e+00,5.000000000000000000e+00,5.000000000000000000e+00,5.000000000000000000e+00,5.000000000000000000e+00,5.000000000000000000e+00,5.000000000000000000e+00,5.000000000000000000e+00,5.000000000000000000e+00,5.000000000000000000e+00,5.000000000000000000e+00,5.000000000000000000e+00,5.000000000000000000e+00,5.000000000000000000e+00,5.000000000000000000e+00,5.000000000000000000e+00,5.000000000000000000e+00,5.000000000000000000e+00,5.000000000000000000e+00,5.000000000000000000e+00,5.000000000000000000e+00,5.000000000000000000e+00,5.000000000000000000e+00,5.000000000000000000e+00,5.000000000000000000e+00,5.000000000000000000e+00,5.000000000000000000e+00,5.000000000000000000e+00,5.000000000000000000e+00,5.000000000000000000e+00,2.147673606872558594e+00,2.110023021697998047e+00,2.095359086990356445e+00,5.000000000000000000e+00,5.000000000000000000e+00,4.865092754364013672e+00,4.673895835876464844e+00,4.497158527374267578e+00,4.333298683166503906e+00,4.180959224700927734e+00,1.782553195953369141e+00,1.763112187385559082e+00,1.761807084083557129e+00,3.665509462356567383e+00,3.555911540985107422e+00,3.452677488327026367e+00,3.355268478393554688e+00,3.263204813003540039e+00,3.176058530807495117e+00,3.093445777893066406e+00,3.015021562576293945e+00,2.940475702285766602e+00,2.869527101516723633e+00,2.801921367645263672e+00,2.737427949905395508e+00,2.675836563110351562e+00,2.616955995559692383e+00,2.560610771179199219e+00,2.506640911102294922e+00,2.454899072647094727e+00,2.405250072479248047e+00,2.357569694519042969e+00,2.311742782592773438e+00,2.267663478851318359e+00,2.225233554840087891e+00,2.184362649917602539e+00,2.144965648651123047e+00,2.106964826583862305e+00,2.070286750793457031e+00,2.034864187240600586e+00,2.000633239746093750e+00,1.967535018920898438e+00,1.935513854026794434e+00,1.904518604278564453e+00,1.874500036239624023e+00,1.845413327217102051e+00
5.000000000000000000e+00,5.000000000000000000e+00,5.000000000000000000e+00,5.000000000000000000e+00,5.000000000000000000e+00,5.000000000000000000e+00,5.000000000000000000e+00,5.000000000000000000e+00,5.000000000000000000e+00,5.000000000000000000e+00,5.000000000000000000e+00,5.000000000000000000e+00,5.000000000000000000e+00,5.000000000000000000e+00,5.000000000000000000e+00,5.000000000000000000e+00,5.000000000000000000e+00,5.000000000000000000e+00,5.000000000000000000e+00,5.000000000000000000e+00,5.000000000000000000e+00,5.000000000000000000e+00,5.000000000000000000e+00,5.000000000000000000e+00,5.000000000000000000e+00,5.000000000000000000e+00,5.000000000000000000e+00,5.000000000000000000e+00,5.000000000000000000e+00,5.000000000000000000e+00,5.000000000000000000e+00,5.000000000000000000e+00,5.000000000000000000e+00,5.000000000000000000e+00,2.172069787979125977e+00,2.133887529373168945e+00,2.140316247940063477e+00,5.000000000000000000e+00,5.000000000000000000e+00,4.865231990814208984e+00,4.674024105072021484e+00,4.497277259826660156e+00,4.333409786224365234e+00,4.181063175201416016e+00,1.782405138015747070e+00,1.760612487792968750e+00,1.759198904037475586e+00,3.665589094161987305e+00,3.555986642837524414e+00,3.452748298645019531e+00,3.355335235595703125e+00,3.263267993927001953e+00,3.176118373870849609e+00,3.093502521514892578e+00,3.015075445175170898e+00,2.940526962280273438e+00,2.869575738906860352e+00,2.801967859268188477e+00,2.737472534179687500e+00,2.675879240036010742e+00,2.616996765136718750e+00,2.560649871826171875e+00,2.506678342819213867e+00,2.454935073852539062e+00,2.405284643173217773e+00,2.357602834701538086e+00,2.311774492263793945e+00,2.267693996429443359e+00,2.225263118743896484e+00,2.184391021728515625e+00,2.144993066787719727e+00,2.106991291046142578e+00,2.070312500000000000e+00,2.034888982772827148e+00,2.000657081604003906e+00,1.967557907104492188e+00,1.935536146163940430e+00,1.904539942741394043e+00,1.874521017074584961e+00,1.845433473587036133e+00
5.000000000000000000e+00,5.000000000000000000e+00,5.000000000000000000e+00,5.000000000000000000e+00,5.000000000000000000e+00,5.000000000000000000e+00,5.000000000000000000e+00,5.000000000000000000e+00,5.000000000000000000e+00,5.000000000000000000e+00,5.000000000000000000e+00,5.000000000000000000e+00,5.000000000000000000e+00,5.000000000000000000e+00,5.000000000000000000e+00,5.000000000000000000e+00,5.000000000000000000e+00,5.000000000000000000e+00,5.000000000000000000e+00,5.000000000000000000e+00,5.000000000000000000e+00,5.000000000000000000e+00,5.000000000000000000e+00,5.000000000000000000e+00,5.000000000000000000e+00,5.000000000000000000e+00,5.000000000000000000e+00,5.000000000000000000e+00,5.000000000000000000e+00,5.000000000000000000e+00,5.000000000000000000e+00,5.000000000000000000e+00,5.000000000000000000e+00,5.000000000000000000e+00,2.198090076446533203e+00,2.169519662857055664e+00,2.197542905807495117e+00,5.000000000000000000e+00,5.000000000000000000e+00,4.865371227264404297e+00,4.674152374267578125e+00,4.497395992279052734e+00,4.333520412445068359e+00,4.181167125701904297e+00,1.784132480621337891e+00,1.758909821510314941e+00,1.757344007492065430e+00,3.665669202804565430e+00,3.556061983108520508e+00,3.452819347381591797e+00,3.355402231216430664e+00,3.263331413269042969e+00,3.176178455352783203e+00,3.093559503555297852e+00,3.015129804611206055e+00,2.940578460693359375e+00,2.869624853134155273e+00,2.802014589309692383e+00,2.737516880035400391e+00,2.675921916961669922e+00,2.617037534713745117e+00,2.560688972473144531e+00,2.506715774536132812e+00,2.454970836639404297e+00,2.405318975448608398e+00,2.357635736465454102e+00,2.311806201934814453e+00,2.267724514007568359e+00,2.225292444229125977e+00,2.184419393539428711e+00,2.145020484924316406e+00,2.107017517089843750e+00,2.070337772369384766e+00,2.034913539886474609e+00,2.000680923461914062e+00,1.967580914497375488e+00,1.935558557510375977e+00,1.904561519622802734e+00,1.874541878700256348e+00,1.845453739166259766e+00
5.000000000000000000e+00,5.000000000000000000e+00,5.000000000000000000e+00,5.000000000000000000e+00,5.000000000000000000e+00,5.000000000000000000e+00,5.000000000000000000e+00,5.000000000000000000e+00,5.000000000000000000e+00,5.000000000000000000e+00,5.000000000000000000e+00,5.000000000000000000e+00,5.000000000000000000e+00,5.000000000000000000e+00,5.000000000000000000e+00,5.000000000000000000e+00,5.000000000000000000e+00,5.000000000000000000e+00,5.000000000000000000e+00,5.000000000000000000e+00,5.000000000000000000e+00,5.000000000000000000e+00,5.000000000000000000e+00,5.000000000000000000e+00,5.000000000000000000e+00,5.000000000000000000e+00,5.000000000000000000e+00,5.000000000000000000e+00,5.000000000000000000e+00,5.000000000000000000e+00,5.000000000000000000e+00,5.000000000000000000e+00,5.000000000000000000e+00,5.000000000000000000e+00,2.225436687469482422e+00,2.204721927642822266e+00,5.000000000000000000e+00,5.000000000000000000e+00,5.000000000000000000e+00,4.865510463714599609e+00,4.674280643463134766e+00,4.497514724731445312e+00,4.333631038665771484e+00,4.181270599365234375e+00,1.785863161087036133e+00,1.758518218994140625e+00,1.755493044853210449e+00,3.665748834609985352e+00,3.556137084960937500e+00,3.452889919281005859e+00,3.355468988418579102e+00,3.263394594192504883e+00,3.176238298416137695e+00,3.093616247177124023e+00,3.015183687210083008e+00,2.940629720687866211e+00,2.869673728942871094e+00,2.802061319351196289e+00,2.737561464309692383e+00,2.675964593887329102e+00,2.617078304290771484e+00,2.560727834701538086e+00,2.506753206253051758e+00,2.455006599426269531e+00,2.405353307723999023e+00,2.357668876647949219e+00,2.311838150024414062e+00,2.267755270004272461e+00,2.225322008132934570e+00,2.184447765350341797e+00,2.145047903060913086e+00,2.107043981552124023e+00,2.070363283157348633e+00,2.034938097000122070e+00,2.000704526901245117e+00,1.967604041099548340e+00,1.935580611228942871e+00,1.904583215713500977e+00,1.874562621116638184e+00,1.845474004745483398e+00
4.871446132659912109e+00,4.870223999023437500e+00,4.869002819061279297e+00,4.867782592773437500e+00,4.866562843322753906e+00,4.865343570709228516e+00,4.864125251770019531e+00,4.862906932830810547e+00,4.861689567565917969e+00,4.860472679138183594e+00,4.859256267547607422e+00,4.858040809631347656e+00,4.856826305389404297e+00,4.855611801147460938e+00,4.854397773742675781e+00,4.853184700012207031e+00,4.851972103118896484e+00,4.850760459899902344e+00,4.849549293518066406e+00,4.848338127136230469e+00,4.847127914428710938e+00,4.845918655395507812e+00,4.844709873199462891e+00,4.843501091003417969e+00,4.842293739318847656e+00,4.841086387634277344e+00,4.839879989624023438e+00,4.838674068450927734e+00,4.837468624114990234e+00,4.836264133453369141e+00,4.835060119628906250e+00,4.833856582641601562e+00,4.832653999328613281e+00,4.831451416015625000e+00,2.261036872863769531e+00,2.256859064102172852e+00,4.827847957611083984e+00,4.826648235321044922e+00,4.825448989868164062e+00,4.824250221252441406e+00,4.674408912658691406e+00,4.497633934020996094e+00,4.333741664886474609e+00,4.181373596191406250e+00,1.787597179412841797e+00,1.758126974105834961e+00,1.753646016120910645e+00,3.665828943252563477e+00,3.556212425231933594e+00,3.452960968017578125e+00,3.355536222457885742e+00,3.263458013534545898e+00,3.176298379898071289e+00,3.093673229217529297e+00,3.015237569808959961e+00,2.940680980682373047e+00,2.869722604751586914e+00,2.802107810974121094e+00,2.737606048583984375e+00,2.676007032394409180e+00,2.617118835449218750e+00,2.560766935348510742e+00,2.506790399551391602e+00,2.455042362213134766e+00,2.405387639999389648e+00,2.357701778411865234e+00,2.311869859695434570e+00,2.267785787582397461e+00,2.225351333618164062e+00,2.184476137161254883e+00,2.145075082778930664e+00,2.107070446014404297e+00,2.070388793945312500e+00,2.034962654113769531e+00,2.000728368759155273e+00,1.967627048492431641e+00,1.935602903366088867e+00,1.904604792594909668e+00,1.874583601951599121e+00,1.845494389533996582e+00
3.776272058486938477e+00,3.775537729263305664e+00,3.774803876876831055e+00,3.774070501327514648e+00,3.773337125778198242e+00,3.772604227066040039e+00,3.771871328353881836e+00,3.771138906478881836e+00,3.770406484603881836e+00,3.769675016403198242e+00,3.768943309783935547e+00,3.768211841583251953e+00,3.767480850219726562e+00,3.766750097274780273e+00,3.766019582748413086e+00,3.765289783477783203e+00,3.764559745788574219e+00,3.763829946517944336e+00,3.763100624084472656e+00,3.762371540069580078e+00,3.761642694473266602e+00,3.760914564132690430e+00,3.760186195373535156e+00,3.759458303451538086e+00,3.758730649948120117e+00,3.758002996444702148e+00,3.757276058197021484e+00,3.756549596786499023e+00,3.755822896957397461e+00,3.755096673965454102e+00,3.754370689392089844e+00,3.753644943237304688e+00,3.752919673919677734e+00,3.752194643020629883e+00,2.251555442810058594e+00,2.244547367095947266e+00,3.750020742416381836e+00,3.749296665191650391e+00,3.748573303222656250e+00,3.747849702835083008e+00,3.747126579284667969e+00,3.746403694152832031e+00,3.745680809020996094e+00,3.744958639144897461e+00,1.790015697479248047e+00,1.759552240371704102e+00,1.755045771598815918e+00,3.665908575057983398e+00,3.556287288665771484e+00,3.453031778335571289e+00,3.355602979660034180e+00,3.263521194458007812e+00,3.176358222961425781e+00,3.093729972839355469e+00,3.015291690826416016e+00,2.940732717514038086e+00,2.869771718978881836e+00,2.802154779434204102e+00,2.737650632858276367e+00,2.676049709320068359e+00,2.617159843444824219e+00,2.560805797576904297e+00,2.506827831268310547e+00,2.455078363418579102e+00,2.405422210693359375e+00,2.357734918594360352e+00,2.311901569366455078e+00,2.267816305160522461e+00,2.225380897521972656e+00,2.184504270553588867e+00,2.145102500915527344e+00,2.107096672058105469e+00,2.070414304733276367e+00,2.034987211227416992e+00,2.000752210617065430e+00,1.967649936676025391e+00,1.935625314712524414e+00,1.904626250267028809e+00,1.874604582786560059e+00,1.845514416694641113e+00
3.083136796951293945e+00,3.082647323608398438e+00,3.082158088684082031e+00,3.081669330596923828e+00,3.081180334091186523e+00,3.080691576004028320e+00,3.080202817916870117e+00,3.079714298248291016e+00,3.079226016998291016e+00,3.078737974166870117e+00,3.078249931335449219e+00,3.077762126922607422e+00,3.077274322509765625e+00,3.076786756515502930e+00,3.076299190521240234e+00,3.075812339782714844e+00,3.075325012207031250e+00,3.074838161468505859e+00,3.074351310729980469e+00,3.073864698410034180e+00,3.073378086090087891e+00,3.072891950607299805e+00,3.072405815124511719e+00,3.071919679641723633e+00,3.071433782577514648e+00,3.070948123931884766e+00,3.070462465286254883e+00,3.069977283477783203e+00,3.069492101669311523e+00,3.069006919860839844e+00,3.068521976470947266e+00,3.068037033081054688e+00,3.067552804946899414e+00,3.067068338394165039e+00,2.232454538345336914e+00,2.229120016098022461e+00,3.065615653991699219e+00,3.065131664276123047e+00,3.064648389816284180e+00,3.064164638519287109e+00,3.063681364059448242e+00,3.063198089599609375e+00,3.062714815139770508e+00,3.062231779098510742e+00,3.061749219894409180e+00,1.772305488586425781e+00,1.768941998481750488e+00,3.060301780700683594e+00,3.059819459915161133e+00,3.059337377548217773e+00,3.058855772018432617e+00,3.058373928070068359e+00,3.057892322540283203e+00,3.057410717010498047e+00,3.015345573425292969e+00,2.940783977508544922e+00,2.869820594787597656e+00,2.802201271057128906e+00,2.737695217132568359e+00,2.676092147827148438e+00,2.617200374603271484e+00,2.560844898223876953e+00,2.506865024566650391e+00,2.455114126205444336e+00,2.405456542968750000e+00,2.357768058776855469e+00,2.311933279037475586e+00,2.267846822738647461e+00,2.225410223007202148e+00,2.184532880783081055e+00,2.145129919052124023e+00,2.107123136520385742e+00,2.070439815521240234e+00,2.035012006759643555e+00,2.000776052474975586e+00,1.967673063278198242e+00,1.935647606849670410e+00,1.904647827148437500e+00,1.874625444412231445e+00,1.845534801483154297e+00
2.604990482330322266e+00,2.604641199111938477e+00,2.604291677474975586e+00,2.603942632675170898e+00,2.603593587875366211e+00,2.603244543075561523e+00,2.602895498275756836e+00,2.602546691894531250e+00,2.602197885513305664e+00,2.601849555969238281e+00,2.601500988006591797e+00,2.601152420043945312e+00,2.600804090499877930e+00,2.600455760955810547e+00,2.600107431411743164e+00,2.599759578704833984e+00,2.599411725997924805e+00,2.599063634872436523e+00,2.598715782165527344e+00,2.598368167877197266e+00,2.598020553588867188e+00,2.597673177719116211e+00,2.597325563430786133e+00,2.596978187561035156e+00,2.596631050109863281e+00,2.596283912658691406e+00,2.595936775207519531e+00,2.595589876174926758e+00,2.595242977142333984e+00,2.594896316528320312e+00,2.594549417495727539e+00,2.594202756881713867e+00,2.593856573104858398e+00,2.593510150909423828e+00,2.215113878250122070e+00,2.205414056777954102e+00,2.210513591766357422e+00,2.592125177383422852e+00,2.591779470443725586e+00,2.591433525085449219e+00,2.591087818145751953e+00,2.590742111206054688e+00,2.590396404266357422e+00,2.590050935745239258e+00,2.589705705642700195e+00,1.759936213493347168e+00,1.737611293792724609e+00,2.588670015335083008e+00,2.588325023651123047e+00,2.587980031967163086e+00,2.587635278701782227e+00,2.587290525436401367e+00,2.586946010589599609e+00,2.586601257324218750e+00,2.586256742477416992e+00,2.585912466049194336e+00,2.585568189620971680e+00,2.585224151611328125e+00,2.584879875183105469e+00,2.584535837173461914e+00,2.584192037582397461e+00,2.560883998870849609e+00,2.506902694702148438e+00,2.455150127410888672e+00,2.405490875244140625e+00,2.357801198959350586e+00,2.311964988708496094e+00,2.267877340316772461e+00,2.225439786911010742e+00,2.184561014175415039e+00,2.145157098770141602e+00,2.107149600982666016e+00,2.070465087890625000e+00,2.035036563873291016e+00,2.000799655914306641e+00,1.967696070671081543e+00,1.935669779777526855e+00,1.904669523239135742e+00,1.874646186828613281e+00,1.845555067062377930e+00
2.255210161209106445e+00,2.254949808120727539e+00,2.254689216613769531e+00,2.254428625106811523e+00,2.254168272018432617e+00,2.253907918930053711e+00,2.253647565841674805e+00,2.253387212753295898e+00,2.253127098083496094e+00,2.252866983413696289e+00,2.252606868743896484e+00,2.252346992492675781e+00,2.252086877822875977e+00,2.251827001571655273e+00,2.251567125320434570e+00,2.251307487487792969e+00,2.251047849655151367e+00,2.250788211822509766e+00,2.250528573989868164e+00,2.250268936157226562e+00,2.250009536743164062e+00,2.249750137329101562e+00,2.249490737915039062e+00,2.249230623245239258e+00,2.248970270156860352e+00,2.248709678649902344e+00,2.248449325561523438e+00,2.248189210891723633e+00,2.247928857803344727e+00,2.247668743133544922e+00,2.247408628463745117e+00,2.247148513793945312e+00,2.246888637542724609e+00,2.246628761291503906e+00,2.246368885040283203e+00,2.246109008789062500e+00,2.245849132537841797e+00,2.245589494705200195e+00,2.245329856872558594e+00,2.245070219039916992e+00,2.244810819625854492e+00,2.244551181793212891e+00,2.244291782379150391e+00,2.244032621383666992e+00,1.821017622947692871e+00,1.744735479354858398e+00,1.693767070770263672e+00,1.699546933174133301e+00,2.242736816406250000e+00,2.242477655410766602e+00,2.242218971252441406e+00,2.241960048675537109e+00,2.241701364517211914e+00,2.241442441940307617e+00,2.241183757781982422e+00,2.240925073623657227e+00,2.240666627883911133e+00,2.240408182144165039e+00,2.240149736404418945e+00,2.239891290664672852e+00,2.239633083343505859e+00,2.239374876022338867e+00,2.239116668701171875e+00,2.238858461380004883e+00,2.238600254058837891e+00,2.238342285156250000e+00,2.238084316253662109e+00,2.237826585769653320e+00,2.225469112396240234e+00,2.184589624404907227e+00,2.145184516906738281e+00,2.107176065444946289e+00,2.070490837097167969e+00,2.035061120986938477e+00,2.000823736190795898e+00,1.967719197273254395e+00,1.935692071914672852e+00,1.904691100120544434e+00,1.874667167663574219e+00,1.845575332641601562e+00
1.988187551498413086e+00,1.987985014915466309e+00,1.987782478332519531e+00,1.987579941749572754e+00,1.987377643585205078e+00,1.987175226211547852e+00,1.986972808837890625e+00,1.986770510673522949e+00,1.986568212509155273e+00,1.986366152763366699e+00,1.986163973808288574e+00,1.985961675643920898e+00,1.985759615898132324e+00,1.985557436943054199e+00,1.985355615615844727e+00,1.985153675079345703e+00,1.984951615333557129e+00,1.984749674797058105e+00,1.984547853469848633e+00,1.984346151351928711e+00,1.984144330024719238e+00,1.983942508697509766e+00,1.983740806579589844e+00,1.983539342880249023e+00,1.983337640762329102e+00,1.983136057853698730e+00,1.982934474945068359e+00,1.982733011245727539e+00,1.982531666755676270e+00,1.982330322265625000e+00,1.982128858566284180e+00,1.981927514076232910e+00,1.981726169586181641e+00,1.981525063514709473e+00,1.981323838233947754e+00,1.981122612953186035e+00,1.980921506881713867e+00,1.980720281600952148e+00,1.980519533157348633e+00,1.980318427085876465e+00,1.980117440223693848e+00,1.979916453361511230e+00,1.979715585708618164e+00,1.979514956474304199e+00,1.979314088821411133e+00,1.778875827789306641e+00,1.664942026138305664e+00,1.617144823074340820e+00,1.627686977386474609e+00,1.978310704231262207e+00,1.978110074996948242e+00,1.977909564971923828e+00,1.977709293365478516e+00,1.977508783340454102e+00,1.977308273315429688e+00,1.977107882499694824e+00,1.976907610893249512e+00,1.976707458496093750e+00,1.976507186889648438e+00,1.976307034492492676e+00,1.976106762886047363e+00,1.975906610488891602e+00,1.975706815719604492e+00,1.975506663322448730e+00,1.975306630134582520e+00,1.975106716156005859e+00,1.974906682968139648e+00,1.974707007408142090e+00,1.974507212638854980e+00,1.974307298660278320e+00,1.974107503890991211e+00,1.973908066749572754e+00,1.973708391189575195e+00,1.973508715629577637e+00,1.973309040069580078e+00,1.967741966247558594e+00,1.935714364051818848e+00,1.904712438583374023e+00,1.874688148498535156e+00,1.845595479011535645e+00
1.777702808380126953e+00,1.777541041374206543e+00,1.777379035949707031e+00,1.777217149734497070e+00,1.777055263519287109e+00,1.776893615722656250e+00,1.776731729507446289e+00,1.776569962501525879e+00,1.776408195495605469e+00,1.776246428489685059e+00,1.776084899902343750e+00,1.775923252105712891e+00,1.775761604309082031e+00,1.775599956512451172e+00,1.775438427925109863e+00,1.775277018547058105e+00,1.775115489959716797e+00,1.774953961372375488e+00,1.774792432785034180e+00,1.774631023406982422e+00,1.774469852447509766e+00,1.774308443069458008e+00,1.774147033691406250e+00,1.773985743522644043e+00,1.773824453353881836e+00,1.773663282394409180e+00,1.773502111434936523e+00,1.773340821266174316e+00,1.773179650306701660e+00,1.773018717765808105e+00,1.772857546806335449e+00,1.772696495056152344e+00,1.772535443305969238e+00,1.772374391555786133e+00,1.772213578224182129e+00,1.772052526473999023e+00,1.771891593933105469e+00,1.771730661392211914e+00,1.771569848060607910e+00,1.771409153938293457e+00,1.771248221397399902e+00,1.771087527275085449e+00,1.770926713943481445e+00,1.770765900611877441e+00,1.770605444908142090e+00,1.770444750785827637e+00,1.770284056663513184e+00,1.770123481750488281e+00,1.769962787628173828e+00,1.769802451133728027e+00,1.769641876220703125e+00,1.769481420516967773e+00,1.769320964813232422e+00,1.769160628318786621e+00,1.769000172615051270e+00,1.768839836120605469e+00,1.768679380416870117e+00,1.768519163131713867e+00,1.768358945846557617e+00,1.768198728561401367e+00,1.768038392066955566e+00,1.767878174781799316e+00,1.767718076705932617e+00,1.767558097839355469e+00,1.767397880554199219e+00,1.767237782478332520e+00,1.767077684402465820e+00,1.766917705535888672e+00,1.766757845878601074e+00,1.766597867012023926e+00,1.766437888145446777e+00,1.766277909278869629e+00,1.766118049621582031e+00,1.765958428382873535e+00,1.765798568725585938e+00,1.765638709068298340e+00,1.765478968620300293e+00,1.765319347381591797e+00,1.765159726142883301e+00,1.764999985694885254e+00
1.607518672943115234e+00,1.607386231422424316e+00,1.607254028320312500e+00,1.607121586799621582e+00,1.606989145278930664e+00,1.606856822967529297e+00,1.606724500656127930e+00,1.606592297554016113e+00,1.606459975242614746e+00,1.606327772140502930e+00,1.606195449829101562e+00,1.606063365936279297e+00,1.605931162834167480e+00,1.605798959732055664e+00,1.605666875839233398e+00,1.605534672737121582e+00,1.605402708053588867e+00,1.605270624160766602e+00,1.605138540267944336e+00,1.605006456375122070e+00,1.604874491691589355e+00,1.604742527008056641e+00,1.604610562324523926e+00,1.604478597640991211e+00,1.604346632957458496e+00,1.604214787483215332e+00,1.604082942008972168e+00,1.603951096534729004e+00,1.603819251060485840e+00,1.603687405586242676e+00,1.603555560111999512e+00,1.603423953056335449e+00,1.603292107582092285e+00,1.603160381317138672e+00,1.603028655052185059e+00,1.602897047996520996e+00,1.602765440940856934e+00,1.602633714675903320e+00,1.602502107620239258e+00,1.602370500564575195e+00,1.602239012718200684e+00,1.602107405662536621e+00,1.601975917816162109e+00,1.601844310760498047e+00,1.601712822914123535e+00,1.601581454277038574e+00,1.601449966430664062e+00,1.601318597793579102e+00,1.601187109947204590e+00,1.601055741310119629e+00,1.600924491882324219e+00,1.600793123245239258e+00,1.600661754608154297e+00,1.600530505180358887e+00,1.600399136543273926e+00,1.600268006324768066e+00,1.600136756896972656e+00,1.600005507469177246e+00,1.599874258041381836e+00,1.599743247032165527e+00,1.599612116813659668e+00,1.599480867385864258e+00,1.599349737167358398e+00,1.599218726158142090e+00,1.599087715148925781e+00,1.598956704139709473e+00,1.598825693130493164e+00,1.598694682121276855e+00,1.598563671112060547e+00,1.598432779312133789e+00,1.598301887512207031e+00,1.598170876502990723e+00,1.598039984703063965e+00,1.597909092903137207e+00,1.597778439521789551e+00,1.597647547721862793e+00,1.597516655921936035e+00,1.597385883331298828e+00,1.597255110740661621e+00,1.597124457359313965e+00
1.467072129249572754e+00,1.466961741447448730e+00,1.466851472854614258e+00,1.466741323471069336e+00,1.466631054878234863e+00,1.466520786285400391e+00,1.466410517692565918e+00,1.466300368309020996e+00,1.466190218925476074e+00,1.466080069541931152e+00,1.465969920158386230e+00,1.465859770774841309e+00,1.465749621391296387e+00,1.465639591217041016e+00,1.465529441833496094e+00,1.465419411659240723e+00,1.465309381484985352e+00,1.465199470520019531e+00,1.465089321136474609e+00,1.464979410171508789e+00,1.464869379997253418e+00,1.464759349822998047e+00,1.464649558067321777e+00,1.464539527893066406e+00,1.464429616928100586e+00,1.464319705963134766e+00,1.464209794998168945e+00,1.464100003242492676e+00,1.463990211486816406e+00,1.463880300521850586e+00,1.463770508766174316e+00,1.463660597801208496e+00,1.463550925254821777e+00,1.463441133499145508e+00,1.463331341743469238e+00,1.463221669197082520e+00,1.463111877441406250e+00,1.463002324104309082e+00,1.462892532348632812e+00,1.462782859802246094e+00,1.462673187255859375e+00,1.462563753128051758e+00,1.462454080581665039e+00,1.462344408035278320e+00,1.462234854698181152e+00,1.462125301361083984e+00,1.462015748023986816e+00,1.461906194686889648e+00,1.461796760559082031e+00,1.461687207221984863e+00,1.461577653884887695e+00,1.461468338966369629e+00,1.461358785629272461e+00,1.461249351501464844e+00,1.461139917373657227e+00,1.461030483245849609e+00,1.460921168327331543e+00,1.460811853408813477e+00,1.460702419281005859e+00,1.460593104362487793e+00,1.460483670234680176e+00,1.460374474525451660e+00,1.460265159606933594e+00,1.460155963897705078e+00,1.460046648979187012e+00,1.459937453269958496e+00,1.459828257560729980e+00,1.459719061851501465e+00,1.459609746932983398e+00,1.459500551223754883e+00,1.459391593933105469e+00,1.459282398223876953e+00,1.459173202514648438e+00,1.459064126014709473e+00,1.458954930305480957e+00,1.458845973014831543e+00,1.458736896514892578e+00,1.458627820014953613e+00,1.458518743515014648e+00,1.458409786224365234e+00
1.349194765090942383e+00,1.349101543426513672e+00,1.349008202552795410e+00,1.348914980888366699e+00,1.348821759223937988e+00,1.348728537559509277e+00,1.348635315895080566e+00,1.348542094230651855e+00,1.348448872566223145e+00,1.348355770111083984e+00,1.348262548446655273e+00,1.348169445991516113e+00,1.348076224327087402e+00,1.347983121871948242e+00,1.347890019416809082e+00,1.347796916961669922e+00,1.347703814506530762e+00,1.347610712051391602e+00,1.347517609596252441e+00,1.347424745559692383e+00,1.347331643104553223e+00,1.347238659858703613e+00,1.347145557403564453e+00,1.347052693367004395e+00,1.346959710121154785e+00,1.346866726875305176e+00,1.346773743629455566e+00,1.346680760383605957e+00,1.346587896347045898e+00,1.346494913101196289e+00,1.346402049064636230e+00,1.346309065818786621e+00,1.346216201782226562e+00,1.346123456954956055e+00,1.346030473709106445e+00,1.345937609672546387e+00,1.345844864845275879e+00,1.345752000808715820e+00,1.345659255981445312e+00,1.345566391944885254e+00,1.345473647117614746e+00,1.345380783081054688e+00,1.345288038253784180e+00,1.345195412635803223e+00,1.345102667808532715e+00,1.345009922981262207e+00,1.344917178153991699e+00,1.344824552536010742e+00,1.344731926918029785e+00,1.344639182090759277e+00,1.344546556472778320e+00,1.344453811645507812e+00,1.344361305236816406e+00,1.344268679618835449e+00,1.344176054000854492e+00,1.344083428382873535e+00,1.343990802764892578e+00,1.343898415565490723e+00,1.343805789947509766e+00,1.343713283538818359e+00,1.343620657920837402e+00,1.343528151512145996e+00,1.343435764312744141e+00,1.343343257904052734e+00,1.343250751495361328e+00,1.343158245086669922e+00,1.343065738677978516e+00,1.342973470687866211e+00,1.342880964279174805e+00,1.342788577079772949e+00,1.342696070671081543e+00,1.342603802680969238e+00,1.342511415481567383e+00,1.342419028282165527e+00,1.342326641082763672e+00,1.342234253883361816e+00,1.342142105102539062e+00,1.342049717903137207e+00,1.341957449913024902e+00,1.341865062713623047e+00
1.248851180076599121e+00,1.248771429061889648e+00,1.248691439628601074e+00,1.248611569404602051e+00,1.248531579971313477e+00,1.248451828956604004e+00,1.248371958732604980e+00,1.248292088508605957e+00,1.248212218284606934e+00,1.248132348060607910e+00,1.248052597045898438e+00,1.247972726821899414e+00,1.247892856597900391e+00,1.247813105583190918e+00,1.247733235359191895e+00,1.247653603553771973e+00,1.247573733329772949e+00,1.247493982315063477e+00,1.247414231300354004e+00,1.247334480285644531e+00,1.247254848480224609e+00,1.247175097465515137e+00,1.247095346450805664e+00,1.247015595436096191e+00,1.246935963630676270e+00,1.246856331825256348e+00,1.246776580810546875e+00,1.246696949005126953e+00,1.246617317199707031e+00,1.246537685394287109e+00,1.246458053588867188e+00,1.246378421783447266e+00,1.246298789978027344e+00,1.246219158172607422e+00,1.246139645576477051e+00,1.246060132980346680e+00,1.245980501174926758e+00,1.245900869369506836e+00,1.245821356773376465e+00,1.245741963386535645e+00,1.245662331581115723e+00,1.245582818984985352e+00,1.245503306388854980e+00,1.245423793792724609e+00,1.245344400405883789e+00,1.245264887809753418e+00,1.245185375213623047e+00,1.245105981826782227e+00,1.245026469230651855e+00,1.244947075843811035e+00,1.244867682456970215e+00,1.244788289070129395e+00,1.244708776473999023e+00,1.244629502296447754e+00,1.244550108909606934e+00,1.244470715522766113e+00,1.244391322135925293e+00,1.244311928749084473e+00,1.244232654571533203e+00,1.244153380393981934e+00,1.244073987007141113e+00,1.243994593620300293e+00,1.243915319442749023e+00,1.243836164474487305e+00,1.243756771087646484e+00,1.243677496910095215e+00,1.243598222732543945e+00,1.243518948554992676e+00,1.243439793586730957e+00,1.243360519409179688e+00,1.243281364440917969e+00,1.243202090263366699e+00,1.243122816085815430e+00,1.243043780326843262e+00,1.242964506149291992e+00,1.242885351181030273e+00,1.242806196212768555e+00,1.242727160453796387e+00,1.242648005485534668e+00,1.242568850517272949e+00
1.162400245666503906e+00,1.162330985069274902e+00,1.162261843681335449e+00,1.162192583084106445e+00,1.162123322486877441e+00,1.162054061889648438e+00,1.161984920501708984e+00,1.161915779113769531e+00,1.161846518516540527e+00,1.161777377128601074e+00,1.161708116531372070e+00,1.161639094352722168e+00,1.161569952964782715e+00,1.161500811576843262e+00,1.161431550979614258e+00,1.161362409591674805e+00,1.161293387413024902e+00,1.161224246025085449e+00,1.161155223846435547e+00,1.161086082458496094e+00,1.161016941070556641e+00,1.160947918891906738e+00,1.160878896713256836e+00,1.160809755325317383e+00,1.160740733146667480e+00,1.160671710968017578e+00,1.160602688789367676e+00,1.160533666610717773e+00,1.160464644432067871e+00,1.160395622253417969e+00,1.160326600074768066e+00,1.160257577896118164e+00,1.160188674926757812e+00,1.160119652748107910e+00,1.160050630569458008e+00,1.159981727600097656e+00,1.159912824630737305e+00,1.159843802452087402e+00,1.159774899482727051e+00,1.159705877304077148e+00,1.159637093544006348e+00,1.159568071365356445e+00,1.159499168395996094e+00,1.159430265426635742e+00,1.159361362457275391e+00,1.159292578697204590e+00,1.159223675727844238e+00,1.159154772758483887e+00,1.159085869789123535e+00,1.159017086029052734e+00,1.158948302268981934e+00,1.158879399299621582e+00,1.158810615539550781e+00,1.158741712570190430e+00,1.158672928810119629e+00,1.158604145050048828e+00,1.158535361289978027e+00,1.158466577529907227e+00,1.158397793769836426e+00,1.158329129219055176e+00,1.158260345458984375e+00,1.158191561698913574e+00,1.158122897148132324e+00,1.158054113388061523e+00,1.157985448837280273e+00,1.157916665077209473e+00,1.157848000526428223e+00,1.157779216766357422e+00,1.157710552215576172e+00,1.157641887664794922e+00,1.157573223114013672e+00,1.157504558563232422e+00,1.157435894012451172e+00,1.157367229461669922e+00,1.157298684120178223e+00,1.157230019569396973e+00,1.157161355018615723e+00,1.157092690467834473e+00,1.157024145126342773e+00,1.156955599784851074e+00
1.087143301963806152e+00,1.087082743644714355e+00,1.087022185325622559e+00,1.086961627006530762e+00,1.086901068687438965e+00,1.086840510368347168e+00,1.086779952049255371e+00,1.086719393730163574e+00,1.086658954620361328e+00,1.086598515510559082e+00,1.086537957191467285e+00,1.086477398872375488e+00,1.086416959762573242e+00,1.086356520652770996e+00,1.086295962333679199e+00,1.086235523223876953e+00,1.086175084114074707e+00,1.086114645004272461e+00,1.086054205894470215e+00,1.085993766784667969e+00,1.085933208465576172e+00,1.085872769355773926e+00,1.085812449455261230e+00,1.085752010345458984e+00,1.085691571235656738e+00,1.085631132125854492e+00,1.085570812225341797e+00,1.085510492324829102e+00,1.085450053215026855e+00,1.085389614105224609e+00,1.085329294204711914e+00,1.085268855094909668e+00,1.085208654403686523e+00,1.085148215293884277e+00,1.085087895393371582e+00,1.085027575492858887e+00,1.084967136383056641e+00,1.084906935691833496e+00,1.084846615791320801e+00,1.084786295890808105e+00,1.084725975990295410e+00,1.084665656089782715e+00,1.084605336189270020e+00,1.084545135498046875e+00,1.084484815597534180e+00,1.084424495697021484e+00,1.084364295005798340e+00,1.084304094314575195e+00,1.084243774414062500e+00,1.084183573722839355e+00,1.084123253822326660e+00,1.084063053131103516e+00,1.084002852439880371e+00,1.083942651748657227e+00,1.083882451057434082e+00,1.083822250366210938e+00,1.083762049674987793e+00,1.083701848983764648e+00,1.083641648292541504e+00,1.083581447601318359e+00,1.083521246910095215e+00,1.083461165428161621e+00,1.083400964736938477e+00,1.083340883255004883e+00,1.083280682563781738e+00,1.083220601081848145e+00,1.083160519599914551e+00,1.083100318908691406e+00,1.083040237426757812e+00,1.082980036735534668e+00,1.082920074462890625e+00,1.082859873771667480e+00,1.082799792289733887e+00,1.082739710807800293e+00,1.082679629325866699e+00,1.082619547843933105e+00,1.082559585571289062e+00,1.082499504089355469e+00,1.082439422607421875e+00,1.082379341125488281e+00
1.021038532257080078e+00,1.020985126495361328e+00,1.020931601524353027e+00,1.020878195762634277e+00,1.020824909210205078e+00,1.020771503448486328e+00,1.020718097686767578e+00,1.020664691925048828e+00,1.020611286163330078e+00,1.020557880401611328e+00,1.020504593849182129e+00,1.020451188087463379e+00,1.020397782325744629e+00,1.020344376564025879e+00,1.020291090011596680e+00,1.020237803459167480e+00,1.020184397697448730e+00,1.020131111145019531e+00,1.020077705383300781e+00,1.020024418830871582e+00,1.019971132278442383e+00,1.019917726516723633e+00,1.019864439964294434e+00,1.019811272621154785e+00,1.019757866859436035e+00,1.019704580307006836e+00,1.019651293754577637e+00,1.019598007202148438e+00,1.019544839859008789e+00,1.019491553306579590e+00,1.019438266754150391e+00,1.019384980201721191e+00,1.019331693649291992e+00,1.019278526306152344e+00,1.019225239753723145e+00,1.019171953201293945e+00,1.019118785858154297e+00,1.019065499305725098e+00,1.019012331962585449e+00,1.018959164619445801e+00,1.018905878067016602e+00,1.018852710723876953e+00,1.018799543380737305e+00,1.018746376037597656e+00,1.018693208694458008e+00,1.018639922142028809e+00,1.018586754798889160e+00,1.018533706665039062e+00,1.018480539321899414e+00,1.018427371978759766e+00,1.018374204635620117e+00,1.018321037292480469e+00,1.018267869949340820e+00,1.018214821815490723e+00,1.018161654472351074e+00,1.018108487129211426e+00,1.018055319786071777e+00,1.018002271652221680e+00,1.017949223518371582e+00,1.017896056175231934e+00,1.017843008041381836e+00,1.017789840698242188e+00,1.017736792564392090e+00,1.017683744430541992e+00,1.017630696296691895e+00,1.017577528953552246e+00,1.017524480819702148e+00,1.017471432685852051e+00,1.017418384552001953e+00,1.017365336418151855e+00,1.017312288284301758e+00,1.017259359359741211e+00,1.017206311225891113e+00,1.017153263092041016e+00,1.017100214958190918e+00,1.017047166824340820e+00,1.016994237899780273e+00,1.016941189765930176e+00,1.016888141632080078e+00,1.016835212707519531e+00
9.625120759010314941e-01,9.624646902084350586e-01,9.624171853065490723e-01,9.623696804046630859e-01,9.623222351074218750e-01,9.622747302055358887e-01,9.622272849082946777e-01,9.621798396110534668e-01,9.621323943138122559e-01,9.620849490165710449e-01,9.620376229286193848e-01,9.619901776313781738e-01,9.619427323341369629e-01,9.618952870368957520e-01,9.618479013442993164e-01,9.618004560470581055e-01,9.617530107498168945e-01,9.617056250572204590e-01,9.616582393646240234e-01,9.616107940673828125e-01,9.615635275840759277e-01,9.615161418914794922e-01,9.614687561988830566e-01,9.614213705062866211e-01,9.613739848136901855e-01,9.613265991210937500e-01,9.612792730331420898e-01,9.612318873405456543e-01,9.611845016479492188e-01,9.611372947692871094e-01,9.610899090766906738e-01,9.610425829887390137e-01,9.609952569007873535e-01,9.609479308128356934e-01,9.609005451202392578e-01,9.608532190322875977e-01,9.608059525489807129e-01,9.607586264610290527e-01,9.607113003730773926e-01,9.606640934944152832e-01,9.606167674064636230e-01,9.605695009231567383e-01,9.605221748352050781e-01,9.604749083518981934e-01,9.604276418685913086e-01,9.603803157806396484e-01,9.603330492973327637e-01,9.602857828140258789e-01,9.602385163307189941e-01,9.601913690567016602e-01,9.601441025733947754e-01,9.600968360900878906e-01,9.600496292114257812e-01,9.600023627281188965e-01,9.599550962448120117e-01,9.599078893661499023e-01,9.598606824874877930e-01,9.598134160041809082e-01,9.597663283348083496e-01,9.597191214561462402e-01,9.596719145774841309e-01,9.596247076988220215e-01,9.595775008201599121e-01,9.595302939414978027e-01,9.594830870628356934e-01,9.594358801841735840e-01,9.593887329101562500e-01,9.593415260314941406e-01,9.592944979667663574e-01,9.592472910881042480e-01,9.592001438140869141e-01,9.591529965400695801e-01,9.591058492660522461e-01,9.590587019920349121e-01,9.590115547180175781e-01,9.589644074440002441e-01,9.589172601699829102e-01,9.588702321052551270e-01,9.588230848312377930e-01,9.587759971618652344e-01
9.103313684463500977e-01,9.102888703346252441e-01,9.102465510368347168e-01,9.102040529251098633e-01,9.101616144180297852e-01,9.101191163063049316e-01,9.100766777992248535e-01,9.100342392921447754e-01,9.099917411804199219e-01,9.099493026733398438e-01,9.099068641662597656e-01,9.098645448684692383e-01,9.098221063613891602e-01,9.097796678543090820e-01,9.097372293472290039e-01,9.096948504447937012e-01,9.096524119377136230e-01,9.096099734306335449e-01,9.095675945281982422e-01,9.095251560211181641e-01,9.094827771186828613e-01,9.094404578208923340e-01,9.093980789184570312e-01,9.093557000160217285e-01,9.093133211135864258e-01,9.092709422111511230e-01,9.092285633087158203e-01,9.091861844062805176e-01,9.091438055038452148e-01,9.091014266014099121e-01,9.090590476989746094e-01,9.090167880058288574e-01,9.089744687080383301e-01,9.089320898056030273e-01,9.088897705078125000e-01,9.088473916053771973e-01,9.088050723075866699e-01,9.087627530097961426e-01,9.087204337120056152e-01,9.086780548095703125e-01,9.086358547210693359e-01,9.085935354232788086e-01,9.085512161254882812e-01,9.085088968276977539e-01,9.084665775299072266e-01,9.084243178367614746e-01,9.083819985389709473e-01,9.083397388458251953e-01,9.082974195480346680e-01,9.082551002502441406e-01,9.082129597663879395e-01,9.081706404685974121e-01,9.081283807754516602e-01,9.080861210823059082e-01,9.080438613891601562e-01,9.080016016960144043e-01,9.079593420028686523e-01,9.079170823097229004e-01,9.078748226165771484e-01,9.078326821327209473e-01,9.077904224395751953e-01,9.077481627464294434e-01,9.077059626579284668e-01,9.076637029647827148e-01,9.076215028762817383e-01,9.075792431831359863e-01,9.075370430946350098e-01,9.074948430061340332e-01,9.074525833129882812e-01,9.074105024337768555e-01,9.073683023452758789e-01,9.073261022567749023e-01,9.072839021682739258e-01,9.072417020797729492e-01,9.071995019912719727e-01,9.071573615074157715e-01,9.071151614189147949e-01,9.070729613304138184e-01,9.070308208465576172e-01,9.069887399673461914e-01
8.635175228118896484e-01,8.634792566299438477e-01,8.634410500526428223e-01,8.634029626846313477e-01,8.633647561073303223e-01,8.633265495300292969e-01,8.632883429527282715e-01,8.632501363754272461e-01,8.632119297981262207e-01,8.631737232208251953e-01,8.631355166435241699e-01,8.630973696708679199e-01,8.630591630935668945e-01,8.630210757255554199e-01,8.629828691482543945e-01,8.629447221755981445e-01,8.629065752029418945e-01,8.628683686256408691e-01,8.628302216529846191e-01,8.627920746803283691e-01,8.627539277076721191e-01,8.627157807350158691e-01,8.626776933670043945e-01,8.626395463943481445e-01,8.626013994216918945e-01,8.625632524490356445e-01,8.625251054763793945e-01,8.624870181083679199e-01,8.624488711357116699e-01,8.624107241630554199e-01,8.623726367950439453e-01,8.623344898223876953e-01,8.622964620590209961e-01,8.622583746910095215e-01,8.622202277183532715e-01,8.621821403503417969e-01,8.621440529823303223e-01,8.621059060096740723e-01,8.620678186416625977e-01,8.620297312736511230e-01,8.619916439056396484e-01,8.619536757469177246e-01,8.619155883789062500e-01,8.618775010108947754e-01,8.618394136428833008e-01,8.618013262748718262e-01,8.617632985115051270e-01,8.617252111434936523e-01,8.616871237754821777e-01,8.616490960121154785e-01,8.616110086441040039e-01,8.615730404853820801e-01,8.615350127220153809e-01,8.614969849586486816e-01,8.614589571952819824e-01,8.614208698272705078e-01,8.613828420639038086e-01,8.613448143005371094e-01,8.613067865371704102e-01,8.612687587738037109e-01,8.612307310104370117e-01,8.611928224563598633e-01,8.611547946929931641e-01,8.611167669296264648e-01,8.610787987709045410e-01,8.610407710075378418e-01,8.610027432441711426e-01,8.609647750854492188e-01,8.609267473220825195e-01,8.608887791633605957e-01,8.608508706092834473e-01,8.608129024505615234e-01,8.607749342918395996e-01,8.607369661331176758e-01,8.606989383697509766e-01,8.606609702110290527e-01,8.606230020523071289e-01,8.605850338935852051e-01,8.605471253395080566e-01,8.605091571807861328e-01
8.212829828262329102e-01,8.212483525276184082e-01,8.212137818336486816e-01,8.211792707443237305e-01,8.211447596549987793e-01,8.211101889610290527e-01,8.210756182670593262e-01,8.210411071777343750e-01,8.210065364837646484e-01,8.209719657897949219e-01,8.209374547004699707e-01,8.209028840065002441e-01,8.208683729171752930e-01,8.208338022232055664e-01,8.207993507385253906e-01,8.207648396492004395e-01,8.207302689552307129e-01,8.206957578659057617e-01,8.206612467765808105e-01,8.206267356872558594e-01,8.205922245979309082e-01,8.205577135086059570e-01,8.205232024192810059e-01,8.204887509346008301e-01,8.204542398452758789e-01,8.204197287559509277e-01,8.203852176666259766e-01,8.203507661819458008e-01,8.203162550926208496e-01,8.202817440032958984e-01,8.202472925186157227e-01,8.202127814292907715e-01,8.201783299446105957e-01,8.201438784599304199e-01,8.201094269752502441e-01,8.200749754905700684e-01,8.200404644012451172e-01,8.200060129165649414e-01,8.199715614318847656e-01,8.199370503425598145e-01,8.199025988578796387e-01,8.198681473731994629e-01,8.198336958885192871e-01,8.197993636131286621e-01,8.197649121284484863e-01,8.197304606437683105e-01,8.196960091590881348e-01,8.196615576744079590e-01,8.196271061897277832e-01,8.195926547050476074e-01,8.195582628250122070e-01,8.195238113403320312e-01,8.194894790649414062e-01,8.194550275802612305e-01,8.194206357002258301e-01,8.193862438201904297e-01,8.193517923355102539e-01,8.193174004554748535e-01,8.192830085754394531e-01,8.192485570907592773e-01,8.192141652107238770e-01,8.191797733306884766e-01,8.191454410552978516e-01,8.191110491752624512e-01,8.190766572952270508e-01,8.190422654151916504e-01,8.190078735351562500e-01,8.189735412597656250e-01,8.189391493797302246e-01,8.189047574996948242e-01,8.188703656196594238e-01,8.188360929489135742e-01,8.188017010688781738e-01,8.187673687934875488e-01,8.187329769134521484e-01,8.186986446380615234e-01,8.186642527580261230e-01,8.186299204826354980e-01,8.185955882072448730e-01,8.185611963272094727e-01
7.829871773719787598e-01,7.829557657241821289e-01,7.829242944717407227e-01,7.828928828239440918e-01,7.828614711761474609e-01,7.828301191329956055e-01,7.827987074851989746e-01,7.827672958374023438e-01,7.827358841896057129e-01,7.827045321464538574e-01,7.826731204986572266e-01,7.826417088508605957e-01,7.826102972030639648e-01,7.825788855552673340e-01,7.825475335121154785e-01,7.825161814689636230e-01,7.824848294258117676e-01,7.824534177780151367e-01,7.824220657348632812e-01,7.823906540870666504e-01,7.823593020439147949e-01,7.823278903961181641e-01,7.822965383529663086e-01,7.822651863098144531e-01,7.822338342666625977e-01,7.822024822235107422e-01,7.821711301803588867e-01,7.821397781372070312e-01,7.821084260940551758e-01,7.820770740509033203e-01,7.820457220077514648e-01,7.820143699645996094e-01,7.819830179214477539e-01,7.819516658782958984e-01,7.819204330444335938e-01,7.818890810012817383e-01,7.818577289581298828e-01,7.818263769149780273e-01,7.817950844764709473e-01,7.817637324333190918e-01,7.817324399948120117e-01,7.817010879516601562e-01,7.816697955131530762e-01,7.816384434700012207e-01,7.816072106361389160e-01,7.815759181976318359e-01,7.815445661544799805e-01,7.815132737159729004e-01,7.814819812774658203e-01,7.814506888389587402e-01,7.814193367958068848e-01,7.813880443572998047e-01,7.813567519187927246e-01,7.813255190849304199e-01,7.812942266464233398e-01,7.812629342079162598e-01,7.812317013740539551e-01,7.812004089355468750e-01,7.811691164970397949e-01,7.811378240585327148e-01,7.811065316200256348e-01,7.810752987861633301e-01,7.810440063476562500e-01,7.810128331184387207e-01,7.809815406799316406e-01,7.809503078460693359e-01,7.809190154075622559e-01,7.808877825736999512e-01,7.808564901351928711e-01,7.808252573013305664e-01,7.807940244674682617e-01,7.807627320289611816e-01,7.807314991950988770e-01,7.807003259658813477e-01,7.806690931320190430e-01,7.806378602981567383e-01,7.806066274642944336e-01,7.805753946304321289e-01,7.805441617965698242e-01,7.805129289627075195e-01
7.481036186218261719e-01,7.480749487876892090e-01,7.480462789535522461e-01,7.480176091194152832e-01,7.479889392852783203e-01,7.479602098464965820e-01,7.479315400123596191e-01,7.479029297828674316e-01,7.478742599487304688e-01,7.478455901145935059e-01,7.478169202804565430e-01,7.477882504463195801e-01,7.477596402168273926e-01,7.477309703826904297e-01,7.477023005485534668e-01,7.476736307144165039e-01,7.476450800895690918e-01,7.476164102554321289e-01,7.475877404212951660e-01,7.475591301918029785e-01,7.475304603576660156e-01,7.475017905235290527e-01,7.474731802940368652e-01,7.474445104598999023e-01,7.474159002304077148e-01,7.473872900009155273e-01,7.473586797714233398e-01,7.473300695419311523e-01,7.473014593124389648e-01,7.472727894783020020e-01,7.472441792488098145e-01,7.472155690193176270e-01,7.471869587898254395e-01,7.471583485603332520e-01,7.471297383308410645e-01,7.471011877059936523e-01,7.470725774765014648e-01,7.470439672470092773e-01,7.470153570175170898e-01,7.469867467880249023e-01,7.469581365585327148e-01,7.469295263290405273e-01,7.469009160995483398e-01,7.468723654747009277e-01,7.468437552452087402e-01,7.468152046203613281e-01,7.467866539955139160e-01,7.467580437660217285e-01,7.467294931411743164e-01,7.467008829116821289e-01,7.466723322868347168e-01,7.466437220573425293e-01,7.466151714324951172e-01,7.465865612030029297e-01,7.465580105781555176e-01,7.465295195579528809e-01,7.465009689331054688e-01,7.464723587036132812e-01,7.464438080787658691e-01,7.464152574539184570e-01,7.463867068290710449e-01,7.463581562042236328e-01,7.463296055793762207e-01,7.463010549545288086e-01,7.462725639343261719e-01,7.462440133094787598e-01,7.462154626846313477e-01,7.461869120597839355e-01,7.461583614349365234e-01,7.461298704147338867e-01,7.461013197898864746e-01,7.460727691650390625e-01,7.460442185401916504e-01,7.460157275199890137e-01,7.459872364997863770e-01,7.459587454795837402e-01,7.459301948547363281e-01,7.459017038345336914e-01,7.458731532096862793e-01,7.458446621894836426e-01
