5.000000000000000000e+00,5.000000000000000000e+00,5.000000000000000000e+00,5.000000000000000000e+00,5.000000000000000000e+00,5.000000000000000000e+00,5.000000000000000000e+00,5.000000000000000000e+00,5.000000000000000000e+00,5.000000000000000000e+00,5.000000000000000000e+00,5.000000000000000000e+00,5.000000000000000000e+00,5.000000000000000000e+00,5.000000000000000000e+00,5.000000000000000000e+00,5.000000000000000000e+00,5.000000000000000000e+00,5.000000000000000000e+00,5.000000000000000000e+00,5.000000000000000000e+00,5.000000000000000000e+00,5.000000000000000000e+00,5.000000000000000000e+00,5.000000000000000000e+00,5.000000000000000000e+00,5.000000000000000000e+00,5.000000000000000000e+00,5.000000000000000000e+00,5.000000000000000000e+00,5.000000000000000000e+00,5.000000000000000000e+00,5.000000000000000000e+00,5.000000000000000000e+00,5.000000000000000000e+00,5.000000000000000000e+00,5.000000000000000000e+00,5.000000000000000000e+00,5.000000000000000000e+00,4.847125530242919922e+00,4.657412052154541016e+00,4.481989383697509766e+00,4.319302082061767578e+00,4.168011665344238281e+00,4.026960849761962891e+00,3.895144224166870117e+00,3.771683454513549805e+00,3.655809164047241211e+00,3.546842098236083984e+00,3.444182872772216797e+00,3.347299575805664062e+00,3.255717515945434570e+00,3.169013261795043945e+00,3.086807250976562500e+00,3.008758544921875000e+00,2.934559345245361328e+00,2.863931655883789062e+00,2.796623468399047852e+00,2.732406854629516602e+00,2.671072959899902344e+00,2.612432241439819336e+00,2.556310892105102539e+00,2.502549886703491211e+00,2.451004028320312500e+00,2.401538133621215820e+00,2.354029893875122070e+00,2.308364629745483398e+00,2.264437437057495117e+00,2.222150802612304688e+00,2.181414604187011719e+00,2.142144918441772461e+00,2.104264259338378906e+00,2.067699670791625977e+00,2.032384634017944336e+00,1.998255372047424316e+00,1.965253591537475586e+00,1.933324098587036133e+00,1.902415275573730469e+00,1.872479438781738281e+00,1.843471169471740723e+00
5.000000000000000000e+00,5.000000000000000000e+00,5.000000000000000000e+00,5.000000000000000000e+00,5.000000000000000000e+00,5.000000000000000000e+00,5.000000000000000000e+00,5.000000000000000000e+00,5.000000000000000000e+00,5.000000000000000000e+00,5.000000000000000000e+00,5.000000000000000000e+00,5.000000000000000000e+00,5.000000000000000000e+00,5.000000000000000000e+00,5.000000000000000000e+00,5.000000000000000000e+00,5.000000000000000000e+00,5.000000000000000000e+00,5.000000000000000000e+00,5.000000000000000000e+00,5.000000000000000000e+00,5.000000000000000000e+00,5.000000000000000000e+00,5.000000000000000000e+00,5.000000000000000000e+00,5.000000000000000000e+00,5.000000000000000000e+00,5.000000000000000000e+00,5.000000000000000000e+00,5.000000000000000000e+00,5.000000000000000000e+00,5.000000000000000000e+00,5.000000000000000000e+00,5.000000000000000000e+00,5.000000000000000000e+00,5.000000000000000000e+00,5.000000000000000000e+00,5.000000000000000000e+00,4.847264766693115234e+00,4.657539844512939453e+00,4.482108592987060547e+00,4.319412708282470703e+00,4.168114185333251953e+00,4.027056694030761719e+00,3.895233869552612305e+00,3.771767854690551758e+00,3.655888080596923828e+00,3.546916484832763672e+00,3.444253206253051758e+00,3.347365617752075195e+00,3.255780220031738281e+00,3.169072628021240234e+00,3.086863517761230469e+00,3.008812189102172852e+00,2.934610128402709961e+00,2.863980054855346680e+00,2.796669960021972656e+00,2.732450962066650391e+00,2.671115159988403320e+00,2.612472534179687500e+00,2.556349515914916992e+00,2.502587080001831055e+00,2.451039314270019531e+00,2.401572227478027344e+00,2.354062795639038086e+00,2.308396100997924805e+00,2.264467716217041016e+00,2.222179889678955078e+00,2.181442499160766602e+00,2.142172098159790039e+00,2.104290246963500977e+00,2.067724943161010742e+00,2.032408952713012695e+00,1.998278856277465820e+00,1.965276360511779785e+00,1.933346152305603027e+00,1.902436614036560059e+00,1.872500181198120117e+00,1.843491315841674805e+00
5.000000000000000000e+00,5.000000000000000000e+00,5.000000000000000000e+00,5.000000000000000000e+00,5.000000000000000000e+00,5.000000000000000000e+00,5.000000000000000000e+00,5.000000000000000000e+00,5.000000000000000000e+00,5.000000000000000000e+00,5.000000000000000000e+00,5.000000000000000000e+00,5.000000000000000000e+00,5.000000000000000000e+00,5.000000000000000000e+00,5.000000000000000000e+00,5.000000000000000000e+00,5.000000000000000000e+00,5.000000000000000000e+00,5.000000000000000000e+00,5.000000000000000000e+00,5.000000000000000000e+00,5.000000000000000000e+00,5.000000000000000000e+00,5.000000000000000000e+00,5.000000000000000000e+00,5.000000000000000000e+00,5.000000000000000000e+00,5.000000000000000000e+00,5.000000000000000000e+00,5.000000000000000000e+00,5.000000000000000000e+00,5.000000000000000000e+00,5.000000000000000000e+00,5.000000000000000000e+00,5.000000000000000000e+00,5.000000000000000000e+00,5.000000000000000000e+00,5.000000000000000000e+00,4.847403049468994141e+00,4.657668590545654297e+00,4.482227325439453125e+00,4.319522857666015625e+00,4.168216705322265625e+00,4.027152538299560547e+00,3.895323753356933594e+00,3.771851778030395508e+00,3.655966997146606445e+00,3.546991109848022461e+00,3.444323301315307617e+00,3.347432136535644531e+00,3.255842924118041992e+00,3.169131755828857422e+00,3.086920022964477539e+00,3.008865594863891602e+00,2.934660911560058594e+00,2.864028692245483398e+00,2.796715974807739258e+00,2.732495307922363281e+00,2.671157360076904297e+00,2.612512826919555664e+00,2.556388139724731445e+00,2.502624034881591797e+00,2.451074838638305664e+00,2.401606559753417969e+00,2.354095458984375000e+00,2.308427572250366211e+00,2.264497995376586914e+00,2.222208976745605469e+00,2.181470870971679688e+00,2.142199039459228516e+00,2.104316473007202148e+00,2.067750453948974609e+00,2.032433509826660156e+00,1.998302698135375977e+00,1.965299129486083984e+00,1.933368206024169922e+00,1.902458190917968750e+00,1.872520804405212402e+00,1.843511343002319336e+00
5.000000000000000000e+00,5.000000000000000000e+00,5.000000000000000000e+00,5.000000000000000000e+00,5.000000000000000000e+00,5.000000000000000000e+00,5.000000000000000000e+00,5.000000000000000000e+00,5.000000000000000000e+00,5.000000000000000000e+00,5.000000000000000000e+00,5.000000000000000000e+00,5.000000000000000000e+00,5.000000000000000000e+00,5.000000000000000000e+00,5.000000000000000000e+00,5.000000000000000000e+00,5.000000000000000000e+00,5.000000000000000000e+00,5.000000000000000000e+00,5.000000000000000000e+00,5.000000000000000000e+00,5.000000000000000000e+00,5.000000000000000000e+00,5.000000000000000000e+00,5.000000000000000000e+00,5.000000000000000000e+00,5.000000000000000000e+00,5.000000000000000000e+00,5.000000000000000000e+00,5.000000000000000000e+00,5.000000000000000000e+00,5.000000000000000000e+00,5.000000000000000000e+00,5.000000000000000000e+00,5.000000000000000000e+00,5.000000000000000000e+00,5.000000000000000000e+00,5.000000000000000000e+00,4.847542285919189453e+00,4.657796859741210938e+00,4.482346057891845703e+00,4.319633007049560547e+00,4.168319702148437500e+00,4.027248382568359375e+00,3.895413398742675781e+00,3.771935701370239258e+00,3.656046152114868164e+00,3.547065258026123047e+00,3.444393634796142578e+00,3.347498178482055664e+00,3.255905389785766602e+00,3.169191360473632812e+00,3.086976289749145508e+00,3.008919000625610352e+00,2.934712171554565430e+00,2.864077091217041016e+00,2.796762466430664062e+00,2.732539176940917969e+00,2.671199560165405273e+00,2.612553358078002930e+00,2.556426763534545898e+00,2.502660989761352539e+00,2.451110363006591797e+00,2.401640415191650391e+00,2.354128360748291016e+00,2.308459043502807617e+00,2.264528274536132812e+00,2.222238302230834961e+00,2.181499004364013672e+00,2.142226219177246094e+00,2.104342699050903320e+00,2.067775487899780273e+00,2.032457828521728516e+00,1.998326301574707031e+00,1.965321898460388184e+00,1.933390259742736816e+00,1.902479529380798340e+00,1.872541546821594238e+00,1.843531370162963867e+00
5.000000000000000000e+00,5.000000000000000000e+00,5.000000000000000000e+00,5.000000000000000000e+00,5.000000000000000000e+00,5.000000000000000000e+00,5.000000000000000000e+00,5.000000000000000000e+00,5.000000000000000000e+00,5.000000000000000000e+00,5.000000000000000000e+00,5.000000000000000000e+00,5.000000000000000000e+00,5.000000000000000000e+00,5.000000000000000000e+00,5.000000000000000000e+00,5.000000000000000000e+00,5.000000000000000000e+00,5.000000000000000000e+00,5.000000000000000000e+00,5.000000000000000000e+00,5.000000000000000000e+00,5.000000000000000000e+00,5.000000000000000000e+00,5.000000000000000000e+00,5.000000000000000000e+00,5.000000000000000000e+00,5.000000000000000000e+00,5.000000000000000000e+00,5.000000000000000000e+00,5.000000000000000000e+00,5.000000000000000000e+00,5.000000000000000000e+00,5.000000000000000000e+00,5.000000000000000000e+00,5.000000000000000000e+00,5.000000000000000000e+00,5.000000000000000000e+00,5.000000000000000000e+00,4.847681522369384766e+00,4.657925128936767578e+00,4.482464790344238281e+00,4.319743633270263672e+00,4.168422698974609375e+00,4.027344226837158203e+00,3.895502805709838867e+00,3.772020101547241211e+00,3.656125068664550781e+00,3.547139883041381836e+00,3.444463729858398438e+00,3.347564458847045898e+00,3.255968332290649414e+00,3.169250726699829102e+00,3.087032556533813477e+00,3.008972644805908203e+00,2.934762954711914062e+00,2.864125728607177734e+00,2.796808481216430664e+00,2.732583284378051758e+00,2.671241760253906250e+00,2.612593650817871094e+00,2.556465387344360352e+00,2.502698183059692383e+00,2.451145887374877930e+00,2.401674747467041016e+00,2.354161024093627930e+00,2.308490514755249023e+00,2.264558792114257812e+00,2.222267389297485352e+00,2.181526899337768555e+00,2.142253398895263672e+00,2.104368925094604492e+00,2.067800998687744141e+00,2.032482385635375977e+00,1.998349785804748535e+00,1.965345025062561035e+00,1.933412313461303711e+00,1.902500987052917480e+00,1.872562408447265625e+00,1.843551397323608398e+00
5.000000000000000000e+00,5.000000000000000000e+00,5.000000000000000000e+00,5.000000000000000000e+00,5.000000000000000000e+00,5.000000000000000000e+00,5.000000000000000000e+00,5.000000000000000000e+00,5.000000000000000000e+00,5.000000000000000000e+00,5.000000000000000000e+00,5.000000000000000000e+00,5.000000000000000000e+00,5.000000000000000000e+00,5.000000000000000000e+00,5.000000000000000000e+00,5.000000000000000000e+00,5.000000000000000000e+00,5.000000000000000000e+00,5.000000000000000000e+00,5.000000000000000000e+00,5.000000000000000000e+00,5.000000000000000000e+00,5.000000000000000000e+00,5.000000000000000000e+00,5.000000000000000000e+00,4.857100486755371094e+00,5.000000000000000000e+00,5.000000000000000000e+00,5.000000000000000000e+00,5.000000000000000000e+00,5.000000000000000000e+00,5.000000000000000000e+00,5.000000000000000000e+00,5.000000000000000000e+00,5.000000000000000000e+00,5.000000000000000000e+00,5.000000000000000000e+00,5.000000000000000000e+00,4.847820281982421875e+00,4.658052921295166016e+00,4.482583522796630859e+00,4.319853782653808594e+00,4.168525218963623047e+00,4.027440071105957031e+00,3.895592927932739258e+00,3.772104024887084961e+00,3.656204462051391602e+00,3.547214269638061523e+00,3.444533586502075195e+00,3.347630739212036133e+00,3.256030797958374023e+00,3.169309854507446289e+00,3.087089061737060547e+00,3.009026050567626953e+00,2.934813976287841797e+00,2.864174127578735352e+00,2.796854734420776367e+00,2.732627630233764648e+00,2.671283960342407227e+00,2.612633943557739258e+00,2.556504011154174805e+00,2.502735137939453125e+00,2.451181411743164062e+00,2.401708841323852539e+00,2.354193687438964844e+00,2.308522224426269531e+00,2.264589071273803711e+00,2.222296714782714844e+00,2.181555271148681641e+00,2.142280578613281250e+00,2.104395151138305664e+00,2.067826271057128906e+00,2.032506704330444336e+00,1.998373389244079590e+00,1.965367794036865234e+00,1.933434367179870605e+00,1.902522325515747070e+00,1.872583150863647461e+00,1.843571662902832031e+00
5.000000000000000000e+00,5.000000000000000000e+00,5.000000000000000000e+00,5.000000000000000000e+00,5.000000000000000000e+00,5.000000000000000000e+00,5.000000000000000000e+00,5.000000000000000000e+00,5.000000000000000000e+00,5.000000000000000000e+00,5.000000000000000000e+00,5.000000000000000000e+00,5.000000000000000000e+00,5.000000000000000000e+00,5.000000000000000000e+00,5.000000000000000000e+00,5.000000000000000000e+00,5.000000000000000000e+00,5.000000000000000000e+00,5.000000000000000000e+00,5.000000000000000000e+00,5.000000000000000000e+00,5.000000000000000000e+00,5.000000000000000000e+00,5.000000000000000000e+00,5.000000000000000000e+00,4.865858554840087891e+00,5.000000000000000000e+00,5.000000000000000000e+00,5.000000000000000000e+00,5.000000000000000000e+00,5.000000000000000000e+00,5.000000000000000000e+00,5.000000000000000000e+00,5.000000000000000000e+00,5.000000000000000000e+00,5.000000000000000000e+00,5.000000000000000000e+00,5.000000000000000000e+00,4.847959041595458984e+00,4.658181667327880859e+00,4.482702255249023438e+00,4.319964408874511719e+00,4.168627738952636719e+00,4.027535915374755859e+00,3.895682334899902344e+00,3.772188425064086914e+00,3.656283378601074219e+00,3.547288417816162109e+00,3.444603919982910156e+00,3.347697019577026367e+00,3.256093263626098633e+00,3.169369459152221680e+00,3.087145328521728516e+00,3.009079694747924805e+00,2.934864759445190430e+00,2.864222526550292969e+00,2.796901226043701172e+00,2.732671737670898438e+00,2.671325922012329102e+00,2.612674236297607422e+00,2.556542634963989258e+00,2.502772331237792969e+00,2.451216936111450195e+00,2.401742696762084961e+00,2.354226589202880859e+00,2.308553695678710938e+00,2.264619350433349609e+00,2.222326040267944336e+00,2.181583404541015625e+00,2.142307758331298828e+00,2.104421138763427734e+00,2.067851305007934570e+00,2.032531261444091797e+00,1.998396992683410645e+00,1.965390563011169434e+00,1.933456659317016602e+00,1.902543663978576660e+00,1.872603774070739746e+00,1.843591690063476562e+00
5.000000000000000000e+00,5.000000000000000000e+00,5.000000000000000000e+00,5.000000000000000000e+00,5.000000000000000000e+00,5.000000000000000000e+00,5.000000000000000000e+00,5.000000000000000000e+00,5.000000000000000000e+00,5.000000000000000000e+00,5.000000000000000000e+00,5.000000000000000000e+00,5.000000000000000000e+00,5.000000000000000000e+00,5.000000000000000000e+00,5.000000000000000000e+00,5.000000000000000000e+00,5.000000000000000000e+00,5.000000000000000000e+00,5.000000000000000000e+00,5.000000000000000000e+00,5.000000000000000000e+00,5.000000000000000000e+00,5.000000000000000000e+00,5.000000000000000000e+00,5.000000000000000000e+00,4.935837268829345703e+00,5.000000000000000000e+00,5.000000000000000000e+00,5.000000000000000000e+00,5.000000000000000000e+00,5.000000000000000000e+00,5.000000000000000000e+00,5.000000000000000000e+00,5.000000000000000000e+00,5.000000000000000000e+00,5.000000000000000000e+00,5.000000000000000000e+00,5.000000000000000000e+00,4.848098278045654297e+00,4.658309936523437500e+00,4.482820987701416016e+00,4.320074558258056641e+00,4.168730735778808594e+00,4.027631759643554688e+00,3.895771980285644531e+00,3.772272348403930664e+00,3.656362056732177734e+00,3.547363042831420898e+00,3.444674015045166016e+00,3.347763061523437500e+00,3.256156206130981445e+00,3.169428825378417969e+00,3.087201595306396484e+00,3.009133338928222656e+00,2.934915542602539062e+00,2.864271163940429688e+00,2.796947240829467773e+00,2.732715845108032227e+00,2.671368360519409180e+00,2.612714529037475586e+00,2.556581258773803711e+00,2.502809286117553711e+00,2.451252460479736328e+00,2.401777029037475586e+00,2.354259252548217773e+00,2.308584928512573242e+00,2.264649629592895508e+00,2.222355127334594727e+00,2.181611299514770508e+00,2.142334938049316406e+00,2.104447364807128906e+00,2.067876815795898438e+00,2.032555580139160156e+00,1.998420476913452148e+00,1.965413331985473633e+00,1.933478713035583496e+00,1.902565002441406250e+00,1.872624516487121582e+00,1.843611836433410645e+00
5.000000000000000000e+00,5.000000000000000000e+00,5.000000000000000000e+00,5.000000000000000000e+00,5.000000000000000000e+00,5.000000000000000000e+00,5.000000000000000000e+00,5.000000000000000000e+00,5.000000000000000000e+00,5.000000000000000000e+00,5.000000000000000000e+00,5.000000000000000000e+00,5.000000000000000000e+00,5.000000000000000000e+00,5.000000000000000000e+00,5.000000000000000000e+00,5.000000000000000000e+00,5.000000000000000000e+00,5.000000000000000000e+00,5.000000000000000000e+00,5.000000000000000000e+00,5.000000000000000000e+00,5.000000000000000000e+00,5.000000000000000000e+00,4.836776256561279297e+00,4.848136901855468750e+00,4.879137039184570312e+00,4.924789428710937500e+00,4.992209434509277344e+00,5.000000000000000000e+00,5.000000000000000000e+00,5.000000000000000000e+00,5.000000000000000000e+00,5.000000000000000000e+00,5.000000000000000000e+00,5.000000000000000000e+00,5.000000000000000000e+00,5.000000000000000000e+00,5.000000000000000000e+00,4.848237037658691406e+00,4.658437728881835938e+00,4.482939720153808594e+00,4.320184707641601562e+00,4.168833255767822266e+00,4.027727603912353516e+00,3.895861864089965820e+00,3.772356510162353516e+00,3.656441450119018555e+00,3.547437191009521484e+00,3.444744110107421875e+00,3.347829580307006836e+00,3.256218910217285156e+00,3.169487953186035156e+00,3.087258100509643555e+00,3.009186744689941406e+00,2.934966802597045898e+00,2.864319562911987305e+00,2.796993494033813477e+00,2.732759952545166016e+00,2.671410560607910156e+00,2.612754821777343750e+00,2.556619882583618164e+00,2.502846240997314453e+00,2.451287984848022461e+00,2.401811122894287109e+00,2.354291915893554688e+00,2.308616638183593750e+00,2.264679908752441406e+00,2.222384214401245117e+00,2.181639671325683594e+00,2.142361879348754883e+00,2.104473590850830078e+00,2.067902088165283203e+00,2.032579898834228516e+00,1.998444318771362305e+00,1.965436100959777832e+00,1.933500766754150391e+00,1.902586579322814941e+00,1.872645258903503418e+00,1.843631863594055176e+00
5.000000000000000000e+00,5.000000000000000000e+00,5.000000000000000000e+00,5.000000000000000000e+00,5.000000000000000000e+00,5.000000000000000000e+00,5.000000000000000000e+00,5.000000000000000000e+00,5.000000000000000000e+00,5.000000000000000000e+00,5.000000000000000000e+00,5.000000000000000000e+00,5.000000000000000000e+00,5.000000000000000000e+00,5.000000000000000000e+00,5.000000000000000000e+00,5.000000000000000000e+00,5.000000000000000000e+00,5.000000000000000000e+00,5.000000000000000000e+00,5.000000000000000000e+00,5.000000000000000000e+00,5.000000000000000000e+00,4.890749931335449219e+00,4.855638027191162109e+00,4.819957733154296875e+00,4.836607456207275391e+00,4.872511386871337891e+00,4.976698398590087891e+00,5.000000000000000000e+00,5.000000000000000000e+00,5.000000000000000000e+00,5.000000000000000000e+00,5.000000000000000000e+00,5.000000000000000000e+00,5.000000000000000000e+00,5.000000000000000000e+00,5.000000000000000000e+00,5.000000000000000000e+00,4.848375797271728516e+00,4.658566474914550781e+00,4.483058929443359375e+00,4.320295333862304688e+00,4.168936252593994141e+00,4.027823448181152344e+00,3.895951509475708008e+00,3.772440910339355469e+00,3.656520366668701172e+00,3.547511577606201172e+00,3.444814443588256836e+00,3.347895622253417969e+00,3.256281375885009766e+00,3.169547557830810547e+00,3.087314367294311523e+00,3.009240388870239258e+00,2.935017585754394531e+00,2.864367961883544922e+00,2.797039747238159180e+00,2.732804059982299805e+00,2.671452522277832031e+00,2.612795352935791016e+00,2.556658506393432617e+00,2.502883195877075195e+00,2.451323509216308594e+00,2.401844978332519531e+00,2.354324817657470703e+00,2.308648109436035156e+00,2.264710187911987305e+00,2.222413539886474609e+00,2.181667804718017578e+00,2.142389059066772461e+00,2.104499816894531250e+00,2.067927122116088867e+00,2.032604455947875977e+00,1.998467922210693359e+00,1.965458869934082031e+00,1.933522820472717285e+00,1.902607917785644531e+00,1.872666120529174805e+00,1.843651890754699707e+00
5.000000000000000000e+00,5.000000000000000000e+00,5.000000000000000000e+00,5.000000000000000000e+00,5.000000000000000000e+00,5.000000000000000000e+00,5.000000000000000000e+00,5.000000000000000000e+00,5.000000000000000000e+00,5.000000000000000000e+00,5.000000000000000000e+00,5.000000000000000000e+00,5.000000000000000000e+00,5.000000000000000000e+00,5.000000000000000000e+00,5.000000000000000000e+00,5.000000000000000000e+00,5.000000000000000000e+00,5.000000000000000000e+00,5.000000000000000000e+00,5.000000000000000000e+00,5.000000000000000000e+00,5.000000000000000000e+00,5.000000000000000000e+00,4.855257511138916016e+00,4.836429119110107422e+00,4.827867984771728516e+00,4.873082637786865234e+00,5.000000000000000000e+00,5.000000000000000000e+00,5.000000000000000000e+00,5.000000000000000000e+00,5.000000000000000000e+00,5.000000000000000000e+00,5.000000000000000000e+00,5.000000000000000000e+00,5.000000000000000000e+00,5.000000000000000000e+00,5.000000000000000000e+00,4.848515033721923828e+00,4.658694744110107422e+00,4.483177661895751953e+00,4.320405483245849609e+00,4.169038772583007812e+00,4.027919769287109375e+00,3.896041631698608398e+00,3.772524833679199219e+00,3.656599283218383789e+00,3.547586202621459961e+00,3.444884538650512695e+00,3.347961902618408203e+00,3.256344318389892578e+00,3.169606924057006836e+00,3.087370872497558594e+00,3.009293794631958008e+00,2.935068368911743164e+00,2.864416599273681641e+00,2.797086000442504883e+00,2.732848167419433594e+00,2.671494960784912109e+00,2.612835645675659180e+00,2.556697368621826172e+00,2.502920150756835938e+00,2.451359033584594727e+00,2.401879310607910156e+00,2.354357481002807617e+00,2.308679580688476562e+00,2.264740705490112305e+00,2.222442626953125000e+00,2.181695938110351562e+00,2.142416238784790039e+00,2.104525804519653320e+00,2.067952632904052734e+00,2.032628774642944336e+00,1.998491406440734863e+00,1.965481996536254883e+00,1.933544874191284180e+00,1.902629375457763672e+00,1.872686862945556641e+00,1.843671917915344238e+00
5.000000000000000000e+00,5.000000000000000000e+00,5.000000000000000000e+00,5.000000000000000000e+00,5.000000000000000000e+00,5.000000000000000000e+00,5.000000000000000000e+00,5.000000000000000000e+00,5.000000000000000000e+00,5.000000000000000000e+00,5.000000000000000000e+00,5.000000000000000000e+00,5.000000000000000000e+00,5.000000000000000000e+00,5.000000000000000000e+00,5.000000000000000000e+00,5.000000000000000000e+00,5.000000000000000000e+00,5.000000000000000000e+00,5.000000000000000000e+00,5.000000000000000000e+00,5.000000000000000000e+00,5.000000000000000000e+00,5.000000000000000000e+00,4.852849483489990234e+00,4.837170600891113281e+00,4.832830905914306641e+00,4.872231006622314453e+00,5.000000000000000000e+00,5.000000000000000000e+00,5.000000000000000000e+00,5.000000000000000000e+00,5.000000000000000000e+00,5.000000000000000000e+00,5.000000000000000000e+00,5.000000000000000000e+00,5.000000000000000000e+00,5.000000000000000000e+00,5.000000000000000000e+00,4.848653793334960938e+00,4.658823013305664062e+00,4.483296394348144531e+00,4.320515632629394531e+00,4.169141769409179688e+00,4.028015613555908203e+00,3.896131038665771484e+00,3.772608757019042969e+00,3.656678438186645508e+00,3.547660350799560547e+00,3.444954395294189453e+00,3.348028182983398438e+00,3.256406784057617188e+00,3.169666528701782227e+00,3.087427139282226562e+00,3.009347200393676758e+00,2.935119390487670898e+00,2.864464998245239258e+00,2.797132253646850586e+00,2.732892513275146484e+00,2.671536922454833984e+00,2.612876176834106445e+00,2.556735754013061523e+00,2.502957344055175781e+00,2.451394557952880859e+00,2.401913404464721680e+00,2.354390144348144531e+00,2.308711051940917969e+00,2.264770984649658203e+00,2.222471952438354492e+00,2.181724071502685547e+00,2.142443418502807617e+00,2.104552268981933594e+00,2.067977905273437500e+00,2.032653093338012695e+00,1.998515009880065918e+00,1.965504765510559082e+00,1.933567166328430176e+00,1.902650713920593262e+00,1.872707486152648926e+00,1.843692183494567871e+00
5.000000000000000000e+00,5.000000000000000000e+00,5.000000000000000000e+00,5.000000000000000000e+00,5.000000000000000000e+00,5.000000000000000000e+00,5.000000000000000000e+00,5.000000000000000000e+00,5.000000000000000000e+00,5.000000000000000000e+00,5.000000000000000000e+00,5.000000000000000000e+00,5.000000000000000000e+00,5.000000000000000000e+00,5.000000000000000000e+00,5.000000000000000000e+00,5.000000000000000000e+00,5.000000000000000000e+00,5.000000000000000000e+00,5.000000000000000000e+00,5.000000000000000000e+00,5.000000000000000000e+00,5.000000000000000000e+00,5.000000000000000000e+00,4.858475685119628906e+00,4.818871974945068359e+00,4.819441795349121094e+00,4.853331565856933594e+00,5.000000000000000000e+00,5.000000000000000000e+00,5.000000000000000000e+00,5.000000000000000000e+00,5.000000000000000000e+00,5.000000000000000000e+00,5.000000000000000000e+00,5.000000000000000000e+00,5.000000000000000000e+00,5.000000000000000000e+00,5.000000000000000000e+00,4.848793029785156250e+00,4.658951282501220703e+00,4.483415126800537109e+00,4.320626258850097656e+00,4.169244289398193359e+00,4.028111457824707031e+00,3.896220684051513672e+00,3.772693157196044922e+00,3.656757354736328125e+00,3.547734737396240234e+00,3.445024967193603516e+00,3.348094463348388672e+00,3.256469726562500000e+00,3.169725656509399414e+00,3.087483167648315430e+00,3.009400844573974609e+00,2.935170412063598633e+00,2.864513397216796875e+00,2.797178506851196289e+00,2.732936620712280273e+00,2.671579360961914062e+00,2.612916469573974609e+00,2.556774377822875977e+00,2.502994298934936523e+00,2.451430082321166992e+00,2.401947498321533203e+00,2.354423046112060547e+00,2.308742523193359375e+00,2.264801263809204102e+00,2.222501039505004883e+00,2.181752204895019531e+00,2.142470598220825195e+00,2.104578256607055664e+00,2.068002939224243164e+00,2.032677650451660156e+00,1.998538613319396973e+00,1.965527534484863281e+00,1.933589220046997070e+00,1.902672052383422852e+00,1.872728228569030762e+00,1.843712329864501953e+00
5.000000000000000000e+00,5.000000000000000000e+00,5.000000000000000000e+00,5.000000000000000000e+00,5.000000000000000000e+00,5.000000000000000000e+00,5.000000000000000000e+00,5.000000000000000000e+00,5.000000000000000000e+00,5.000000000000000000e+00,5.000000000000000000e+00,5.000000000000000000e+00,5.000000000000000000e+00,5.000000000000000000e+00,5.000000000000000000e+00,5.000000000000000000e+00,5.000000000000000000e+00,5.000000000000000000e+00,5.000000000000000000e+00,5.000000000000000000e+00,5.000000000000000000e+00,5.000000000000000000e+00,5.000000000000000000e+00,5.000000000000000000e+00,4.807779788970947266e+00,4.829410552978515625e+00,4.841368198394775391e+00,4.878107070922851562e+00,4.944231986999511719e+00,5.000000000000000000e+00,5.000000000000000000e+00,5.000000000000000000e+00,5.000000000000000000e+00,5.000000000000000000e+00,5.000000000000000000e+00,5.000000000000000000e+00,5.000000000000000000e+00,5.000000000000000000e+00,5.000000000000000000e+00,4.848931789398193359e+00,4.659079551696777344e+00,4.483533859252929688e+00,4.320736408233642578e+00,4.169347286224365234e+00,4.028207302093505859e+00,3.896310806274414062e+00,3.772777080535888672e+00,3.656836271286010742e+00,3.547809362411499023e+00,3.445094823837280273e+00,3.348160982131958008e+00,3.256532192230224609e+00,3.169785022735595703e+00,3.087539911270141602e+00,3.009454488754272461e+00,2.935221195220947266e+00,2.864562034606933594e+00,2.797224760055541992e+00,2.732980728149414062e+00,2.671621561050415039e+00,2.612956762313842773e+00,2.556813240051269531e+00,2.503031253814697266e+00,2.451465606689453125e+00,2.401981592178344727e+00,2.354455709457397461e+00,2.308774232864379883e+00,2.264831542968750000e+00,2.222530126571655273e+00,2.181780338287353516e+00,2.142497539520263672e+00,2.104604482650756836e+00,2.068028450012207031e+00,2.032701969146728516e+00,1.998562335968017578e+00,1.965550303459167480e+00,1.933611273765563965e+00,1.902693629264831543e+00,1.872748851776123047e+00,1.843732357025146484e+00
5.000000000000000000e+00,5.000000000000000000e+00,5.000000000000000000e+00,5.000000000000000000e+00,5.000000000000000000e+00,5.000000000000000000e+00,5.000000000000000000e+00,5.000000000000000000e+00,5.000000000000000000e+00,5.000000000000000000e+00,5.000000000000000000e+00,5.000000000000000000e+00,5.000000000000000000e+00,5.000000000000000000e+00,5.000000000000000000e+00,5.000000000000000000e+00,5.000000000000000000e+00,5.000000000000000000e+00,5.000000000000000000e+00,5.000000000000000000e+00,5.000000000000000000e+00,5.000000000000000000e+00,5.000000000000000000e+00,5.000000000000000000e+00,4.772690296173095703e+00,4.794030666351318359e+00,4.842407226562500000e+00,4.842943668365478516e+00,4.887636184692382812e+00,5.000000000000000000e+00,5.000000000000000000e+00,5.000000000000000000e+00,5.000000000000000000e+00,5.000000000000000000e+00,5.000000000000000000e+00,5.000000000000000000e+00,5.000000000000000000e+00,5.000000000000000000e+00,5.000000000000000000e+00,4.849071025848388672e+00,4.659207820892333984e+00,4.483653068542480469e+00,4.320846557617187500e+00,4.169449806213378906e+00,4.028303146362304688e+00,3.896400451660156250e+00,3.772861242294311523e+00,3.656915664672851562e+00,3.547883749008178711e+00,3.445165157318115234e+00,3.348227024078369141e+00,3.256594896316528320e+00,3.169844627380371094e+00,3.087596178054809570e+00,3.009507894515991211e+00,2.935272216796875000e+00,2.864610433578491211e+00,2.797271251678466797e+00,2.733024835586547852e+00,2.671663522720336914e+00,2.612997293472290039e+00,2.556851863861083984e+00,2.503068447113037109e+00,2.451501131057739258e+00,2.402015686035156250e+00,2.354488611221313477e+00,2.308805704116821289e+00,2.264861822128295898e+00,2.222559452056884766e+00,2.181808471679687500e+00,2.142524719238281250e+00,2.104630708694458008e+00,2.068053722381591797e+00,2.032726526260375977e+00,1.998585939407348633e+00,1.965573191642761230e+00,1.933633327484130859e+00,1.902714967727661133e+00,1.872769594192504883e+00,1.843752384185791016e+00
5.000000000000000000e+00,5.000000000000000000e+00,5.000000000000000000e+00,5.000000000000000000e+00,5.000000000000000000e+00,5.000000000000000000e+00,5.000000000000000000e+00,5.000000000000000000e+00,5.000000000000000000e+00,5.000000000000000000e+00,5.000000000000000000e+00,5.000000000000000000e+00,5.000000000000000000e+00,5.000000000000000000e+00,5.000000000000000000e+00,5.000000000000000000e+00,5.000000000000000000e+00,5.000000000000000000e+00,5.000000000000000000e+00,5.000000000000000000e+00,5.000000000000000000e+00,5.000000000000000000e+00,5.000000000000000000e+00,5.000000000000000000e+00,4.707026958465576172e+00,4.782250404357910156e+00,4.820546150207519531e+00,4.824716091156005859e+00,4.865066051483154297e+00,5.000000000000000000e+00,5.000000000000000000e+00,5.000000000000000000e+00,5.000000000000000000e+00,5.000000000000000000e+00,5.000000000000000000e+00,5.000000000000000000e+00,5.000000000000000000e+00,5.000000000000000000e+00,5.000000000000000000e+00,4.849209785461425781e+00,4.659336090087890625e+00,4.483771800994873047e+00,4.320957183837890625e+00,4.169552803039550781e+00,4.028398990631103516e+00,3.896489858627319336e+00,3.772945642471313477e+00,3.656994581222534180e+00,3.547957897186279297e+00,3.445235252380371094e+00,3.348293304443359375e+00,3.256657838821411133e+00,3.169903993606567383e+00,3.087652206420898438e+00,3.009561538696289062e+00,2.935322999954223633e+00,2.864659070968627930e+00,2.797317266464233398e+00,2.733068943023681641e+00,2.671705961227416992e+00,2.613037586212158203e+00,2.556890249252319336e+00,2.503105401992797852e+00,2.451536655426025391e+00,2.402049779891967773e+00,2.354521512985229492e+00,2.308837175369262695e+00,2.264892339706420898e+00,2.222588777542114258e+00,2.181836605072021484e+00,2.142551898956298828e+00,2.104656934738159180e+00,2.068078994750976562e+00,2.032750844955444336e+00,1.998609542846679688e+00,1.965596199035644531e+00,1.933655381202697754e+00,1.902736306190490723e+00,1.872790455818176270e+00,1.843772411346435547e+00
5.000000000000000000e+00,5.000000000000000000e+00,5.000000000000000000e+00,5.000000000000000000e+00,5.000000000000000000e+00,5.000000000000000000e+00,5.000000000000000000e+00,5.000000000000000000e+00,5.000000000000000000e+00,5.000000000000000000e+00,5.000000000000000000e+00,5.000000000000000000e+00,5.000000000000000000e+00,5.000000000000000000e+00,5.000000000000000000e+00,5.000000000000000000e+00,5.000000000000000000e+00,5.000000000000000000e+00,5.000000000000000000e+00,5.000000000000000000e+00,5.000000000000000000e+00,5.000000000000000000e+00,5.000000000000000000e+00,5.000000000000000000e+00,5.000000000000000000e+00,4.775962352752685547e+00,4.812005043029785156e+00,4.806234836578369141e+00,4.848263263702392578e+00,5.000000000000000000e+00,5.000000000000000000e+00,5.000000000000000000e+00,5.000000000000000000e+00,5.000000000000000000e+00,5.000000000000000000e+00,5.000000000000000000e+00,5.000000000000000000e+00,5.000000000000000000e+00,5.000000000000000000e+00,4.849348545074462891e+00,4.659464359283447266e+00,4.483890533447265625e+00,4.321067333221435547e+00,4.169655323028564453e+00,4.028494834899902344e+00,3.896579980850219727e+00,3.773029565811157227e+00,3.657073497772216797e+00,3.548032522201538086e+00,3.445305347442626953e+00,3.348359823226928711e+00,3.256720304489135742e+00,3.169963121414184570e+00,3.087708950042724609e+00,3.009614944458007812e+00,2.935374021530151367e+00,2.864707708358764648e+00,2.797363519668579102e+00,2.733113288879394531e+00,2.671747922897338867e+00,2.613077878952026367e+00,2.556929111480712891e+00,2.503142356872558594e+00,2.451572179794311523e+00,2.402083873748779297e+00,2.354554176330566406e+00,2.308868646621704102e+00,2.264922618865966797e+00,2.222617864608764648e+00,2.181864738464355469e+00,2.142579078674316406e+00,2.104682922363281250e+00,2.068104267120361328e+00,2.032775402069091797e+00,1.998633146286010742e+00,1.965618968009948730e+00,1.933677434921264648e+00,1.902757763862609863e+00,1.872811198234558105e+00,1.843792557716369629e+00
5.000000000000000000e+00,5.000000000000000000e+00,5.000000000000000000e+00,5.000000000000000000e+00,5.000000000000000000e+00,5.000000000000000000e+00,5.000000000000000000e+00,5.000000000000000000e+00,5.000000000000000000e+00,5.000000000000000000e+00,5.000000000000000000e+00,5.000000000000000000e+00,5.000000000000000000e+00,5.000000000000000000e+00,5.000000000000000000e+00,5.000000000000000000e+00,5.000000000000000000e+00,5.000000000000000000e+00,5.000000000000000000e+00,5.000000000000000000e+00,5.000000000000000000e+00,5.000000000000000000e+00,5.000000000000000000e+00,5.000000000000000000e+00,5.000000000000000000e+00,4.766050338745117188e+00,4.806575775146484375e+00,4.783396244049072266e+00,4.830757141113281250e+00,5.000000000000000000e+00,5.000000000000000000e+00,5.000000000000000000e+00,5.000000000000000000e+00,5.000000000000000000e+00,5.000000000000000000e+00,5.000000000000000000e+00,5.000000000000000000e+00,5.000000000000000000e+00,5.000000000000000000e+00,4.849487781524658203e+00,4.659593105316162109e+00,4.484009265899658203e+00,4.321177482604980469e+00,4.169758319854736328e+00,4.028591156005859375e+00,3.896669626235961914e+00,3.773113727569580078e+00,3.657152891159057617e+00,3.548106908798217773e+00,3.445375680923461914e+00,3.348425865173339844e+00,3.256783008575439453e+00,3.170022726058959961e+00,3.087765216827392578e+00,3.009668350219726562e+00,2.935425043106079102e+00,2.864756107330322266e+00,2.797410011291503906e+00,2.733157396316528320e+00,2.671790122985839844e+00,2.613118410110473633e+00,2.556967735290527344e+00,2.503179550170898438e+00,2.451607704162597656e+00,2.402117967605590820e+00,2.354587078094482422e+00,2.308900117874145508e+00,2.264952898025512695e+00,2.222647190093994141e+00,2.181892871856689453e+00,2.142606019973754883e+00,2.104709386825561523e+00,2.068129539489746094e+00,2.032799959182739258e+00,1.998656630516052246e+00,1.965641736984252930e+00,1.933699727058410645e+00,1.902779102325439453e+00,1.872831940650939941e+00,1.843812823295593262e+00
5.000000000000000000e+00,5.000000000000000000e+00,5.000000000000000000e+00,5.000000000000000000e+00,5.000000000000000000e+00,5.000000000000000000e+00,5.000000000000000000e+00,5.000000000000000000e+00,5.000000000000000000e+00,5.000000000000000000e+00,5.000000000000000000e+00,5.000000000000000000e+00,5.000000000000000000e+00,5.000000000000000000e+00,5.000000000000000000e+00,5.000000000000000000e+00,5.000000000000000000e+00,5.000000000000000000e+00,5.000000000000000000e+00,5.000000000000000000e+00,5.000000000000000000e+00,5.000000000000000000e+00,5.000000000000000000e+00,5.000000000000000000e+00,5.000000000000000000e+00,4.765131950378417969e+00,4.810318946838378906e+00,4.781258106231689453e+00,5.000000000000000000e+00,5.000000000000000000e+00,5.000000000000000000e+00,5.000000000000000000e+00,5.000000000000000000e+00,5.000000000000000000e+00,5.000000000000000000e+00,5.000000000000000000e+00,5.000000000000000000e+00,5.000000000000000000e+00,5.000000000000000000e+00,4.849626064300537109e+00,4.659721374511718750e+00,4.484127998352050781e+00,4.321288108825683594e+00,4.169860839843750000e+00,4.028687000274658203e+00,3.896759271621704102e+00,3.773198127746582031e+00,3.657231807708740234e+00,3.548181533813476562e+00,3.445445775985717773e+00,3.348491907119750977e+00,3.256845951080322266e+00,3.170082092285156250e+00,3.087821483612060547e+00,3.009722232818603516e+00,2.935475826263427734e+00,2.864804744720458984e+00,2.797456026077270508e+00,2.733201503753662109e+00,2.671832561492919922e+00,2.613158702850341797e+00,2.557006359100341797e+00,2.503216505050659180e+00,2.451643228530883789e+00,2.402152299880981445e+00,2.354619741439819336e+00,2.308931589126586914e+00,2.264983177185058594e+00,2.222676277160644531e+00,2.181921005249023438e+00,2.142633438110351562e+00,2.104735374450683594e+00,2.068154811859130859e+00,2.032824277877807617e+00,1.998680233955383301e+00,1.965664625167846680e+00,1.933721780776977539e+00,1.902800440788269043e+00,1.872852563858032227e+00,1.843832850456237793e+00
5.000000000000000000e+00,5.000000000000000000e+00,5.000000000000000000e+00,5.000000000000000000e+00,5.000000000000000000e+00,5.000000000000000000e+00,5.000000000000000000e+00,5.000000000000000000e+00,5.000000000000000000e+00,5.000000000000000000e+00,5.000000000000000000e+00,5.000000000000000000e+00,5.000000000000000000e+00,5.000000000000000000e+00,5.000000000000000000e+00,5.000000000000000000e+00,5.000000000000000000e+00,5.000000000000000000e+00,5.000000000000000000e+00,5.000000000000000000e+00,5.000000000000000000e+00,5.000000000000000000e+00,5.000000000000000000e+00,5.000000000000000000e+00,5.000000000000000000e+00,4.843500614166259766e+00,5.000000000000000000e+00,4.826248645782470703e+00,5.000000000000000000e+00,5.000000000000000000e+00,5.000000000000000000e+00,5.000000000000000000e+00,5.000000000000000000e+00,5.000000000000000000e+00,5.000000000000000000e+00,5.000000000000000000e+00,5.000000000000000000e+00,5.000000000000000000e+00,5.000000000000000000e+00,4.849763870239257812e+00,4.659849643707275391e+00,4.484247207641601562e+00,4.321398735046386719e+00,4.169963836669921875e+00,4.028782844543457031e+00,3.896849155426025391e+00,3.773282051086425781e+00,3.657311201095581055e+00,3.548255920410156250e+00,3.445515871047973633e+00,3.348558425903320312e+00,3.256908416748046875e+00,3.170141458511352539e+00,3.087877988815307617e+00,3.009775638580322266e+00,2.935527086257934570e+00,2.864853143692016602e+00,2.797502279281616211e+00,2.733245849609375000e+00,2.671874523162841797e+00,2.613198995590209961e+00,2.557044982910156250e+00,2.503253459930419922e+00,2.451678991317749023e+00,2.402186155319213867e+00,2.354652404785156250e+00,2.308963298797607422e+00,2.265013456344604492e+00,2.222705364227294922e+00,2.181949138641357422e+00,2.142660379409790039e+00,2.104761600494384766e+00,2.068180084228515625e+00,2.032848596572875977e+00,1.998704075813293457e+00,1.965687394142150879e+00,1.933743834495544434e+00,1.902822017669677734e+00,1.872873306274414062e+00,1.843852877616882324e+00
5.000000000000000000e+00,5.000000000000000000e+00,5.000000000000000000e+00,5.000000000000000000e+00,5.000000000000000000e+00,5.000000000000000000e+00,5.000000000000000000e+00,5.000000000000000000e+00,5.000000000000000000e+00,5.000000000000000000e+00,5.000000000000000000e+00,5.000000000000000000e+00,5.000000000000000000e+00,5.000000000000000000e+00,5.000000000000000000e+00,5.000000000000000000e+00,5.000000000000000000e+00,5.000000000000000000e+00,5.000000000000000000e+00,5.000000000000000000e+00,5.000000000000000000e+00,5.000000000000000000e+00,5.000000000000000000e+00,5.000000000000000000e+00,5.000000000000000000e+00,4.970029830932617188e+00,5.000000000000000000e+00,4.839818000793457031e+00,5.000000000000000000e+00,5.000000000000000000e+00,5.000000000000000000e+00,5.000000000000000000e+00,5.000000000000000000e+00,5.000000000000000000e+00,5.000000000000000000e+00,5.000000000000000000e+00,5.000000000000000000e+00,5.000000000000000000e+00,5.000000000000000000e+00,4.849901676177978516e+00,4.659976482391357422e+00,4.484365940093994141e+00,4.321508884429931641e+00,4.170066356658935547e+00,4.028878688812255859e+00,3.896938800811767578e+00,3.773366451263427734e+00,3.657390117645263672e+00,3.548330068588256836e+00,3.445586204528808594e+00,3.348624706268310547e+00,3.256971120834350586e+00,3.170201063156127930e+00,3.087934255599975586e+00,3.009829282760620117e+00,2.935577869415283203e+00,2.864901542663574219e+00,2.797548770904541016e+00,2.733289718627929688e+00,2.671916723251342773e+00,2.613239288330078125e+00,2.557083606719970703e+00,2.503290653228759766e+00,2.451714277267456055e+00,2.402220249176025391e+00,2.354685306549072266e+00,2.308994770050048828e+00,2.265043735504150391e+00,2.222734689712524414e+00,2.181977272033691406e+00,2.142687559127807617e+00,2.104787826538085938e+00,2.068205356597900391e+00,2.032873153686523438e+00,1.998727679252624512e+00,1.965710163116455078e+00,1.933766007423400879e+00,1.902843356132507324e+00,1.872894167900085449e+00,1.843873023986816406e+00
5.000000000000000000e+00,5.000000000000000000e+00,5.000000000000000000e+00,5.000000000000000000e+00,5.000000000000000000e+00,5.000000000000000000e+00,5.000000000000000000e+00,5.000000000000000000e+00,5.000000000000000000e+00,5.000000000000000000e+00,5.000000000000000000e+00,5.000000000000000000e+00,5.000000000000000000e+00,5.000000000000000000e+00,5.000000000000000000e+00,5.000000000000000000e+00,5.000000000000000000e+00,5.000000000000000000e+00,5.000000000000000000e+00,5.000000000000000000e+00,5.000000000000000000e+00,5.000000000000000000e+00,5.000000000000000000e+00,5.000000000000000000e+00,5.000000000000000000e+00,5.000000000000000000e+00,5.000000000000000000e+00,4.845355510711669922e+00,5.000000000000000000e+00,5.000000000000000000e+00,5.000000000000000000e+00,5.000000000000000000e+00,5.000000000000000000e+00,5.000000000000000000e+00,5.000000000000000000e+00,5.000000000000000000e+00,5.000000000000000000e+00,5.000000000000000000e+00,5.000000000000000000e+00,4.850039482116699219e+00,4.660103797912597656e+00,4.484483718872070312e+00,4.321619510650634766e+00,4.170169353485107422e+00,4.028975009918212891e+00,3.897028923034667969e+00,3.773450613021850586e+00,3.657469034194946289e+00,3.548404693603515625e+00,3.445656299591064453e+00,3.348690748214721680e+00,3.257034063339233398e+00,3.170260429382324219e+00,3.087990760803222656e+00,3.009882688522338867e+00,2.935628652572631836e+00,2.864950180053710938e+00,2.797594785690307617e+00,2.733333826065063477e+00,2.671959161758422852e+00,2.613279581069946289e+00,2.557122468948364258e+00,2.503327608108520508e+00,2.451749801635742188e+00,2.402254581451416016e+00,2.354717969894409180e+00,2.309026241302490234e+00,2.265074253082275391e+00,2.222763776779174805e+00,2.182005405426025391e+00,2.142714738845825195e+00,2.104814052581787109e+00,2.068230628967285156e+00,2.032897472381591797e+00,1.998751163482666016e+00,1.965733170509338379e+00,1.933788061141967773e+00,1.902864813804626465e+00,1.872914910316467285e+00,1.843893051147460938e+00
5.000000000000000000e+00,5.000000000000000000e+00,5.000000000000000000e+00,5.000000000000000000e+00,5.000000000000000000e+00,5.000000000000000000e+00,5.000000000000000000e+00,5.000000000000000000e+00,5.000000000000000000e+00,5.000000000000000000e+00,5.000000000000000000e+00,5.000000000000000000e+00,5.000000000000000000e+00,5.000000000000000000e+00,5.000000000000000000e+00,5.000000000000000000e+00,5.000000000000000000e+00,5.000000000000000000e+00,5.000000000000000000e+00,5.000000000000000000e+00,5.000000000000000000e+00,5.000000000000000000e+00,5.000000000000000000e+00,5.000000000000000000e+00,5.000000000000000000e+00,5.000000000000000000e+00,5.000000000000000000e+00,4.859287261962890625e+00,5.000000000000000000e+00,5.000000000000000000e+00,5.000000000000000000e+00,5.000000000000000000e+00,5.000000000000000000e+00,5.000000000000000000e+00,5.000000000000000000e+00,5.000000000000000000e+00,5.000000000000000000e+00,5.000000000000000000e+00,5.000000000000000000e+00,4.850177288055419922e+00,4.660231113433837891e+00,4.484601497650146484e+00,4.321729183197021484e+00,4.170272350311279297e+00,4.029070854187011719e+00,3.897118568420410156e+00,3.773534536361694336e+00,3.657548427581787109e+00,3.548479080200195312e+00,3.445726394653320312e+00,3.348757266998291016e+00,3.257096529006958008e+00,3.170320034027099609e+00,3.088047027587890625e+00,3.009936332702636719e+00,2.935679912567138672e+00,2.864998817443847656e+00,2.797641038894653320e+00,2.733378171920776367e+00,2.672001123428344727e+00,2.613320112228393555e+00,2.557161092758178711e+00,2.503364801406860352e+00,2.451785564422607422e+00,2.402288675308227539e+00,2.354750871658325195e+00,2.309057712554931641e+00,2.265104532241821289e+00,2.222793102264404297e+00,2.182033538818359375e+00,2.142741918563842773e+00,2.104840278625488281e+00,2.068255901336669922e+00,2.032921791076660156e+00,1.998774766921997070e+00,1.965756058692932129e+00,1.933810353279113770e+00,1.902886152267456055e+00,1.872935533523559570e+00,1.843913316726684570e+00
5.000000000000000000e+00,5.000000000000000000e+00,5.000000000000000000e+00,5.000000000000000000e+00,5.000000000000000000e+00,5.000000000000000000e+00,5.000000000000000000e+00,5.000000000000000000e+00,5.000000000000000000e+00,5.000000000000000000e+00,5.000000000000000000e+00,5.000000000000000000e+00,5.000000000000000000e+00,5.000000000000000000e+00,5.000000000000000000e+00,5.000000000000000000e+00,5.000000000000000000e+00,5.000000000000000000e+00,5.000000000000000000e+00,5.000000000000000000e+00,5.000000000000000000e+00,5.000000000000000000e+00,5.000000000000000000e+00,5.000000000000000000e+00,5.000000000000000000e+00,5.000000000000000000e+00,5.000000000000000000e+00,4.872464656829833984e+00,5.000000000000000000e+00,5.000000000000000000e+00,5.000000000000000000e+00,5.000000000000000000e+00,5.000000000000000000e+00,5.000000000000000000e+00,5.000000000000000000e+00,5.000000000000000000e+00,5.000000000000000000e+00,5.000000000000000000e+00,5.000000000000000000e+00,4.850315093994140625e+00,4.660357952117919922e+00,4.484719276428222656e+00,4.321838378906250000e+00,4.170374870300292969e+00,4.029166698455810547e+00,3.897208213806152344e+00,3.773618936538696289e+00,3.657627344131469727e+00,3.548553466796875000e+00,3.445796728134155273e+00,3.348823547363281250e+00,3.257159233093261719e+00,3.170379161834716797e+00,3.088103294372558594e+00,3.009989976882934570e+00,2.935730695724487305e+00,2.865047216415405273e+00,2.797687530517578125e+00,2.733422279357910156e+00,2.672043323516845703e+00,2.613360404968261719e+00,2.557199716567993164e+00,2.503401756286621094e+00,2.451820850372314453e+00,2.402322530746459961e+00,2.354783535003662109e+00,2.309089183807373047e+00,2.265134811401367188e+00,2.222822427749633789e+00,2.182061672210693359e+00,2.142769098281860352e+00,2.104866266250610352e+00,2.068281173706054688e+00,2.032946348190307617e+00,1.998798370361328125e+00,1.965778827667236328e+00,1.933832406997680664e+00,1.902907490730285645e+00,1.872956275939941406e+00,1.843933343887329102e+00
4.874784469604492188e+00,4.873573780059814453e+00,4.872364044189453125e+00,4.871154785156250000e+00,4.869945526123046875e+00,4.868737697601318359e+00,4.867529869079589844e+00,4.866322994232177734e+00,4.865116596221923828e+00,4.863911151885986328e+00,4.862705707550048828e+00,4.861501216888427734e+00,4.860297203063964844e+00,4.859094142913818359e+00,4.857891559600830078e+00,4.856688976287841797e+00,4.855487823486328125e+00,4.854286670684814453e+00,4.853086471557617188e+00,4.851886272430419922e+00,4.850687503814697266e+00,4.849488735198974609e+00,4.848290443420410156e+00,4.847093105316162109e+00,4.845896244049072266e+00,4.844699859619140625e+00,4.843504428863525391e+00,4.842308998107910156e+00,4.841114997863769531e+00,4.839920997619628906e+00,4.838727474212646484e+00,4.837534904479980469e+00,4.836342811584472656e+00,4.835151195526123047e+00,4.833960056304931641e+00,4.832769870758056641e+00,4.831580162048339844e+00,4.830390453338623047e+00,4.829202175140380859e+00,4.828013896942138672e+00,4.660485267639160156e+00,4.484837055206298828e+00,4.321948051452636719e+00,4.170476913452148438e+00,4.029262542724609375e+00,3.897298336029052734e+00,3.773703098297119141e+00,3.657706260681152344e+00,3.548628091812133789e+00,3.445866823196411133e+00,3.348889827728271484e+00,3.257222175598144531e+00,3.170438528060913086e+00,3.088159799575805664e+00,3.010043382644653320e+00,2.935781478881835938e+00,2.865095853805541992e+00,2.797733545303344727e+00,2.733466386795043945e+00,2.672085762023925781e+00,2.613400697708129883e+00,2.557238340377807617e+00,2.503438949584960938e+00,2.451856374740600586e+00,2.402356863021850586e+00,2.354816436767578125e+00,2.309120655059814453e+00,2.265165090560913086e+00,2.222851514816284180e+00,2.182089805603027344e+00,2.142796277999877930e+00,2.104892492294311523e+00,2.068306446075439453e+00,2.032970905303955078e+00,1.998821973800659180e+00,1.965801596641540527e+00,1.933854460716247559e+00,1.902929067611694336e+00,1.872977018356323242e+00,1.843953371047973633e+00
3.777596473693847656e+00,3.776869773864746094e+00,3.776142835617065430e+00,3.775416374206542969e+00,3.774690151214599609e+00,3.773964405059814453e+00,3.773238897323608398e+00,3.772513389587402344e+00,3.771788120269775391e+00,3.771063804626464844e+00,3.770339250564575195e+00,3.769614934921264648e+00,3.768890857696533203e+00,3.768167495727539062e+00,3.767444133758544922e+00,3.766720771789550781e+00,3.765998363494873047e+00,3.765275716781616211e+00,3.764553308486938477e+00,3.763831138610839844e+00,3.763109922409057617e+00,3.762388229370117188e+00,3.761667013168334961e+00,3.760946035385131836e+00,3.760225772857666016e+00,3.759505510330200195e+00,3.758785247802734375e+00,3.758065462112426758e+00,3.757346153259277344e+00,3.756626844406127930e+00,3.755907773971557617e+00,3.755189180374145508e+00,3.754471063613891602e+00,3.753752708435058594e+00,3.753034830093383789e+00,3.752317190170288086e+00,3.751600027084350586e+00,3.750883102416992188e+00,3.750166177749633789e+00,3.749449491500854492e+00,3.748733758926391602e+00,3.748017549514770508e+00,3.747301816940307617e+00,3.746586322784423828e+00,3.745871543884277344e+00,3.745156764984130859e+00,3.744441986083984375e+00,3.657785654067993164e+00,3.548702478408813477e+00,3.445936918258666992e+00,3.348956346511840820e+00,3.257284641265869141e+00,3.170498132705688477e+00,3.088216066360473633e+00,3.010097026824951172e+00,2.935832738876342773e+00,2.865144252777099609e+00,2.797779798507690430e+00,2.733510732650756836e+00,2.672127723693847656e+00,2.613441228866577148e+00,2.557276964187622070e+00,2.503475904464721680e+00,2.451892137527465820e+00,2.402390956878662109e+00,2.354849100112915039e+00,2.309152364730834961e+00,2.265195369720458984e+00,2.222880840301513672e+00,2.182117938995361328e+00,2.142823219299316406e+00,2.104918718338012695e+00,2.068331718444824219e+00,2.032995223999023438e+00,1.998845696449279785e+00,1.965824365615844727e+00,1.933876514434814453e+00,1.902950406074523926e+00,1.872997641563415527e+00,1.843973517417907715e+00
3.083565473556518555e+00,3.083081483840942383e+00,3.082597017288208008e+00,3.082112789154052734e+00,3.081628799438476562e+00,3.081145286560058594e+00,3.080661535263061523e+00,3.080178022384643555e+00,3.079694509506225586e+00,3.079211473464965820e+00,3.078728437423706055e+00,3.078245401382446289e+00,3.077762603759765625e+00,3.077280282974243164e+00,3.076797723770141602e+00,3.076315402984619141e+00,3.075833320617675781e+00,3.075351238250732422e+00,3.074869394302368164e+00,3.074387550354003906e+00,3.073906183242797852e+00,3.073424816131591797e+00,3.072943449020385742e+00,3.072462320327758789e+00,3.071981668472290039e+00,3.071500778198242188e+00,3.071020126342773438e+00,3.070539474487304688e+00,3.070059299468994141e+00,3.069579124450683594e+00,3.069098949432373047e+00,3.068619012832641602e+00,3.068139553070068359e+00,3.067659854888916016e+00,3.067180395126342773e+00,3.066700935363769531e+00,3.066222190856933594e+00,3.065743207931518555e+00,3.065264225006103516e+00,3.064785480499267578e+00,3.064307212829589844e+00,3.063828706741333008e+00,3.063350439071655273e+00,3.062872171401977539e+00,3.062394380569458008e+00,3.061916589736938477e+00,3.061438798904418945e+00,3.060961246490478516e+00,3.060484170913696289e+00,3.060006856918334961e+00,3.059529781341552734e+00,3.059052944183349609e+00,3.058576345443725586e+00,3.058099746704101562e+00,3.010150671005249023e+00,2.935883522033691406e+00,2.865192651748657227e+00,2.797826290130615234e+00,2.733554840087890625e+00,2.672170162200927734e+00,2.613481521606445312e+00,2.557315587997436523e+00,2.503513097763061523e+00,2.451927423477172852e+00,2.402425050735473633e+00,2.354882001876831055e+00,2.309183835983276367e+00,2.265225887298583984e+00,2.222909927368164062e+00,2.182146072387695312e+00,2.142850399017333984e+00,2.104944944381713867e+00,2.068356990814208984e+00,2.033019781112670898e+00,1.998869299888610840e+00,1.965847492218017578e+00,1.933898568153381348e+00,1.902971863746643066e+00,1.873018622398376465e+00,1.843993544578552246e+00
2.604972600936889648e+00,2.604626893997192383e+00,2.604281187057495117e+00,2.603935718536376953e+00,2.603590250015258789e+00,2.603245019912719727e+00,2.602899551391601562e+00,2.602554321289062500e+00,2.602209329605102539e+00,2.601864337921142578e+00,2.601519584655761719e+00,2.601174592971801758e+00,2.600829839706420898e+00,2.600485324859619141e+00,2.600140810012817383e+00,2.599796295166015625e+00,2.599452018737792969e+00,2.599107742309570312e+00,2.598763465881347656e+00,2.598419427871704102e+00,2.598075628280639648e+00,2.597731590270996094e+00,2.597387790679931641e+00,2.597043991088867188e+00,2.596700429916381836e+00,2.596356868743896484e+00,2.596013545989990234e+00,2.595669984817504883e+00,2.595326900482177734e+00,2.594983816146850586e+00,2.594640493392944336e+00,2.594297647476196289e+00,2.593954801559448242e+00,2.593611955642700195e+00,2.593269109725952148e+00,2.592926502227783203e+00,2.592584133148193359e+00,2.592241525650024414e+00,2.591899156570434570e+00,2.591556787490844727e+00,2.591214895248413086e+00,2.590872764587402344e+00,2.590530633926391602e+00,2.590188741683959961e+00,2.589847087860107422e+00,2.589505195617675781e+00,2.589163541793823242e+00,2.588822126388549805e+00,2.588480710983276367e+00,2.588139295578002930e+00,2.587797880172729492e+00,2.587456703186035156e+00,2.587115764617919922e+00,2.586774826049804688e+00,2.586433887481689453e+00,2.586092948913574219e+00,2.585752487182617188e+00,2.585411787033081055e+00,2.585071086883544922e+00,2.584730625152587891e+00,2.584390401840209961e+00,2.557354450225830078e+00,2.503550052642822266e+00,2.451962947845458984e+00,2.402459144592285156e+00,2.354914665222167969e+00,2.309215545654296875e+00,2.265256166458129883e+00,2.222939014434814453e+00,2.182174444198608398e+00,2.142877578735351562e+00,2.104971170425415039e+00,2.068382501602172852e+00,2.033044099807739258e+00,1.998892903327941895e+00,1.965870261192321777e+00,1.933920621871948242e+00,1.902993202209472656e+00,1.873039245605468750e+00,1.844013571739196777e+00
2.255026578903198242e+00,2.254765510559082031e+00,2.254504680633544922e+00,2.254243850708007812e+00,2.253983020782470703e+00,2.253722429275512695e+00,2.253461599349975586e+00,2.253201246261596680e+00,2.252940654754638672e+00,2.252680063247680664e+00,2.252419710159301758e+00,2.252159357070922852e+00,2.251899003982543945e+00,2.251638889312744141e+00,2.251378774642944336e+00,2.251118659973144531e+00,2.250858545303344727e+00,2.250598669052124023e+00,2.250338554382324219e+00,2.250078916549682617e+00,2.249818801879882812e+00,2.249559164047241211e+00,2.249299526214599609e+00,2.249039888381958008e+00,2.248780965805053711e+00,2.248523235321044922e+00,2.248265504837036133e+00,2.248008012771606445e+00,2.247750759124755859e+00,2.247493267059326172e+00,2.247235774993896484e+00,2.246978521347045898e+00,2.246721267700195312e+00,2.246464252471923828e+00,2.246206998825073242e+00,2.245949983596801758e+00,2.245692968368530273e+00,2.245435953140258789e+00,2.245179176330566406e+00,2.244922161102294922e+00,2.244665622711181641e+00,2.244408845901489258e+00,2.244152069091796875e+00,2.243895530700683594e+00,2.243638992309570312e+00,2.243382692337036133e+00,2.243126153945922852e+00,2.242869853973388672e+00,2.242613554000854492e+00,2.242357254028320312e+00,2.242100954055786133e+00,2.241844892501831055e+00,2.241589069366455078e+00,2.241333007812500000e+00,2.241076946258544922e+00,2.240821123123168945e+00,2.240565299987792969e+00,2.240309476852416992e+00,2.240053653717041016e+00,2.239798069000244141e+00,2.239542484283447266e+00,2.239286899566650391e+00,2.239031553268432617e+00,2.238775968551635742e+00,2.238520860671997070e+00,2.238265514373779297e+00,2.238010168075561523e+00,2.237754821777343750e+00,2.222968339920043945e+00,2.182202339172363281e+00,2.142904758453369141e+00,2.104997396469116211e+00,2.068407773971557617e+00,2.033068656921386719e+00,1.998916506767272949e+00,1.965893030166625977e+00,1.933942914009094238e+00,1.903014540672302246e+00,1.873059988021850586e+00,1.844033837318420410e+00
1.988048791885375977e+00,1.987846016883850098e+00,1.987643241882324219e+00,1.987440586090087891e+00,1.987237811088562012e+00,1.987035155296325684e+00,1.986832618713378906e+00,1.986630082130432129e+00,1.986427545547485352e+00,1.986225008964538574e+00,1.986022591590881348e+00,1.985820174217224121e+00,1.985617876052856445e+00,1.985415577888488770e+00,1.985213041305541992e+00,1.985010862350463867e+00,1.984808683395385742e+00,1.984606504440307617e+00,1.984404325485229492e+00,1.984202265739440918e+00,1.984000205993652344e+00,1.983798265457153320e+00,1.983596324920654297e+00,1.983394384384155273e+00,1.983192563056945801e+00,1.982990741729736328e+00,1.982788920402526855e+00,1.982587218284606934e+00,1.982385516166687012e+00,1.982183933258056641e+00,1.981982231140136719e+00,1.981780648231506348e+00,1.981578946113586426e+00,1.981377363204956055e+00,1.981176018714904785e+00,1.980974555015563965e+00,1.980773210525512695e+00,1.980571866035461426e+00,1.980370521545410156e+00,1.980169296264648438e+00,1.979968070983886719e+00,1.979766964912414551e+00,1.979565858840942383e+00,1.979364752769470215e+00,1.979163646697998047e+00,1.978962659835815430e+00,1.978761672973632812e+00,1.978560805320739746e+00,1.978359937667846680e+00,1.978158831596374512e+00,1.977958083152770996e+00,1.977757215499877930e+00,1.977556586265563965e+00,1.977355837821960449e+00,1.977155208587646484e+00,1.976954579353332520e+00,1.976754069328308105e+00,1.976553559303283691e+00,1.976353049278259277e+00,1.976152658462524414e+00,1.975952267646789551e+00,1.975751876831054688e+00,1.975551605224609375e+00,1.975351333618164062e+00,1.975151062011718750e+00,1.974950909614562988e+00,1.974750518798828125e+00,1.974550366401672363e+00,1.974350333213806152e+00,1.974150300025939941e+00,1.973950266838073730e+00,1.973750352859497070e+00,1.973550438880920410e+00,1.973350644111633301e+00,1.973150730133056641e+00,1.965915918350219727e+00,1.933964967727661133e+00,1.903035879135131836e+00,1.873080730438232422e+00,1.844053983688354492e+00
1.777595400810241699e+00,1.777433276176452637e+00,1.777271151542663574e+00,1.777109146118164062e+00,1.776947021484375000e+00,1.776785016059875488e+00,1.776623010635375977e+00,1.776461005210876465e+00,1.776299118995666504e+00,1.776136994361877441e+00,1.775975108146667480e+00,1.775813341140747070e+00,1.775651454925537109e+00,1.775489687919616699e+00,1.775327920913696289e+00,1.775166153907775879e+00,1.775004506111145020e+00,1.774842739105224609e+00,1.774681210517883301e+00,1.774519562721252441e+00,1.774357914924621582e+00,1.774196386337280273e+00,1.774034857749938965e+00,1.773873329162597656e+00,1.773711919784545898e+00,1.773550391197204590e+00,1.773388862609863281e+00,1.773227453231811523e+00,1.773066163063049316e+00,1.772904753684997559e+00,1.772743463516235352e+00,1.772582292556762695e+00,1.772421002388000488e+00,1.772259831428527832e+00,1.772098660469055176e+00,1.771937489509582520e+00,1.771776318550109863e+00,1.771615266799926758e+00,1.771454215049743652e+00,1.771293163299560547e+00,1.771132111549377441e+00,1.770971179008483887e+00,1.770810246467590332e+00,1.770649313926696777e+00,1.770488262176513672e+00,1.770327448844909668e+00,1.770166635513305664e+00,1.770005822181701660e+00,1.769845008850097656e+00,1.769684314727783203e+00,1.769523620605468750e+00,1.769362926483154297e+00,1.769202232360839844e+00,1.769041657447814941e+00,1.768881082534790039e+00,1.768720507621765137e+00,1.768559932708740234e+00,1.768399477005004883e+00,1.768238902091979980e+00,1.768078446388244629e+00,1.767918109893798828e+00,1.767757534980773926e+00,1.767597198486328125e+00,1.767436861991882324e+00,1.767276525497436523e+00,1.767116308212280273e+00,1.766955971717834473e+00,1.766795754432678223e+00,1.766635656356811523e+00,1.766475439071655273e+00,1.766315340995788574e+00,1.766155242919921875e+00,1.765995144844055176e+00,1.765835165977478027e+00,1.765675187110900879e+00,1.765515208244323730e+00,1.765355229377746582e+00,1.765195369720458984e+00,1.765035271644592285e+00,1.764875411987304688e+00
1.607433676719665527e+00,1.607301115989685059e+00,1.607168555259704590e+00,1.607035994529724121e+00,1.606903314590454102e+00,1.606770753860473633e+00,1.606638312339782715e+00,1.606505870819091797e+00,1.606373429298400879e+00,1.606240987777709961e+00,1.606108665466308594e+00,1.605976223945617676e+00,1.605843901634216309e+00,1.605711579322814941e+00,1.605579257011413574e+00,1.605446934700012207e+00,1.605314731597900391e+00,1.605182409286499023e+00,1.605050206184387207e+00,1.604918003082275391e+00,1.604785919189453125e+00,1.604653596878051758e+00,1.604521393775939941e+00,1.604389309883117676e+00,1.604257225990295410e+00,1.604125142097473145e+00,1.603993177413940430e+00,1.603861093521118164e+00,1.603729128837585449e+00,1.603597164154052734e+00,1.603465199470520020e+00,1.603333234786987305e+00,1.603201270103454590e+00,1.603069424629211426e+00,1.602937579154968262e+00,1.602805733680725098e+00,1.602673888206481934e+00,1.602542042732238770e+00,1.602410078048706055e+00,1.602278351783752441e+00,1.602146625518798828e+00,1.602014899253845215e+00,1.601883172988891602e+00,1.601751565933227539e+00,1.601619839668273926e+00,1.601488232612609863e+00,1.601356625556945801e+00,1.601225018501281738e+00,1.601093411445617676e+00,1.600961923599243164e+00,1.600830435752868652e+00,1.600698947906494141e+00,1.600567460060119629e+00,1.600435972213745117e+00,1.600304484367370605e+00,1.600173115730285645e+00,1.600041508674621582e+00,1.599910140037536621e+00,1.599778771400451660e+00,1.599647402763366699e+00,1.599516153335571289e+00,1.599384903907775879e+00,1.599253654479980469e+00,1.599122405052185059e+00,1.598991155624389648e+00,1.598859906196594238e+00,1.598728775978088379e+00,1.598597645759582520e+00,1.598466515541076660e+00,1.598335385322570801e+00,1.598204255104064941e+00,1.598073124885559082e+00,1.597942113876342773e+00,1.597810983657836914e+00,1.597679972648620605e+00,1.597548961639404297e+00,1.597417950630187988e+00,1.597287058830261230e+00,1.597156167030334473e+00,1.597025275230407715e+00
1.467003464698791504e+00,1.466893076896667480e+00,1.466782569885253906e+00,1.466672182083129883e+00,1.466561794281005859e+00,1.466451406478881836e+00,1.466341018676757812e+00,1.466230750083923340e+00,1.466120362281799316e+00,1.466010093688964844e+00,1.465899825096130371e+00,1.465789556503295898e+00,1.465679287910461426e+00,1.465569019317626953e+00,1.465458869934082031e+00,1.465348601341247559e+00,1.465238332748413086e+00,1.465128183364868164e+00,1.465018033981323242e+00,1.464907884597778320e+00,1.464797735214233398e+00,1.464687585830688477e+00,1.464577555656433105e+00,1.464467406272888184e+00,1.464357376098632812e+00,1.464247345924377441e+00,1.464137315750122070e+00,1.464027285575866699e+00,1.463917374610900879e+00,1.463807344436645508e+00,1.463697433471679688e+00,1.463587522506713867e+00,1.463477492332458496e+00,1.463367462158203125e+00,1.463257670402526855e+00,1.463147759437561035e+00,1.463037848472595215e+00,1.462928056716918945e+00,1.462818264961242676e+00,1.462708473205566406e+00,1.462598681449890137e+00,1.462488889694213867e+00,1.462379097938537598e+00,1.462269425392150879e+00,1.462159633636474609e+00,1.462049961090087891e+00,1.461940288543701172e+00,1.461830615997314453e+00,1.461720943450927734e+00,1.461611270904541016e+00,1.461501479148864746e+00,1.461391925811767578e+00,1.461282372474670410e+00,1.461172699928283691e+00,1.461063146591186523e+00,1.460953593254089355e+00,1.460844159126281738e+00,1.460734605789184570e+00,1.460625171661376953e+00,1.460515618324279785e+00,1.460406184196472168e+00,1.460296750068664551e+00,1.460187315940856934e+00,1.460077881813049316e+00,1.459968447685241699e+00,1.459859132766723633e+00,1.459749698638916016e+00,1.459640264511108398e+00,1.459530949592590332e+00,1.459421634674072266e+00,1.459312319755554199e+00,1.459203004837036133e+00,1.459093809127807617e+00,1.458984494209289551e+00,1.458875298500061035e+00,1.458766102790832520e+00,1.458656907081604004e+00,1.458547711372375488e+00,1.458438515663146973e+00,1.458329439163208008e+00
1.349138736724853516e+00,1.349045276641845703e+00,1.348951935768127441e+00,1.348858594894409180e+00,1.348765134811401367e+00,1.348671793937683105e+00,1.348578453063964844e+00,1.348485112190246582e+00,1.348391890525817871e+00,1.348298549652099609e+00,1.348205208778381348e+00,1.348111867904663086e+00,1.348018646240234375e+00,1.347925305366516113e+00,1.347832083702087402e+00,1.347738862037658691e+00,1.347645640373229980e+00,1.347552537918090820e+00,1.347459316253662109e+00,1.347366213798522949e+00,1.347272992134094238e+00,1.347179889678955078e+00,1.347086787223815918e+00,1.346993684768676758e+00,1.346900582313537598e+00,1.346807479858398438e+00,1.346714377403259277e+00,1.346621274948120117e+00,1.346528172492980957e+00,1.346435070037841797e+00,1.346342086791992188e+00,1.346248984336853027e+00,1.346156001091003418e+00,1.346063017845153809e+00,1.345970034599304199e+00,1.345877051353454590e+00,1.345784187316894531e+00,1.345691204071044922e+00,1.345598220825195312e+00,1.345505356788635254e+00,1.345412492752075195e+00,1.345319509506225586e+00,1.345226645469665527e+00,1.345133781433105469e+00,1.345040917396545410e+00,1.344948053359985352e+00,1.344855189323425293e+00,1.344762325286865234e+00,1.344669580459594727e+00,1.344576835632324219e+00,1.344483971595764160e+00,1.344391226768493652e+00,1.344298481941223145e+00,1.344205737113952637e+00,1.344112992286682129e+00,1.344020366668701172e+00,1.343927621841430664e+00,1.343834996223449707e+00,1.343742251396179199e+00,1.343649625778198242e+00,1.343557000160217285e+00,1.343464374542236328e+00,1.343371629714965820e+00,1.343279004096984863e+00,1.343186378479003906e+00,1.343093872070312500e+00,1.343001246452331543e+00,1.342908740043640137e+00,1.342816114425659180e+00,1.342723608016967773e+00,1.342631101608276367e+00,1.342538595199584961e+00,1.342446088790893555e+00,1.342353582382202148e+00,1.342261195182800293e+00,1.342168688774108887e+00,1.342076301574707031e+00,1.341983795166015625e+00,1.341891407966613770e+00,1.341798901557922363e+00
1.248804926872253418e+00,1.248724937438964844e+00,1.248644948005676270e+00,1.248564839363098145e+00,1.248484849929809570e+00,1.248404860496520996e+00,1.248324871063232422e+00,1.248244881629943848e+00,1.248164892196655273e+00,1.248084902763366699e+00,1.248005032539367676e+00,1.247925043106079102e+00,1.247845172882080078e+00,1.247765302658081055e+00,1.247685432434082031e+00,1.247605443000793457e+00,1.247525572776794434e+00,1.247445702552795410e+00,1.247365951538085938e+00,1.247286081314086914e+00,1.247206211090087891e+00,1.247126340866088867e+00,1.247046470642089844e+00,1.246966719627380371e+00,1.246886849403381348e+00,1.246807098388671875e+00,1.246727347373962402e+00,1.246647596359252930e+00,1.246567845344543457e+00,1.246488094329833984e+00,1.246408343315124512e+00,1.246328592300415039e+00,1.246248960494995117e+00,1.246169209480285645e+00,1.246089577674865723e+00,1.246009826660156250e+00,1.245930194854736328e+00,1.245850563049316406e+00,1.245770812034606934e+00,1.245691180229187012e+00,1.245611548423767090e+00,1.245531916618347168e+00,1.245452284812927246e+00,1.245372653007507324e+00,1.245293021202087402e+00,1.245213508605957031e+00,1.245133876800537109e+00,1.245054364204406738e+00,1.244974851608276367e+00,1.244895339012145996e+00,1.244815707206726074e+00,1.244736194610595703e+00,1.244656682014465332e+00,1.244577169418334961e+00,1.244497776031494141e+00,1.244418263435363770e+00,1.244338750839233398e+00,1.244259238243103027e+00,1.244179844856262207e+00,1.244100332260131836e+00,1.244020938873291016e+00,1.243941545486450195e+00,1.243862152099609375e+00,1.243782758712768555e+00,1.243703365325927734e+00,1.243623971939086914e+00,1.243544578552246094e+00,1.243465185165405273e+00,1.243385910987854004e+00,1.243306517601013184e+00,1.243227243423461914e+00,1.243147969245910645e+00,1.243068575859069824e+00,1.242989301681518555e+00,1.242909908294677734e+00,1.242830634117126465e+00,1.242751359939575195e+00,1.242672204971313477e+00,1.242592930793762207e+00,1.242513656616210938e+00
1.162361502647399902e+00,1.162292122840881348e+00,1.162222862243652344e+00,1.162153482437133789e+00,1.162084221839904785e+00,1.162014842033386230e+00,1.161945581436157227e+00,1.161876320838928223e+00,1.161807060241699219e+00,1.161737799644470215e+00,1.161668539047241211e+00,1.161599278450012207e+00,1.161530017852783203e+00,1.161460757255554199e+00,1.161391615867614746e+00,1.161322355270385742e+00,1.161253094673156738e+00,1.161183834075927734e+00,1.161114692687988281e+00,1.161045432090759277e+00,1.160976290702819824e+00,1.160907149314880371e+00,1.160838007926940918e+00,1.160768866539001465e+00,1.160699725151062012e+00,1.160630583763122559e+00,1.160561442375183105e+00,1.160492300987243652e+00,1.160423159599304199e+00,1.160354137420654297e+00,1.160284996032714844e+00,1.160215854644775391e+00,1.160146832466125488e+00,1.160077691078186035e+00,1.160008549690246582e+00,1.159939527511596680e+00,1.159870505332946777e+00,1.159801483154296875e+00,1.159732460975646973e+00,1.159663438796997070e+00,1.159594416618347168e+00,1.159525394439697266e+00,1.159456372261047363e+00,1.159387469291687012e+00,1.159318447113037109e+00,1.159249424934387207e+00,1.159180521965026855e+00,1.159111499786376953e+00,1.159042596817016602e+00,1.158973693847656250e+00,1.158904671669006348e+00,1.158835768699645996e+00,1.158766865730285645e+00,1.158697843551635742e+00,1.158629059791564941e+00,1.158560156822204590e+00,1.158491253852844238e+00,1.158422350883483887e+00,1.158353567123413086e+00,1.158284664154052734e+00,1.158215880393981934e+00,1.158146977424621582e+00,1.158078193664550781e+00,1.158009290695190430e+00,1.157940506935119629e+00,1.157871723175048828e+00,1.157802939414978027e+00,1.157734155654907227e+00,1.157665252685546875e+00,1.157596468925476074e+00,1.157527685165405273e+00,1.157459020614624023e+00,1.157390236854553223e+00,1.157321453094482422e+00,1.157252788543701172e+00,1.157184004783630371e+00,1.157115340232849121e+00,1.157046556472778320e+00,1.156977891921997070e+00,1.156909227371215820e+00
1.087110638618469238e+00,1.087050080299377441e+00,1.086989402770996094e+00,1.086928725242614746e+00,1.086868166923522949e+00,1.086807489395141602e+00,1.086746931076049805e+00,1.086686253547668457e+00,1.086625695228576660e+00,1.086565136909484863e+00,1.086504578590393066e+00,1.086443901062011719e+00,1.086383342742919922e+00,1.086322784423828125e+00,1.086262226104736328e+00,1.086201667785644531e+00,1.086141109466552734e+00,1.086080551147460938e+00,1.086019992828369141e+00,1.085959434509277344e+00,1.085898995399475098e+00,1.085838437080383301e+00,1.085777997970581055e+00,1.085717439651489258e+00,1.085657000541687012e+00,1.085596442222595215e+00,1.085536003112792969e+00,1.085475564002990723e+00,1.085415005683898926e+00,1.085354566574096680e+00,1.085294127464294434e+00,1.085233688354492188e+00,1.085173249244689941e+00,1.085112810134887695e+00,1.085052371025085449e+00,1.084991931915283203e+00,1.084931492805480957e+00,1.084871172904968262e+00,1.084810733795166016e+00,1.084750413894653320e+00,1.084689974784851074e+00,1.084629535675048828e+00,1.084569215774536133e+00,1.084508895874023438e+00,1.084448456764221191e+00,1.084388136863708496e+00,1.084327697753906250e+00,1.084267377853393555e+00,1.084207057952880859e+00,1.084146738052368164e+00,1.084086418151855469e+00,1.084026098251342773e+00,1.083965778350830078e+00,1.083905577659606934e+00,1.083845257759094238e+00,1.083784937858581543e+00,1.083724617958068848e+00,1.083664417266845703e+00,1.083604097366333008e+00,1.083543896675109863e+00,1.083483576774597168e+00,1.083423376083374023e+00,1.083363175392150879e+00,1.083302855491638184e+00,1.083242654800415039e+00,1.083182454109191895e+00,1.083122253417968750e+00,1.083062052726745605e+00,1.083001852035522461e+00,1.082941651344299316e+00,1.082881450653076172e+00,1.082821249961853027e+00,1.082761049270629883e+00,1.082700967788696289e+00,1.082640767097473145e+00,1.082580566406250000e+00,1.082520484924316406e+00,1.082460284233093262e+00,1.082400202751159668e+00,1.082340121269226074e+00
1.021010875701904297e+00,1.020957350730895996e+00,1.020903944969177246e+00,1.020850419998168945e+00,1.020796895027160645e+00,1.020743489265441895e+00,1.020689964294433594e+00,1.020636439323425293e+00,1.020583033561706543e+00,1.020529508590698242e+00,1.020476102828979492e+00,1.020422697067260742e+00,1.020369291305541992e+00,1.020315766334533691e+00,1.020262360572814941e+00,1.020208954811096191e+00,1.020155549049377441e+00,1.020102143287658691e+00,1.020048737525939941e+00,1.019995331764221191e+00,1.019941926002502441e+00,1.019888639450073242e+00,1.019835233688354492e+00,1.019781827926635742e+00,1.019728422164916992e+00,1.019675016403198242e+00,1.019621729850769043e+00,1.019568324089050293e+00,1.019515037536621094e+00,1.019461631774902344e+00,1.019408345222473145e+00,1.019354939460754395e+00,1.019301652908325195e+00,1.019248366355895996e+00,1.019195079803466797e+00,1.019141793251037598e+00,1.019088387489318848e+00,1.019035100936889648e+00,1.018981814384460449e+00,1.018928527832031250e+00,1.018875241279602051e+00,1.018821954727172852e+00,1.018768668174743652e+00,1.018715381622314453e+00,1.018662214279174805e+00,1.018608927726745605e+00,1.018555641174316406e+00,1.018502473831176758e+00,1.018449187278747559e+00,1.018396019935607910e+00,1.018342733383178711e+00,1.018289566040039062e+00,1.018236279487609863e+00,1.018183112144470215e+00,1.018129944801330566e+00,1.018076777458190918e+00,1.018023490905761719e+00,1.017970323562622070e+00,1.017917156219482422e+00,1.017863988876342773e+00,1.017810821533203125e+00,1.017757654190063477e+00,1.017704486846923828e+00,1.017651319503784180e+00,1.017598152160644531e+00,1.017544984817504883e+00,1.017491936683654785e+00,1.017438769340515137e+00,1.017385601997375488e+00,1.017332553863525391e+00,1.017279386520385742e+00,1.017226338386535645e+00,1.017173171043395996e+00,1.017120122909545898e+00,1.017067074775695801e+00,1.017013907432556152e+00,1.016960859298706055e+00,1.016907691955566406e+00,1.016854643821716309e+00,1.016801595687866211e+00
9.624885320663452148e-01,9.624409079551696777e-01,9.623934030532836914e-01,9.623458385467529297e-01,9.622983932495117188e-01,9.622507691383361816e-01,9.622033238410949707e-01,9.621557593345642090e-01,9.621083140373229980e-01,9.620607495307922363e-01,9.620133042335510254e-01,9.619657993316650391e-01,9.619183540344238281e-01,9.618707895278930664e-01,9.618234038352966309e-01,9.617758393287658691e-01,9.617284536361694336e-01,9.616809487342834473e-01,9.616334438323974609e-01,9.615859985351562500e-01,9.615384936332702637e-01,9.614911079406738281e-01,9.614436030387878418e-01,9.613962173461914062e-01,9.613487720489501953e-01,9.613013863563537598e-01,9.612539410591125488e-01,9.612065553665161133e-01,9.611591100692749023e-01,9.611117243766784668e-01,9.610642790794372559e-01,9.610169529914855957e-01,9.609695076942443848e-01,9.609221220016479492e-01,9.608747363090515137e-01,9.608272910118103027e-01,9.607799649238586426e-01,9.607325196266174316e-01,9.606851935386657715e-01,9.606378078460693359e-01,9.605904817581176758e-01,9.605430960655212402e-01,9.604957699775695801e-01,9.604483842849731445e-01,9.604011178016662598e-01,9.603537321090698242e-01,9.603064656257629395e-01,9.602590799331665039e-01,9.602118134498596191e-01,9.601644277572631836e-01,9.601171612739562988e-01,9.600698351860046387e-01,9.600224494934082031e-01,9.599752426147460938e-01,9.599278569221496582e-01,9.598806500434875488e-01,9.598333239555358887e-01,9.597861170768737793e-01,9.597387909889221191e-01,9.596915245056152344e-01,9.596442580223083496e-01,9.595970511436462402e-01,9.595497250556945801e-01,9.595025181770324707e-01,9.594551920890808105e-01,9.594080448150634766e-01,9.593607187271118164e-01,9.593135714530944824e-01,9.592663049697875977e-01,9.592190980911254883e-01,9.591718316078186035e-01,9.591245651245117188e-01,9.590774178504943848e-01,9.590301513671875000e-01,9.589830040931701660e-01,9.589357972145080566e-01,9.588886499404907227e-01,9.588413834571838379e-01,9.587942957878112793e-01,9.587470293045043945e-01
9.103112220764160156e-01,9.102686643600463867e-01,9.102261662483215332e-01,9.101836085319519043e-01,9.101411700248718262e-01,9.100986123085021973e-01,9.100561141967773438e-01,9.100135564804077148e-01,9.099711179733276367e-01,9.099285602569580078e-01,9.098861217498779297e-01,9.098436236381530762e-01,9.098010659217834473e-01,9.097586274147033691e-01,9.097161293029785156e-01,9.096736907958984375e-01,9.096311926841735840e-01,9.095888137817382812e-01,9.095462560653686523e-01,9.095038771629333496e-01,9.094613790512084961e-01,9.094190001487731934e-01,9.093765020370483398e-01,9.093341231346130371e-01,9.092916250228881836e-01,9.092492461204528809e-01,9.092067480087280273e-01,9.091643691062927246e-01,9.091219305992126465e-01,9.090795516967773438e-01,9.090371131896972656e-01,9.089946746826171875e-01,9.089522957801818848e-01,9.089098572731018066e-01,9.088674783706665039e-01,9.088250398635864258e-01,9.087827205657958984e-01,9.087402820587158203e-01,9.086979627609252930e-01,9.086555242538452148e-01,9.086132049560546875e-01,9.085708260536193848e-01,9.085285067558288574e-01,9.084860682487487793e-01,9.084438085556030273e-01,9.084013700485229492e-01,9.083591103553771973e-01,9.083166718482971191e-01,9.082742929458618164e-01,9.082320332527160645e-01,9.081896543502807617e-01,9.081473946571350098e-01,9.081050157546997070e-01,9.080626964569091797e-01,9.080203771591186523e-01,9.079781174659729004e-01,9.079357385635375977e-01,9.078934788703918457e-01,9.078511595726013184e-01,9.078088998794555664e-01,9.077665209770202637e-01,9.077243208885192871e-01,9.076820015907287598e-01,9.076397418975830078e-01,9.075974225997924805e-01,9.075551033020019531e-01,9.075129032135009766e-01,9.074705839157104492e-01,9.074283838272094727e-01,9.073860645294189453e-01,9.073438644409179688e-01,9.073015451431274414e-01,9.072593450546264648e-01,9.072170853614807129e-01,9.071748852729797363e-01,9.071326255798339844e-01,9.070904254913330078e-01,9.070481657981872559e-01,9.070059657096862793e-01,9.069637060165405273e-01
8.635001778602600098e-01,8.634618520736694336e-01,8.634236454963684082e-01,8.633853197097778320e-01,8.633471131324768066e-01,8.633088469505310059e-01,8.632706403732299805e-01,8.632323741912841797e-01,8.631940484046936035e-01,8.631559014320373535e-01,8.631175756454467773e-01,8.630794286727905273e-01,8.630411624908447266e-01,8.630029559135437012e-01,8.629646897315979004e-01,8.629265427589416504e-01,8.628882765769958496e-01,8.628501296043395996e-01,8.628118634223937988e-01,8.627737164497375488e-01,8.627354502677917480e-01,8.626973032951354980e-01,8.626590371131896973e-01,8.626208901405334473e-01,8.625826835632324219e-01,8.625444769859313965e-01,8.625063300132751465e-01,8.624681234359741211e-01,8.624299764633178711e-01,8.623917698860168457e-01,8.623536229133605957e-01,8.623154163360595703e-01,8.622773289680480957e-01,8.622391223907470703e-01,8.622010350227355957e-01,8.621628284454345703e-01,8.621247410774230957e-01,8.620865345001220703e-01,8.620484471321105957e-01,8.620102405548095703e-01,8.619721531867980957e-01,8.619340062141418457e-01,8.618957996368408203e-01,8.618577718734741211e-01,8.618195652961730957e-01,8.617815375328063965e-01,8.617433309555053711e-01,8.617053031921386719e-01,8.616671562194824219e-01,8.616290688514709473e-01,8.615909218788146973e-01,8.615528941154479980e-01,8.615147471427917480e-01,8.614767193794250488e-01,8.614385724067687988e-01,8.614005446434020996e-01,8.613623976707458496e-01,8.613243699073791504e-01,8.612862825393676758e-01,8.612481355667114258e-01,8.612101674079895020e-01,8.611720204353332520e-01,8.611340522766113281e-01,8.610959053039550781e-01,8.610579371452331543e-01,8.610198497772216797e-01,8.609818220138549805e-01,8.609437346458435059e-01,8.609057664871215820e-01,8.608676791191101074e-01,8.608297109603881836e-01,8.607916235923767090e-01,8.607536554336547852e-01,8.607155680656433105e-01,8.606775999069213867e-01,8.606395125389099121e-01,8.606014847755432129e-01,8.605635166168212891e-01,8.605254888534545898e-01,8.604875206947326660e-01
8.212680220603942871e-01,8.212333321571350098e-01,8.211987018585205078e-01,8.211641311645507812e-01,8.211295008659362793e-01,8.210949301719665527e-01,8.210602998733520508e-01,8.210257291793823242e-01,8.209910988807678223e-01,8.209565281867980957e-01,8.209219574928283691e-01,8.208873867988586426e-01,8.208527565002441406e-01,8.208182454109191895e-01,8.207836151123046875e-01,8.207491040229797363e-01,8.207144737243652344e-01,8.206799626350402832e-01,8.206453323364257812e-01,8.206107616424560547e-01,8.205762505531311035e-01,8.205416202545166016e-01,8.205071091651916504e-01,8.204725384712219238e-01,8.204380273818969727e-01,8.204034566879272461e-01,8.203689455986022949e-01,8.203343749046325684e-01,8.202998638153076172e-01,8.202652931213378906e-01,8.202308416366577148e-01,8.201962709426879883e-01,8.201617598533630371e-01,8.201272487640380859e-01,8.200927376747131348e-01,8.200581669807434082e-01,8.200236558914184570e-01,8.199892044067382812e-01,8.199546337127685547e-01,8.199201822280883789e-01,8.198856115341186523e-01,8.198511600494384766e-01,8.198166489601135254e-01,8.197821974754333496e-01,8.197476863861083984e-01,8.197132349014282227e-01,8.196787238121032715e-01,8.196442723274230957e-01,8.196097612380981445e-01,8.195753097534179688e-01,8.195407986640930176e-01,8.195063471794128418e-01,8.194718956947326660e-01,8.194373846054077148e-01,8.194029331207275391e-01,8.193684220314025879e-01,8.193340301513671875e-01,8.192995190620422363e-01,8.192651271820068359e-01,8.192306756973266602e-01,8.191962838172912598e-01,8.191617727279663086e-01,8.191273808479309082e-01,8.190929293632507324e-01,8.190585374832153320e-01,8.190240263938903809e-01,8.189896941184997559e-01,8.189551830291748047e-01,8.189208507537841797e-01,8.188863992691040039e-01,8.188520073890686035e-01,8.188175559043884277e-01,8.187831044197082520e-01,8.187487125396728516e-01,8.187143206596374512e-01,8.186799287796020508e-01,8.186454772949218750e-01,8.186111450195312500e-01,8.185766935348510742e-01,8.185423612594604492e-01
7.829741835594177246e-01,7.829427123069763184e-01,7.829112410545349121e-01,7.828798294067382812e-01,7.828483581542968750e-01,7.828168869018554688e-01,7.827854156494140625e-01,7.827540040016174316e-01,7.827225327491760254e-01,7.826911211013793945e-01,7.826596498489379883e-01,7.826282382011413574e-01,7.825967669486999512e-01,7.825654149055480957e-01,7.825339436531066895e-01,7.825024724006652832e-01,7.824710607528686523e-01,7.824396491050720215e-01,7.824082374572753906e-01,7.823768258094787598e-01,7.823454141616821289e-01,7.823140025138854980e-01,7.822825908660888672e-01,7.822511792182922363e-01,7.822198271751403809e-01,7.821883559226989746e-01,7.821570038795471191e-01,7.821255922317504883e-01,7.820942401885986328e-01,7.820627689361572266e-01,7.820314168930053711e-01,7.820000052452087402e-01,7.819685935974121094e-01,7.819372415542602539e-01,7.819058299064636230e-01,7.818744778633117676e-01,7.818430662155151367e-01,7.818117737770080566e-01,7.817803621292114258e-01,7.817490100860595703e-01,7.817175984382629395e-01,7.816863059997558594e-01,7.816548943519592285e-01,7.816236019134521484e-01,7.815921902656555176e-01,7.815608978271484375e-01,7.815294861793518066e-01,7.814981937408447266e-01,7.814668416976928711e-01,7.814354300498962402e-01,7.814041376113891602e-01,7.813727855682373047e-01,7.813414931297302246e-01,7.813101410865783691e-01,7.812788486480712891e-01,7.812474370002746582e-01,7.812162041664123535e-01,7.811847925186157227e-01,7.811535596847534180e-01,7.811222076416015625e-01,7.810909152030944824e-01,7.810595631599426270e-01,7.810282707214355469e-01,7.809969782829284668e-01,7.809656858444213867e-01,7.809343338012695312e-01,7.809030413627624512e-01,7.808717489242553711e-01,7.808404564857482910e-01,7.808091640472412109e-01,7.807778716087341309e-01,7.807466387748718262e-01,7.807152867317199707e-01,7.806840538978576660e-01,7.806527614593505859e-01,7.806215286254882812e-01,7.805901765823364258e-01,7.805589437484741211e-01,7.805276513099670410e-01,7.804964184761047363e-01
7.480923533439636230e-01,7.480636835098266602e-01,7.480349540710449219e-01,7.480062246322631836e-01,7.479774951934814453e-01,7.479488253593444824e-01,7.479200959205627441e-01,7.478914260864257812e-01,7.478626966476440430e-01,7.478339672088623047e-01,7.478052973747253418e-01,7.477765679359436035e-01,7.477478981018066406e-01,7.477191686630249023e-01,7.476904988288879395e-01,7.476617693901062012e-01,7.476330995559692383e-01,7.476044297218322754e-01,7.475757598876953125e-01,7.475470304489135742e-01,7.475184202194213867e-01,7.474896907806396484e-01,7.474610209465026855e-01,7.474323511123657227e-01,7.474036812782287598e-01,7.473750114440917969e-01,7.473462820053100586e-01,7.473176717758178711e-01,7.472890019416809082e-01,7.472603917121887207e-01,7.472316622734069824e-01,7.472030520439147949e-01,7.471743822097778320e-01,7.471457719802856445e-01,7.471171021461486816e-01,7.470884323120117188e-01,7.470597624778747559e-01,7.470311522483825684e-01,7.470024824142456055e-01,7.469739317893981934e-01,7.469452619552612305e-01,7.469166517257690430e-01,7.468879818916320801e-01,7.468593120574951172e-01,7.468307018280029297e-01,7.468020915985107422e-01,7.467734813690185547e-01,7.467448115348815918e-01,7.467162609100341797e-01,7.466875910758972168e-01,7.466590404510498047e-01,7.466303706169128418e-01,7.466018199920654297e-01,7.465731501579284668e-01,7.465445995330810547e-01,7.465159296989440918e-01,7.464873790740966797e-01,7.464587688446044922e-01,7.464302182197570801e-01,7.464015483856201172e-01,7.463729381561279297e-01,7.463443875312805176e-01,7.463157773017883301e-01,7.462872266769409180e-01,7.462586164474487305e-01,7.462300658226013184e-01,7.462014555931091309e-01,7.461729049682617188e-01,7.461442947387695312e-01,7.461157441139221191e-01,7.460871934890747070e-01,7.460586428642272949e-01,7.460300326347351074e-01,7.460015416145324707e-01,7.459729313850402832e-01,7.459443807601928711e-01,7.459158301353454590e-01,7.458872199058532715e-01,7.458587288856506348e-01,7.458301186561584473e-01
7.161860466003417969e-01,7.161597013473510742e-01,7.161333560943603516e-01,7.161070108413696289e-01,7.160807251930236816e-01,7.160543799400329590e-01,7.160280942916870117e-01,7.160017490386962891e-01,7.159755229949951172e-01,7.159491777420043945e-01,7.159228920936584473e-01,7.158965468406677246e-01,7.158702611923217773e-01,7.158439755439758301e-01,7.158176898956298828e-01,7.157913446426391602e-01,7.157651185989379883e-01,7.157387733459472656e-01,7.157124876976013184e-01,7.156862020492553711e-01,7.156598567962646484e-01,7.156336307525634766e-01,7.156073451042175293e-01,7.155810594558715820e-01,7.155547738075256348e-01,7.155285477638244629e-01,7.155022025108337402e-01,7.154759764671325684e-01,7.154496908187866211e-01,7.154234647750854492e-01,7.153971195220947266e-01,7.153708934783935547e-01,7.153446078300476074e-01,7.153183817863464355e-01,7.152920961380004883e-01,7.152658700942993164e-01,7.152395844459533691e-01,7.152132987976074219e-01,7.151870727539062500e-01,7.151607871055603027e-01,7.151345610618591309e-01,7.151083350181579590e-01,7.150821089744567871e-01,7.150558233261108398e-01,7.150295972824096680e-01,7.150033712387084961e-01,7.149771451950073242e-01,7.149509191513061523e-01,7.149246931076049805e-01,7.148984074592590332e-01,7.148722410202026367e-01,7.148459553718566895e-01,7.148197889328002930e-01,7.147935032844543457e-01,7.147672772407531738e-01,7.147411108016967773e-01,7.147148251533508301e-01,7.146886587142944336e-01,7.146624326705932617e-01,7.146362662315368652e-01,7.146099805831909180e-01,7.145838141441345215e-01,7.145575881004333496e-01,7.145314216613769531e-01,7.145051956176757812e-01,7.144790291786193848e-01,7.144528031349182129e-01,7.144266366958618164e-01,7.144004106521606445e-01,7.143742442131042480e-01,7.143480181694030762e-01,7.143218517303466797e-01,7.142956852912902832e-01,7.142694592475891113e-01,7.142432928085327148e-01,7.142170667648315430e-01,7.141909599304199219e-01,7.141647338867187500e-01,7.141385674476623535e-01,7.141124010086059570e-01
6.868900060653686523e-01,6.868657469749450684e-01,6.868415474891662598e-01,6.868172883987426758e-01,6.867931485176086426e-01,6.867688894271850586e-01,6.867447495460510254e-01,6.867204904556274414e-01,6.866963505744934082e-01,6.866720914840698242e-01,6.866479516029357910e-01,6.866236925125122070e-01,6.865995526313781738e-01,6.865752935409545898e-01,6.865510940551757812e-01,6.865269541740417480e-01,6.865026950836181641e-01,6.864785552024841309e-01,6.864543557167053223e-01,6.864302158355712891e-01,6.864060163497924805e-01,6.863818168640136719e-01,6.863576173782348633e-01,6.863334774971008301e-01,6.863092780113220215e-01,6.862851381301879883e-01,6.862609386444091797e-01,6.862367987632751465e-01,6.862125992774963379e-01,6.861884593963623047e-01,6.861642599105834961e-01,6.861401200294494629e-01,6.861159801483154297e-01,6.860917806625366211e-01,6.860676407814025879e-01,6.860434412956237793e-01,6.860193610191345215e-01,6.859951615333557129e-01,6.859710216522216797e-01,6.859468817710876465e-01,6.859227418899536133e-01,6.858985424041748047e-01,6.858744621276855469e-01,6.858502626419067383e-01,6.858261823654174805e-01,6.858019828796386719e-01,6.857779026031494141e-01,6.857537627220153809e-01,6.857296228408813477e-01,6.857054829597473145e-01,6.856813430786132812e-01,6.856572031974792480e-01,6.856330633163452148e-01,6.856089830398559570e-01,6.855848431587219238e-01,6.855607032775878906e-01,6.855365633964538574e-01,6.855124831199645996e-01,6.854883432388305664e-01,6.854642629623413086e-01,6.854401230812072754e-01,6.854160428047180176e-01,6.853919029235839844e-01,6.853678226470947266e-01,6.853436827659606934e-01,6.853196024894714355e-01,6.852954626083374023e-01,6.852713823318481445e-01,6.852473020553588867e-01,6.852231621742248535e-01,6.851990818977355957e-01,6.851749420166015625e-01,6.851509213447570801e-01,6.851267814636230469e-01,6.851027011871337891e-01,6.850786209106445312e-01,6.850545406341552734e-01,6.850304603576660156e-01,6.850063800811767578e-01,6.849822998046875000e-01
6.598964929580688477e-01,6.598741412162780762e-01,6.598517894744873047e-01,6.598294377326965332e-01,6.598070859909057617e-01,6.597847342491149902e-01,6.597624421119689941e-01,6.597400903701782227e-01,6.597177386283874512e-01,6.596953868865966797e-01,6.596730351448059082e-01,6.596507430076599121e-01,6.596283912658691406e-01,6.596060991287231445e-01,6.595837473869323730e-01,6.595613956451416016e-01,6.595390439033508301e-01,6.595167517662048340e-01,6.594944000244140625e-01,6.594721078872680664e-01,6.594498157501220703e-01,6.594275236129760742e-01,6.594051718711853027e-01,6.593828797340393066e-01,6.593605279922485352e-01,6.593382358551025391e-01,6.593159437179565430e-01,6.592935919761657715e-01,6.592712998390197754e-01,6.592489480972290039e-01,6.592267155647277832e-01,6.592043638229370117e-01,6.591820716857910156e-01,6.591597795486450195e-01,6.591374874114990234e-01,6.591151952743530273e-01,6.590929031372070312e-01,6.590706110000610352e-01,6.590483188629150391e-01,6.590260267257690430e-01,6.590037345886230469e-01,6.589814424514770508e-01,6.589591503143310547e-01,6.589368581771850586e-01,6.589145660400390625e-01,6.588922739028930664e-01,6.588699817657470703e-01,6.588477492332458496e-01,6.588254570960998535e-01,6.588031649589538574e-01,6.587808728218078613e-01,6.587586402893066406e-01,6.587363481521606445e-01,6.587141156196594238e-01,6.586918234825134277e-01,6.586695909500122070e-01,6.586472988128662109e-01,6.586250662803649902e-01,6.586027741432189941e-01,6.585805416107177734e-01,6.585582494735717773e-01,6.585359573364257812e-01,6.585137248039245605e-01,6.584914326667785645e-01,6.584692001342773438e-01,6.584469676017761230e-01,6.584247350692749023e-01,6.584024429321289062e-01,6.583802103996276855e-01,6.583579778671264648e-01,6.583357453346252441e-01,6.583134531974792480e-01,6.582912802696228027e-01,6.582689881324768066e-01,6.582468152046203613e-01,6.582245230674743652e-01,6.582022905349731445e-01,6.581800580024719238e-01,6.581578254699707031e-01,6.581355929374694824e-01
