5.000000000000000000e+00,5.000000000000000000e+00,5.000000000000000000e+00,5.000000000000000000e+00,5.000000000000000000e+00,5.000000000000000000e+00,5.000000000000000000e+00,5.000000000000000000e+00,5.000000000000000000e+00,5.000000000000000000e+00,5.000000000000000000e+00,5.000000000000000000e+00,5.000000000000000000e+00,5.000000000000000000e+00,5.000000000000000000e+00,5.000000000000000000e+00,5.000000000000000000e+00,5.000000000000000000e+00,5.000000000000000000e+00,5.000000000000000000e+00,5.000000000000000000e+00,5.000000000000000000e+00,5.000000000000000000e+00,5.000000000000000000e+00,5.000000000000000000e+00,5.000000000000000000e+00,5.000000000000000000e+00,5.000000000000000000e+00,5.000000000000000000e+00,5.000000000000000000e+00,5.000000000000000000e+00,5.000000000000000000e+00,5.000000000000000000e+00,5.000000000000000000e+00,5.000000000000000000e+00,5.000000000000000000e+00,5.000000000000000000e+00,5.000000000000000000e+00,5.000000000000000000e+00,4.862596988677978516e+00,4.671592712402343750e+00,4.495026588439941406e+00,4.331321239471435547e+00,4.179120540618896484e+00,4.037253856658935547e+00,3.904702425003051758e+00,3.780578374862670898e+00,3.664102315902709961e+00,3.554589033126831055e+00,3.451431989669799805e+00,3.354093551635742188e+00,3.262094736099243164e+00,1.105907917022705078e+00,1.078592538833618164e+00,1.053770542144775391e+00,2.939578294754028320e+00,2.868673324584960938e+00,2.801108360290527344e+00,1.086015820503234863e+00,1.061215281486511230e+00,1.039213657379150391e+00,1.021363854408264160e+00,1.003130197525024414e+00,9.917305111885070801e-01,9.849658012390136719e-01,9.812586307525634766e-01,9.782788157463073730e-01,1.011100172996520996e+00,1.073673129081726074e+00,1.073578357696533203e+00,1.073483705520629883e+00,1.073388934135437012e+00,2.069850683212280273e+00,2.034443140029907227e+00,2.000226736068725586e+00,1.967142105102539062e+00,1.935134291648864746e+00,1.904151320457458496e+00,1.874144911766052246e+00,1.845069408416748047e+00
5.000000000000000000e+00,5.000000000000000000e+00,5.000000000000000000e+00,5.000000000000000000e+00,5.000000000000000000e+00,5.000000000000000000e+00,5.000000000000000000e+00,5.000000000000000000e+00,5.000000000000000000e+00,5.000000000000000000e+00,5.000000000000000000e+00,5.000000000000000000e+00,5.000000000000000000e+00,5.000000000000000000e+00,5.000000000000000000e+00,5.000000000000000000e+00,5.000000000000000000e+00,5.000000000000000000e+00,5.000000000000000000e+00,5.000000000000000000e+00,5.000000000000000000e+00,5.000000000000000000e+00,5.000000000000000000e+00,5.000000000000000000e+00,5.000000000000000000e+00,5.000000000000000000e+00,5.000000000000000000e+00,5.000000000000000000e+00,5.000000000000000000e+00,5.000000000000000000e+00,5.000000000000000000e+00,5.000000000000000000e+00,5.000000000000000000e+00,5.000000000000000000e+00,5.000000000000000000e+00,5.000000000000000000e+00,5.000000000000000000e+00,5.000000000000000000e+00,5.000000000000000000e+00,4.862736225128173828e+00,4.671721458435058594e+00,4.495145320892333984e+00,4.331431388854980469e+00,4.179223537445068359e+00,4.037349700927734375e+00,3.904792547225952148e+00,3.780662298202514648e+00,3.664181232452392578e+00,3.554663181304931641e+00,3.451501846313476562e+00,3.354159593582153320e+00,3.262157201766967773e+00,1.101549267768859863e+00,1.072797179222106934e+00,3.014130592346191406e+00,2.939629077911376953e+00,2.868721723556518555e+00,2.801154375076293945e+00,1.091907739639282227e+00,1.067974925041198730e+00,1.043982386589050293e+00,1.025505542755126953e+00,1.007231235504150391e+00,9.920572638511657715e-01,9.852880835533142090e-01,9.786267876625061035e-01,9.756628870964050293e-01,1.001138806343078613e+00,1.072592854499816895e+00,1.073826313018798828e+00,1.073731422424316406e+00,1.073636770248413086e+00,2.069875717163085938e+00,2.034467458724975586e+00,2.000250339508056641e+00,1.967164993286132812e+00,1.935156464576721191e+00,1.904172658920288086e+00,1.874165415763854980e+00,1.845089435577392578e+00
5.000000000000000000e+00,5.000000000000000000e+00,5.000000000000000000e+00,5.000000000000000000e+00,5.000000000000000000e+00,5.000000000000000000e+00,5.000000000000000000e+00,5.000000000000000000e+00,5.000000000000000000e+00,5.000000000000000000e+00,5.000000000000000000e+00,5.000000000000000000e+00,5.000000000000000000e+00,5.000000000000000000e+00,5.000000000000000000e+00,5.000000000000000000e+00,5.000000000000000000e+00,5.000000000000000000e+00,5.000000000000000000e+00,5.000000000000000000e+00,5.000000000000000000e+00,5.000000000000000000e+00,5.000000000000000000e+00,5.000000000000000000e+00,5.000000000000000000e+00,5.000000000000000000e+00,5.000000000000000000e+00,5.000000000000000000e+00,5.000000000000000000e+00,5.000000000000000000e+00,5.000000000000000000e+00,5.000000000000000000e+00,5.000000000000000000e+00,5.000000000000000000e+00,5.000000000000000000e+00,5.000000000000000000e+00,5.000000000000000000e+00,5.000000000000000000e+00,5.000000000000000000e+00,4.862874984741210938e+00,4.671849250793457031e+00,4.495264530181884766e+00,4.331542015075683594e+00,4.179326534271240234e+00,4.037445545196533203e+00,3.904881954193115234e+00,3.780746698379516602e+00,3.664260387420654297e+00,3.554737806320190430e+00,3.451572179794311523e+00,3.354225635528564453e+00,3.262219667434692383e+00,1.101822376251220703e+00,3.092562675476074219e+00,3.014183998107910156e+00,2.939679861068725586e+00,2.868770122528076172e+00,2.801200628280639648e+00,2.736741065979003906e+00,1.074034571647644043e+00,1.050523638725280762e+00,1.029680848121643066e+00,1.011366009712219238e+00,9.927790760993957520e-01,9.856107234954833984e-01,9.789289832115173340e-01,9.730609655380249023e-01,9.913718700408935547e-01,1.070997238159179688e+00,1.073886156082153320e+00,1.073979496955871582e+00,1.073884606361389160e+00,2.069900989532470703e+00,2.034491777420043945e+00,2.000273704528808594e+00,1.967187881469726562e+00,1.935178279876708984e+00,1.904194116592407227e+00,1.874186158180236816e+00,1.845109581947326660e+00
5.000000000000000000e+00,5.000000000000000000e+00,5.000000000000000000e+00,5.000000000000000000e+00,5.000000000000000000e+00,5.000000000000000000e+00,5.000000000000000000e+00,5.000000000000000000e+00,5.000000000000000000e+00,5.000000000000000000e+00,5.000000000000000000e+00,5.000000000000000000e+00,5.000000000000000000e+00,5.000000000000000000e+00,5.000000000000000000e+00,5.000000000000000000e+00,5.000000000000000000e+00,5.000000000000000000e+00,5.000000000000000000e+00,5.000000000000000000e+00,5.000000000000000000e+00,5.000000000000000000e+00,5.000000000000000000e+00,5.000000000000000000e+00,5.000000000000000000e+00,5.000000000000000000e+00,5.000000000000000000e+00,5.000000000000000000e+00,5.000000000000000000e+00,5.000000000000000000e+00,5.000000000000000000e+00,5.000000000000000000e+00,5.000000000000000000e+00,5.000000000000000000e+00,5.000000000000000000e+00,5.000000000000000000e+00,5.000000000000000000e+00,5.000000000000000000e+00,5.000000000000000000e+00,4.863014221191406250e+00,4.671977996826171875e+00,4.495383262634277344e+00,4.331652641296386719e+00,4.179429054260253906e+00,4.037541389465332031e+00,3.904971599578857422e+00,3.780830383300781250e+00,3.664339303970336914e+00,3.554811954498291016e+00,3.451642274856567383e+00,3.354291915893554688e+00,3.262282609939575195e+00,3.175185918807983398e+00,3.092619180679321289e+00,3.014237165451049805e+00,2.939730644226074219e+00,2.868818521499633789e+00,2.801246881484985352e+00,2.736784934997558594e+00,1.078500509262084961e+00,1.056737184524536133e+00,1.033890366554260254e+00,1.015534877777099609e+00,9.967957139015197754e-01,9.859334826469421387e-01,9.792473316192626953e-01,9.725413322448730469e-01,9.819726347923278809e-01,1.007664322853088379e+00,1.072286725044250488e+00,1.074227452278137207e+00,1.074132680892944336e+00,2.069926261901855469e+00,2.034516334533691406e+00,2.000297307968139648e+00,1.967210412025451660e+00,1.935200452804565430e+00,1.904215216636657715e+00,1.874206900596618652e+00,1.845129370689392090e+00
5.000000000000000000e+00,5.000000000000000000e+00,5.000000000000000000e+00,5.000000000000000000e+00,5.000000000000000000e+00,5.000000000000000000e+00,5.000000000000000000e+00,5.000000000000000000e+00,5.000000000000000000e+00,5.000000000000000000e+00,5.000000000000000000e+00,5.000000000000000000e+00,5.000000000000000000e+00,5.000000000000000000e+00,5.000000000000000000e+00,5.000000000000000000e+00,5.000000000000000000e+00,5.000000000000000000e+00,5.000000000000000000e+00,5.000000000000000000e+00,5.000000000000000000e+00,5.000000000000000000e+00,5.000000000000000000e+00,5.000000000000000000e+00,5.000000000000000000e+00,5.000000000000000000e+00,5.000000000000000000e+00,5.000000000000000000e+00,5.000000000000000000e+00,5.000000000000000000e+00,5.000000000000000000e+00,5.000000000000000000e+00,5.000000000000000000e+00,5.000000000000000000e+00,5.000000000000000000e+00,5.000000000000000000e+00,5.000000000000000000e+00,5.000000000000000000e+00,5.000000000000000000e+00,4.863153457641601562e+00,4.672106266021728516e+00,4.495501995086669922e+00,4.331762790679931641e+00,4.179531574249267578e+00,4.037637233734130859e+00,3.905061483383178711e+00,3.780914783477783203e+00,3.664418220520019531e+00,3.554886102676391602e+00,3.451712131500244141e+00,3.354357957839965820e+00,3.262345075607299805e+00,3.175245285034179688e+00,3.092675209045410156e+00,3.014290809631347656e+00,2.939781665802001953e+00,2.868866920471191406e+00,2.801292896270751953e+00,2.736829042434692383e+00,1.083003759384155273e+00,1.061060070991516113e+00,1.039988040924072266e+00,1.019738078117370605e+00,1.000938177108764648e+00,9.867715239524841309e-01,9.786993265151977539e-01,9.719187021255493164e-01,9.795700311660766602e-01,1.001296043395996094e+00,1.070691943168640137e+00,1.073579192161560059e+00,1.074380874633789062e+00,2.069951295852661133e+00,2.034540653228759766e+00,2.000320911407470703e+00,1.967233300209045410e+00,1.935222506523132324e+00,1.904236674308776855e+00,1.874227643013000488e+00,1.845149517059326172e+00
5.000000000000000000e+00,5.000000000000000000e+00,5.000000000000000000e+00,5.000000000000000000e+00,5.000000000000000000e+00,5.000000000000000000e+00,5.000000000000000000e+00,5.000000000000000000e+00,5.000000000000000000e+00,5.000000000000000000e+00,5.000000000000000000e+00,5.000000000000000000e+00,5.000000000000000000e+00,5.000000000000000000e+00,5.000000000000000000e+00,5.000000000000000000e+00,5.000000000000000000e+00,5.000000000000000000e+00,5.000000000000000000e+00,5.000000000000000000e+00,5.000000000000000000e+00,5.000000000000000000e+00,5.000000000000000000e+00,5.000000000000000000e+00,5.000000000000000000e+00,5.000000000000000000e+00,5.000000000000000000e+00,5.000000000000000000e+00,5.000000000000000000e+00,5.000000000000000000e+00,5.000000000000000000e+00,5.000000000000000000e+00,5.000000000000000000e+00,5.000000000000000000e+00,5.000000000000000000e+00,5.000000000000000000e+00,5.000000000000000000e+00,5.000000000000000000e+00,5.000000000000000000e+00,4.863292217254638672e+00,4.672234535217285156e+00,4.495620727539062500e+00,4.331872940063476562e+00,4.179634571075439453e+00,4.037733078002929688e+00,3.905151128768920898e+00,3.780998706817626953e+00,3.664497375488281250e+00,3.554960727691650391e+00,3.451782464981079102e+00,3.354423999786376953e+00,3.262407541275024414e+00,3.175304412841796875e+00,3.092731475830078125e+00,3.014344215393066406e+00,2.939832448959350586e+00,2.868915319442749023e+00,2.801339149475097656e+00,2.736873149871826172e+00,2.675307512283325195e+00,1.065418601036071777e+00,1.044174790382385254e+00,1.024166584014892578e+00,1.005513906478881836e+00,9.894484281539916992e-01,9.809943437576293945e-01,9.726961851119995117e-01,9.771430492401123047e-01,9.960091114044189453e-01,1.069101929664611816e+00,1.071980595588684082e+00,1.074629068374633789e+00,2.069976568222045898e+00,2.034564971923828125e+00,2.000344276428222656e+00,1.967256069183349609e+00,1.935244441032409668e+00,1.904258012771606445e+00,1.874248147010803223e+00,1.845169544219970703e+00
5.000000000000000000e+00,5.000000000000000000e+00,5.000000000000000000e+00,5.000000000000000000e+00,5.000000000000000000e+00,5.000000000000000000e+00,5.000000000000000000e+00,5.000000000000000000e+00,5.000000000000000000e+00,5.000000000000000000e+00,5.000000000000000000e+00,5.000000000000000000e+00,5.000000000000000000e+00,5.000000000000000000e+00,5.000000000000000000e+00,5.000000000000000000e+00,5.000000000000000000e+00,5.000000000000000000e+00,5.000000000000000000e+00,5.000000000000000000e+00,5.000000000000000000e+00,5.000000000000000000e+00,5.000000000000000000e+00,5.000000000000000000e+00,5.000000000000000000e+00,5.000000000000000000e+00,5.000000000000000000e+00,5.000000000000000000e+00,5.000000000000000000e+00,5.000000000000000000e+00,5.000000000000000000e+00,5.000000000000000000e+00,5.000000000000000000e+00,5.000000000000000000e+00,5.000000000000000000e+00,5.000000000000000000e+00,5.000000000000000000e+00,5.000000000000000000e+00,5.000000000000000000e+00,4.863431453704833984e+00,4.672362804412841797e+00,4.495739936828613281e+00,4.331983566284179688e+00,4.179737091064453125e+00,4.037828922271728516e+00,3.905240535736083984e+00,3.781082630157470703e+00,3.664576292037963867e+00,3.555034875869750977e+00,3.451852321624755859e+00,3.354490518569946289e+00,3.262470245361328125e+00,3.175363779067993164e+00,3.092787981033325195e+00,3.014397621154785156e+00,2.939883232116699219e+00,2.868963718414306641e+00,2.801385164260864258e+00,2.736917018890380859e+00,2.675349712371826172e+00,1.070533156394958496e+00,1.049219012260437012e+00,1.028895854949951172e+00,1.009131312370300293e+00,9.930319786071777344e-01,9.839544296264648438e-01,9.756921529769897461e-01,9.856240153312683105e-01,1.006163716316223145e+00,1.067516565322875977e+00,1.070386767387390137e+00,1.073272228240966797e+00,2.070001840591430664e+00,2.034589290618896484e+00,2.000367879867553711e+00,1.967278718948364258e+00,1.935266494750976562e+00,1.904279232025146484e+00,1.874268889427185059e+00,1.845189452171325684e+00
5.000000000000000000e+00,5.000000000000000000e+00,5.000000000000000000e+00,5.000000000000000000e+00,5.000000000000000000e+00,5.000000000000000000e+00,5.000000000000000000e+00,5.000000000000000000e+00,5.000000000000000000e+00,5.000000000000000000e+00,5.000000000000000000e+00,5.000000000000000000e+00,5.000000000000000000e+00,5.000000000000000000e+00,5.000000000000000000e+00,5.000000000000000000e+00,5.000000000000000000e+00,5.000000000000000000e+00,5.000000000000000000e+00,5.000000000000000000e+00,5.000000000000000000e+00,5.000000000000000000e+00,5.000000000000000000e+00,5.000000000000000000e+00,5.000000000000000000e+00,5.000000000000000000e+00,5.000000000000000000e+00,5.000000000000000000e+00,5.000000000000000000e+00,5.000000000000000000e+00,5.000000000000000000e+00,5.000000000000000000e+00,5.000000000000000000e+00,5.000000000000000000e+00,5.000000000000000000e+00,5.000000000000000000e+00,5.000000000000000000e+00,5.000000000000000000e+00,5.000000000000000000e+00,4.863570690155029297e+00,4.672491550445556641e+00,4.495858669281005859e+00,4.332093715667724609e+00,4.179840087890625000e+00,4.037924766540527344e+00,3.905330657958984375e+00,3.781167030334472656e+00,3.664654970169067383e+00,3.555109024047851562e+00,3.451922416687011719e+00,3.354556560516357422e+00,3.262532711029052734e+00,3.175423145294189453e+00,3.092844009399414062e+00,3.014451265335083008e+00,2.939934253692626953e+00,2.869012117385864258e+00,2.801431417465209961e+00,2.736961126327514648e+00,2.675391674041748047e+00,1.074314475059509277e+00,1.050489187240600586e+00,1.028077244758605957e+00,1.010731339454650879e+00,9.977380037307739258e-01,9.887040257453918457e-01,9.798321723937988281e-01,9.969047904014587402e-01,1.075881123542785645e+00,1.069038867950439453e+00,1.072165966033935547e+00,1.075078248977661133e+00,2.070026874542236328e+00,2.034613609313964844e+00,2.000391483306884766e+00,1.967301487922668457e+00,1.935288548469543457e+00,1.904300689697265625e+00,1.874289512634277344e+00,1.845209598541259766e+00
5.000000000000000000e+00,5.000000000000000000e+00,5.000000000000000000e+00,5.000000000000000000e+00,5.000000000000000000e+00,5.000000000000000000e+00,5.000000000000000000e+00,5.000000000000000000e+00,5.000000000000000000e+00,5.000000000000000000e+00,5.000000000000000000e+00,5.000000000000000000e+00,5.000000000000000000e+00,5.000000000000000000e+00,5.000000000000000000e+00,5.000000000000000000e+00,5.000000000000000000e+00,5.000000000000000000e+00,5.000000000000000000e+00,5.000000000000000000e+00,5.000000000000000000e+00,5.000000000000000000e+00,5.000000000000000000e+00,5.000000000000000000e+00,5.000000000000000000e+00,5.000000000000000000e+00,5.000000000000000000e+00,5.000000000000000000e+00,5.000000000000000000e+00,5.000000000000000000e+00,5.000000000000000000e+00,5.000000000000000000e+00,5.000000000000000000e+00,5.000000000000000000e+00,5.000000000000000000e+00,5.000000000000000000e+00,5.000000000000000000e+00,5.000000000000000000e+00,5.000000000000000000e+00,4.863709926605224609e+00,4.672619819641113281e+00,4.495977401733398438e+00,4.332204341888427734e+00,4.179942607879638672e+00,4.038021087646484375e+00,3.905420064926147461e+00,3.781250953674316406e+00,3.664734363555908203e+00,3.555183649063110352e+00,3.451992750167846680e+00,3.354622602462768555e+00,3.262595415115356445e+00,3.175482273101806641e+00,3.092900276184082031e+00,3.014504432678222656e+00,2.939984798431396484e+00,2.869060516357421875e+00,2.801477670669555664e+00,2.737005233764648438e+00,2.675433874130249023e+00,1.073908567428588867e+00,1.048902630805969238e+00,1.028417944908142090e+00,1.012009978294372559e+00,1.004481673240661621e+00,9.953258037567138672e-01,9.894512295722961426e-01,1.010335087776184082e+00,1.078832507133483887e+00,1.073283195495605469e+00,1.076993942260742188e+00,1.080146670341491699e+00,2.070052146911621094e+00,2.034637928009033203e+00,2.000415086746215820e+00,1.967324376106262207e+00,1.935310482978820801e+00,1.904322028160095215e+00,1.874310135841369629e+00,1.845229625701904297e+00
5.000000000000000000e+00,5.000000000000000000e+00,5.000000000000000000e+00,5.000000000000000000e+00,5.000000000000000000e+00,5.000000000000000000e+00,5.000000000000000000e+00,5.000000000000000000e+00,5.000000000000000000e+00,5.000000000000000000e+00,5.000000000000000000e+00,5.000000000000000000e+00,5.000000000000000000e+00,5.000000000000000000e+00,5.000000000000000000e+00,5.000000000000000000e+00,5.000000000000000000e+00,5.000000000000000000e+00,5.000000000000000000e+00,5.000000000000000000e+00,5.000000000000000000e+00,5.000000000000000000e+00,5.000000000000000000e+00,5.000000000000000000e+00,5.000000000000000000e+00,5.000000000000000000e+00,5.000000000000000000e+00,5.000000000000000000e+00,5.000000000000000000e+00,5.000000000000000000e+00,5.000000000000000000e+00,5.000000000000000000e+00,5.000000000000000000e+00,5.000000000000000000e+00,5.000000000000000000e+00,5.000000000000000000e+00,5.000000000000000000e+00,5.000000000000000000e+00,5.000000000000000000e+00,4.863849163055419922e+00,4.672748088836669922e+00,4.496096611022949219e+00,4.332314491271972656e+00,4.180045604705810547e+00,4.038116455078125000e+00,3.905509710311889648e+00,3.781334877014160156e+00,3.664813041687011719e+00,3.555258035659790039e+00,3.452062606811523438e+00,3.354689121246337891e+00,3.262658119201660156e+00,3.175541877746582031e+00,3.092956542968750000e+00,3.014557838439941406e+00,2.940035581588745117e+00,2.869108915328979492e+00,2.801523685455322266e+00,2.737049341201782227e+00,2.675475835800170898e+00,1.071557402610778809e+00,1.046659588813781738e+00,1.028920769691467285e+00,1.015642642974853516e+00,1.011006832122802734e+00,1.002036809921264648e+00,1.002680063247680664e+00,1.095339775085449219e+00,1.082983255386352539e+00,1.078009843826293945e+00,1.081301689147949219e+00,1.085068345069885254e+00,2.070077419281005859e+00,2.034662246704101562e+00,2.000438690185546875e+00,1.967347025871276855e+00,1.935332536697387695e+00,1.904343247413635254e+00,1.874330878257751465e+00,1.845249533653259277e+00
5.000000000000000000e+00,5.000000000000000000e+00,5.000000000000000000e+00,5.000000000000000000e+00,5.000000000000000000e+00,5.000000000000000000e+00,5.000000000000000000e+00,5.000000000000000000e+00,5.000000000000000000e+00,5.000000000000000000e+00,5.000000000000000000e+00,5.000000000000000000e+00,5.000000000000000000e+00,5.000000000000000000e+00,5.000000000000000000e+00,5.000000000000000000e+00,5.000000000000000000e+00,5.000000000000000000e+00,5.000000000000000000e+00,5.000000000000000000e+00,5.000000000000000000e+00,5.000000000000000000e+00,5.000000000000000000e+00,5.000000000000000000e+00,5.000000000000000000e+00,5.000000000000000000e+00,5.000000000000000000e+00,5.000000000000000000e+00,5.000000000000000000e+00,5.000000000000000000e+00,5.000000000000000000e+00,5.000000000000000000e+00,5.000000000000000000e+00,5.000000000000000000e+00,5.000000000000000000e+00,5.000000000000000000e+00,5.000000000000000000e+00,5.000000000000000000e+00,5.000000000000000000e+00,4.863988399505615234e+00,4.672876834869384766e+00,4.496215343475341797e+00,4.332424640655517578e+00,4.180148124694824219e+00,4.038212776184082031e+00,3.905599594116210938e+00,3.781419277191162109e+00,3.664891958236694336e+00,3.555332183837890625e+00,3.452132701873779297e+00,3.354755163192749023e+00,3.262720584869384766e+00,3.175601005554199219e+00,3.093012809753417969e+00,3.014611482620239258e+00,2.940086603164672852e+00,2.869157552719116211e+00,2.801569700241088867e+00,2.737093210220336914e+00,2.675517797470092773e+00,1.069216489791870117e+00,1.046550631523132324e+00,1.031266093254089355e+00,1.020141839981079102e+00,1.016710519790649414e+00,1.008839011192321777e+00,1.016267538070678711e+00,1.101045846939086914e+00,1.090213418006896973e+00,1.092135310173034668e+00,1.094822883605957031e+00,2.106773376464843750e+00,2.070102453231811523e+00,2.034686565399169922e+00,2.000462055206298828e+00,1.967369794845581055e+00,1.935354709625244141e+00,1.904364585876464844e+00,1.874351501464843750e+00,1.845269680023193359e+00
5.000000000000000000e+00,5.000000000000000000e+00,5.000000000000000000e+00,5.000000000000000000e+00,5.000000000000000000e+00,5.000000000000000000e+00,5.000000000000000000e+00,5.000000000000000000e+00,5.000000000000000000e+00,5.000000000000000000e+00,5.000000000000000000e+00,5.000000000000000000e+00,5.000000000000000000e+00,5.000000000000000000e+00,5.000000000000000000e+00,5.000000000000000000e+00,5.000000000000000000e+00,5.000000000000000000e+00,5.000000000000000000e+00,5.000000000000000000e+00,5.000000000000000000e+00,5.000000000000000000e+00,5.000000000000000000e+00,5.000000000000000000e+00,5.000000000000000000e+00,5.000000000000000000e+00,5.000000000000000000e+00,5.000000000000000000e+00,5.000000000000000000e+00,5.000000000000000000e+00,5.000000000000000000e+00,5.000000000000000000e+00,5.000000000000000000e+00,5.000000000000000000e+00,5.000000000000000000e+00,5.000000000000000000e+00,5.000000000000000000e+00,5.000000000000000000e+00,5.000000000000000000e+00,4.864127635955810547e+00,4.673005104064941406e+00,4.496334075927734375e+00,4.332535266876220703e+00,4.180251121520996094e+00,4.038308620452880859e+00,3.905689239501953125e+00,3.781503200531005859e+00,3.664971351623535156e+00,3.555406808853149414e+00,3.452203035354614258e+00,3.354821205139160156e+00,3.262783050537109375e+00,3.175660133361816406e+00,3.093069076538085938e+00,3.014664888381958008e+00,2.940137386322021484e+00,2.869205713272094727e+00,2.801616191864013672e+00,2.737137556076049805e+00,1.102049231529235840e+00,1.066885828971862793e+00,1.047377824783325195e+00,1.035038471221923828e+00,1.025949239730834961e+00,1.022478818893432617e+00,1.015734195709228516e+00,1.047631859779357910e+00,1.112508535385131836e+00,1.109407424926757812e+00,1.108631134033203125e+00,1.109060764312744141e+00,2.106799602508544922e+00,2.070127725601196289e+00,2.034710884094238281e+00,2.000485658645629883e+00,1.967392683029174805e+00,1.935376524925231934e+00,1.904386043548583984e+00,1.874372124671936035e+00,1.845289707183837891e+00
5.000000000000000000e+00,5.000000000000000000e+00,5.000000000000000000e+00,5.000000000000000000e+00,5.000000000000000000e+00,5.000000000000000000e+00,5.000000000000000000e+00,5.000000000000000000e+00,5.000000000000000000e+00,5.000000000000000000e+00,5.000000000000000000e+00,5.000000000000000000e+00,5.000000000000000000e+00,5.000000000000000000e+00,5.000000000000000000e+00,5.000000000000000000e+00,5.000000000000000000e+00,5.000000000000000000e+00,5.000000000000000000e+00,5.000000000000000000e+00,5.000000000000000000e+00,5.000000000000000000e+00,5.000000000000000000e+00,5.000000000000000000e+00,5.000000000000000000e+00,5.000000000000000000e+00,5.000000000000000000e+00,5.000000000000000000e+00,5.000000000000000000e+00,5.000000000000000000e+00,5.000000000000000000e+00,5.000000000000000000e+00,5.000000000000000000e+00,5.000000000000000000e+00,5.000000000000000000e+00,5.000000000000000000e+00,5.000000000000000000e+00,5.000000000000000000e+00,5.000000000000000000e+00,4.864266395568847656e+00,4.673133373260498047e+00,4.496453285217285156e+00,4.332645893096923828e+00,4.180353641510009766e+00,4.038404464721679688e+00,3.905778646469116211e+00,3.781587362289428711e+00,3.665050029754638672e+00,3.555480957031250000e+00,3.452272891998291016e+00,3.354887723922729492e+00,3.262845993041992188e+00,3.175719738006591797e+00,3.093125343322753906e+00,3.014718294143676758e+00,2.940188169479370117e+00,2.869254112243652344e+00,2.801662206649780273e+00,2.737181425094604492e+00,1.099025964736938477e+00,1.065334200859069824e+00,1.051269292831420898e+00,1.038838744163513184e+00,1.031823158264160156e+00,1.028312921524047852e+00,1.022724270820617676e+00,1.147008180618286133e+00,1.140211462974548340e+00,1.139391422271728516e+00,2.184211969375610352e+00,2.144820928573608398e+00,2.106825590133666992e+00,2.070152997970581055e+00,2.034735441207885742e+00,2.000509262084960938e+00,1.967415213584899902e+00,1.935398697853088379e+00,1.904407262802124023e+00,1.874392747879028320e+00,1.845309615135192871e+00
5.000000000000000000e+00,5.000000000000000000e+00,5.000000000000000000e+00,5.000000000000000000e+00,5.000000000000000000e+00,5.000000000000000000e+00,5.000000000000000000e+00,5.000000000000000000e+00,5.000000000000000000e+00,5.000000000000000000e+00,5.000000000000000000e+00,5.000000000000000000e+00,5.000000000000000000e+00,5.000000000000000000e+00,5.000000000000000000e+00,5.000000000000000000e+00,5.000000000000000000e+00,5.000000000000000000e+00,5.000000000000000000e+00,5.000000000000000000e+00,5.000000000000000000e+00,5.000000000000000000e+00,5.000000000000000000e+00,5.000000000000000000e+00,5.000000000000000000e+00,5.000000000000000000e+00,5.000000000000000000e+00,5.000000000000000000e+00,5.000000000000000000e+00,5.000000000000000000e+00,5.000000000000000000e+00,5.000000000000000000e+00,5.000000000000000000e+00,5.000000000000000000e+00,5.000000000000000000e+00,5.000000000000000000e+00,5.000000000000000000e+00,5.000000000000000000e+00,5.000000000000000000e+00,4.864405632019042969e+00,4.673262119293212891e+00,4.496572017669677734e+00,4.332756042480468750e+00,4.180456638336181641e+00,4.038500308990478516e+00,3.905868768692016602e+00,3.781671524047851562e+00,3.665128946304321289e+00,3.555555105209350586e+00,3.452342748641967773e+00,3.354953765869140625e+00,3.262908458709716797e+00,3.175778865814208984e+00,3.093181610107421875e+00,3.014771938323974609e+00,2.940239191055297852e+00,2.869302749633789062e+00,2.801708459854125977e+00,2.737225532531738281e+00,1.096019268035888672e+00,1.068017244338989258e+00,1.055189847946166992e+00,1.042666912078857422e+00,1.037558436393737793e+00,1.033786058425903320e+00,1.041429042816162109e+00,1.172774910926818848e+00,1.171907305717468262e+00,2.225105762481689453e+00,2.184239864349365234e+00,2.144847869873046875e+00,2.106851816177368164e+00,2.070178031921386719e+00,2.034759759902954102e+00,2.000532627105712891e+00,1.967438101768493652e+00,1.935420751571655273e+00,1.904428601264953613e+00,1.874413490295410156e+00,1.845329761505126953e+00
5.000000000000000000e+00,5.000000000000000000e+00,5.000000000000000000e+00,5.000000000000000000e+00,5.000000000000000000e+00,5.000000000000000000e+00,5.000000000000000000e+00,5.000000000000000000e+00,5.000000000000000000e+00,5.000000000000000000e+00,5.000000000000000000e+00,5.000000000000000000e+00,5.000000000000000000e+00,5.000000000000000000e+00,5.000000000000000000e+00,5.000000000000000000e+00,5.000000000000000000e+00,5.000000000000000000e+00,5.000000000000000000e+00,5.000000000000000000e+00,5.000000000000000000e+00,5.000000000000000000e+00,5.000000000000000000e+00,5.000000000000000000e+00,5.000000000000000000e+00,5.000000000000000000e+00,5.000000000000000000e+00,5.000000000000000000e+00,5.000000000000000000e+00,5.000000000000000000e+00,5.000000000000000000e+00,5.000000000000000000e+00,5.000000000000000000e+00,5.000000000000000000e+00,5.000000000000000000e+00,5.000000000000000000e+00,5.000000000000000000e+00,5.000000000000000000e+00,5.000000000000000000e+00,4.864544868469238281e+00,4.673390388488769531e+00,4.496690750122070312e+00,4.332866668701171875e+00,4.180559635162353516e+00,4.038596153259277344e+00,3.905958414077758789e+00,3.781755685806274414e+00,3.665208339691162109e+00,3.555629730224609375e+00,3.452413082122802734e+00,3.355020046234130859e+00,3.262970924377441406e+00,3.175838232040405273e+00,3.093237876892089844e+00,3.014825105667114258e+00,2.940289974212646484e+00,2.869351148605346680e+00,2.801754474639892578e+00,2.737269639968872070e+00,1.101041913032531738e+00,1.071714639663696289e+00,1.058745384216308594e+00,1.046139240264892578e+00,1.039486050605773926e+00,1.035699725151062012e+00,1.044575691223144531e+00,2.311634778976440430e+00,2.267560243606567383e+00,2.225134849548339844e+00,2.184267997741699219e+00,2.144875049591064453e+00,2.106878042221069336e+00,2.070203304290771484e+00,2.034784078598022461e+00,2.000556230545043945e+00,1.967460989952087402e+00,1.935442686080932617e+00,1.904450058937072754e+00,1.874434113502502441e+00,1.845349788665771484e+00
5.000000000000000000e+00,5.000000000000000000e+00,5.000000000000000000e+00,5.000000000000000000e+00,5.000000000000000000e+00,5.000000000000000000e+00,5.000000000000000000e+00,5.000000000000000000e+00,5.000000000000000000e+00,5.000000000000000000e+00,5.000000000000000000e+00,5.000000000000000000e+00,5.000000000000000000e+00,5.000000000000000000e+00,5.000000000000000000e+00,5.000000000000000000e+00,5.000000000000000000e+00,5.000000000000000000e+00,5.000000000000000000e+00,5.000000000000000000e+00,5.000000000000000000e+00,5.000000000000000000e+00,5.000000000000000000e+00,5.000000000000000000e+00,5.000000000000000000e+00,5.000000000000000000e+00,5.000000000000000000e+00,5.000000000000000000e+00,5.000000000000000000e+00,5.000000000000000000e+00,5.000000000000000000e+00,5.000000000000000000e+00,5.000000000000000000e+00,5.000000000000000000e+00,5.000000000000000000e+00,5.000000000000000000e+00,5.000000000000000000e+00,5.000000000000000000e+00,5.000000000000000000e+00,4.864684104919433594e+00,4.673518657684326172e+00,4.496809959411621094e+00,4.332976818084716797e+00,4.180662155151367188e+00,4.038691997528076172e+00,3.906047821044921875e+00,3.781839609146118164e+00,3.665287017822265625e+00,3.555704116821289062e+00,3.452483177185058594e+00,3.355086326599121094e+00,3.263033866882324219e+00,3.175897598266601562e+00,3.093294143676757812e+00,3.014878511428833008e+00,2.940340757369995117e+00,2.869399309158325195e+00,2.801800727844238281e+00,1.345603942871093750e+00,1.107432484626770020e+00,1.075320959091186523e+00,1.062264919281005859e+00,1.049680948257446289e+00,1.041420817375183105e+00,1.037620425224304199e+00,1.047741413116455078e+00,2.311666250228881836e+00,2.267590522766113281e+00,2.225163936614990234e+00,2.184296131134033203e+00,2.144901990890502930e+00,2.106904029846191406e+00,2.070228576660156250e+00,2.034808397293090820e+00,2.000579833984375000e+00,1.967483758926391602e+00,1.935464739799499512e+00,1.904471158981323242e+00,1.874454736709594727e+00,1.845369696617126465e+00
5.000000000000000000e+00,5.000000000000000000e+00,5.000000000000000000e+00,5.000000000000000000e+00,5.000000000000000000e+00,5.000000000000000000e+00,5.000000000000000000e+00,5.000000000000000000e+00,5.000000000000000000e+00,5.000000000000000000e+00,5.000000000000000000e+00,5.000000000000000000e+00,5.000000000000000000e+00,5.000000000000000000e+00,5.000000000000000000e+00,5.000000000000000000e+00,5.000000000000000000e+00,5.000000000000000000e+00,5.000000000000000000e+00,5.000000000000000000e+00,5.000000000000000000e+00,5.000000000000000000e+00,5.000000000000000000e+00,5.000000000000000000e+00,5.000000000000000000e+00,5.000000000000000000e+00,5.000000000000000000e+00,5.000000000000000000e+00,5.000000000000000000e+00,5.000000000000000000e+00,5.000000000000000000e+00,5.000000000000000000e+00,5.000000000000000000e+00,5.000000000000000000e+00,5.000000000000000000e+00,5.000000000000000000e+00,5.000000000000000000e+00,5.000000000000000000e+00,5.000000000000000000e+00,4.864821910858154297e+00,4.673647403717041016e+00,4.496928691864013672e+00,4.333087444305419922e+00,4.180765151977539062e+00,4.038788318634033203e+00,3.906137943267822266e+00,3.781924009323120117e+00,3.665365934371948242e+00,3.555778264999389648e+00,3.452553033828735352e+00,3.355152368545532227e+00,3.263096332550048828e+00,3.175956964492797852e+00,3.093350410461425781e+00,3.014932155609130859e+00,2.940391778945922852e+00,2.869447946548461914e+00,1.395726203918457031e+00,1.333517789840698242e+00,1.113725304603576660e+00,1.078951716423034668e+00,1.065807819366455078e+00,1.053246617317199707e+00,1.043956995010375977e+00,1.039548277854919434e+00,1.050926208496093750e+00,2.311697721481323242e+00,2.267620801925659180e+00,2.225193023681640625e+00,2.184324026107788086e+00,2.144929170608520508e+00,2.106930017471313477e+00,2.070253849029541016e+00,2.034832715988159180e+00,2.000603199005126953e+00,1.967506408691406250e+00,1.935486793518066406e+00,1.904492616653442383e+00,1.874475479125976562e+00,1.845389842987060547e+00
5.000000000000000000e+00,5.000000000000000000e+00,5.000000000000000000e+00,5.000000000000000000e+00,5.000000000000000000e+00,5.000000000000000000e+00,5.000000000000000000e+00,5.000000000000000000e+00,5.000000000000000000e+00,5.000000000000000000e+00,5.000000000000000000e+00,5.000000000000000000e+00,5.000000000000000000e+00,5.000000000000000000e+00,5.000000000000000000e+00,5.000000000000000000e+00,5.000000000000000000e+00,5.000000000000000000e+00,5.000000000000000000e+00,5.000000000000000000e+00,5.000000000000000000e+00,5.000000000000000000e+00,5.000000000000000000e+00,5.000000000000000000e+00,5.000000000000000000e+00,5.000000000000000000e+00,5.000000000000000000e+00,5.000000000000000000e+00,5.000000000000000000e+00,5.000000000000000000e+00,5.000000000000000000e+00,5.000000000000000000e+00,5.000000000000000000e+00,5.000000000000000000e+00,5.000000000000000000e+00,5.000000000000000000e+00,5.000000000000000000e+00,5.000000000000000000e+00,5.000000000000000000e+00,4.864960670471191406e+00,4.673774719238281250e+00,4.497047424316406250e+00,4.333197593688964844e+00,4.180867671966552734e+00,4.038884162902832031e+00,3.906227588653564453e+00,3.782007932662963867e+00,3.665445327758789062e+00,3.555852890014648438e+00,3.452623605728149414e+00,3.355218648910522461e+00,3.263158798217773438e+00,3.176016092300415039e+00,3.093406677246093750e+00,3.014985561370849609e+00,2.940442323684692383e+00,2.869496345520019531e+00,1.379851937294006348e+00,1.339562296867370605e+00,1.117954492568969727e+00,1.082607150077819824e+00,1.069400548934936523e+00,1.056836485862731934e+00,1.046874165534973145e+00,1.041483283042907715e+00,1.054130554199218750e+00,2.311729192733764648e+00,2.267651081085205078e+00,2.225222349166870117e+00,2.184352159500122070e+00,2.144956350326538086e+00,2.106956243515014648e+00,2.070278882980346680e+00,2.034857034683227539e+00,2.000626802444458008e+00,1.967529296875000000e+00,1.935508728027343750e+00,1.904513955116271973e+00,1.874496102333068848e+00,1.845409870147705078e+00
5.000000000000000000e+00,5.000000000000000000e+00,5.000000000000000000e+00,5.000000000000000000e+00,5.000000000000000000e+00,5.000000000000000000e+00,5.000000000000000000e+00,5.000000000000000000e+00,5.000000000000000000e+00,5.000000000000000000e+00,5.000000000000000000e+00,5.000000000000000000e+00,5.000000000000000000e+00,5.000000000000000000e+00,5.000000000000000000e+00,5.000000000000000000e+00,5.000000000000000000e+00,5.000000000000000000e+00,5.000000000000000000e+00,5.000000000000000000e+00,5.000000000000000000e+00,5.000000000000000000e+00,5.000000000000000000e+00,5.000000000000000000e+00,5.000000000000000000e+00,5.000000000000000000e+00,5.000000000000000000e+00,5.000000000000000000e+00,5.000000000000000000e+00,5.000000000000000000e+00,5.000000000000000000e+00,5.000000000000000000e+00,5.000000000000000000e+00,5.000000000000000000e+00,5.000000000000000000e+00,5.000000000000000000e+00,5.000000000000000000e+00,5.000000000000000000e+00,5.000000000000000000e+00,4.865099906921386719e+00,4.673902988433837891e+00,4.497166633605957031e+00,4.333308219909667969e+00,4.180970668792724609e+00,4.038980007171630859e+00,3.906317234039306641e+00,3.782091856002807617e+00,3.665524244308471680e+00,3.555927038192749023e+00,3.452693462371826172e+00,3.355284929275512695e+00,3.263221740722656250e+00,3.176075696945190430e+00,3.093463182449340820e+00,3.015038967132568359e+00,2.940493106842041016e+00,1.434872627258300781e+00,1.375804781913757324e+00,1.349760651588439941e+00,1.122215867042541504e+00,1.086287379264831543e+00,1.073101639747619629e+00,1.060451030731201172e+00,1.049807667732238770e+00,1.043425559997558594e+00,1.056484937667846680e+00,2.311760425567626953e+00,2.267681121826171875e+00,2.225251436233520508e+00,2.184380292892456055e+00,2.144983291625976562e+00,2.106982231140136719e+00,2.070304155349731445e+00,2.034881591796875000e+00,2.000650405883789062e+00,1.967552065849304199e+00,1.935530781745910645e+00,1.904535174369812012e+00,1.874516725540161133e+00,1.845429778099060059e+00
5.000000000000000000e+00,5.000000000000000000e+00,5.000000000000000000e+00,5.000000000000000000e+00,5.000000000000000000e+00,5.000000000000000000e+00,5.000000000000000000e+00,5.000000000000000000e+00,5.000000000000000000e+00,5.000000000000000000e+00,5.000000000000000000e+00,5.000000000000000000e+00,5.000000000000000000e+00,5.000000000000000000e+00,5.000000000000000000e+00,5.000000000000000000e+00,5.000000000000000000e+00,5.000000000000000000e+00,5.000000000000000000e+00,5.000000000000000000e+00,5.000000000000000000e+00,5.000000000000000000e+00,5.000000000000000000e+00,5.000000000000000000e+00,5.000000000000000000e+00,5.000000000000000000e+00,5.000000000000000000e+00,5.000000000000000000e+00,5.000000000000000000e+00,5.000000000000000000e+00,5.000000000000000000e+00,5.000000000000000000e+00,5.000000000000000000e+00,5.000000000000000000e+00,5.000000000000000000e+00,5.000000000000000000e+00,5.000000000000000000e+00,5.000000000000000000e+00,5.000000000000000000e+00,4.865238189697265625e+00,4.674030780792236328e+00,4.497284412384033203e+00,4.333418369293212891e+00,4.181073188781738281e+00,4.039075851440429688e+00,3.906407117843627930e+00,3.782176256179809570e+00,3.665603160858154297e+00,3.556001424789428711e+00,3.452763557434082031e+00,3.355350971221923828e+00,3.263284206390380859e+00,3.176134824752807617e+00,3.093519210815429688e+00,3.015092611312866211e+00,2.940544128417968750e+00,1.415889024734497070e+00,1.386433959007263184e+00,1.359643936157226562e+00,1.126509904861450195e+00,1.089992642402648926e+00,1.076828360557556152e+00,1.064090371131896973e+00,1.052757740020751953e+00,1.046150922775268555e+00,1.058135032653808594e+00,2.311792135238647461e+00,2.267711639404296875e+00,2.225280523300170898e+00,2.184408187866210938e+00,2.145010232925415039e+00,2.107008218765258789e+00,2.070329427719116211e+00,2.034905910491943359e+00,2.000674009323120117e+00,1.967574715614318848e+00,1.935552954673767090e+00,1.904556632041931152e+00,1.874537467956542969e+00,1.845449924468994141e+00
5.000000000000000000e+00,5.000000000000000000e+00,5.000000000000000000e+00,5.000000000000000000e+00,5.000000000000000000e+00,5.000000000000000000e+00,5.000000000000000000e+00,5.000000000000000000e+00,5.000000000000000000e+00,5.000000000000000000e+00,5.000000000000000000e+00,5.000000000000000000e+00,5.000000000000000000e+00,5.000000000000000000e+00,5.000000000000000000e+00,5.000000000000000000e+00,5.000000000000000000e+00,5.000000000000000000e+00,5.000000000000000000e+00,5.000000000000000000e+00,5.000000000000000000e+00,5.000000000000000000e+00,5.000000000000000000e+00,5.000000000000000000e+00,5.000000000000000000e+00,5.000000000000000000e+00,5.000000000000000000e+00,5.000000000000000000e+00,5.000000000000000000e+00,5.000000000000000000e+00,5.000000000000000000e+00,5.000000000000000000e+00,5.000000000000000000e+00,5.000000000000000000e+00,5.000000000000000000e+00,5.000000000000000000e+00,5.000000000000000000e+00,5.000000000000000000e+00,5.000000000000000000e+00,4.865377426147460938e+00,4.674159049987792969e+00,4.497403144836425781e+00,4.333528041839599609e+00,4.181176185607910156e+00,4.039172172546386719e+00,3.906496763229370117e+00,3.782260417938232422e+00,3.665682315826416016e+00,3.556076049804687500e+00,3.452833890914916992e+00,3.355417251586914062e+00,3.263346672058105469e+00,3.176194190979003906e+00,3.093575477600097656e+00,3.015146017074584961e+00,1.487707734107971191e+00,1.425085544586181641e+00,1.396796226501464844e+00,1.376782417297363281e+00,1.130911350250244141e+00,1.093723297119140625e+00,1.080581188201904297e+00,1.067754745483398438e+00,1.055724382400512695e+00,1.049080371856689453e+00,1.060165524482727051e+00,2.311823368072509766e+00,2.267741680145263672e+00,2.225309610366821289e+00,2.184436321258544922e+00,2.145037412643432617e+00,2.107034444808959961e+00,2.070354461669921875e+00,2.034930229187011719e+00,2.000697374343872070e+00,1.967597603797912598e+00,1.935574769973754883e+00,1.904577970504760742e+00,1.874558091163635254e+00,1.845469951629638672e+00
5.000000000000000000e+00,5.000000000000000000e+00,5.000000000000000000e+00,5.000000000000000000e+00,5.000000000000000000e+00,5.000000000000000000e+00,5.000000000000000000e+00,5.000000000000000000e+00,5.000000000000000000e+00,5.000000000000000000e+00,5.000000000000000000e+00,5.000000000000000000e+00,5.000000000000000000e+00,5.000000000000000000e+00,5.000000000000000000e+00,5.000000000000000000e+00,5.000000000000000000e+00,5.000000000000000000e+00,5.000000000000000000e+00,5.000000000000000000e+00,5.000000000000000000e+00,5.000000000000000000e+00,5.000000000000000000e+00,5.000000000000000000e+00,5.000000000000000000e+00,5.000000000000000000e+00,5.000000000000000000e+00,5.000000000000000000e+00,5.000000000000000000e+00,5.000000000000000000e+00,5.000000000000000000e+00,5.000000000000000000e+00,5.000000000000000000e+00,5.000000000000000000e+00,5.000000000000000000e+00,5.000000000000000000e+00,5.000000000000000000e+00,5.000000000000000000e+00,5.000000000000000000e+00,4.865516185760498047e+00,4.674287319183349609e+00,4.497521877288818359e+00,4.333638191223144531e+00,4.181278228759765625e+00,4.039267539978027344e+00,3.906586408615112305e+00,3.782344341278076172e+00,3.665761232376098633e+00,3.556150197982788086e+00,3.452903747558593750e+00,3.355483531951904297e+00,3.263409614562988281e+00,3.176253557205200195e+00,3.093631982803344727e+00,1.521225690841674805e+00,1.469267487525939941e+00,1.442048668861389160e+00,1.427451014518737793e+00,1.398662328720092773e+00,1.138445258140563965e+00,1.097855448722839355e+00,1.084703326225280762e+00,1.071862578392028809e+00,1.059515595436096191e+00,1.054367065429687500e+00,1.064239978790283203e+00,2.311854839324951172e+00,2.267771959304809570e+00,2.225338697433471680e+00,2.184464454650878906e+00,2.145064353942871094e+00,2.107060670852661133e+00,2.070379734039306641e+00,2.034954547882080078e+00,2.000720977783203125e+00,1.967620372772216797e+00,1.935596942901611328e+00,1.904599189758300781e+00,1.874578833580017090e+00,1.845489859580993652e+00
4.875779628753662109e+00,4.874568939208984375e+00,4.873358249664306641e+00,4.872148513793945312e+00,4.870939254760742188e+00,4.869730949401855469e+00,4.868522644042968750e+00,4.867315292358398438e+00,4.866108417510986328e+00,4.864902019500732422e+00,4.863696575164794922e+00,4.862491607666015625e+00,4.861287117004394531e+00,4.860083580017089844e+00,4.858880519866943359e+00,4.857677459716796875e+00,4.856475830078125000e+00,4.855274200439453125e+00,4.854073524475097656e+00,4.852873325347900391e+00,4.851673603057861328e+00,4.850474357604980469e+00,4.849276065826416016e+00,4.848078250885009766e+00,4.846880912780761719e+00,4.845684528350830078e+00,4.844488143920898438e+00,4.843292713165283203e+00,4.842097759246826172e+00,4.840903759002685547e+00,4.839709758758544922e+00,4.838516712188720703e+00,4.837324142456054688e+00,4.836132049560546875e+00,4.834940433502197266e+00,4.833749771118164062e+00,4.832559585571289062e+00,4.831369876861572266e+00,4.830181121826171875e+00,4.828992366790771484e+00,4.674415588378906250e+00,4.497640609741210938e+00,4.333748340606689453e+00,4.181380748748779297e+00,4.039363861083984375e+00,3.906676530838012695e+00,3.782428741455078125e+00,3.665840148925781250e+00,3.556224346160888672e+00,3.452973842620849609e+00,3.355549573898315430e+00,3.263472080230712891e+00,3.176312923431396484e+00,3.093688011169433594e+00,3.015253067016601562e+00,1.464380741119384766e+00,1.444058895111083984e+00,1.445343852043151855e+00,2.737622022628784180e+00,1.144463777542114258e+00,1.102374553680419922e+00,1.089114546775817871e+00,1.076169848442077637e+00,1.063765764236450195e+00,1.060133337974548340e+00,1.068346023559570312e+00,2.311886310577392578e+00,2.267802238464355469e+00,2.225368022918701172e+00,2.184492349624633789e+00,2.145091533660888672e+00,2.107086658477783203e+00,2.070405006408691406e+00,2.034978866577148438e+00,2.000744581222534180e+00,1.967643022537231445e+00,1.935618996620178223e+00,1.904620647430419922e+00,1.874599575996398926e+00,1.845510005950927734e+00
3.778605937957763672e+00,3.777878284454345703e+00,3.777151584625244141e+00,3.776424646377563477e+00,3.775697946548461914e+00,3.774971961975097656e+00,3.774245977401733398e+00,3.773520231246948242e+00,3.772794961929321289e+00,3.772069692611694336e+00,3.771344900131225586e+00,3.770620584487915039e+00,3.769896030426025391e+00,3.769171953201293945e+00,3.768448591232299805e+00,3.767724990844726562e+00,3.767001628875732422e+00,3.766278982162475586e+00,3.765556335449218750e+00,3.764833927154541016e+00,3.764111995697021484e+00,3.763390064239501953e+00,3.762668371200561523e+00,3.761947631835937500e+00,3.761226415634155273e+00,3.760505676269531250e+00,3.759785652160644531e+00,3.759065389633178711e+00,3.758345365524291992e+00,3.757626056671142578e+00,3.756906509399414062e+00,3.756187438964843750e+00,3.755469083786010742e+00,3.754750490188598633e+00,3.754032135009765625e+00,3.753314495086669922e+00,3.752596616744995117e+00,3.751878976821899414e+00,3.751162290573120117e+00,3.750445365905761719e+00,3.749728679656982422e+00,3.749012708663940430e+00,3.748296499252319336e+00,3.747580528259277344e+00,3.746865510940551758e+00,3.746150016784667969e+00,3.745434999465942383e+00,3.665919542312622070e+00,3.556298971176147461e+00,3.453044176101684570e+00,3.355616092681884766e+00,3.263534545898437500e+00,3.176372051239013672e+00,3.093744277954101562e+00,3.015306472778320312e+00,1.460724711418151855e+00,1.442204236984252930e+00,1.449178099632263184e+00,2.737666368484497070e+00,2.676065444946289062e+00,1.107944130897521973e+00,1.093561887741088867e+00,1.080551505088806152e+00,1.068125128746032715e+00,1.065963029861450195e+00,1.072483777999877930e+00,2.311917781829833984e+00,2.267832517623901367e+00,2.225397109985351562e+00,2.184520483016967773e+00,2.145118713378906250e+00,2.107112884521484375e+00,2.070430278778076172e+00,2.035003185272216797e+00,2.000767946243286133e+00,1.967665910720825195e+00,1.935640931129455566e+00,1.904641985893249512e+00,1.874620079994201660e+00,1.845530033111572266e+00
3.084512472152709961e+00,3.084027767181396484e+00,3.083543539047241211e+00,3.083059072494506836e+00,3.082574605941772461e+00,3.082090854644775391e+00,3.081606864929199219e+00,3.081122875213623047e+00,3.080639362335205078e+00,3.080155849456787109e+00,3.079672336578369141e+00,3.079189538955688477e+00,3.078706264495849609e+00,3.078223466873168945e+00,3.077740907669067383e+00,3.077258110046386719e+00,3.076775789260864258e+00,3.076293468475341797e+00,3.075811386108398438e+00,3.075329303741455078e+00,3.074847698211669922e+00,3.074365854263305664e+00,3.073884248733520508e+00,3.073403120040893555e+00,3.072921752929687500e+00,3.072440624237060547e+00,3.071959972381591797e+00,3.071479082107543945e+00,3.070998430252075195e+00,3.070518255233764648e+00,3.070037841796875000e+00,3.069557428359985352e+00,3.069077730178833008e+00,3.068597793579101562e+00,3.068117856979370117e+00,3.067638635635375977e+00,3.067159175872802734e+00,3.066679716110229492e+00,3.066200733184814453e+00,3.065721750259399414e+00,3.065243005752563477e+00,3.064764499664306641e+00,3.064285993576049805e+00,3.063807487487792969e+00,3.063329458236694336e+00,3.062851190567016602e+00,3.062373161315917969e+00,3.061895608901977539e+00,3.061418056488037109e+00,3.060940504074096680e+00,3.060463190078735352e+00,3.059986114501953125e+00,3.059508800506591797e+00,3.059032201766967773e+00,3.015360116958618164e+00,1.452401638031005859e+00,1.439384341239929199e+00,1.457109212875366211e+00,2.737710237503051758e+00,2.676107406616210938e+00,1.115174174308776855e+00,1.098045587539672852e+00,1.085049867630004883e+00,1.072520375251770020e+00,1.071857213973999023e+00,1.076653718948364258e+00,2.311949253082275391e+00,2.267862558364868164e+00,2.225426197052001953e+00,2.184548616409301758e+00,2.145145654678344727e+00,2.107138872146606445e+00,2.070455551147460938e+00,2.035027503967285156e+00,2.000791549682617188e+00,1.967688679695129395e+00,1.935662984848022461e+00,1.904663205146789551e+00,1.874640822410583496e+00,1.845549941062927246e+00
2.605844259262084961e+00,2.605498313903808594e+00,2.605152368545532227e+00,2.604806661605834961e+00,2.604460954666137695e+00,2.604115247726440430e+00,2.603770017623901367e+00,2.603424549102783203e+00,2.603079080581665039e+00,2.602734088897705078e+00,2.602388858795166016e+00,2.602043867111206055e+00,2.601699113845825195e+00,2.601354122161865234e+00,2.601009368896484375e+00,2.600664854049682617e+00,2.600320100784301758e+00,2.599975585937500000e+00,2.599631309509277344e+00,2.599287033081054688e+00,2.598942756652832031e+00,2.598598718643188477e+00,2.598254680633544922e+00,2.597910642623901367e+00,2.597566843032836914e+00,2.597223043441772461e+00,2.596879482269287109e+00,2.596535921096801758e+00,2.596192359924316406e+00,2.595849037170410156e+00,2.595505714416503906e+00,2.595162630081176758e+00,2.594819307327270508e+00,2.594476461410522461e+00,2.594133377075195312e+00,2.593790531158447266e+00,2.593447923660278320e+00,2.593105316162109375e+00,2.592762708663940430e+00,2.592420339584350586e+00,2.592077732086181641e+00,2.591735363006591797e+00,2.591393470764160156e+00,2.591051101684570312e+00,2.590709209442138672e+00,2.590367317199707031e+00,2.590025424957275391e+00,2.589683532714843750e+00,2.589342117309570312e+00,2.589000463485717773e+00,2.588658809661865234e+00,2.588317632675170898e+00,2.587976217269897461e+00,2.587635040283203125e+00,2.587293863296508789e+00,1.442717313766479492e+00,1.434534430503845215e+00,1.455753684043884277e+00,2.585930347442626953e+00,2.585589647293090820e+00,1.122499227523803711e+00,1.102566361427307129e+00,1.089585900306701660e+00,1.076951980590820312e+00,1.075242042541503906e+00,1.080856204032897949e+00,2.311980724334716797e+00,2.267893075942993164e+00,2.225455284118652344e+00,2.184576511383056641e+00,2.145172595977783203e+00,2.107165098190307617e+00,2.070480585098266602e+00,2.035051822662353516e+00,2.000815153121948242e+00,1.967711329460144043e+00,1.935685157775878906e+00,1.904684543609619141e+00,1.874661564826965332e+00,1.845570087432861328e+00
2.255780458450317383e+00,2.255521297454833984e+00,2.255262136459350586e+00,2.255003213882446289e+00,2.254744052886962891e+00,2.254485130310058594e+00,2.254226446151733398e+00,2.253967523574829102e+00,2.253708600997924805e+00,2.253450155258178711e+00,2.253191471099853516e+00,2.252933025360107422e+00,2.252674341201782227e+00,2.252415895462036133e+00,2.252157449722290039e+00,2.251899003982543945e+00,2.251640796661376953e+00,2.251382589340209961e+00,2.251124382019042969e+00,2.250866174697875977e+00,2.250608205795288086e+00,2.250350236892700195e+00,2.250092267990112305e+00,2.249834299087524414e+00,2.249576568603515625e+00,2.249318838119506836e+00,2.249060869216918945e+00,2.248803138732910156e+00,2.248545646667480469e+00,2.248287916183471680e+00,2.248030424118041992e+00,2.247773170471191406e+00,2.247515678405761719e+00,2.247258186340332031e+00,2.247001171112060547e+00,2.246743679046630859e+00,2.246486663818359375e+00,2.246229648590087891e+00,2.245972394943237305e+00,2.245715379714965820e+00,2.245458602905273438e+00,2.245201587677001953e+00,2.244944810867309570e+00,2.244688034057617188e+00,2.244431257247924805e+00,2.244174718856811523e+00,2.243918180465698242e+00,2.243661642074584961e+00,2.243405103683471680e+00,2.243148803710937500e+00,2.242892265319824219e+00,2.242635965347290039e+00,2.242379903793334961e+00,2.242123603820800781e+00,2.241867542266845703e+00,1.437420487403869629e+00,1.435751318931579590e+00,1.453091382980346680e+00,2.240843772888183594e+00,2.240587949752807617e+00,1.128943681716918945e+00,1.107203125953674316e+00,1.094159841537475586e+00,1.081420302391052246e+00,1.078498005867004395e+00,1.085091590881347656e+00,2.238798618316650391e+00,2.238543510437011719e+00,2.225484371185302734e+00,2.184604883193969727e+00,2.145199775695800781e+00,2.107191085815429688e+00,2.070505857467651367e+00,2.035076141357421875e+00,2.000838756561279297e+00,1.967734217643737793e+00,1.935707092285156250e+00,1.904706001281738281e+00,1.874682068824768066e+00,1.845590233802795410e+00
1.988629221916198730e+00,1.988427758216857910e+00,1.988226294517517090e+00,1.988025069236755371e+00,1.987823605537414551e+00,1.987622499465942383e+00,1.987421274185180664e+00,1.987219929695129395e+00,1.987018942832946777e+00,1.986817717552185059e+00,1.986616611480712891e+00,1.986415743827819824e+00,1.986214637756347656e+00,1.986013889312744141e+00,1.985812902450561523e+00,1.985612034797668457e+00,1.985411286354064941e+00,1.985210418701171875e+00,1.985009670257568359e+00,1.984809160232543945e+00,1.984608411788940430e+00,1.984407663345336914e+00,1.984207153320312500e+00,1.984006643295288086e+00,1.983806252479553223e+00,1.983605742454528809e+00,1.983405232429504395e+00,1.983204960823059082e+00,1.983004570007324219e+00,1.982804179191589355e+00,1.982604146003723145e+00,1.982403755187988281e+00,1.982203841209411621e+00,1.982003569602966309e+00,1.981803417205810547e+00,1.981603503227233887e+00,1.981403350830078125e+00,1.981203317642211914e+00,1.981003522872924805e+00,1.980803608894348145e+00,1.980603933334350586e+00,1.980404019355773926e+00,1.980204105377197266e+00,1.980004549026489258e+00,1.979804754257202148e+00,1.979605078697204590e+00,1.979405641555786133e+00,1.979205965995788574e+00,1.979006290435791016e+00,1.978806972503662109e+00,1.978607416152954102e+00,1.978408217430114746e+00,1.978208780288696289e+00,1.978009343147277832e+00,1.977810144424438477e+00,1.428707361221313477e+00,1.416731476783752441e+00,1.433082342147827148e+00,1.977013349533081055e+00,1.976814389228820801e+00,1.976615309715270996e+00,1.111926674842834473e+00,1.098772406578063965e+00,1.085925936698913574e+00,1.081773757934570312e+00,1.975620627403259277e+00,1.975421786308288574e+00,1.975223183631896973e+00,1.975024342536926270e+00,1.974825620651245117e+00,1.974627137184143066e+00,1.974428415298461914e+00,1.974229693412780762e+00,1.974031329154968262e+00,1.973832845687866211e+00,1.967756986618041992e+00,1.935729146003723145e+00,1.904727220535278320e+00,1.874702811241149902e+00,1.845610022544860840e+00
1.778054714202880859e+00,1.777893662452697754e+00,1.777732729911804199e+00,1.777571678161621094e+00,1.777410745620727539e+00,1.777249932289123535e+00,1.777088999748229980e+00,1.776928186416625977e+00,1.776767373085021973e+00,1.776606440544128418e+00,1.776445865631103516e+00,1.776285052299499512e+00,1.776124238967895508e+00,1.775963664054870605e+00,1.775802969932556152e+00,1.775642275810241699e+00,1.775481820106506348e+00,1.775321125984191895e+00,1.775160670280456543e+00,1.775000095367431641e+00,1.774839639663696289e+00,1.774679303169250488e+00,1.774518728256225586e+00,1.774358272552490234e+00,1.774198055267333984e+00,1.774037718772888184e+00,1.773877501487731934e+00,1.773717164993286133e+00,1.773556828498840332e+00,1.773396730422973633e+00,1.773236513137817383e+00,1.773076295852661133e+00,1.772916197776794434e+00,1.772756099700927734e+00,1.772596120834350586e+00,1.772436022758483887e+00,1.772275924682617188e+00,1.772116065025329590e+00,1.771955966949462891e+00,1.771795988082885742e+00,1.771636247634887695e+00,1.771476268768310547e+00,1.771316409111022949e+00,1.771156668663024902e+00,1.770996809005737305e+00,1.770837187767028809e+00,1.770677328109741211e+00,1.770517587661743164e+00,1.770358085632324219e+00,1.770198345184326172e+00,1.770038604736328125e+00,1.769879221916198730e+00,1.769719600677490234e+00,1.769560098648071289e+00,1.769400596618652344e+00,1.769241094589233398e+00,1.401791214942932129e+00,1.430510163307189941e+00,1.768762826919555664e+00,1.768603563308715820e+00,1.768444180488586426e+00,1.127993226051330566e+00,1.110296368598937988e+00,1.101550698280334473e+00,1.097310543060302734e+00,1.767647981643676758e+00,1.767488837242126465e+00,1.767329812049865723e+00,1.767170548439025879e+00,1.767011642456054688e+00,1.766852498054504395e+00,1.766693472862243652e+00,1.766534566879272461e+00,1.766375541687011719e+00,1.766216635704040527e+00,1.766057848930358887e+00,1.765898942947387695e+00,1.765740036964416504e+00,1.765581250190734863e+00,1.765422463417053223e+00
1.607805371284484863e+00,1.607673764228820801e+00,1.607542157173156738e+00,1.607410430908203125e+00,1.607278943061828613e+00,1.607147336006164551e+00,1.607015609741210938e+00,1.606884241104125977e+00,1.606752634048461914e+00,1.606621265411376953e+00,1.606489658355712891e+00,1.606358170509338379e+00,1.606226921081542969e+00,1.606095433235168457e+00,1.605963945388793945e+00,1.605832695960998535e+00,1.605701327323913574e+00,1.605569839477539062e+00,1.605438709259033203e+00,1.605307340621948242e+00,1.605176210403442383e+00,1.605044841766357422e+00,1.604913592338562012e+00,1.604782462120056152e+00,1.604651212692260742e+00,1.604520082473754883e+00,1.604388952255249023e+00,1.604257822036743164e+00,1.604126811027526855e+00,1.603995680809020996e+00,1.603864669799804688e+00,1.603733658790588379e+00,1.603602647781372070e+00,1.603471636772155762e+00,1.603340744972229004e+00,1.603209733963012695e+00,1.603078961372375488e+00,1.602947950363159180e+00,1.602817058563232422e+00,1.602686285972595215e+00,1.602555394172668457e+00,1.602424502372741699e+00,1.602293848991394043e+00,1.602162957191467285e+00,1.602032184600830078e+00,1.601901531219482422e+00,1.601770758628845215e+00,1.601640224456787109e+00,1.601509451866149902e+00,1.601378798484802246e+00,1.601248264312744141e+00,1.601117610931396484e+00,1.600986957550048828e+00,1.600856542587280273e+00,1.600725889205932617e+00,1.600595474243164062e+00,1.600464940071105957e+00,1.600334405899047852e+00,1.600204110145568848e+00,1.600073575973510742e+00,1.599943041801452637e+00,1.130900502204895020e+00,1.110442638397216797e+00,1.102656245231628418e+00,1.095256209373474121e+00,1.103461623191833496e+00,1.599161267280578613e+00,1.599030852317810059e+00,1.598900556564331055e+00,1.598770499229431152e+00,1.598640203475952148e+00,1.598510026931762695e+00,1.598379969596862793e+00,1.598249793052673340e+00,1.598119735717773438e+00,1.597989559173583984e+00,1.597859501838684082e+00,1.597729563713073730e+00,1.597599506378173828e+00,1.597469449043273926e+00
1.467309951782226562e+00,1.467200398445129395e+00,1.467090725898742676e+00,1.466981172561645508e+00,1.466871500015258789e+00,1.466761827468872070e+00,1.466652274131774902e+00,1.466542720794677734e+00,1.466433048248291016e+00,1.466323614120483398e+00,1.466214060783386230e+00,1.466104626655578613e+00,1.465995073318481445e+00,1.465885639190673828e+00,1.465776205062866211e+00,1.465666770935058594e+00,1.465557336807250977e+00,1.465447902679443359e+00,1.465338468551635742e+00,1.465229153633117676e+00,1.465119838714599609e+00,1.465010404586791992e+00,1.464901208877563477e+00,1.464791893959045410e+00,1.464682459831237793e+00,1.464573264122009277e+00,1.464463949203491211e+00,1.464354753494262695e+00,1.464245557785034180e+00,1.464136362075805664e+00,1.464027166366577148e+00,1.463917970657348633e+00,1.463808774948120117e+00,1.463699698448181152e+00,1.463590502738952637e+00,1.463481426239013672e+00,1.463372349739074707e+00,1.463263273239135742e+00,1.463154196739196777e+00,1.463045120239257812e+00,1.462936043739318848e+00,1.462827205657958984e+00,1.462718129158020020e+00,1.462609052658081055e+00,1.462500214576721191e+00,1.462391257286071777e+00,1.462282299995422363e+00,1.462173461914062500e+00,1.462064504623413086e+00,1.461955666542053223e+00,1.461846709251403809e+00,1.461737871170043945e+00,1.461629152297973633e+00,1.461520195007324219e+00,1.461411356925964355e+00,1.461302638053894043e+00,1.461193919181823730e+00,1.461085200309753418e+00,1.460976362228393555e+00,1.460867643356323242e+00,1.179760336875915527e+00,1.134245634078979492e+00,1.110243797302246094e+00,1.094635725021362305e+00,1.083264112472534180e+00,1.077713012695312500e+00,1.460107088088989258e+00,1.459998488426208496e+00,1.459890007972717285e+00,1.459781408309936523e+00,1.459672808647155762e+00,1.459564328193664551e+00,1.459455728530883789e+00,1.459347248077392578e+00,1.459238886833190918e+00,1.459130287170410156e+00,1.459021925926208496e+00,1.458913445472717285e+00,1.458805084228515625e+00,1.458696722984313965e+00
1.349395394325256348e+00,1.349302530288696289e+00,1.349209785461425781e+00,1.349117159843444824e+00,1.349024415016174316e+00,1.348931789398193359e+00,1.348839044570922852e+00,1.348746299743652344e+00,1.348653674125671387e+00,1.348561048507690430e+00,1.348468303680419922e+00,1.348375797271728516e+00,1.348283171653747559e+00,1.348190665245056152e+00,1.348098039627075195e+00,1.348005414009094238e+00,1.347912907600402832e+00,1.347820281982421875e+00,1.347727775573730469e+00,1.347635269165039062e+00,1.347542762756347656e+00,1.347450256347656250e+00,1.347357869148254395e+00,1.347265362739562988e+00,1.347172975540161133e+00,1.347080469131469727e+00,1.346987962722778320e+00,1.346895694732666016e+00,1.346803188323974609e+00,1.346710801124572754e+00,1.346618413925170898e+00,1.346526026725769043e+00,1.346433758735656738e+00,1.346341371536254883e+00,1.346248984336853027e+00,1.346156835556030273e+00,1.346064448356628418e+00,1.345972061157226562e+00,1.345879912376403809e+00,1.345787644386291504e+00,1.345695376396179199e+00,1.345603108406066895e+00,1.345510840415954590e+00,1.345418691635131836e+00,1.345326423645019531e+00,1.345234274864196777e+00,1.345142126083374023e+00,1.345049977302551270e+00,1.344957709312438965e+00,1.344865679740905762e+00,1.344773530960083008e+00,1.344681382179260254e+00,1.344589352607727051e+00,1.344497203826904297e+00,1.344405174255371094e+00,1.344313025474548340e+00,1.344220995903015137e+00,1.344128966331481934e+00,1.344036936759948730e+00,1.343945026397705078e+00,1.343852877616882324e+00,1.136025309562683105e+00,1.107384562492370605e+00,1.088370561599731445e+00,1.074475526809692383e+00,1.065099239349365234e+00,1.060564279556274414e+00,1.064390063285827637e+00,1.343117356300354004e+00,1.343025445938110352e+00,1.342933654785156250e+00,1.342841744422912598e+00,1.342749834060668945e+00,1.342658042907714844e+00,1.342566251754760742e+00,1.342474341392517090e+00,1.342382669448852539e+00,1.342290759086608887e+00,1.342199087142944336e+00,1.342107295989990234e+00
1.249022483825683594e+00,1.248942971229553223e+00,1.248863577842712402e+00,1.248784065246582031e+00,1.248704671859741211e+00,1.248625278472900391e+00,1.248545885086059570e+00,1.248466491699218750e+00,1.248387098312377930e+00,1.248307704925537109e+00,1.248228311538696289e+00,1.248148918151855469e+00,1.248069524765014648e+00,1.247990250587463379e+00,1.247910857200622559e+00,1.247831583023071289e+00,1.247752308845520020e+00,1.247672915458679199e+00,1.247593760490417480e+00,1.247514367103576660e+00,1.247435092926025391e+00,1.247355937957763672e+00,1.247276544570922852e+00,1.247197270393371582e+00,1.247118115425109863e+00,1.247038841247558594e+00,1.246959686279296875e+00,1.246880531311035156e+00,1.246801257133483887e+00,1.246722102165222168e+00,1.246642947196960449e+00,1.246563792228698730e+00,1.246484637260437012e+00,1.246405482292175293e+00,1.246326446533203125e+00,1.246247291564941406e+00,1.246168136596679688e+00,1.246089100837707520e+00,1.246009945869445801e+00,1.245930790901184082e+00,1.245851755142211914e+00,1.245772719383239746e+00,1.245693564414978027e+00,1.245614647865295410e+00,1.245535612106323242e+00,1.245456576347351074e+00,1.245377540588378906e+00,1.245298504829406738e+00,1.245219588279724121e+00,1.245140552520751953e+00,1.245061516761779785e+00,1.244982719421386719e+00,1.244903683662414551e+00,1.244824767112731934e+00,1.244745850563049316e+00,1.244666934013366699e+00,1.244588017463684082e+00,1.244509100914001465e+00,1.244430184364318848e+00,1.244351387023925781e+00,1.244272470474243164e+00,1.244193673133850098e+00,1.103669285774230957e+00,1.078554153442382812e+00,1.064898252487182617e+00,1.054741978645324707e+00,1.047031283378601074e+00,1.042234301567077637e+00,1.042176723480224609e+00,1.243563175201416016e+00,1.243484377861022949e+00,1.243405580520629883e+00,1.243326783180236816e+00,1.243248105049133301e+00,1.243169307708740234e+00,1.243090629577636719e+00,1.243011832237243652e+00,1.242933154106140137e+00,1.242854475975036621e+00,1.242775797843933105e+00
1.162548065185546875e+00,1.162479281425476074e+00,1.162410378456115723e+00,1.162341475486755371e+00,1.162272691726684570e+00,1.162203907966613770e+00,1.162135124206542969e+00,1.162066340446472168e+00,1.161997556686401367e+00,1.161928772926330566e+00,1.161859989166259766e+00,1.161791205406188965e+00,1.161722540855407715e+00,1.161653757095336914e+00,1.161584973335266113e+00,1.161516308784484863e+00,1.161447525024414062e+00,1.161378741264343262e+00,1.161310076713562012e+00,1.161241412162780762e+00,1.161172747611999512e+00,1.161104083061218262e+00,1.161035299301147461e+00,1.160966753959655762e+00,1.160898089408874512e+00,1.160829424858093262e+00,1.160760760307312012e+00,1.160692095756530762e+00,1.160623550415039062e+00,1.160554885864257812e+00,1.160486221313476562e+00,1.160417675971984863e+00,1.160349130630493164e+00,1.160280466079711914e+00,1.160211920738220215e+00,1.160143375396728516e+00,1.160074830055236816e+00,1.160006284713745117e+00,1.159937739372253418e+00,1.159869194030761719e+00,1.159800648689270020e+00,1.159732103347778320e+00,1.159663677215576172e+00,1.159595131874084473e+00,1.159526586532592773e+00,1.159458160400390625e+00,1.159389615058898926e+00,1.159321188926696777e+00,1.159252762794494629e+00,1.159184217453002930e+00,1.159115910530090332e+00,1.159047365188598633e+00,1.158978939056396484e+00,1.158910512924194336e+00,1.158842086791992188e+00,1.158773779869079590e+00,1.158705353736877441e+00,1.158636927604675293e+00,1.158568620681762695e+00,1.158500194549560547e+00,1.158431768417358398e+00,1.158363461494445801e+00,1.158295154571533203e+00,1.076417684555053711e+00,1.051350831985473633e+00,1.039202451705932617e+00,1.032938361167907715e+00,1.026233553886413574e+00,1.022754669189453125e+00,1.024564623832702637e+00,1.015563607215881348e+00,1.157680392265319824e+00,1.157612204551696777e+00,1.157543897628784180e+00,1.157475709915161133e+00,1.157407402992248535e+00,1.157339096069335938e+00,1.157270908355712891e+00,1.157202720642089844e+00,1.157134413719177246e+00
1.087272047996520996e+00,1.087211966514587402e+00,1.087151646614074707e+00,1.087091565132141113e+00,1.087031245231628418e+00,1.086971044540405273e+00,1.086910963058471680e+00,1.086850762367248535e+00,1.086790561676025391e+00,1.086730480194091797e+00,1.086670279502868652e+00,1.086610198020935059e+00,1.086549997329711914e+00,1.086489796638488770e+00,1.086429715156555176e+00,1.086369633674621582e+00,1.086309432983398438e+00,1.086249351501464844e+00,1.086189270019531250e+00,1.086129069328308105e+00,1.086069107055664062e+00,1.086009025573730469e+00,1.085948944091796875e+00,1.085888862609863281e+00,1.085828781127929688e+00,1.085768699645996094e+00,1.085708618164062500e+00,1.085648655891418457e+00,1.085588574409484863e+00,1.085528612136840820e+00,1.085468530654907227e+00,1.085408568382263184e+00,1.085348486900329590e+00,1.085288524627685547e+00,1.085228562355041504e+00,1.085168480873107910e+00,1.085108637809753418e+00,1.085048556327819824e+00,1.084988713264465332e+00,1.084928631782531738e+00,1.084868669509887695e+00,1.084808826446533203e+00,1.084748864173889160e+00,1.084688782691955566e+00,1.084628939628601074e+00,1.084568977355957031e+00,1.084509015083312988e+00,1.084449172019958496e+00,1.084389209747314453e+00,1.084329366683959961e+00,1.084269523620605469e+00,1.084209561347961426e+00,1.084149718284606934e+00,1.084089875221252441e+00,1.084029912948608398e+00,1.083970189094543457e+00,1.083910226821899414e+00,1.083850502967834473e+00,1.083790659904479980e+00,1.083730816841125488e+00,1.083670973777770996e+00,1.083611130714416504e+00,1.083551287651062012e+00,1.083491563796997070e+00,1.049081921577453613e+00,1.027365565299987793e+00,1.012217521667480469e+00,1.008708000183105469e+00,1.005320787429809570e+00,9.963192343711853027e-01,9.949272274971008301e-01,9.974032044410705566e-01,1.082953572273254395e+00,1.082893848419189453e+00,1.082834124565124512e+00,1.082774400711059570e+00,1.082714676856994629e+00,1.082654953002929688e+00,1.082595229148864746e+00,1.082535624504089355e+00
1.021151781082153320e+00,1.021098613739013672e+00,1.021045446395874023e+00,1.020992398262023926e+00,1.020939350128173828e+00,1.020886301994323730e+00,1.020833134651184082e+00,1.020780086517333984e+00,1.020727038383483887e+00,1.020673871040344238e+00,1.020620822906494141e+00,1.020567774772644043e+00,1.020514726638793945e+00,1.020461678504943848e+00,1.020408630371093750e+00,1.020355582237243652e+00,1.020302534103393555e+00,1.020249485969543457e+00,1.020196437835693359e+00,1.020143508911132812e+00,1.020090460777282715e+00,1.020037412643432617e+00,1.019984483718872070e+00,1.019931435585021973e+00,1.019878506660461426e+00,1.019825577735900879e+00,1.019772529602050781e+00,1.019719600677490234e+00,1.019666671752929688e+00,1.019613623619079590e+00,1.019560694694519043e+00,1.019507765769958496e+00,1.019454836845397949e+00,1.019401907920837402e+00,1.019348978996276855e+00,1.019296050071716309e+00,1.019243121147155762e+00,1.019190192222595215e+00,1.019137263298034668e+00,1.019084334373474121e+00,1.019031524658203125e+00,1.018978595733642578e+00,1.018925666809082031e+00,1.018872857093811035e+00,1.018819928169250488e+00,1.018766999244689941e+00,1.018714189529418945e+00,1.018661260604858398e+00,1.018608450889587402e+00,1.018555641174316406e+00,1.018502712249755859e+00,1.018449902534484863e+00,1.018397092819213867e+00,1.018344283103942871e+00,1.018291473388671875e+00,1.018238663673400879e+00,1.018185734748840332e+00,1.018133044242858887e+00,1.018080234527587891e+00,1.018027424812316895e+00,1.017974615097045898e+00,1.017921805381774902e+00,1.017869114875793457e+00,1.017816305160522461e+00,1.017763495445251465e+00,1.017710804939270020e+00,1.017657995223999023e+00,9.980310797691345215e-01,9.930095076560974121e-01,9.875413179397583008e-01,9.859562516212463379e-01,9.876559376716613770e-01,9.815036654472351074e-01,1.017288804054260254e+00,1.017236113548278809e+00,1.017183423042297363e+00,1.017130732536315918e+00,1.017078042030334473e+00,1.017025351524353027e+00,1.016972661018371582e+00
9.626123309135437012e-01,9.625651836395263672e-01,9.625180363655090332e-01,9.624707698822021484e-01,9.624236226081848145e-01,9.623764157295227051e-01,9.623291492462158203e-01,9.622820615768432617e-01,9.622349143028259277e-01,9.621876478195190430e-01,9.621405601501464844e-01,9.620934128761291504e-01,9.620462059974670410e-01,9.619991183280944824e-01,9.619519710540771484e-01,9.619047641754150391e-01,9.618576765060424805e-01,9.618105888366699219e-01,9.617635011672973633e-01,9.617162942886352539e-01,9.616692662239074707e-01,9.616221785545349121e-01,9.615749716758728027e-01,9.615279436111450195e-01,9.614808559417724609e-01,9.614337086677551270e-01,9.613866806030273438e-01,9.613395929336547852e-01,9.612924456596374512e-01,9.612454175949096680e-01,9.611983895301818848e-01,9.611512422561645508e-01,9.611042141914367676e-01,9.610572457313537598e-01,9.610102176666259766e-01,9.609630703926086426e-01,9.609161019325256348e-01,9.608690738677978516e-01,9.608219861984252930e-01,9.607750177383422852e-01,9.607279896736145020e-01,9.606809020042419434e-01,9.606339335441589355e-01,9.605869650840759277e-01,9.605398774147033691e-01,9.604929685592651367e-01,9.604460000991821289e-01,9.603989124298095703e-01,9.603519439697265625e-01,9.603050351142883301e-01,9.602580070495605469e-01,9.602110385894775391e-01,9.601641297340393066e-01,9.601171612739562988e-01,9.600701332092285156e-01,9.600232243537902832e-01,9.599763154983520508e-01,9.599292874336242676e-01,9.598824381828308105e-01,9.598355293273925781e-01,9.597885012626647949e-01,9.597415924072265625e-01,9.596947431564331055e-01,9.596477150917053223e-01,9.596008658409118652e-01,9.595540165901184082e-01,9.595070481300354004e-01,9.594601392745971680e-01,9.594132900238037109e-01,9.593664407730102539e-01,9.593194723129272461e-01,9.592726230621337891e-01,9.592258334159851074e-01,9.591788649559020996e-01,9.591320157051086426e-01,9.590852260589599609e-01,9.590382575988769531e-01,9.589914679527282715e-01,9.589446783065795898e-01,9.588977098464965820e-01
9.104207754135131836e-01,9.103785753250122070e-01,9.103363156318664551e-01,9.102941155433654785e-01,9.102519750595092773e-01,9.102096557617187500e-01,9.101675152778625488e-01,9.101253151893615723e-01,9.100830554962158203e-01,9.100409150123596191e-01,9.099987745285034180e-01,9.099565148353576660e-01,9.099143743515014648e-01,9.098722338676452637e-01,9.098299741744995117e-01,9.097878336906433105e-01,9.097457528114318848e-01,9.097034931182861328e-01,9.096613526344299316e-01,9.096192717552185059e-01,9.095771312713623047e-01,9.095349311828613281e-01,9.094928503036499023e-01,9.094507098197937012e-01,9.094085097312927246e-01,9.093664288520812988e-01,9.093243479728698730e-01,9.092821478843688965e-01,9.092400670051574707e-01,9.091979861259460449e-01,9.091558456420898438e-01,9.091137647628784180e-01,9.090716838836669922e-01,9.090294837951660156e-01,9.089874625205993652e-01,9.089453816413879395e-01,9.089033603668212891e-01,9.088612198829650879e-01,9.088191390037536621e-01,9.087771177291870117e-01,9.087349772453308105e-01,9.086929559707641602e-01,9.086509346961975098e-01,9.086087942123413086e-01,9.085667729377746582e-01,9.085247516632080078e-01,9.084826707839965820e-01,9.084406495094299316e-01,9.083986282348632812e-01,9.083565473556518555e-01,9.083145260810852051e-01,9.082725644111633301e-01,9.082304239273071289e-01,9.081884622573852539e-01,9.081465005874633789e-01,9.081044793128967285e-01,9.080624580383300781e-01,9.080204367637634277e-01,9.079784750938415527e-01,9.079364538192749023e-01,9.078944921493530273e-01,9.078525304794311523e-01,9.078104496002197266e-01,9.077684879302978516e-01,9.077265858650207520e-01,9.076845049858093262e-01,9.076426029205322266e-01,9.076006412506103516e-01,9.075586199760437012e-01,9.075167179107666016e-01,9.074748158454895020e-01,9.074327945709228516e-01,9.073908925056457520e-01,9.073489904403686523e-01,9.073070287704467773e-01,9.072650671005249023e-01,9.072231650352478027e-01,9.071812629699707031e-01,9.071393013000488281e-01,9.070973992347717285e-01
8.635975718498229980e-01,8.635596632957458496e-01,8.635216951370239258e-01,8.634837269783020020e-01,8.634456992149353027e-01,8.634077310562133789e-01,8.633698225021362305e-01,8.633317947387695312e-01,8.632938265800476074e-01,8.632559180259704590e-01,8.632178902626037598e-01,8.631799221038818359e-01,8.631420135498046875e-01,8.631039857864379883e-01,8.630660772323608398e-01,8.630281686782836914e-01,8.629902005195617676e-01,8.629522919654846191e-01,8.629143834114074707e-01,8.628763556480407715e-01,8.628384470939636230e-01,8.628005981445312500e-01,8.627626895904541016e-01,8.627247214317321777e-01,8.626868128776550293e-01,8.626489639282226562e-01,8.626109957695007324e-01,8.625730872154235840e-01,8.625352382659912109e-01,8.624972701072692871e-01,8.624594211578369141e-01,8.624215722084045410e-01,8.623836040496826172e-01,8.623457551002502441e-01,8.623079061508178711e-01,8.622699379920959473e-01,8.622320890426635742e-01,8.621942996978759766e-01,8.621564507484436035e-01,8.621185421943664551e-01,8.620806932449340820e-01,8.620428442955017090e-01,8.620049357414245605e-01,8.619670867919921875e-01,8.619292974472045898e-01,8.618913888931274414e-01,8.618535995483398438e-01,8.618157505989074707e-01,8.617779016494750977e-01,8.617400527000427246e-01,8.617022633552551270e-01,8.616644144058227539e-01,8.616266250610351562e-01,8.615888357162475586e-01,8.615509271621704102e-01,8.615131378173828125e-01,8.614754080772399902e-01,8.614376187324523926e-01,8.613997697830200195e-01,8.613619804382324219e-01,8.613241910934448242e-01,8.612863421440124512e-01,8.612486124038696289e-01,8.612108230590820312e-01,8.611730337142944336e-01,8.611352443695068359e-01,8.610975146293640137e-01,8.610596656799316406e-01,8.610219359397888184e-01,8.609842061996459961e-01,8.609464168548583984e-01,8.609086871147155762e-01,8.608709573745727539e-01,8.608331084251403809e-01,8.607954382896423340e-01,8.607577085494995117e-01,8.607199788093566895e-01,8.606821894645690918e-01,8.606444597244262695e-01,8.606067895889282227e-01
8.213551640510559082e-01,8.213208317756652832e-01,8.212864398956298828e-01,8.212521076202392578e-01,8.212177753448486328e-01,8.211834430694580078e-01,8.211489915847778320e-01,8.211147189140319824e-01,8.210803866386413574e-01,8.210459947586059570e-01,8.210116624832153320e-01,8.209773898124694824e-01,8.209429979324340820e-01,8.209086656570434570e-01,8.208743929862976074e-01,8.208400011062622070e-01,8.208057284355163574e-01,8.207713961601257324e-01,8.207370638847351074e-01,8.207027316093444824e-01,8.206684589385986328e-01,8.206341266632080078e-01,8.205998539924621582e-01,8.205655813217163086e-01,8.205313086509704590e-01,8.204969167709350586e-01,8.204627037048339844e-01,8.204284310340881348e-01,8.203940987586975098e-01,8.203598260879516602e-01,8.203255534172058105e-01,8.202912211418151855e-01,8.202569484710693359e-01,8.202227354049682617e-01,8.201884031295776367e-01,8.201541900634765625e-01,8.201199173927307129e-01,8.200855851173400879e-01,8.200513720512390137e-01,8.200171589851379395e-01,8.199829459190368652e-01,8.199486136436462402e-01,8.199144005775451660e-01,8.198801875114440918e-01,8.198459148406982422e-01,8.198117017745971680e-01,8.197774887084960938e-01,8.197431564331054688e-01,8.197089433670043945e-01,8.196747899055480957e-01,8.196405172348022461e-01,8.196063041687011719e-01,8.195720911026000977e-01,8.195378184318542480e-01,8.195036649703979492e-01,8.194694519042968750e-01,8.194351792335510254e-01,8.194010257720947266e-01,8.193668723106384277e-01,8.193326592445373535e-01,8.192984461784362793e-01,8.192642331123352051e-01,8.192300796508789062e-01,8.191958665847778320e-01,8.191617131233215332e-01,8.191275596618652344e-01,8.190932869911193848e-01,8.190591335296630859e-01,8.190250396728515625e-01,8.189907670021057129e-01,8.189566731452941895e-01,8.189225196838378906e-01,8.188883066177368164e-01,8.188541531562805176e-01,8.188200592994689941e-01,8.187858462333679199e-01,8.187516927719116211e-01,8.187175989151000977e-01,8.186834454536437988e-01,8.186492323875427246e-01
7.830525636672973633e-01,7.830212712287902832e-01,7.829900979995727539e-01,7.829588651657104492e-01,7.829276323318481445e-01,7.828963994979858398e-01,7.828652262687683105e-01,7.828339934349060059e-01,7.828027606010437012e-01,7.827715277671813965e-01,7.827403545379638672e-01,7.827091217041015625e-01,7.826779484748840332e-01,7.826467156410217285e-01,7.826154828071594238e-01,7.825843095779418945e-01,7.825531363487243652e-01,7.825219035148620605e-01,7.824907302856445312e-01,7.824595570564270020e-01,7.824283242225646973e-01,7.823971509933471680e-01,7.823659777641296387e-01,7.823347449302673340e-01,7.823036313056945801e-01,7.822724580764770508e-01,7.822413444519042969e-01,7.822101116180419922e-01,7.821789383888244629e-01,7.821478247642517090e-01,7.821165919303894043e-01,7.820854783058166504e-01,7.820543050765991211e-01,7.820231318473815918e-01,7.819920182228088379e-01,7.819608449935913086e-01,7.819296717643737793e-01,7.818985581398010254e-01,7.818674445152282715e-01,7.818362712860107422e-01,7.818051576614379883e-01,7.817740440368652344e-01,7.817428112030029297e-01,7.817117571830749512e-01,7.816806435585021973e-01,7.816495299339294434e-01,7.816183567047119141e-01,7.815872430801391602e-01,7.815561890602111816e-01,7.815250158309936523e-01,7.814939022064208984e-01,7.814627885818481445e-01,7.814316749572753906e-01,7.814005613327026367e-01,7.813695073127746582e-01,7.813383340835571289e-01,7.813072800636291504e-01,7.812762260437011719e-01,7.812450528144836426e-01,7.812139987945556641e-01,7.811829447746276855e-01,7.811518907546997070e-01,7.811207175254821777e-01,7.810896635055541992e-01,7.810586094856262207e-01,7.810274958610534668e-01,7.809964418411254883e-01,7.809653878211975098e-01,7.809342741966247559e-01,7.809032201766967773e-01,7.808722257614135742e-01,7.808411121368408203e-01,7.808100581169128418e-01,7.807790040969848633e-01,7.807479500770568848e-01,7.807168960571289062e-01,7.806858420372009277e-01,7.806547880172729492e-01,7.806237339973449707e-01,7.805927395820617676e-01
7.481631040573120117e-01,7.481346130371093750e-01,7.481061220169067383e-01,7.480775713920593262e-01,7.480490803718566895e-01,7.480205893516540527e-01,7.479920387268066406e-01,7.479635477066040039e-01,7.479351162910461426e-01,7.479066252708435059e-01,7.478780746459960938e-01,7.478495836257934570e-01,7.478211522102355957e-01,7.477926015853881836e-01,7.477641701698303223e-01,7.477356791496276855e-01,7.477071881294250488e-01,7.476786971092224121e-01,7.476502656936645508e-01,7.476217150688171387e-01,7.475932836532592773e-01,7.475648522377014160e-01,7.475363016128540039e-01,7.475078701972961426e-01,7.474794387817382812e-01,7.474509477615356445e-01,7.474225163459777832e-01,7.473940253257751465e-01,7.473655939102172852e-01,7.473371028900146484e-01,7.473086714744567871e-01,7.472802400588989258e-01,7.472517490386962891e-01,7.472233772277832031e-01,7.471949458122253418e-01,7.471664547920227051e-01,7.471380233764648438e-01,7.471095919609069824e-01,7.470811605453491211e-01,7.470527291297912598e-01,7.470242977142333984e-01,7.469958662986755371e-01,7.469674348831176758e-01,7.469390630722045898e-01,7.469105720520019531e-01,7.468822002410888672e-01,7.468537688255310059e-01,7.468253970146179199e-01,7.467969655990600586e-01,7.467685341835021973e-01,7.467401623725891113e-01,7.467117309570312500e-01,7.466833591461181641e-01,7.466549873352050781e-01,7.466264963150024414e-01,7.465981245040893555e-01,7.465697526931762695e-01,7.465413212776184082e-01,7.465129494667053223e-01,7.464845776557922363e-01,7.464561462402343750e-01,7.464278340339660645e-01,7.463994622230529785e-01,7.463710904121398926e-01,7.463426589965820312e-01,7.463142871856689453e-01,7.462859749794006348e-01,7.462575435638427734e-01,7.462292313575744629e-01,7.462008595466613770e-01,7.461724281311035156e-01,7.461441159248352051e-01,7.461157441139221191e-01,7.460873723030090332e-01,7.460590600967407227e-01,7.460306882858276367e-01,7.460023164749145508e-01,7.459740042686462402e-01,7.459456324577331543e-01,7.459172606468200684e-01
7.162501215934753418e-01,7.162240147590637207e-01,7.161978483200073242e-01,7.161716818809509277e-01,7.161455750465393066e-01,7.161194086074829102e-01,7.160933613777160645e-01,7.160672545433044434e-01,7.160410881042480469e-01,7.160149812698364258e-01,7.159888744354248047e-01,7.159627676010131836e-01,7.159366607666015625e-01,7.159105539321899414e-01,7.158844470977783203e-01,7.158582806587219238e-01,7.158322334289550781e-01,7.158061265945434570e-01,7.157800197601318359e-01,7.157539129257202148e-01,7.157278656959533691e-01,7.157016992568969727e-01,7.156756520271301270e-01,7.156495451927185059e-01,7.156234383583068848e-01,7.155973911285400391e-01,7.155712842941284180e-01,7.155451774597167969e-01,7.155191302299499512e-01,7.154930830001831055e-01,7.154669761657714844e-01,7.154408693313598633e-01,7.154148221015930176e-01,7.153887748718261719e-01,7.153626680374145508e-01,7.153366208076477051e-01,7.153105735778808594e-01,7.152844667434692383e-01,7.152584195137023926e-01,7.152323722839355469e-01,7.152062654495239258e-01,7.151802778244018555e-01,7.151542305946350098e-01,7.151281237602233887e-01,7.151020765304565430e-01,7.150760889053344727e-01,7.150499820709228516e-01,7.150239348411560059e-01,7.149979472160339355e-01,7.149718999862670898e-01,7.149458527565002441e-01,7.149198055267333984e-01,7.148938179016113281e-01,7.148677110671997070e-01,7.148417234420776367e-01,7.148156762123107910e-01,7.147896289825439453e-01,7.147636413574218750e-01,7.147375941276550293e-01,7.147115468978881836e-01,7.146855592727661133e-01,7.146595716476440430e-01,7.146335244178771973e-01,7.146075367927551270e-01,7.145814895629882812e-01,7.145555019378662109e-01,7.145294547080993652e-01,7.145034670829772949e-01,7.144774794578552246e-01,7.144514322280883789e-01,7.144255042076110840e-01,7.143995165824890137e-01,7.143734693527221680e-01,7.143474817276000977e-01,7.143214941024780273e-01,7.142954468727111816e-01,7.142695188522338867e-01,7.142435312271118164e-01,7.142174839973449707e-01,7.141915559768676758e-01
6.869482398033142090e-01,6.869241595268249512e-01,6.869001388549804688e-01,6.868761181831359863e-01,6.868520975112915039e-01,6.868280768394470215e-01,6.868040561676025391e-01,6.867799758911132812e-01,6.867559552192687988e-01,6.867319941520690918e-01,6.867079138755798340e-01,6.866838932037353516e-01,6.866598725318908691e-01,6.866359114646911621e-01,6.866118311882019043e-01,6.865878701210021973e-01,6.865638494491577148e-01,6.865398287773132324e-01,6.865158081054687500e-01,6.864918470382690430e-01,6.864677667617797852e-01,6.864438056945800781e-01,6.864197850227355957e-01,6.863957643508911133e-01,6.863718032836914062e-01,6.863477826118469238e-01,6.863237619400024414e-01,6.862998008728027344e-01,6.862758398056030273e-01,6.862518191337585449e-01,6.862277984619140625e-01,6.862038373947143555e-01,6.861798763275146484e-01,6.861558556556701660e-01,6.861318945884704590e-01,6.861079335212707520e-01,6.860839128494262695e-01,6.860599517822265625e-01,6.860359907150268555e-01,6.860119700431823730e-01,6.859880089759826660e-01,6.859641075134277344e-01,6.859400868415832520e-01,6.859161257743835449e-01,6.858921647071838379e-01,6.858681440353393555e-01,6.858442425727844238e-01,6.858202815055847168e-01,6.857962608337402344e-01,6.857723593711853027e-01,6.857483983039855957e-01,6.857244968414306641e-01,6.857004761695861816e-01,6.856765747070312500e-01,6.856526136398315430e-01,6.856286525726318359e-01,6.856046915054321289e-01,6.855807900428771973e-01,6.855568289756774902e-01,6.855328679084777832e-01,6.855089664459228516e-01,6.854850053787231445e-01,6.854610443115234375e-01,6.854371428489685059e-01,6.854131817817687988e-01,6.853892803192138672e-01,6.853653788566589355e-01,6.853414773941040039e-01,6.853174567222595215e-01,6.852935552597045898e-01,6.852696537971496582e-01,6.852456927299499512e-01,6.852217912673950195e-01,6.851978898048400879e-01,6.851739883422851562e-01,6.851500868797302246e-01,6.851261854171752930e-01,6.851022243499755859e-01,6.850783228874206543e-01,6.850544214248657227e-01
6.599496006965637207e-01,6.599274277687072754e-01,6.599052548408508301e-01,6.598830223083496094e-01,6.598609089851379395e-01,6.598387360572814941e-01,6.598165035247802734e-01,6.597943305969238281e-01,6.597722172737121582e-01,6.597499847412109375e-01,6.597278118133544922e-01,6.597056984901428223e-01,6.596834659576416016e-01,6.596612930297851562e-01,6.596391797065734863e-01,6.596169471740722656e-01,6.595948338508605957e-01,6.595726609230041504e-01,6.595505475997924805e-01,6.595283150672912598e-01,6.595062017440795898e-01,6.594840884208679199e-01,6.594618558883666992e-01,6.594397425651550293e-01,6.594176292419433594e-01,6.593953967094421387e-01,6.593732833862304688e-01,6.593511700630187988e-01,6.593289971351623535e-01,6.593068242073059082e-01,6.592847108840942383e-01,6.592625379562377930e-01,6.592404246330261230e-01,6.592183113098144531e-01,6.591961979866027832e-01,6.591740250587463379e-01,6.591519117355346680e-01,6.591297984123229980e-01,6.591076254844665527e-01,6.590855121612548828e-01,6.590633988380432129e-01,6.590412259101867676e-01,6.590191125869750977e-01,6.589969992637634277e-01,6.589748859405517578e-01,6.589527726173400879e-01,6.589306592941284180e-01,6.589084863662719727e-01,6.588863730430603027e-01,6.588643193244934082e-01,6.588421463966369629e-01,6.588200330734252930e-01,6.587979793548583984e-01,6.587758660316467285e-01,6.587537527084350586e-01,6.587316393852233887e-01,6.587095856666564941e-01,6.586874127388000488e-01,6.586653590202331543e-01,6.586432456970214844e-01,6.586211323738098145e-01,6.585990190505981445e-01,6.585769653320312500e-01,6.585548520088195801e-01,6.585327386856079102e-01,6.585106849670410156e-01,6.584885716438293457e-01,6.584665179252624512e-01,6.584444046020507812e-01,6.584223508834838867e-01,6.584002375602722168e-01,6.583781838417053223e-01,6.583561301231384277e-01,6.583340167999267578e-01,6.583119034767150879e-01,6.582898497581481934e-01,6.582677364349365234e-01,6.582456827163696289e-01,6.582236289978027344e-01,6.582015156745910645e-01
6.349929571151733398e-01,6.349723935127258301e-01,6.349518299102783203e-01,6.349313259124755859e-01,6.349108219146728516e-01,6.348902583122253418e-01,6.348696947097778320e-01,6.348491907119750977e-01,6.348286271095275879e-01,6.348081231117248535e-01,6.347876191139221191e-01,6.347670555114746094e-01,6.347465515136718750e-01,6.347260475158691406e-01,6.347054839134216309e-01,6.346849799156188965e-01,6.346644759178161621e-01,6.346439123153686523e-01,6.346234083175659180e-01,6.346029043197631836e-01,6.345824003219604492e-01,6.345618963241577148e-01,6.345413923263549805e-01,6.345208883285522461e-01,6.345003247261047363e-01,6.344798803329467773e-01,6.344593763351440430e-01,6.344388127326965332e-01,6.344183683395385742e-01,6.343978643417358398e-01,6.343773007392883301e-01,6.343568563461303711e-01,6.343363523483276367e-01,6.343158483505249023e-01,6.342953443527221680e-01,6.342748403549194336e-01,6.342543959617614746e-01,6.342338919639587402e-01,6.342133879661560059e-01,6.341929435729980469e-01,6.341723799705505371e-01,6.341519355773925781e-01,6.341314315795898438e-01,6.341109275817871094e-01,6.340904831886291504e-01,6.340700387954711914e-01,6.340494751930236816e-01,6.340290307998657227e-01,6.340085864067077637e-01,6.339880824089050293e-01,6.339675784111022949e-01,6.339471340179443359e-01,6.339266300201416016e-01,6.339061856269836426e-01,6.338857412338256836e-01,6.338652968406677246e-01,6.338447928428649902e-01,6.338243484497070312e-01,6.338039040565490723e-01,6.337834000587463379e-01,6.337629556655883789e-01,6.337425112724304199e-01,6.337220072746276855e-01,6.337015628814697266e-01,6.336811184883117676e-01,6.336606144905090332e-01,6.336401700973510742e-01,6.336197853088378906e-01,6.335992813110351562e-01,6.335788369178771973e-01,6.335583925247192383e-01,6.335379481315612793e-01,6.335175037384033203e-01,6.334970593452453613e-01,6.334766149520874023e-01,6.334561705589294434e-01,6.334357261657714844e-01,6.334153413772583008e-01,6.333948373794555664e-01,6.333744525909423828e-01
6.118550300598144531e-01,6.118359565734863281e-01,6.118168830871582031e-01,6.117978692054748535e-01,6.117787361145019531e-01,6.117597222328186035e-01,6.117406487464904785e-01,6.117215752601623535e-01,6.117025017738342285e-01,6.116834878921508789e-01,6.116644144058227539e-01,6.116453409194946289e-01,6.116263270378112793e-01,6.116071939468383789e-01,6.115881800651550293e-01,6.115691065788269043e-01,6.115500330924987793e-01,6.115310192108154297e-01,6.115120053291320801e-01,6.114928722381591797e-01,6.114738583564758301e-01,6.114548444747924805e-01,6.114358305931091309e-01,6.114167571067810059e-01,6.113976836204528809e-01,6.113786697387695312e-01,6.113595962524414062e-01,6.113405823707580566e-01,6.113215684890747070e-01,6.113024950027465820e-01,6.112834811210632324e-01,6.112644672393798828e-01,6.112453937530517578e-01,6.112263798713684082e-01,6.112073659896850586e-01,6.111882925033569336e-01,6.111692786216735840e-01,6.111502647399902344e-01,6.111312508583068848e-01,6.111121773719787598e-01,6.110931634902954102e-01,6.110741496086120605e-01,6.110551357269287109e-01,6.110361218452453613e-01,6.110171079635620117e-01,6.109980940818786621e-01,6.109790802001953125e-01,6.109600663185119629e-01,6.109409928321838379e-01,6.109220385551452637e-01,6.109030246734619141e-01,6.108840107917785645e-01,6.108649969100952148e-01,6.108459830284118652e-01,6.108269691467285156e-01,6.108079552650451660e-01,6.107890009880065918e-01,6.107699871063232422e-01,6.107509732246398926e-01,6.107319593429565430e-01,6.107130050659179688e-01,6.106939315795898438e-01,6.106749773025512695e-01,6.106559634208679199e-01,6.106369495391845703e-01,6.106179952621459961e-01,6.105989813804626465e-01,6.105799674987792969e-01,6.105610132217407227e-01,6.105419993400573730e-01,6.105229854583740234e-01,6.105040311813354492e-01,6.104850769042968750e-01,6.104660630226135254e-01,6.104470491409301758e-01,6.104280948638916016e-01,6.104091405868530273e-01,6.103901267051696777e-01,6.103711724281311035e-01,6.103522181510925293e-01
