5.000000000000000000e+00,5.000000000000000000e+00,5.000000000000000000e+00,5.000000000000000000e+00,5.000000000000000000e+00,5.000000000000000000e+00,5.000000000000000000e+00,5.000000000000000000e+00,5.000000000000000000e+00,5.000000000000000000e+00,5.000000000000000000e+00,5.000000000000000000e+00,5.000000000000000000e+00,5.000000000000000000e+00,5.000000000000000000e+00,5.000000000000000000e+00,5.000000000000000000e+00,5.000000000000000000e+00,5.000000000000000000e+00,5.000000000000000000e+00,5.000000000000000000e+00,5.000000000000000000e+00,5.000000000000000000e+00,5.000000000000000000e+00,5.000000000000000000e+00,5.000000000000000000e+00,5.000000000000000000e+00,2.364765405654907227e+00,2.373100757598876953e+00,2.359551906585693359e+00,2.312290906906127930e+00,2.370163202285766602e+00,2.344589710235595703e+00,2.357343435287475586e+00,2.393306493759155273e+00,2.391563415527343750e+00,2.398617506027221680e+00,5.000000000000000000e+00,5.000000000000000000e+00,5.000000000000000000e+00,4.660596370697021484e+00,4.484910011291503906e+00,4.321987628936767578e+00,4.170487403869628906e+00,4.029249191284179688e+00,3.897263765335083008e+00,3.773650407791137695e+00,3.657638072967529297e+00,3.548545837402343750e+00,3.445772647857666016e+00,3.348784685134887695e+00,3.257107496261596680e+00,3.170315980911254883e+00,3.088029861450195312e+00,3.009907484054565430e+00,2.935639858245849609e+00,2.864948987960815430e+00,2.797582626342773438e+00,2.733311891555786133e+00,2.671927690505981445e+00,2.613240003585815430e+00,2.557075023651123047e+00,2.503273487091064453e+00,2.451689481735229492e+00,2.402188062667846680e+00,2.354646444320678711e+00,2.308949947357177734e+00,2.264993429183959961e+00,2.222679138183593750e+00,2.181916952133178711e+00,2.142622947692871094e+00,2.104719161987304688e+00,2.068133115768432617e+00,2.032797336578369141e+00,1.998648524284362793e+00,1.965628385543823242e+00,1.933681488037109375e+00,1.902756452560424805e+00,1.872804880142211914e+00,1.843781828880310059e+00
5.000000000000000000e+00,5.000000000000000000e+00,5.000000000000000000e+00,5.000000000000000000e+00,5.000000000000000000e+00,5.000000000000000000e+00,5.000000000000000000e+00,5.000000000000000000e+00,5.000000000000000000e+00,5.000000000000000000e+00,5.000000000000000000e+00,5.000000000000000000e+00,5.000000000000000000e+00,5.000000000000000000e+00,5.000000000000000000e+00,5.000000000000000000e+00,5.000000000000000000e+00,5.000000000000000000e+00,5.000000000000000000e+00,5.000000000000000000e+00,5.000000000000000000e+00,5.000000000000000000e+00,5.000000000000000000e+00,5.000000000000000000e+00,5.000000000000000000e+00,5.000000000000000000e+00,2.337933778762817383e+00,2.343588829040527344e+00,2.322707176208496094e+00,2.315993785858154297e+00,2.313299417495727539e+00,2.312476873397827148e+00,2.316607236862182617e+00,2.327101945877075195e+00,2.341131448745727539e+00,2.363241910934448242e+00,2.389318227767944336e+00,2.399083852767944336e+00,5.000000000000000000e+00,4.850747108459472656e+00,4.660724639892578125e+00,4.485029220581054688e+00,4.322098255157470703e+00,4.170590400695800781e+00,4.029344558715820312e+00,3.897353410720825195e+00,3.773734331130981445e+00,3.657716989517211914e+00,3.548620223999023438e+00,3.445842742919921875e+00,3.348851203918457031e+00,3.257170200347900391e+00,3.170375347137451172e+00,3.088086128234863281e+00,3.009960889816284180e+00,2.935690641403198242e+00,2.864997386932373047e+00,2.797628879547119141e+00,2.733355998992919922e+00,2.671969890594482422e+00,2.613280296325683594e+00,2.557113647460937500e+00,2.503310441970825195e+00,2.451725006103515625e+00,2.402222156524658203e+00,2.354679107666015625e+00,2.308981418609619141e+00,2.265023708343505859e+00,2.222708463668823242e+00,2.181945085525512695e+00,2.142650127410888672e+00,2.104745388031005859e+00,2.068158388137817383e+00,2.032821655273437500e+00,1.998672127723693848e+00,1.965651273727416992e+00,1.933703541755676270e+00,1.902777791023254395e+00,1.872825622558593750e+00,1.843801856040954590e+00
5.000000000000000000e+00,5.000000000000000000e+00,5.000000000000000000e+00,5.000000000000000000e+00,5.000000000000000000e+00,5.000000000000000000e+00,5.000000000000000000e+00,5.000000000000000000e+00,5.000000000000000000e+00,5.000000000000000000e+00,5.000000000000000000e+00,5.000000000000000000e+00,5.000000000000000000e+00,5.000000000000000000e+00,5.000000000000000000e+00,5.000000000000000000e+00,5.000000000000000000e+00,5.000000000000000000e+00,5.000000000000000000e+00,5.000000000000000000e+00,5.000000000000000000e+00,5.000000000000000000e+00,5.000000000000000000e+00,5.000000000000000000e+00,5.000000000000000000e+00,5.000000000000000000e+00,2.345229148864746094e+00,2.347230911254882812e+00,2.312833070755004883e+00,2.291579246520996094e+00,2.284289836883544922e+00,2.285745859146118164e+00,2.292058229446411133e+00,2.300034999847412109e+00,2.323236465454101562e+00,2.365825653076171875e+00,2.408239841461181641e+00,2.404707431793212891e+00,5.000000000000000000e+00,4.850885868072509766e+00,4.660852909088134766e+00,4.485147476196289062e+00,4.322208404541015625e+00,4.170693397521972656e+00,4.029440402984619141e+00,3.897443056106567383e+00,3.773818969726562500e+00,3.657795906066894531e+00,3.548694610595703125e+00,3.445912837982177734e+00,3.348917484283447266e+00,3.257232904434204102e+00,3.170434713363647461e+00,3.088142395019531250e+00,3.010014295578002930e+00,2.935741662979125977e+00,2.865046024322509766e+00,2.797675132751464844e+00,2.733400106430053711e+00,2.672012090682983398e+00,2.613320589065551758e+00,2.557152271270751953e+00,2.503347396850585938e+00,2.451760292053222656e+00,2.402256488800048828e+00,2.354712009429931641e+00,2.309012889862060547e+00,2.265053987503051758e+00,2.222737550735473633e+00,2.181973218917846680e+00,2.142677068710327148e+00,2.104771375656127930e+00,2.068183422088623047e+00,2.032846212387084961e+00,1.998695731163024902e+00,1.965674042701721191e+00,1.933725595474243164e+00,1.902799129486083984e+00,1.872846364974975586e+00,1.843821883201599121e+00
5.000000000000000000e+00,5.000000000000000000e+00,5.000000000000000000e+00,5.000000000000000000e+00,5.000000000000000000e+00,5.000000000000000000e+00,5.000000000000000000e+00,5.000000000000000000e+00,5.000000000000000000e+00,5.000000000000000000e+00,5.000000000000000000e+00,5.000000000000000000e+00,5.000000000000000000e+00,5.000000000000000000e+00,5.000000000000000000e+00,5.000000000000000000e+00,5.000000000000000000e+00,5.000000000000000000e+00,5.000000000000000000e+00,5.000000000000000000e+00,5.000000000000000000e+00,5.000000000000000000e+00,5.000000000000000000e+00,5.000000000000000000e+00,5.000000000000000000e+00,5.000000000000000000e+00,2.363748073577880859e+00,2.363672494888305664e+00,2.315617084503173828e+00,2.293094158172607422e+00,2.281458377838134766e+00,2.290681123733520508e+00,2.294245243072509766e+00,2.302759647369384766e+00,2.322732686996459961e+00,2.369335651397705078e+00,2.406803607940673828e+00,2.416264057159423828e+00,5.000000000000000000e+00,4.851025104522705078e+00,4.660980701446533203e+00,4.485266208648681641e+00,4.322318553924560547e+00,4.170795917510986328e+00,4.029536724090576172e+00,3.897532701492309570e+00,3.773902893066406250e+00,3.657874822616577148e+00,3.548768758773803711e+00,3.445982933044433594e+00,3.348983526229858398e+00,3.257295846939086914e+00,3.170494079589843750e+00,3.088198900222778320e+00,3.010067701339721680e+00,2.935792684555053711e+00,2.865094423294067383e+00,2.797721385955810547e+00,2.733444213867187500e+00,2.672054290771484375e+00,2.613361120223999023e+00,2.557190895080566406e+00,2.503384590148925781e+00,2.451795816421508789e+00,2.402290582656860352e+00,2.354744672775268555e+00,2.309044361114501953e+00,2.265084266662597656e+00,2.222766637802124023e+00,2.182001352310180664e+00,2.142704248428344727e+00,2.104797601699829102e+00,2.068208694458007812e+00,2.032870531082153320e+00,1.998719334602355957e+00,1.965696811676025391e+00,1.933747649192810059e+00,1.902820467948913574e+00,1.872866988182067871e+00,1.843841910362243652e+00
5.000000000000000000e+00,5.000000000000000000e+00,5.000000000000000000e+00,5.000000000000000000e+00,5.000000000000000000e+00,5.000000000000000000e+00,5.000000000000000000e+00,5.000000000000000000e+00,5.000000000000000000e+00,5.000000000000000000e+00,5.000000000000000000e+00,5.000000000000000000e+00,5.000000000000000000e+00,5.000000000000000000e+00,5.000000000000000000e+00,5.000000000000000000e+00,5.000000000000000000e+00,5.000000000000000000e+00,5.000000000000000000e+00,5.000000000000000000e+00,5.000000000000000000e+00,5.000000000000000000e+00,5.000000000000000000e+00,5.000000000000000000e+00,5.000000000000000000e+00,5.000000000000000000e+00,2.379268884658813477e+00,2.367895126342773438e+00,2.325722217559814453e+00,2.306923389434814453e+00,2.285866975784301758e+00,2.283177375793457031e+00,2.286842107772827148e+00,2.307624578475952148e+00,2.336248397827148438e+00,2.385681152343750000e+00,2.412575721740722656e+00,2.423037767410278320e+00,5.000000000000000000e+00,4.851163864135742188e+00,4.661109447479248047e+00,4.485384941101074219e+00,4.322429180145263672e+00,4.170898437500000000e+00,4.029632568359375000e+00,3.897622346878051758e+00,3.773987054824829102e+00,3.657953739166259766e+00,3.548843145370483398e+00,3.446053028106689453e+00,3.349049806594848633e+00,3.257358312606811523e+00,3.170553207397460938e+00,3.088255167007446289e+00,3.010121107101440430e+00,2.935843467712402344e+00,2.865143060684204102e+00,2.797767400741577148e+00,2.733488321304321289e+00,2.672096252441406250e+00,2.613401412963867188e+00,2.557229518890380859e+00,2.503421545028686523e+00,2.451831340789794922e+00,2.402324438095092773e+00,2.354777574539184570e+00,2.309075832366943359e+00,2.265114545822143555e+00,2.222795724868774414e+00,2.182029485702514648e+00,2.142731189727783203e+00,2.104823827743530273e+00,2.068233966827392578e+00,2.032894849777221680e+00,1.998743057250976562e+00,1.965719580650329590e+00,1.933769702911376953e+00,1.902841925621032715e+00,1.872887730598449707e+00,1.843862056732177734e+00
5.000000000000000000e+00,5.000000000000000000e+00,5.000000000000000000e+00,5.000000000000000000e+00,5.000000000000000000e+00,5.000000000000000000e+00,5.000000000000000000e+00,5.000000000000000000e+00,5.000000000000000000e+00,5.000000000000000000e+00,5.000000000000000000e+00,5.000000000000000000e+00,5.000000000000000000e+00,5.000000000000000000e+00,5.000000000000000000e+00,5.000000000000000000e+00,5.000000000000000000e+00,5.000000000000000000e+00,5.000000000000000000e+00,5.000000000000000000e+00,5.000000000000000000e+00,5.000000000000000000e+00,5.000000000000000000e+00,5.000000000000000000e+00,5.000000000000000000e+00,5.000000000000000000e+00,2.388957500457763672e+00,2.367933511734008789e+00,2.333911418914794922e+00,2.302000522613525391e+00,2.285171270370483398e+00,2.281501531600952148e+00,2.286732912063598633e+00,2.303376197814941406e+00,2.336477518081665039e+00,2.411607980728149414e+00,2.410700082778930664e+00,2.425258874893188477e+00,5.000000000000000000e+00,4.851302623748779297e+00,4.661237716674804688e+00,4.485503673553466797e+00,4.322539329528808594e+00,4.171000957489013672e+00,4.029728412628173828e+00,3.897711992263793945e+00,3.774070978164672852e+00,3.658033132553100586e+00,3.548917531967163086e+00,3.446123123168945312e+00,3.349116086959838867e+00,3.257421016693115234e+00,3.170613050460815430e+00,3.088311433792114258e+00,3.010174751281738281e+00,2.935894250869750977e+00,2.865191459655761719e+00,2.797813653945922852e+00,2.733532428741455078e+00,2.672138452529907227e+00,2.613441705703735352e+00,2.557268142700195312e+00,2.503458499908447266e+00,2.451866865158081055e+00,2.402358531951904297e+00,2.354810237884521484e+00,2.309107303619384766e+00,2.265144824981689453e+00,2.222825050354003906e+00,2.182057619094848633e+00,2.142758607864379883e+00,2.104849815368652344e+00,2.068259239196777344e+00,2.032919406890869141e+00,1.998766660690307617e+00,1.965742468833923340e+00,1.933791756629943848e+00,1.902863264083862305e+00,1.872908353805541992e+00,1.843882083892822266e+00
5.000000000000000000e+00,5.000000000000000000e+00,5.000000000000000000e+00,5.000000000000000000e+00,5.000000000000000000e+00,5.000000000000000000e+00,5.000000000000000000e+00,5.000000000000000000e+00,5.000000000000000000e+00,5.000000000000000000e+00,5.000000000000000000e+00,5.000000000000000000e+00,5.000000000000000000e+00,5.000000000000000000e+00,5.000000000000000000e+00,5.000000000000000000e+00,5.000000000000000000e+00,5.000000000000000000e+00,5.000000000000000000e+00,5.000000000000000000e+00,5.000000000000000000e+00,5.000000000000000000e+00,5.000000000000000000e+00,5.000000000000000000e+00,5.000000000000000000e+00,5.000000000000000000e+00,2.394517660140991211e+00,2.364410400390625000e+00,2.368974447250366211e+00,2.301817655563354492e+00,2.286430358886718750e+00,2.283915042877197266e+00,2.289714097976684570e+00,2.304503679275512695e+00,2.332886934280395508e+00,5.000000000000000000e+00,2.409672260284423828e+00,2.428007364273071289e+00,5.000000000000000000e+00,4.851441383361816406e+00,4.661365985870361328e+00,4.485622882843017578e+00,4.322649478912353516e+00,4.171103954315185547e+00,4.029824256896972656e+00,3.897801637649536133e+00,3.774155139923095703e+00,3.658112049102783203e+00,3.548991680145263672e+00,3.446193218231201172e+00,3.349182128906250000e+00,3.257483482360839844e+00,3.170672178268432617e+00,3.088367700576782227e+00,3.010228157043457031e+00,2.935945272445678711e+00,2.865239858627319336e+00,2.797860145568847656e+00,2.733576297760009766e+00,2.672180652618408203e+00,2.613481998443603516e+00,2.557306766510009766e+00,2.503495454788208008e+00,2.451902389526367188e+00,2.402392625808715820e+00,2.354842901229858398e+00,2.309138774871826172e+00,2.265175104141235352e+00,2.222854137420654297e+00,2.182085752487182617e+00,2.142785549163818359e+00,2.104876041412353516e+00,2.068284511566162109e+00,2.032943725585937500e+00,1.998790264129638672e+00,1.965765476226806641e+00,1.933813929557800293e+00,1.902884602546691895e+00,1.872929096221923828e+00,1.843902111053466797e+00
5.000000000000000000e+00,5.000000000000000000e+00,5.000000000000000000e+00,5.000000000000000000e+00,5.000000000000000000e+00,5.000000000000000000e+00,5.000000000000000000e+00,5.000000000000000000e+00,5.000000000000000000e+00,5.000000000000000000e+00,5.000000000000000000e+00,5.000000000000000000e+00,5.000000000000000000e+00,5.000000000000000000e+00,5.000000000000000000e+00,5.000000000000000000e+00,5.000000000000000000e+00,5.000000000000000000e+00,5.000000000000000000e+00,5.000000000000000000e+00,5.000000000000000000e+00,5.000000000000000000e+00,5.000000000000000000e+00,5.000000000000000000e+00,5.000000000000000000e+00,5.000000000000000000e+00,2.401799440383911133e+00,2.368559360504150391e+00,2.385738134384155273e+00,2.291682004928588867e+00,2.279947519302368164e+00,2.287871122360229492e+00,2.290889263153076172e+00,2.301931858062744141e+00,2.337858676910400391e+00,5.000000000000000000e+00,2.421856641769409180e+00,2.433487176895141602e+00,5.000000000000000000e+00,4.851580619812011719e+00,4.661494255065917969e+00,4.485741615295410156e+00,4.322759628295898438e+00,4.171206951141357422e+00,4.029920101165771484e+00,3.897891283035278320e+00,3.774239063262939453e+00,3.658191204071044922e+00,3.549066543579101562e+00,3.446263313293457031e+00,3.349248409271240234e+00,3.257546186447143555e+00,3.170731544494628906e+00,3.088423967361450195e+00,3.010281562805175781e+00,2.935996055603027344e+00,2.865288257598876953e+00,2.797906398773193359e+00,2.733620405197143555e+00,2.672222614288330078e+00,2.613522291183471680e+00,2.557345390319824219e+00,2.503532648086547852e+00,2.451937675476074219e+00,2.402426719665527344e+00,2.354875802993774414e+00,2.309170246124267578e+00,2.265205383300781250e+00,2.222883224487304688e+00,2.182113647460937500e+00,2.142812728881835938e+00,2.104902267456054688e+00,2.068309783935546875e+00,2.032968044281005859e+00,1.998813867568969727e+00,1.965788245201110840e+00,1.933835983276367188e+00,1.902905941009521484e+00,1.872949838638305664e+00,1.843922257423400879e+00
5.000000000000000000e+00,5.000000000000000000e+00,5.000000000000000000e+00,5.000000000000000000e+00,5.000000000000000000e+00,5.000000000000000000e+00,5.000000000000000000e+00,5.000000000000000000e+00,5.000000000000000000e+00,5.000000000000000000e+00,5.000000000000000000e+00,5.000000000000000000e+00,5.000000000000000000e+00,5.000000000000000000e+00,5.000000000000000000e+00,5.000000000000000000e+00,5.000000000000000000e+00,5.000000000000000000e+00,5.000000000000000000e+00,5.000000000000000000e+00,5.000000000000000000e+00,5.000000000000000000e+00,5.000000000000000000e+00,5.000000000000000000e+00,5.000000000000000000e+00,5.000000000000000000e+00,2.412206888198852539e+00,2.380078315734863281e+00,2.332392930984497070e+00,2.281365394592285156e+00,2.274000883102416992e+00,2.277703523635864258e+00,2.282413244247436523e+00,2.294398307800292969e+00,2.325836181640625000e+00,5.000000000000000000e+00,2.435892105102539062e+00,2.438266277313232422e+00,5.000000000000000000e+00,4.851719856262207031e+00,4.661622524261474609e+00,4.485860347747802734e+00,4.322870254516601562e+00,4.171309471130371094e+00,4.030015945434570312e+00,3.897980928421020508e+00,3.774323225021362305e+00,3.658270120620727539e+00,3.549140691757202148e+00,3.446333408355712891e+00,3.349314451217651367e+00,3.257608890533447266e+00,3.170790910720825195e+00,3.088480472564697266e+00,3.010335206985473633e+00,2.936046838760375977e+00,2.865336894989013672e+00,2.797952651977539062e+00,2.733664512634277344e+00,2.672264814376831055e+00,2.613562583923339844e+00,2.557384014129638672e+00,2.503569602966308594e+00,2.451973199844360352e+00,2.402460813522338867e+00,2.354908466339111328e+00,2.309201717376708984e+00,2.265235900878906250e+00,2.222912549972534180e+00,2.182141780853271484e+00,2.142839908599853516e+00,2.104928493499755859e+00,2.068335056304931641e+00,2.032992362976074219e+00,1.998837351799011230e+00,1.965811014175415039e+00,1.933858275413513184e+00,1.902927398681640625e+00,1.872970461845397949e+00,1.843942284584045410e+00
5.000000000000000000e+00,5.000000000000000000e+00,5.000000000000000000e+00,5.000000000000000000e+00,5.000000000000000000e+00,5.000000000000000000e+00,5.000000000000000000e+00,5.000000000000000000e+00,5.000000000000000000e+00,5.000000000000000000e+00,5.000000000000000000e+00,5.000000000000000000e+00,5.000000000000000000e+00,5.000000000000000000e+00,5.000000000000000000e+00,5.000000000000000000e+00,5.000000000000000000e+00,5.000000000000000000e+00,5.000000000000000000e+00,5.000000000000000000e+00,5.000000000000000000e+00,5.000000000000000000e+00,5.000000000000000000e+00,5.000000000000000000e+00,5.000000000000000000e+00,5.000000000000000000e+00,5.000000000000000000e+00,2.389585018157958984e+00,2.321194171905517578e+00,2.295560598373413086e+00,2.282930374145507812e+00,2.280125617980957031e+00,2.290407896041870117e+00,2.309887409210205078e+00,2.327527046203613281e+00,2.427919387817382812e+00,2.438791036605834961e+00,2.429290294647216797e+00,5.000000000000000000e+00,4.851858615875244141e+00,4.661750793457031250e+00,4.485979080200195312e+00,4.322980880737304688e+00,4.171411991119384766e+00,4.030111789703369141e+00,3.898070573806762695e+00,3.774407386779785156e+00,3.658349037170410156e+00,3.549215078353881836e+00,3.446403741836547852e+00,3.349380731582641602e+00,3.257671356201171875e+00,3.170850276947021484e+00,3.088536739349365234e+00,3.010388612747192383e+00,2.936097860336303711e+00,2.865385293960571289e+00,2.797998905181884766e+00,2.733708858489990234e+00,2.672307014465332031e+00,2.613602876663208008e+00,2.557422637939453125e+00,2.503606557846069336e+00,2.452008962631225586e+00,2.402494907379150391e+00,2.354941129684448242e+00,2.309233188629150391e+00,2.265266180038452148e+00,2.222941637039184570e+00,2.182169914245605469e+00,2.142866849899291992e+00,2.104954481124877930e+00,2.068360328674316406e+00,2.033016920089721680e+00,1.998860955238342285e+00,1.965833902359008789e+00,1.933880329132080078e+00,1.902948737144470215e+00,1.872991204261779785e+00,1.843962311744689941e+00
5.000000000000000000e+00,5.000000000000000000e+00,5.000000000000000000e+00,5.000000000000000000e+00,5.000000000000000000e+00,5.000000000000000000e+00,5.000000000000000000e+00,5.000000000000000000e+00,5.000000000000000000e+00,5.000000000000000000e+00,5.000000000000000000e+00,5.000000000000000000e+00,5.000000000000000000e+00,5.000000000000000000e+00,5.000000000000000000e+00,5.000000000000000000e+00,5.000000000000000000e+00,5.000000000000000000e+00,5.000000000000000000e+00,5.000000000000000000e+00,5.000000000000000000e+00,5.000000000000000000e+00,5.000000000000000000e+00,5.000000000000000000e+00,5.000000000000000000e+00,5.000000000000000000e+00,2.402709245681762695e+00,2.369961500167846680e+00,2.314383268356323242e+00,2.292989253997802734e+00,2.286033630371093750e+00,2.282718181610107422e+00,2.294762134552001953e+00,2.309221506118774414e+00,2.343680620193481445e+00,2.430078983306884766e+00,2.424151420593261719e+00,2.412877798080444336e+00,5.000000000000000000e+00,4.851997375488281250e+00,4.661879062652587891e+00,4.486097812652587891e+00,4.323091030120849609e+00,4.171514511108398438e+00,4.030207633972167969e+00,3.898160696029663086e+00,3.774491310119628906e+00,3.658427953720092773e+00,3.549289464950561523e+00,3.446473836898803711e+00,3.349447011947631836e+00,3.257734060287475586e+00,3.170909643173217773e+00,3.088593006134033203e+00,3.010442256927490234e+00,2.936148643493652344e+00,2.865433692932128906e+00,2.798044919967651367e+00,2.733752965927124023e+00,2.672349214553833008e+00,2.613643169403076172e+00,2.557461261749267578e+00,2.503643512725830078e+00,2.452044248580932617e+00,2.402528762817382812e+00,2.354973793029785156e+00,2.309264659881591797e+00,2.265296459197998047e+00,2.222970962524414062e+00,2.182198047637939453e+00,2.142894029617309570e+00,2.104980707168579102e+00,2.068385601043701172e+00,2.033041238784790039e+00,1.998884558677673340e+00,1.965856671333312988e+00,1.933902382850646973e+00,1.902970314025878906e+00,1.873011946678161621e+00,1.843982458114624023e+00
5.000000000000000000e+00,5.000000000000000000e+00,5.000000000000000000e+00,5.000000000000000000e+00,5.000000000000000000e+00,5.000000000000000000e+00,5.000000000000000000e+00,5.000000000000000000e+00,5.000000000000000000e+00,5.000000000000000000e+00,5.000000000000000000e+00,5.000000000000000000e+00,5.000000000000000000e+00,5.000000000000000000e+00,5.000000000000000000e+00,5.000000000000000000e+00,5.000000000000000000e+00,5.000000000000000000e+00,5.000000000000000000e+00,5.000000000000000000e+00,5.000000000000000000e+00,5.000000000000000000e+00,5.000000000000000000e+00,5.000000000000000000e+00,5.000000000000000000e+00,5.000000000000000000e+00,2.371508836746215820e+00,2.353860378265380859e+00,2.306677818298339844e+00,2.289684057235717773e+00,2.304941177368164062e+00,2.284697055816650391e+00,2.311497211456298828e+00,2.312818527221679688e+00,2.335053443908691406e+00,5.000000000000000000e+00,2.418518304824829102e+00,2.399080753326416016e+00,5.000000000000000000e+00,4.852136611938476562e+00,4.662007331848144531e+00,4.486217021942138672e+00,4.323201179504394531e+00,4.171617507934570312e+00,4.030303478240966797e+00,3.898250341415405273e+00,3.774575471878051758e+00,3.658507108688354492e+00,3.549363851547241211e+00,3.446543931961059570e+00,3.349513530731201172e+00,3.257796764373779297e+00,3.170969009399414062e+00,3.088649272918701172e+00,3.010495901107788086e+00,2.936199426651000977e+00,2.865482091903686523e+00,2.798091173171997070e+00,2.733797073364257812e+00,2.672391414642333984e+00,2.613683462142944336e+00,2.557499647140502930e+00,2.503680467605590820e+00,2.452079772949218750e+00,2.402562856674194336e+00,2.355006694793701172e+00,2.309296131134033203e+00,2.265326738357543945e+00,2.223000049591064453e+00,2.182226181030273438e+00,2.142921209335327148e+00,2.105006933212280273e+00,2.068410873413085938e+00,2.033065795898437500e+00,1.998908162117004395e+00,1.965879440307617188e+00,1.933924436569213867e+00,1.902991652488708496e+00,1.873032569885253906e+00,1.844002485275268555e+00
5.000000000000000000e+00,5.000000000000000000e+00,5.000000000000000000e+00,5.000000000000000000e+00,5.000000000000000000e+00,5.000000000000000000e+00,5.000000000000000000e+00,5.000000000000000000e+00,5.000000000000000000e+00,5.000000000000000000e+00,5.000000000000000000e+00,5.000000000000000000e+00,5.000000000000000000e+00,5.000000000000000000e+00,5.000000000000000000e+00,5.000000000000000000e+00,5.000000000000000000e+00,5.000000000000000000e+00,5.000000000000000000e+00,5.000000000000000000e+00,5.000000000000000000e+00,5.000000000000000000e+00,5.000000000000000000e+00,5.000000000000000000e+00,5.000000000000000000e+00,5.000000000000000000e+00,2.355026483535766602e+00,2.345365285873413086e+00,2.293027162551879883e+00,2.279894590377807617e+00,2.302950859069824219e+00,2.330276727676391602e+00,2.307541608810424805e+00,2.278218507766723633e+00,2.289019346237182617e+00,5.000000000000000000e+00,5.000000000000000000e+00,2.379058837890625000e+00,5.000000000000000000e+00,4.852275848388671875e+00,4.662135601043701172e+00,4.486335754394531250e+00,4.323311328887939453e+00,4.171720504760742188e+00,4.030399322509765625e+00,3.898339986801147461e+00,3.774659872055053711e+00,3.658586025238037109e+00,3.549438238143920898e+00,3.446614027023315430e+00,3.349579811096191406e+00,3.257859230041503906e+00,3.171028137207031250e+00,3.088705539703369141e+00,3.010549306869506836e+00,2.936250686645507812e+00,2.865530729293823242e+00,2.798137426376342773e+00,2.733841180801391602e+00,2.672433614730834961e+00,2.613723754882812500e+00,2.557538270950317383e+00,2.503717660903930664e+00,2.452115297317504883e+00,2.402597188949584961e+00,2.355039358139038086e+00,2.309327602386474609e+00,2.265357017517089844e+00,2.223029136657714844e+00,2.182254314422607422e+00,2.142948150634765625e+00,2.105032920837402344e+00,2.068436145782470703e+00,2.033090114593505859e+00,1.998931765556335449e+00,1.965902328491210938e+00,1.933946490287780762e+00,1.903012990951538086e+00,1.873053550720214844e+00,1.844022512435913086e+00
5.000000000000000000e+00,5.000000000000000000e+00,5.000000000000000000e+00,5.000000000000000000e+00,5.000000000000000000e+00,5.000000000000000000e+00,5.000000000000000000e+00,5.000000000000000000e+00,5.000000000000000000e+00,5.000000000000000000e+00,5.000000000000000000e+00,5.000000000000000000e+00,5.000000000000000000e+00,5.000000000000000000e+00,5.000000000000000000e+00,5.000000000000000000e+00,5.000000000000000000e+00,5.000000000000000000e+00,5.000000000000000000e+00,5.000000000000000000e+00,5.000000000000000000e+00,5.000000000000000000e+00,5.000000000000000000e+00,5.000000000000000000e+00,5.000000000000000000e+00,5.000000000000000000e+00,2.325864076614379883e+00,2.335723400115966797e+00,2.282422065734863281e+00,2.267452955245971680e+00,2.281108856201171875e+00,2.322820186614990234e+00,2.269623756408691406e+00,2.252878665924072266e+00,2.265264749526977539e+00,2.299504041671752930e+00,5.000000000000000000e+00,2.379045009613037109e+00,2.423844099044799805e+00,4.852414608001708984e+00,4.662263870239257812e+00,4.486454486846923828e+00,4.323421955108642578e+00,4.171823024749755859e+00,4.030495643615722656e+00,3.898429870605468750e+00,3.774744033813476562e+00,3.658664941787719727e+00,3.549512386322021484e+00,3.446684122085571289e+00,3.349645853042602539e+00,3.257922172546386719e+00,3.171087503433227539e+00,3.088762044906616211e+00,3.010602712631225586e+00,2.936301469802856445e+00,2.865579128265380859e+00,2.798183679580688477e+00,2.733885288238525391e+00,2.672475814819335938e+00,2.613764286041259766e+00,2.557576894760131836e+00,2.503754615783691406e+00,2.452150821685791016e+00,2.402631282806396484e+00,2.355072021484375000e+00,2.309359073638916016e+00,2.265387296676635742e+00,2.223058462142944336e+00,2.182282447814941406e+00,2.142975330352783203e+00,2.105059146881103516e+00,2.068461418151855469e+00,2.033114433288574219e+00,1.998955249786376953e+00,1.965925097465515137e+00,1.933968544006347656e+00,1.903034448623657227e+00,1.873074173927307129e+00,1.844042539596557617e+00
5.000000000000000000e+00,5.000000000000000000e+00,5.000000000000000000e+00,5.000000000000000000e+00,5.000000000000000000e+00,5.000000000000000000e+00,5.000000000000000000e+00,5.000000000000000000e+00,5.000000000000000000e+00,5.000000000000000000e+00,5.000000000000000000e+00,5.000000000000000000e+00,5.000000000000000000e+00,5.000000000000000000e+00,5.000000000000000000e+00,5.000000000000000000e+00,5.000000000000000000e+00,5.000000000000000000e+00,5.000000000000000000e+00,5.000000000000000000e+00,5.000000000000000000e+00,5.000000000000000000e+00,5.000000000000000000e+00,5.000000000000000000e+00,5.000000000000000000e+00,5.000000000000000000e+00,2.329170227050781250e+00,2.345087051391601562e+00,2.280269145965576172e+00,2.264837741851806641e+00,2.273994922637939453e+00,2.303229093551635742e+00,2.256860017776489258e+00,2.241860151290893555e+00,2.249323129653930664e+00,2.282552242279052734e+00,5.000000000000000000e+00,2.347713470458984375e+00,2.405564308166503906e+00,4.852553367614746094e+00,4.662392616271972656e+00,4.486573219299316406e+00,4.323532581329345703e+00,4.171926021575927734e+00,4.030591487884521484e+00,3.898519515991210938e+00,3.774827957153320312e+00,3.658744335174560547e+00,3.549586772918701172e+00,3.446754217147827148e+00,3.349712133407592773e+00,3.257984876632690430e+00,3.171146869659423828e+00,3.088818311691284180e+00,3.010656356811523438e+00,2.936352491378784180e+00,2.865627765655517578e+00,2.798229694366455078e+00,2.733929395675659180e+00,2.672518014907836914e+00,2.613804578781127930e+00,2.557615518569946289e+00,2.503791570663452148e+00,2.452186346054077148e+00,2.402665376663208008e+00,2.355104923248291016e+00,2.309390544891357422e+00,2.265417575836181641e+00,2.223087549209594727e+00,2.182310581207275391e+00,2.143002510070800781e+00,2.105085372924804688e+00,2.068486690521240234e+00,2.033138990402221680e+00,1.998978853225708008e+00,1.965947866439819336e+00,1.933990597724914551e+00,1.903055787086486816e+00,1.873094916343688965e+00,1.844062805175781250e+00
5.000000000000000000e+00,5.000000000000000000e+00,5.000000000000000000e+00,5.000000000000000000e+00,5.000000000000000000e+00,5.000000000000000000e+00,5.000000000000000000e+00,5.000000000000000000e+00,5.000000000000000000e+00,5.000000000000000000e+00,5.000000000000000000e+00,5.000000000000000000e+00,5.000000000000000000e+00,5.000000000000000000e+00,5.000000000000000000e+00,5.000000000000000000e+00,5.000000000000000000e+00,5.000000000000000000e+00,5.000000000000000000e+00,5.000000000000000000e+00,5.000000000000000000e+00,5.000000000000000000e+00,5.000000000000000000e+00,5.000000000000000000e+00,5.000000000000000000e+00,5.000000000000000000e+00,2.298174142837524414e+00,2.298794746398925781e+00,2.281503915786743164e+00,2.265873432159423828e+00,2.272749662399291992e+00,2.298569679260253906e+00,2.244975328445434570e+00,2.232570171356201172e+00,2.234399318695068359e+00,2.269555330276489258e+00,5.000000000000000000e+00,2.342995405197143555e+00,2.354167461395263672e+00,4.852692604064941406e+00,4.662520885467529297e+00,4.486691951751708984e+00,4.323642730712890625e+00,4.172028541564941406e+00,4.030687332153320312e+00,3.898609161376953125e+00,3.774912118911743164e+00,3.658823251724243164e+00,3.549661159515380859e+00,3.446824312210083008e+00,3.349778413772583008e+00,3.258047580718994141e+00,3.171206474304199219e+00,3.088874578475952148e+00,3.010709762573242188e+00,2.936403274536132812e+00,2.865676164627075195e+00,2.798275947570800781e+00,2.733973503112792969e+00,2.672559976577758789e+00,2.613845109939575195e+00,2.557654380798339844e+00,2.503828525543212891e+00,2.452221870422363281e+00,2.402699470520019531e+00,2.355137586593627930e+00,2.309422016143798828e+00,2.265447854995727539e+00,2.223116636276245117e+00,2.182338714599609375e+00,2.143029689788818359e+00,2.105111360549926758e+00,2.068511724472045898e+00,2.033163309097290039e+00,1.999002456665039062e+00,1.965970635414123535e+00,1.934012770652770996e+00,1.903077125549316406e+00,1.873115658760070801e+00,1.844082951545715332e+00
5.000000000000000000e+00,5.000000000000000000e+00,5.000000000000000000e+00,5.000000000000000000e+00,5.000000000000000000e+00,5.000000000000000000e+00,5.000000000000000000e+00,5.000000000000000000e+00,5.000000000000000000e+00,5.000000000000000000e+00,5.000000000000000000e+00,5.000000000000000000e+00,5.000000000000000000e+00,5.000000000000000000e+00,5.000000000000000000e+00,5.000000000000000000e+00,5.000000000000000000e+00,5.000000000000000000e+00,5.000000000000000000e+00,5.000000000000000000e+00,5.000000000000000000e+00,5.000000000000000000e+00,5.000000000000000000e+00,5.000000000000000000e+00,5.000000000000000000e+00,5.000000000000000000e+00,2.281983137130737305e+00,2.276941776275634766e+00,2.284307241439819336e+00,2.266910314559936523e+00,2.272117614746093750e+00,2.295970201492309570e+00,2.243991374969482422e+00,2.220591306686401367e+00,2.220600605010986328e+00,2.256726741790771484e+00,5.000000000000000000e+00,5.000000000000000000e+00,2.336764812469482422e+00,4.852831363677978516e+00,4.662649154663085938e+00,4.486811161041259766e+00,4.323752880096435547e+00,4.172131538391113281e+00,4.030783176422119141e+00,3.898698806762695312e+00,3.774996280670166016e+00,3.658902406692504883e+00,3.549735546112060547e+00,3.446894407272338867e+00,3.349844455718994141e+00,3.258110046386718750e+00,3.171265840530395508e+00,3.088930845260620117e+00,3.010763168334960938e+00,2.936454057693481445e+00,2.865724802017211914e+00,2.798322439193725586e+00,2.734017610549926758e+00,2.672602176666259766e+00,2.613885402679443359e+00,2.557693004608154297e+00,2.503865480422973633e+00,2.452257156372070312e+00,2.402733325958251953e+00,2.355170488357543945e+00,2.309453725814819336e+00,2.265478134155273438e+00,2.223145961761474609e+00,2.182366847991943359e+00,2.143056631088256836e+00,2.105137586593627930e+00,2.068536996841430664e+00,2.033187627792358398e+00,1.999026060104370117e+00,1.965993523597717285e+00,1.934034824371337891e+00,1.903098583221435547e+00,1.873136281967163086e+00,1.844102978706359863e+00
5.000000000000000000e+00,5.000000000000000000e+00,5.000000000000000000e+00,5.000000000000000000e+00,5.000000000000000000e+00,5.000000000000000000e+00,5.000000000000000000e+00,5.000000000000000000e+00,5.000000000000000000e+00,5.000000000000000000e+00,5.000000000000000000e+00,5.000000000000000000e+00,5.000000000000000000e+00,5.000000000000000000e+00,5.000000000000000000e+00,5.000000000000000000e+00,5.000000000000000000e+00,5.000000000000000000e+00,5.000000000000000000e+00,5.000000000000000000e+00,5.000000000000000000e+00,5.000000000000000000e+00,5.000000000000000000e+00,5.000000000000000000e+00,5.000000000000000000e+00,5.000000000000000000e+00,2.269482135772705078e+00,5.000000000000000000e+00,2.287117481231689453e+00,2.269110679626464844e+00,2.270192623138427734e+00,2.293376445770263672e+00,2.240712404251098633e+00,2.210656642913818359e+00,2.204081773757934570e+00,2.240578174591064453e+00,5.000000000000000000e+00,5.000000000000000000e+00,2.319282770156860352e+00,4.852970600128173828e+00,4.662777423858642578e+00,4.486929893493652344e+00,4.323863506317138672e+00,4.172234058380126953e+00,4.030879020690917969e+00,3.898788452148437500e+00,3.775080442428588867e+00,3.658981323242187500e+00,3.549810171127319336e+00,3.446964502334594727e+00,3.349910736083984375e+00,3.258172750473022461e+00,3.171325206756591797e+00,3.088987350463867188e+00,3.010816812515258789e+00,2.936505079269409180e+00,2.865773200988769531e+00,2.798368692398071289e+00,2.734061717987060547e+00,2.672644376754760742e+00,2.613925695419311523e+00,2.557731628417968750e+00,2.503902673721313477e+00,2.452292680740356445e+00,2.402767419815063477e+00,2.355203151702880859e+00,2.309485197067260742e+00,2.265508174896240234e+00,2.223175048828125000e+00,2.182394981384277344e+00,2.143083810806274414e+00,2.105163812637329102e+00,2.068562269210815430e+00,2.033212184906005859e+00,1.999049544334411621e+00,1.966016292572021484e+00,1.934056878089904785e+00,1.903119921684265137e+00,1.873157024383544922e+00,1.844123005867004395e+00
5.000000000000000000e+00,5.000000000000000000e+00,5.000000000000000000e+00,5.000000000000000000e+00,5.000000000000000000e+00,5.000000000000000000e+00,5.000000000000000000e+00,5.000000000000000000e+00,5.000000000000000000e+00,5.000000000000000000e+00,5.000000000000000000e+00,5.000000000000000000e+00,5.000000000000000000e+00,5.000000000000000000e+00,5.000000000000000000e+00,5.000000000000000000e+00,5.000000000000000000e+00,5.000000000000000000e+00,5.000000000000000000e+00,5.000000000000000000e+00,5.000000000000000000e+00,5.000000000000000000e+00,5.000000000000000000e+00,5.000000000000000000e+00,5.000000000000000000e+00,5.000000000000000000e+00,5.000000000000000000e+00,5.000000000000000000e+00,5.000000000000000000e+00,2.267476558685302734e+00,2.267910003662109375e+00,2.289695978164672852e+00,2.230797529220581055e+00,2.199759483337402344e+00,2.191554307937622070e+00,2.228597164154052734e+00,5.000000000000000000e+00,5.000000000000000000e+00,5.000000000000000000e+00,4.853109836578369141e+00,4.662905693054199219e+00,4.487048625946044922e+00,4.323974132537841797e+00,4.172337055206298828e+00,4.030974864959716797e+00,3.898878335952758789e+00,3.775164365768432617e+00,3.659060239791870117e+00,3.549884557723999023e+00,3.447034597396850586e+00,3.349977016448974609e+00,3.258235454559326172e+00,3.171384572982788086e+00,3.089043617248535156e+00,3.010870218276977539e+00,2.936555862426757812e+00,2.865821599960327148e+00,2.798414945602416992e+00,2.734106063842773438e+00,2.672686576843261719e+00,2.613965988159179688e+00,2.557770252227783203e+00,2.503939628601074219e+00,2.452328205108642578e+00,2.402801513671875000e+00,2.355235815048217773e+00,2.309516668319702148e+00,2.265538692474365234e+00,2.223204135894775391e+00,2.182423114776611328e+00,2.143110990524291992e+00,2.105190038681030273e+00,2.068587541580200195e+00,2.033236503601074219e+00,1.999073147773742676e+00,1.966039061546325684e+00,1.934078931808471680e+00,1.903141260147094727e+00,1.873177766799926758e+00,1.844143152236938477e+00
5.000000000000000000e+00,5.000000000000000000e+00,5.000000000000000000e+00,5.000000000000000000e+00,5.000000000000000000e+00,5.000000000000000000e+00,5.000000000000000000e+00,5.000000000000000000e+00,5.000000000000000000e+00,5.000000000000000000e+00,5.000000000000000000e+00,5.000000000000000000e+00,5.000000000000000000e+00,5.000000000000000000e+00,5.000000000000000000e+00,5.000000000000000000e+00,5.000000000000000000e+00,5.000000000000000000e+00,5.000000000000000000e+00,5.000000000000000000e+00,5.000000000000000000e+00,5.000000000000000000e+00,5.000000000000000000e+00,5.000000000000000000e+00,5.000000000000000000e+00,5.000000000000000000e+00,5.000000000000000000e+00,5.000000000000000000e+00,5.000000000000000000e+00,2.265155792236328125e+00,2.265688180923461914e+00,2.284627914428710938e+00,2.225077152252197266e+00,2.186376810073852539e+00,2.182440757751464844e+00,2.216743469238281250e+00,5.000000000000000000e+00,5.000000000000000000e+00,5.000000000000000000e+00,4.853248596191406250e+00,4.663034439086914062e+00,4.487167358398437500e+00,4.324084281921386719e+00,4.172439575195312500e+00,4.031071186065673828e+00,3.898967981338500977e+00,3.775248527526855469e+00,3.659139394760131836e+00,3.549958944320678711e+00,3.447105169296264648e+00,3.350043296813964844e+00,3.258298158645629883e+00,3.171443939208984375e+00,3.089100122451782227e+00,3.010923624038696289e+00,2.936606884002685547e+00,2.865869998931884766e+00,2.798460960388183594e+00,2.734150171279907227e+00,2.672728776931762695e+00,2.614006280899047852e+00,2.557808637619018555e+00,2.503976583480834961e+00,2.452363967895507812e+00,2.402835607528686523e+00,2.355268716812133789e+00,2.309548139572143555e+00,2.265568971633911133e+00,2.223233461380004883e+00,2.182451009750366211e+00,2.143137931823730469e+00,2.105216264724731445e+00,2.068613052368164062e+00,2.033260822296142578e+00,1.999096751213073730e+00,1.966061949729919434e+00,1.934100985527038574e+00,1.903162598609924316e+00,1.873198509216308594e+00,1.844163179397583008e+00
5.000000000000000000e+00,5.000000000000000000e+00,5.000000000000000000e+00,5.000000000000000000e+00,5.000000000000000000e+00,5.000000000000000000e+00,5.000000000000000000e+00,5.000000000000000000e+00,5.000000000000000000e+00,5.000000000000000000e+00,5.000000000000000000e+00,5.000000000000000000e+00,5.000000000000000000e+00,5.000000000000000000e+00,5.000000000000000000e+00,5.000000000000000000e+00,5.000000000000000000e+00,5.000000000000000000e+00,5.000000000000000000e+00,5.000000000000000000e+00,5.000000000000000000e+00,5.000000000000000000e+00,5.000000000000000000e+00,5.000000000000000000e+00,5.000000000000000000e+00,5.000000000000000000e+00,5.000000000000000000e+00,5.000000000000000000e+00,5.000000000000000000e+00,2.269980669021606445e+00,2.261915445327758789e+00,2.279582023620605469e+00,2.221206188201904297e+00,2.179107666015625000e+00,2.177140235900878906e+00,5.000000000000000000e+00,5.000000000000000000e+00,5.000000000000000000e+00,5.000000000000000000e+00,4.853387832641601562e+00,4.663162708282470703e+00,4.487286090850830078e+00,4.324194431304931641e+00,4.172542572021484375e+00,4.031167030334472656e+00,3.899058103561401367e+00,3.775332689285278320e+00,3.659218311309814453e+00,3.550033330917358398e+00,3.447175264358520508e+00,3.350109338760375977e+00,3.258360624313354492e+00,3.171503305435180664e+00,3.089156389236450195e+00,3.010977506637573242e+00,2.936657667160034180e+00,2.865918636322021484e+00,2.798507213592529297e+00,2.734194278717041016e+00,2.672770738601684570e+00,2.614046573638916016e+00,2.557847261428833008e+00,2.504013776779174805e+00,2.452399492263793945e+00,2.402869701385498047e+00,2.355301380157470703e+00,2.309579610824584961e+00,2.265599250793457031e+00,2.223262786865234375e+00,2.182479143142700195e+00,2.143165111541748047e+00,2.105242252349853516e+00,2.068638324737548828e+00,2.033285379409790039e+00,1.999120354652404785e+00,1.966084718704223633e+00,1.934123039245605469e+00,1.903184056282043457e+00,1.873219132423400879e+00,1.844183325767517090e+00
5.000000000000000000e+00,5.000000000000000000e+00,5.000000000000000000e+00,5.000000000000000000e+00,5.000000000000000000e+00,5.000000000000000000e+00,5.000000000000000000e+00,5.000000000000000000e+00,5.000000000000000000e+00,5.000000000000000000e+00,5.000000000000000000e+00,5.000000000000000000e+00,5.000000000000000000e+00,5.000000000000000000e+00,5.000000000000000000e+00,5.000000000000000000e+00,5.000000000000000000e+00,5.000000000000000000e+00,5.000000000000000000e+00,5.000000000000000000e+00,5.000000000000000000e+00,5.000000000000000000e+00,5.000000000000000000e+00,5.000000000000000000e+00,5.000000000000000000e+00,5.000000000000000000e+00,5.000000000000000000e+00,5.000000000000000000e+00,5.000000000000000000e+00,2.279187917709350586e+00,2.261418581008911133e+00,2.277065992355346680e+00,2.233507394790649414e+00,2.182641029357910156e+00,2.181566715240478516e+00,5.000000000000000000e+00,5.000000000000000000e+00,5.000000000000000000e+00,5.000000000000000000e+00,4.853526592254638672e+00,4.663290977478027344e+00,4.487405300140380859e+00,4.324305057525634766e+00,4.172645568847656250e+00,4.031262874603271484e+00,3.899147748947143555e+00,3.775416851043701172e+00,3.659297466278076172e+00,3.550107717514038086e+00,3.447245359420776367e+00,3.350176095962524414e+00,3.258423328399658203e+00,3.171562671661376953e+00,3.089212656021118164e+00,3.011030912399291992e+00,2.936708688735961914e+00,2.865967035293579102e+00,2.798553466796875000e+00,2.734238386154174805e+00,2.672813177108764648e+00,2.614086866378784180e+00,2.557885885238647461e+00,2.504050731658935547e+00,2.452434778213500977e+00,2.402904033660888672e+00,2.355334043502807617e+00,2.309611082077026367e+00,2.265629529953002930e+00,2.223291873931884766e+00,2.182507276535034180e+00,2.143192291259765625e+00,2.105268478393554688e+00,2.068663358688354492e+00,2.033309698104858398e+00,1.999143958091735840e+00,1.966107487678527832e+00,1.934145212173461914e+00,1.903205394744873047e+00,1.873239874839782715e+00,1.844203352928161621e+00
5.000000000000000000e+00,5.000000000000000000e+00,5.000000000000000000e+00,5.000000000000000000e+00,5.000000000000000000e+00,5.000000000000000000e+00,5.000000000000000000e+00,5.000000000000000000e+00,5.000000000000000000e+00,5.000000000000000000e+00,5.000000000000000000e+00,5.000000000000000000e+00,5.000000000000000000e+00,5.000000000000000000e+00,5.000000000000000000e+00,5.000000000000000000e+00,5.000000000000000000e+00,5.000000000000000000e+00,5.000000000000000000e+00,5.000000000000000000e+00,5.000000000000000000e+00,5.000000000000000000e+00,5.000000000000000000e+00,5.000000000000000000e+00,5.000000000000000000e+00,5.000000000000000000e+00,5.000000000000000000e+00,5.000000000000000000e+00,5.000000000000000000e+00,2.312742471694946289e+00,2.275532007217407227e+00,2.294676542282104492e+00,5.000000000000000000e+00,2.208798408508300781e+00,2.204195737838745117e+00,2.279551267623901367e+00,5.000000000000000000e+00,5.000000000000000000e+00,5.000000000000000000e+00,4.853666305541992188e+00,4.663419246673583984e+00,4.487524032592773438e+00,4.324415206909179688e+00,4.172748088836669922e+00,4.031358718872070312e+00,3.899237632751464844e+00,3.775501251220703125e+00,3.659376382827758789e+00,3.550182104110717773e+00,3.447315454483032227e+00,3.350242137908935547e+00,3.258486032485961914e+00,3.171622037887573242e+00,3.089268922805786133e+00,3.011084556579589844e+00,2.936759710311889648e+00,2.866015434265136719e+00,2.798599720001220703e+00,2.734282493591308594e+00,2.672855377197265625e+00,2.614127159118652344e+00,2.557924509048461914e+00,2.504087686538696289e+00,2.452470302581787109e+00,2.402938127517700195e+00,2.355366706848144531e+00,2.309642553329467773e+00,2.265659809112548828e+00,2.223320960998535156e+00,2.182535648345947266e+00,2.143219232559204102e+00,2.105294704437255859e+00,2.068688631057739258e+00,2.033334255218505859e+00,1.999167561531066895e+00,1.966130375862121582e+00,1.934167265892028809e+00,1.903226733207702637e+00,1.873260617256164551e+00,1.844223380088806152e+00
5.000000000000000000e+00,5.000000000000000000e+00,5.000000000000000000e+00,5.000000000000000000e+00,5.000000000000000000e+00,5.000000000000000000e+00,5.000000000000000000e+00,5.000000000000000000e+00,5.000000000000000000e+00,5.000000000000000000e+00,5.000000000000000000e+00,5.000000000000000000e+00,5.000000000000000000e+00,5.000000000000000000e+00,5.000000000000000000e+00,5.000000000000000000e+00,5.000000000000000000e+00,5.000000000000000000e+00,5.000000000000000000e+00,5.000000000000000000e+00,5.000000000000000000e+00,5.000000000000000000e+00,5.000000000000000000e+00,5.000000000000000000e+00,5.000000000000000000e+00,5.000000000000000000e+00,5.000000000000000000e+00,5.000000000000000000e+00,5.000000000000000000e+00,2.334053516387939453e+00,2.297235488891601562e+00,2.323540687561035156e+00,5.000000000000000000e+00,2.270084381103515625e+00,2.250219821929931641e+00,2.328205585479736328e+00,5.000000000000000000e+00,5.000000000000000000e+00,5.000000000000000000e+00,4.853805065155029297e+00,4.663547515869140625e+00,4.487643241882324219e+00,4.324525833129882812e+00,4.172851085662841797e+00,4.031454563140869141e+00,3.899327278137207031e+00,3.775585412979125977e+00,3.659455299377441406e+00,3.550256490707397461e+00,3.447385549545288086e+00,3.350308418273925781e+00,3.258548974990844727e+00,3.171681404113769531e+00,3.089325189590454102e+00,3.011137962341308594e+00,2.936810731887817383e+00,2.866063833236694336e+00,2.798645973205566406e+00,2.734326601028442383e+00,2.672897577285766602e+00,2.614167690277099609e+00,2.557963132858276367e+00,2.504124641418457031e+00,2.452505826950073242e+00,2.402971982955932617e+00,2.355399608612060547e+00,2.309674024581909180e+00,2.265690088272094727e+00,2.223350286483764648e+00,2.182563781738281250e+00,2.143246412277221680e+00,2.105320930480957031e+00,2.068713903427124023e+00,2.033358573913574219e+00,1.999191284179687500e+00,1.966153144836425781e+00,1.934189319610595703e+00,1.903248190879821777e+00,1.873281240463256836e+00,1.844243526458740234e+00
5.000000000000000000e+00,5.000000000000000000e+00,5.000000000000000000e+00,5.000000000000000000e+00,5.000000000000000000e+00,5.000000000000000000e+00,5.000000000000000000e+00,5.000000000000000000e+00,5.000000000000000000e+00,5.000000000000000000e+00,5.000000000000000000e+00,5.000000000000000000e+00,5.000000000000000000e+00,5.000000000000000000e+00,5.000000000000000000e+00,5.000000000000000000e+00,5.000000000000000000e+00,5.000000000000000000e+00,5.000000000000000000e+00,5.000000000000000000e+00,5.000000000000000000e+00,5.000000000000000000e+00,5.000000000000000000e+00,5.000000000000000000e+00,5.000000000000000000e+00,5.000000000000000000e+00,5.000000000000000000e+00,5.000000000000000000e+00,5.000000000000000000e+00,2.362696170806884766e+00,2.325856447219848633e+00,2.353284597396850586e+00,5.000000000000000000e+00,2.316369771957397461e+00,2.297434568405151367e+00,2.381100416183471680e+00,5.000000000000000000e+00,5.000000000000000000e+00,5.000000000000000000e+00,4.853943347930908203e+00,4.663676261901855469e+00,4.487761974334716797e+00,4.324636459350585938e+00,4.172953605651855469e+00,4.031550884246826172e+00,3.899416923522949219e+00,3.775669574737548828e+00,3.659534931182861328e+00,3.550330877304077148e+00,3.447455883026123047e+00,3.350374698638916016e+00,3.258611679077148438e+00,3.171740770339965820e+00,3.089381694793701172e+00,3.011191368103027344e+00,2.936861515045166016e+00,2.866112709045410156e+00,2.798692226409912109e+00,2.734370708465576172e+00,2.672939777374267578e+00,2.614207983016967773e+00,2.558001756668090820e+00,2.504161596298217773e+00,2.452541351318359375e+00,2.403006076812744141e+00,2.355432510375976562e+00,2.309705495834350586e+00,2.265720367431640625e+00,2.223379373550415039e+00,2.182591915130615234e+00,2.143273591995239258e+00,2.105346918106079102e+00,2.068739175796508789e+00,2.033382892608642578e+00,1.999214887619018555e+00,1.966176033020019531e+00,1.934211373329162598e+00,1.903269529342651367e+00,1.873301982879638672e+00,1.844263553619384766e+00
5.000000000000000000e+00,5.000000000000000000e+00,5.000000000000000000e+00,5.000000000000000000e+00,5.000000000000000000e+00,5.000000000000000000e+00,5.000000000000000000e+00,5.000000000000000000e+00,5.000000000000000000e+00,5.000000000000000000e+00,5.000000000000000000e+00,5.000000000000000000e+00,5.000000000000000000e+00,5.000000000000000000e+00,5.000000000000000000e+00,5.000000000000000000e+00,5.000000000000000000e+00,5.000000000000000000e+00,5.000000000000000000e+00,5.000000000000000000e+00,5.000000000000000000e+00,5.000000000000000000e+00,5.000000000000000000e+00,5.000000000000000000e+00,5.000000000000000000e+00,5.000000000000000000e+00,5.000000000000000000e+00,5.000000000000000000e+00,5.000000000000000000e+00,2.390214681625366211e+00,2.340971946716308594e+00,2.360976457595825195e+00,5.000000000000000000e+00,2.347520589828491211e+00,2.327552795410156250e+00,5.000000000000000000e+00,5.000000000000000000e+00,5.000000000000000000e+00,5.000000000000000000e+00,4.854081153869628906e+00,4.663804531097412109e+00,4.487880706787109375e+00,4.324746608734130859e+00,4.173056602478027344e+00,4.031646728515625000e+00,3.899506568908691406e+00,3.775753736495971680e+00,3.659613847732543945e+00,3.550405263900756836e+00,3.447525978088378906e+00,3.350440979003906250e+00,3.258674383163452148e+00,3.171800374984741211e+00,3.089437961578369141e+00,3.011245012283325195e+00,2.936912298202514648e+00,2.866161108016967773e+00,2.798738479614257812e+00,2.734414815902709961e+00,2.672981739044189453e+00,2.614248514175415039e+00,2.558040618896484375e+00,2.504198789596557617e+00,2.452576875686645508e+00,2.403040170669555664e+00,2.355465173721313477e+00,2.309736967086791992e+00,2.265750646591186523e+00,2.223408460617065430e+00,2.182619810104370117e+00,2.143300771713256836e+00,2.105373144149780273e+00,2.068764448165893555e+00,2.033407449722290039e+00,1.999238491058349609e+00,1.966199040412902832e+00,1.934233427047729492e+00,1.903290867805480957e+00,1.873322725296020508e+00,1.844283580780029297e+00
5.000000000000000000e+00,5.000000000000000000e+00,5.000000000000000000e+00,5.000000000000000000e+00,5.000000000000000000e+00,5.000000000000000000e+00,5.000000000000000000e+00,5.000000000000000000e+00,5.000000000000000000e+00,5.000000000000000000e+00,5.000000000000000000e+00,5.000000000000000000e+00,5.000000000000000000e+00,5.000000000000000000e+00,5.000000000000000000e+00,5.000000000000000000e+00,5.000000000000000000e+00,5.000000000000000000e+00,5.000000000000000000e+00,5.000000000000000000e+00,5.000000000000000000e+00,5.000000000000000000e+00,5.000000000000000000e+00,5.000000000000000000e+00,5.000000000000000000e+00,5.000000000000000000e+00,5.000000000000000000e+00,5.000000000000000000e+00,5.000000000000000000e+00,5.000000000000000000e+00,2.351791620254516602e+00,2.366964817047119141e+00,5.000000000000000000e+00,2.379262924194335938e+00,2.360432386398315430e+00,5.000000000000000000e+00,5.000000000000000000e+00,5.000000000000000000e+00,5.000000000000000000e+00,4.854218482971191406e+00,4.663931369781494141e+00,4.487999916076660156e+00,4.324857234954833984e+00,4.173159599304199219e+00,4.031742572784423828e+00,3.899596452713012695e+00,3.775837659835815430e+00,3.659692764282226562e+00,3.550479888916015625e+00,3.447596073150634766e+00,3.350507259368896484e+00,3.258736848831176758e+00,3.171859741210937500e+00,3.089494228363037109e+00,3.011298418045043945e+00,2.936963319778442383e+00,2.866209506988525391e+00,2.798784732818603516e+00,2.734458923339843750e+00,2.673023939132690430e+00,2.614288806915283203e+00,2.558079242706298828e+00,2.504235744476318359e+00,2.452612400054931641e+00,2.403074264526367188e+00,2.355497837066650391e+00,2.309768676757812500e+00,2.265780925750732422e+00,2.223437786102294922e+00,2.182647943496704102e+00,2.143327951431274414e+00,2.105399370193481445e+00,2.068789720535278320e+00,2.033431768417358398e+00,1.999262094497680664e+00,1.966221809387207031e+00,1.934255480766296387e+00,1.903312325477600098e+00,1.873343348503112793e+00,1.844303727149963379e+00
5.000000000000000000e+00,5.000000000000000000e+00,5.000000000000000000e+00,5.000000000000000000e+00,5.000000000000000000e+00,5.000000000000000000e+00,5.000000000000000000e+00,5.000000000000000000e+00,5.000000000000000000e+00,5.000000000000000000e+00,5.000000000000000000e+00,5.000000000000000000e+00,5.000000000000000000e+00,5.000000000000000000e+00,5.000000000000000000e+00,5.000000000000000000e+00,5.000000000000000000e+00,5.000000000000000000e+00,5.000000000000000000e+00,5.000000000000000000e+00,5.000000000000000000e+00,5.000000000000000000e+00,5.000000000000000000e+00,5.000000000000000000e+00,5.000000000000000000e+00,5.000000000000000000e+00,5.000000000000000000e+00,5.000000000000000000e+00,5.000000000000000000e+00,5.000000000000000000e+00,2.365745544433593750e+00,2.372736215591430664e+00,5.000000000000000000e+00,2.414059400558471680e+00,2.407660722732543945e+00,5.000000000000000000e+00,5.000000000000000000e+00,5.000000000000000000e+00,5.000000000000000000e+00,4.854355812072753906e+00,4.664058208465576172e+00,4.488117694854736328e+00,4.324967384338378906e+00,4.173262119293212891e+00,4.031838417053222656e+00,3.899686098098754883e+00,3.775921821594238281e+00,3.659771919250488281e+00,3.550554275512695312e+00,3.447666168212890625e+00,3.350573539733886719e+00,3.258799552917480469e+00,3.171919107437133789e+00,3.089550971984863281e+00,3.011352062225341797e+00,2.937014102935791016e+00,2.866258144378662109e+00,2.798830986022949219e+00,2.734503030776977539e+00,2.673066139221191406e+00,2.614329099655151367e+00,2.558117866516113281e+00,2.504272937774658203e+00,2.452647924423217773e+00,2.403108358383178711e+00,2.355530738830566406e+00,2.309800148010253906e+00,2.265811204910278320e+00,2.223466873168945312e+00,2.182676076889038086e+00,2.143354892730712891e+00,2.105425596237182617e+00,2.068814992904663086e+00,2.033456087112426758e+00,1.999285697937011719e+00,1.966244697570800781e+00,1.934277653694152832e+00,1.903333663940429688e+00,1.873364090919494629e+00,1.844323754310607910e+00
5.000000000000000000e+00,5.000000000000000000e+00,5.000000000000000000e+00,5.000000000000000000e+00,5.000000000000000000e+00,5.000000000000000000e+00,5.000000000000000000e+00,5.000000000000000000e+00,5.000000000000000000e+00,5.000000000000000000e+00,5.000000000000000000e+00,5.000000000000000000e+00,5.000000000000000000e+00,5.000000000000000000e+00,5.000000000000000000e+00,5.000000000000000000e+00,5.000000000000000000e+00,5.000000000000000000e+00,5.000000000000000000e+00,5.000000000000000000e+00,5.000000000000000000e+00,5.000000000000000000e+00,5.000000000000000000e+00,5.000000000000000000e+00,5.000000000000000000e+00,5.000000000000000000e+00,5.000000000000000000e+00,5.000000000000000000e+00,5.000000000000000000e+00,5.000000000000000000e+00,2.384860515594482422e+00,2.379746437072753906e+00,5.000000000000000000e+00,2.453462839126586914e+00,2.454617977142333984e+00,5.000000000000000000e+00,5.000000000000000000e+00,5.000000000000000000e+00,5.000000000000000000e+00,4.854493618011474609e+00,4.664185047149658203e+00,4.488234996795654297e+00,4.325077533721923828e+00,4.173365116119384766e+00,4.031934738159179688e+00,3.899775981903076172e+00,3.776005983352661133e+00,3.659850835800170898e+00,3.550628662109375000e+00,3.447736263275146484e+00,3.350639581680297852e+00,3.258862257003784180e+00,3.171978473663330078e+00,3.089607238769531250e+00,3.011405467987060547e+00,2.937065124511718750e+00,2.866306543350219727e+00,2.798877239227294922e+00,2.734547376632690430e+00,2.673108339309692383e+00,2.614369392395019531e+00,2.558156490325927734e+00,2.504309892654418945e+00,2.452683210372924805e+00,2.403142452239990234e+00,2.355563402175903320e+00,2.309831619262695312e+00,2.265841722488403320e+00,2.223495960235595703e+00,2.182704210281372070e+00,2.143382072448730469e+00,2.105451822280883789e+00,2.068840265274047852e+00,2.033480644226074219e+00,1.999309301376342773e+00,1.966267466545104980e+00,1.934299945831298828e+00,1.903355002403259277e+00,1.873384833335876465e+00,1.844343781471252441e+00
5.000000000000000000e+00,5.000000000000000000e+00,5.000000000000000000e+00,5.000000000000000000e+00,5.000000000000000000e+00,5.000000000000000000e+00,5.000000000000000000e+00,5.000000000000000000e+00,5.000000000000000000e+00,5.000000000000000000e+00,5.000000000000000000e+00,5.000000000000000000e+00,5.000000000000000000e+00,5.000000000000000000e+00,5.000000000000000000e+00,5.000000000000000000e+00,5.000000000000000000e+00,5.000000000000000000e+00,5.000000000000000000e+00,5.000000000000000000e+00,5.000000000000000000e+00,5.000000000000000000e+00,5.000000000000000000e+00,5.000000000000000000e+00,5.000000000000000000e+00,5.000000000000000000e+00,5.000000000000000000e+00,5.000000000000000000e+00,5.000000000000000000e+00,5.000000000000000000e+00,2.414963006973266602e+00,2.387293100357055664e+00,5.000000000000000000e+00,2.507702112197875977e+00,2.521675586700439453e+00,5.000000000000000000e+00,5.000000000000000000e+00,5.000000000000000000e+00,5.000000000000000000e+00,4.854630947113037109e+00,4.664312362670898438e+00,4.488352775573730469e+00,4.325186729431152344e+00,4.173467636108398438e+00,4.032030582427978516e+00,3.899865627288818359e+00,3.776090145111083984e+00,3.659929990768432617e+00,3.550703048706054688e+00,3.447806835174560547e+00,3.350705862045288086e+00,3.258924961090087891e+00,3.172037839889526367e+00,3.089663505554199219e+00,3.011459350585937500e+00,2.937115907669067383e+00,2.866354942321777344e+00,2.798923492431640625e+00,2.734591722488403320e+00,2.673150539398193359e+00,2.614409685134887695e+00,2.558195114135742188e+00,2.504346847534179688e+00,2.452718973159790039e+00,2.403176546096801758e+00,2.355596065521240234e+00,2.309863090515136719e+00,2.265872001647949219e+00,2.223525285720825195e+00,2.182732343673706055e+00,2.143409252166748047e+00,2.105477809906005859e+00,2.068865537643432617e+00,2.033504962921142578e+00,1.999332904815673828e+00,1.966290235519409180e+00,1.934321999549865723e+00,1.903376340866088867e+00,1.873405575752258301e+00,1.844363927841186523e+00
4.875304222106933594e+00,4.874093532562255859e+00,4.872883319854736328e+00,4.871674537658691406e+00,4.870465755462646484e+00,4.869257450103759766e+00,4.868050098419189453e+00,4.866843223571777344e+00,4.865636348724365234e+00,4.864430904388427734e+00,4.863225936889648438e+00,4.862020969390869141e+00,4.860816955566406250e+00,4.859613895416259766e+00,4.858411312103271484e+00,4.857208728790283203e+00,4.856007575988769531e+00,4.854806423187255859e+00,4.853606224060058594e+00,4.852406024932861328e+00,4.851207256317138672e+00,4.850008487701416016e+00,4.848810672760009766e+00,4.847613334655761719e+00,4.846416473388671875e+00,4.845220088958740234e+00,4.844024181365966797e+00,4.842829704284667969e+00,4.841634750366210938e+00,4.840440750122070312e+00,2.445835351943969727e+00,2.402715444564819336e+00,4.836863040924072266e+00,2.489879131317138672e+00,2.499422788619995117e+00,4.833290100097656250e+00,4.832100391387939453e+00,4.830911159515380859e+00,4.829722404479980469e+00,4.828534603118896484e+00,4.664438724517822266e+00,4.488470077514648438e+00,4.325295925140380859e+00,4.173569679260253906e+00,4.032126426696777344e+00,3.899955749511718750e+00,3.776174306869506836e+00,3.660008907318115234e+00,3.550777435302734375e+00,3.447876930236816406e+00,3.350772142410278320e+00,3.258987665176391602e+00,3.172097206115722656e+00,3.089719772338867188e+00,3.011512756347656250e+00,2.937166929244995117e+00,2.866403579711914062e+00,2.798969745635986328e+00,2.734635829925537109e+00,2.673192739486694336e+00,2.614449977874755859e+00,2.558233737945556641e+00,2.504384040832519531e+00,2.452754497528076172e+00,2.403210639953613281e+00,2.355628967285156250e+00,2.309894561767578125e+00,2.265902280807495117e+00,2.223554611206054688e+00,2.182760477066040039e+00,2.143436431884765625e+00,2.105504035949707031e+00,2.068890810012817383e+00,2.033529281616210938e+00,1.999356389045715332e+00,1.966313123703002930e+00,1.934344053268432617e+00,1.903398036956787109e+00,1.873426198959350586e+00,1.844383955001831055e+00
3.778132438659667969e+00,3.777405500411987305e+00,3.776678323745727539e+00,3.775952100753784180e+00,3.775226116180419922e+00,3.774499893188476562e+00,3.773774385452270508e+00,3.773049116134643555e+00,3.772323846817016602e+00,3.771599054336547852e+00,3.770874738693237305e+00,3.770150184631347656e+00,3.769426345825195312e+00,3.768702507019042969e+00,3.767979145050048828e+00,3.767256259918212891e+00,3.766533136367797852e+00,3.765810728073120117e+00,3.765088558197021484e+00,3.764366149902343750e+00,3.763644695281982422e+00,3.762923240661621094e+00,3.762201786041259766e+00,3.761481046676635742e+00,3.760760784149169922e+00,3.760040044784545898e+00,3.759320020675659180e+00,3.758600473403930664e+00,3.757880687713623047e+00,3.757161617279052734e+00,3.756442308425903320e+00,2.426975250244140625e+00,3.755005359649658203e+00,2.462372779846191406e+00,2.476579427719116211e+00,3.752851724624633789e+00,3.752134084701538086e+00,3.751417160034179688e+00,3.750700712203979492e+00,3.749983787536621094e+00,3.749267816543579102e+00,3.748551845550537109e+00,3.747835874557495117e+00,3.747120618820190430e+00,3.746405601501464844e+00,3.745690584182739258e+00,3.744976043701171875e+00,3.660088062286376953e+00,3.550852060317993164e+00,3.447947025299072266e+00,3.350838661193847656e+00,3.259050369262695312e+00,3.172156572341918945e+00,3.089776277542114258e+00,3.011566400527954102e+00,2.937217712402343750e+00,2.866451978683471680e+00,2.799015998840332031e+00,2.734679937362670898e+00,2.673234939575195312e+00,2.614490509033203125e+00,2.558272361755371094e+00,2.504420995712280273e+00,2.452790021896362305e+00,2.403244972229003906e+00,2.355661630630493164e+00,2.309926033020019531e+00,2.265932559967041016e+00,2.223583698272705078e+00,2.182788610458374023e+00,2.143463373184204102e+00,2.105530261993408203e+00,2.068916082382202148e+00,2.033553838729858398e+00,1.999379992485046387e+00,1.966335892677307129e+00,1.934366106986999512e+00,1.903419375419616699e+00,1.873446941375732422e+00,1.844404101371765137e+00
3.084071636199951172e+00,3.083587408065795898e+00,3.083102941513061523e+00,3.082618951797485352e+00,3.082134962081909180e+00,3.081650972366333008e+00,3.081167221069335938e+00,3.080683469772338867e+00,3.080200195312500000e+00,3.079717159271240234e+00,3.079233884811401367e+00,3.078751087188720703e+00,3.078268289566040039e+00,3.077785491943359375e+00,3.077303171157836914e+00,3.076820850372314453e+00,3.076338529586791992e+00,3.075856447219848633e+00,3.075374603271484375e+00,3.074892759323120117e+00,3.074411392211914062e+00,3.073930025100708008e+00,3.073448419570922852e+00,3.072967529296875000e+00,3.072486162185668945e+00,3.072005510330200195e+00,3.071524858474731445e+00,3.071044206619262695e+00,3.070564031600952148e+00,3.070083856582641602e+00,3.069603443145751953e+00,2.399444103240966797e+00,2.407473802566528320e+00,2.426653385162353516e+00,2.439357042312622070e+00,3.067205667495727539e+00,3.066726207733154297e+00,3.066247224807739258e+00,3.065768718719482422e+00,3.065289735794067383e+00,3.064811229705810547e+00,3.064332723617553711e+00,3.063854455947875977e+00,3.063376426696777344e+00,3.062898159027099609e+00,3.062420606613159180e+00,3.061942815780639648e+00,3.061465263366699219e+00,3.060987949371337891e+00,3.060510635375976562e+00,3.060033559799194336e+00,3.059556722640991211e+00,3.059079885482788086e+00,3.058603048324584961e+00,3.011619806289672852e+00,2.937268972396850586e+00,2.866500616073608398e+00,2.799062252044677734e+00,2.734724044799804688e+00,2.673277139663696289e+00,2.614530801773071289e+00,2.558310985565185547e+00,2.504457950592041016e+00,2.452825546264648438e+00,2.403279066085815430e+00,2.355694293975830078e+00,2.309957504272460938e+00,2.265962839126586914e+00,2.223613023757934570e+00,2.182816743850708008e+00,2.143490552902221680e+00,2.105556488037109375e+00,2.068941354751586914e+00,2.033578395843505859e+00,1.999403595924377441e+00,1.966358780860900879e+00,1.934388279914855957e+00,1.903440713882446289e+00,1.873467922210693359e+00,1.844424128532409668e+00
2.605440139770507812e+00,2.605094194412231445e+00,2.604748725891113281e+00,2.604403257369995117e+00,2.604057550430297852e+00,2.603712081909179688e+00,2.603366851806640625e+00,2.603021621704101562e+00,2.602676630020141602e+00,2.602331638336181641e+00,2.601986408233642578e+00,2.601641654968261719e+00,2.601297140121459961e+00,2.600952148437500000e+00,2.600607633590698242e+00,2.600263357162475586e+00,2.599918842315673828e+00,2.599574565887451172e+00,2.599230289459228516e+00,2.598886013031005859e+00,2.598542213439941406e+00,2.598198175430297852e+00,2.597854375839233398e+00,2.597510576248168945e+00,2.597166776657104492e+00,2.596823215484619141e+00,2.596479892730712891e+00,2.596136331558227539e+00,2.595793247222900391e+00,2.595449924468994141e+00,2.595106840133666992e+00,2.349140882492065430e+00,2.327435731887817383e+00,2.594077825546264648e+00,2.593735218048095703e+00,2.593392372131347656e+00,2.593050003051757812e+00,2.592707395553588867e+00,2.592365026473999023e+00,2.592022657394409180e+00,2.591680526733398438e+00,2.591338396072387695e+00,2.590996265411376953e+00,2.590654611587524414e+00,2.590312480926513672e+00,2.589970827102661133e+00,2.589629173278808594e+00,2.589287519454956055e+00,2.588946104049682617e+00,2.588604450225830078e+00,2.588263273239135742e+00,2.587922096252441406e+00,2.587580919265747070e+00,2.587239980697631836e+00,2.586899042129516602e+00,2.586558103561401367e+00,2.586217403411865234e+00,2.585876703262329102e+00,2.585536003112792969e+00,2.585195541381835938e+00,2.584855318069458008e+00,2.558349609375000000e+00,2.504494905471801758e+00,2.452861070632934570e+00,2.403312921524047852e+00,2.355727195739746094e+00,2.309988975524902344e+00,2.265993356704711914e+00,2.223642110824584961e+00,2.182844877243041992e+00,2.143517732620239258e+00,2.105582475662231445e+00,2.068966627120971680e+00,2.033602714538574219e+00,1.999427199363708496e+00,1.966381549835205078e+00,1.934410333633422852e+00,1.903462171554565430e+00,1.873488545417785645e+00,1.844444155693054199e+00
2.255430936813354492e+00,2.255171060562133789e+00,2.254911184310913086e+00,2.254651308059692383e+00,2.254391670227050781e+00,2.254131793975830078e+00,2.253872394561767578e+00,2.253612756729125977e+00,2.253353118896484375e+00,2.253093719482421875e+00,2.252834320068359375e+00,2.252575159072875977e+00,2.252315759658813477e+00,2.252056598663330078e+00,2.251797437667846680e+00,2.251538276672363281e+00,2.251279354095458984e+00,2.251020193099975586e+00,2.250761508941650391e+00,2.250502586364746094e+00,2.250243663787841797e+00,2.249984979629516602e+00,2.249726295471191406e+00,2.249467849731445312e+00,2.249209880828857422e+00,2.248952150344848633e+00,2.248694419860839844e+00,2.248436927795410156e+00,2.248179674148559570e+00,2.247921943664550781e+00,2.247664690017700195e+00,2.247407436370849609e+00,2.247149944305419922e+00,2.246892929077148438e+00,2.246635675430297852e+00,2.246378660202026367e+00,2.246121644973754883e+00,2.245864629745483398e+00,2.245607614517211914e+00,2.245350837707519531e+00,2.245094060897827148e+00,2.244837284088134766e+00,2.244580507278442383e+00,2.244323968887329102e+00,2.244067430496215820e+00,2.243810892105102539e+00,2.243554353713989258e+00,2.243298053741455078e+00,2.243041753768920898e+00,2.242785453796386719e+00,2.242529153823852539e+00,2.242273092269897461e+00,2.242016792297363281e+00,2.241760969161987305e+00,2.241504907608032227e+00,2.241248846054077148e+00,2.240993022918701172e+00,2.240737438201904297e+00,2.240481615066528320e+00,2.240225791931152344e+00,2.239970207214355469e+00,2.239714622497558594e+00,2.239459276199340820e+00,2.239203691482543945e+00,2.238948345184326172e+00,2.238692998886108398e+00,2.238437652587890625e+00,2.238182306289672852e+00,2.223671197891235352e+00,2.182873010635375977e+00,2.143544912338256836e+00,2.105608701705932617e+00,2.068991899490356445e+00,2.033627033233642578e+00,1.999450802803039551e+00,1.966404318809509277e+00,1.934432387351989746e+00,1.903483510017395020e+00,1.873509287834167480e+00,1.844464421272277832e+00
1.988359808921813965e+00,1.988157868385314941e+00,1.987955808639526367e+00,1.987753987312316895e+00,1.987551927566528320e+00,1.987350106239318848e+00,1.987148404121398926e+00,1.986946463584899902e+00,1.986744880676269531e+00,1.986543178558349609e+00,1.986341476440429688e+00,1.986139893531799316e+00,1.985938191413879395e+00,1.985736727714538574e+00,1.985535383224487305e+00,1.985333800315856934e+00,1.985132455825805664e+00,1.984931230545043945e+00,1.984729766845703125e+00,1.984528541564941406e+00,1.984327077865600586e+00,1.984125971794128418e+00,1.983924984931945801e+00,1.983723640441894531e+00,1.983522653579711914e+00,1.983321785926818848e+00,1.983120560646057129e+00,1.982919692993164062e+00,1.982718706130981445e+00,1.982517838478088379e+00,1.982317090034484863e+00,1.982116222381591797e+00,1.981915593147277832e+00,1.981714725494384766e+00,1.981514096260070801e+00,1.981313586235046387e+00,1.981112837791442871e+00,1.980912327766418457e+00,1.980711936950683594e+00,1.980511307716369629e+00,1.980310916900634766e+00,1.980110406875610352e+00,1.979910135269165039e+00,1.979709982872009277e+00,1.979509472846984863e+00,1.979309439659118652e+00,1.979109287261962891e+00,1.978909015655517578e+00,1.978708982467651367e+00,1.978508710861206055e+00,1.978308796882629395e+00,1.978108882904052734e+00,1.977908849716186523e+00,1.977709054946899414e+00,1.977509021759033203e+00,1.977309226989746094e+00,1.977109551429748535e+00,1.976909637451171875e+00,1.976710081100463867e+00,1.976510524749755859e+00,1.976310729980468750e+00,1.976111173629760742e+00,1.975911498069763184e+00,1.975712060928344727e+00,1.975512742996215820e+00,1.975313186645507812e+00,1.975113868713378906e+00,1.974914669990539551e+00,1.974715232849121094e+00,1.974516034126281738e+00,1.974316596984863281e+00,1.974117517471313477e+00,1.973918437957763672e+00,1.973719239234924316e+00,1.973520278930664062e+00,1.966427206993103027e+00,1.934454441070556641e+00,1.903504848480224609e+00,1.873530030250549316e+00,1.844484567642211914e+00
1.777841329574584961e+00,1.777679800987243652e+00,1.777518272399902344e+00,1.777356863021850586e+00,1.777195453643798828e+00,1.777034044265747070e+00,1.776872754096984863e+00,1.776711225509643555e+00,1.776550054550170898e+00,1.776388764381408691e+00,1.776227474212646484e+00,1.776066303253173828e+00,1.775905251502990723e+00,1.775743961334228516e+00,1.775582909584045410e+00,1.775421619415283203e+00,1.775260686874389648e+00,1.775099635124206543e+00,1.774938583374023438e+00,1.774777650833129883e+00,1.774616718292236328e+00,1.774455666542053223e+00,1.774294853210449219e+00,1.774133920669555664e+00,1.773973107337951660e+00,1.773812413215637207e+00,1.773651480674743652e+00,1.773490786552429199e+00,1.773329973220825195e+00,1.773169398307800293e+00,1.773008823394775391e+00,1.772848010063171387e+00,1.772687435150146484e+00,1.772526979446411133e+00,1.772366285324096680e+00,1.772205829620361328e+00,1.772045254707336426e+00,1.771884918212890625e+00,1.771724462509155273e+00,1.771564006805419922e+00,1.771403670310974121e+00,1.771243453025817871e+00,1.771082997322082520e+00,1.770922780036926270e+00,1.770762443542480469e+00,1.770602226257324219e+00,1.770442128181457520e+00,1.770281791687011719e+00,1.770121693611145020e+00,1.769961714744567871e+00,1.769801497459411621e+00,1.769641518592834473e+00,1.769481420516967773e+00,1.769321441650390625e+00,1.769161581993103027e+00,1.769001483917236328e+00,1.768841624259948730e+00,1.768681645393371582e+00,1.768521904945373535e+00,1.768362164497375488e+00,1.768202185630798340e+00,1.768042564392089844e+00,1.767882823944091797e+00,1.767723083496093750e+00,1.767563462257385254e+00,1.767403721809387207e+00,1.767244100570678711e+00,1.767084598541259766e+00,1.766924977302551270e+00,1.766765475273132324e+00,1.766606092453002930e+00,1.766446471214294434e+00,1.766287088394165039e+00,1.766127586364746094e+00,1.765968203544616699e+00,1.765808939933776855e+00,1.765649437904357910e+00,1.765490293502807617e+00,1.765331149101257324e+00,1.765171766281127930e+00
1.607632398605346680e+00,1.607500433921813965e+00,1.607368230819702148e+00,1.607236266136169434e+00,1.607104301452636719e+00,1.606972217559814453e+00,1.606840372085571289e+00,1.606708526611328125e+00,1.606576442718505859e+00,1.606444597244262695e+00,1.606312632560729980e+00,1.606180906295776367e+00,1.606049060821533203e+00,1.605917215347290039e+00,1.605785489082336426e+00,1.605653762817382812e+00,1.605521917343139648e+00,1.605390310287475586e+00,1.605258464813232422e+00,1.605126857757568359e+00,1.604995250701904297e+00,1.604863524436950684e+00,1.604732036590576172e+00,1.604600429534912109e+00,1.604468822479248047e+00,1.604337334632873535e+00,1.604205727577209473e+00,1.604074239730834961e+00,1.603942871093750000e+00,1.603811264038085938e+00,1.603679895401000977e+00,1.603548407554626465e+00,1.603417038917541504e+00,1.603285670280456543e+00,1.603154301643371582e+00,1.603023052215576172e+00,1.602891802787780762e+00,1.602760314941406250e+00,1.602629184722900391e+00,1.602497816085815430e+00,1.602366685867309570e+00,1.602235555648803711e+00,1.602104187011718750e+00,1.601973176002502441e+00,1.601842045783996582e+00,1.601710796356201172e+00,1.601579785346984863e+00,1.601448655128479004e+00,1.601317644119262695e+00,1.601186633110046387e+00,1.601055622100830078e+00,1.600924611091613770e+00,1.600793719291687012e+00,1.600662708282470703e+00,1.600531816482543945e+00,1.600400805473327637e+00,1.600270032882690430e+00,1.600139260292053223e+00,1.600008249282836914e+00,1.599877476692199707e+00,1.599746584892272949e+00,1.599615931510925293e+00,1.599485158920288086e+00,1.599354386329650879e+00,1.599223732948303223e+00,1.599093079566955566e+00,1.598962306976318359e+00,1.598831772804260254e+00,1.598701000213623047e+00,1.598570466041564941e+00,1.598439931869506836e+00,1.598309278488159180e+00,1.598178863525390625e+00,1.598048329353332520e+00,1.597917795181274414e+00,1.597787380218505859e+00,1.597656846046447754e+00,1.597526431083679199e+00,1.597396135330200195e+00,1.597265601158142090e+00
1.467167139053344727e+00,1.467057228088378906e+00,1.466947317123413086e+00,1.466837286949157715e+00,1.466727375984191895e+00,1.466617345809936523e+00,1.466507434844970703e+00,1.466397643089294434e+00,1.466287612915039062e+00,1.466177821159362793e+00,1.466068029403686523e+00,1.465958118438720703e+00,1.465848326683044434e+00,1.465738415718078613e+00,1.465628743171691895e+00,1.465518951416015625e+00,1.465409159660339355e+00,1.465299487113952637e+00,1.465189814567565918e+00,1.465080022811889648e+00,1.464970350265502930e+00,1.464860677719116211e+00,1.464751005172729492e+00,1.464641451835632324e+00,1.464531779289245605e+00,1.464422225952148438e+00,1.464312672615051270e+00,1.464203000068664551e+00,1.464093565940856934e+00,1.463983893394470215e+00,1.463874459266662598e+00,1.463765025138854980e+00,1.463655352592468262e+00,1.463546037673950195e+00,1.463436484336853027e+00,1.463327050209045410e+00,1.463217735290527344e+00,1.463108181953430176e+00,1.462998867034912109e+00,1.462889552116394043e+00,1.462780117988586426e+00,1.462670803070068359e+00,1.462561368942260742e+00,1.462452173233032227e+00,1.462342858314514160e+00,1.462233543395996094e+00,1.462124347686767578e+00,1.462015151977539062e+00,1.461905837059020996e+00,1.461796760559082031e+00,1.461687445640563965e+00,1.461578249931335449e+00,1.461469173431396484e+00,1.461359977722167969e+00,1.461250901222229004e+00,1.461141705513000488e+00,1.461032629013061523e+00,1.460923671722412109e+00,1.460814476013183594e+00,1.460705518722534180e+00,1.460596561431884766e+00,1.460487365722656250e+00,1.460378527641296387e+00,1.460269451141357422e+00,1.460160493850708008e+00,1.460051536560058594e+00,1.459942579269409180e+00,1.459833741188049316e+00,1.459724903106689453e+00,1.459615945816040039e+00,1.459507107734680176e+00,1.459398150444030762e+00,1.459289312362670898e+00,1.459180593490600586e+00,1.459071755409240723e+00,1.458962917327880859e+00,1.458854198455810547e+00,1.458745360374450684e+00,1.458636760711669922e+00,1.458527922630310059e+00
1.349275588989257812e+00,1.349182605743408203e+00,1.349089622497558594e+00,1.348996520042419434e+00,1.348903536796569824e+00,1.348810553550720215e+00,1.348717570304870605e+00,1.348624706268310547e+00,1.348531603813171387e+00,1.348438739776611328e+00,1.348345875740051270e+00,1.348252892494201660e+00,1.348160028457641602e+00,1.348067283630371094e+00,1.347974300384521484e+00,1.347881555557250977e+00,1.347788572311401367e+00,1.347695827484130859e+00,1.347603082656860352e+00,1.347510218620300293e+00,1.347417473793029785e+00,1.347324728965759277e+00,1.347231864929199219e+00,1.347139239311218262e+00,1.347046375274658203e+00,1.346953749656677246e+00,1.346861004829406738e+00,1.346768260002136230e+00,1.346675634384155273e+00,1.346582889556884766e+00,1.346490263938903809e+00,1.346397638320922852e+00,1.346305012702941895e+00,1.346212387084960938e+00,1.346119880676269531e+00,1.346027135848999023e+00,1.345934629440307617e+00,1.345842003822326660e+00,1.345749497413635254e+00,1.345656991004943848e+00,1.345564365386962891e+00,1.345471858978271484e+00,1.345379471778869629e+00,1.345286846160888672e+00,1.345194458961486816e+00,1.345101952552795410e+00,1.345009446144104004e+00,1.344917058944702148e+00,1.344824552536010742e+00,1.344732165336608887e+00,1.344639897346496582e+00,1.344547390937805176e+00,1.344455003738403320e+00,1.344362616539001465e+00,1.344270348548889160e+00,1.344177961349487305e+00,1.344085574150085449e+00,1.343993306159973145e+00,1.343900918960571289e+00,1.343808650970458984e+00,1.343716502189636230e+00,1.343624114990234375e+00,1.343531966209411621e+00,1.343439698219299316e+00,1.343347430229187012e+00,1.343255281448364258e+00,1.343163013458251953e+00,1.343070864677429199e+00,1.342978715896606445e+00,1.342886447906494141e+00,1.342794299125671387e+00,1.342702269554138184e+00,1.342610001564025879e+00,1.342517971992492676e+00,1.342425823211669922e+00,1.342333793640136719e+00,1.342241764068603516e+00,1.342149615287780762e+00,1.342057585716247559e+00,1.341965556144714355e+00
1.248920798301696777e+00,1.248841047286987305e+00,1.248761415481567383e+00,1.248681664466857910e+00,1.248602032661437988e+00,1.248522400856018066e+00,1.248442769050598145e+00,1.248363137245178223e+00,1.248283505439758301e+00,1.248203873634338379e+00,1.248124241828918457e+00,1.248044610023498535e+00,1.247964978218078613e+00,1.247885465621948242e+00,1.247805833816528320e+00,1.247726321220397949e+00,1.247646808624267578e+00,1.247567176818847656e+00,1.247487664222717285e+00,1.247408151626586914e+00,1.247328639030456543e+00,1.247249126434326172e+00,1.247169613838195801e+00,1.247090101242065430e+00,1.247010707855224609e+00,1.246931195259094238e+00,1.246851801872253418e+00,1.246772289276123047e+00,1.246692895889282227e+00,1.246613502502441406e+00,1.246533989906311035e+00,1.246454596519470215e+00,1.246375203132629395e+00,1.246295809745788574e+00,1.246216535568237305e+00,1.246137142181396484e+00,1.246057748794555664e+00,1.245978474617004395e+00,1.245899081230163574e+00,1.245819807052612305e+00,1.245740413665771484e+00,1.245661139488220215e+00,1.245581865310668945e+00,1.245502591133117676e+00,1.245423316955566406e+00,1.245344042778015137e+00,1.245264768600463867e+00,1.245185613632202148e+00,1.245106339454650879e+00,1.245027065277099609e+00,1.244947910308837891e+00,1.244868636131286621e+00,1.244789481163024902e+00,1.244710326194763184e+00,1.244631171226501465e+00,1.244552016258239746e+00,1.244472861289978027e+00,1.244393706321716309e+00,1.244314670562744141e+00,1.244235396385192871e+00,1.244156360626220703e+00,1.244077205657958984e+00,1.243998169898986816e+00,1.243919134140014648e+00,1.243839979171752930e+00,1.243760943412780762e+00,1.243681907653808594e+00,1.243602871894836426e+00,1.243523836135864258e+00,1.243444800376892090e+00,1.243365764617919922e+00,1.243286848068237305e+00,1.243207812309265137e+00,1.243128895759582520e+00,1.243049979209899902e+00,1.242970943450927734e+00,1.242892026901245117e+00,1.242812991142272949e+00,1.242734074592590332e+00,1.242655277252197266e+00
1.162460803985595703e+00,1.162391662597656250e+00,1.162322640419006348e+00,1.162253618240356445e+00,1.162184596061706543e+00,1.162115573883056641e+00,1.162046551704406738e+00,1.161977529525756836e+00,1.161908626556396484e+00,1.161839604377746582e+00,1.161770582199096680e+00,1.161701679229736328e+00,1.161632657051086426e+00,1.161563754081726074e+00,1.161494731903076172e+00,1.161425828933715820e+00,1.161356925964355469e+00,1.161287903785705566e+00,1.161219000816345215e+00,1.161150217056274414e+00,1.161081194877624512e+00,1.161012411117553711e+00,1.160943388938903809e+00,1.160874605178833008e+00,1.160805821418762207e+00,1.160736918449401855e+00,1.160668015480041504e+00,1.160599231719970703e+00,1.160530328750610352e+00,1.160461544990539551e+00,1.160392642021179199e+00,1.160323858261108398e+00,1.160255193710327148e+00,1.160186290740966797e+00,1.160117506980895996e+00,1.160048723220825195e+00,1.159979939460754395e+00,1.159911274909973145e+00,1.159842491149902344e+00,1.159773707389831543e+00,1.159705042839050293e+00,1.159636259078979492e+00,1.159567594528198242e+00,1.159498810768127441e+00,1.159430146217346191e+00,1.159361481666564941e+00,1.159292697906494141e+00,1.159224033355712891e+00,1.159155488014221191e+00,1.159086704254150391e+00,1.159018039703369141e+00,1.158949375152587891e+00,1.158880829811096191e+00,1.158812165260314941e+00,1.158743500709533691e+00,1.158674955368041992e+00,1.158606290817260742e+00,1.158537745475769043e+00,1.158469200134277344e+00,1.158400535583496094e+00,1.158331990242004395e+00,1.158263444900512695e+00,1.158194899559020996e+00,1.158126354217529297e+00,1.158057808876037598e+00,1.157989263534545898e+00,1.157920837402343750e+00,1.157852172851562500e+00,1.157783746719360352e+00,1.157715320587158203e+00,1.157646775245666504e+00,1.157578229904174805e+00,1.157509803771972656e+00,1.157441377639770508e+00,1.157372951507568359e+00,1.157304406166076660e+00,1.157235980033874512e+00,1.157167553901672363e+00,1.157099127769470215e+00,1.157030701637268066e+00
1.087196469306945801e+00,1.087136030197143555e+00,1.087075710296630859e+00,1.087015271186828613e+00,1.086954832077026367e+00,1.086894512176513672e+00,1.086834192276000977e+00,1.086773753166198730e+00,1.086713433265686035e+00,1.086653113365173340e+00,1.086592793464660645e+00,1.086532473564147949e+00,1.086472034454345703e+00,1.086411833763122559e+00,1.086351513862609863e+00,1.086291193962097168e+00,1.086230874061584473e+00,1.086170554161071777e+00,1.086110234260559082e+00,1.086050033569335938e+00,1.085989713668823242e+00,1.085929512977600098e+00,1.085869193077087402e+00,1.085808992385864258e+00,1.085748672485351562e+00,1.085688471794128418e+00,1.085628271102905273e+00,1.085568070411682129e+00,1.085507750511169434e+00,1.085447549819946289e+00,1.085387349128723145e+00,1.085327148437500000e+00,1.085266947746276855e+00,1.085206747055053711e+00,1.085146665573120117e+00,1.085086464881896973e+00,1.085026264190673828e+00,1.084966182708740234e+00,1.084905982017517090e+00,1.084845781326293945e+00,1.084785699844360352e+00,1.084725499153137207e+00,1.084665417671203613e+00,1.084605336189270020e+00,1.084545135498046875e+00,1.084485054016113281e+00,1.084424972534179688e+00,1.084364891052246094e+00,1.084304809570312500e+00,1.084244728088378906e+00,1.084184646606445312e+00,1.084124565124511719e+00,1.084064483642578125e+00,1.084004521369934082e+00,1.083944439888000488e+00,1.083884358406066895e+00,1.083824396133422852e+00,1.083764314651489258e+00,1.083704352378845215e+00,1.083644270896911621e+00,1.083584308624267578e+00,1.083524346351623535e+00,1.083464264869689941e+00,1.083404302597045898e+00,1.083344340324401855e+00,1.083284378051757812e+00,1.083224415779113770e+00,1.083164334297180176e+00,1.083104491233825684e+00,1.083044528961181641e+00,1.082984566688537598e+00,1.082924604415893555e+00,1.082864761352539062e+00,1.082804799079895020e+00,1.082744836807250977e+00,1.082684874534606934e+00,1.082625031471252441e+00,1.082565188407897949e+00,1.082505226135253906e+00,1.082445383071899414e+00
1.021085619926452637e+00,1.021032333374023438e+00,1.020979046821594238e+00,1.020925760269165039e+00,1.020872473716735840e+00,1.020819306373596191e+00,1.020766019821166992e+00,1.020712733268737793e+00,1.020659565925598145e+00,1.020606398582458496e+00,1.020553112030029297e+00,1.020499825477600098e+00,1.020446658134460449e+00,1.020393490791320801e+00,1.020340204238891602e+00,1.020287036895751953e+00,1.020233869552612305e+00,1.020180702209472656e+00,1.020127415657043457e+00,1.020074248313903809e+00,1.020021080970764160e+00,1.019967913627624512e+00,1.019914865493774414e+00,1.019861578941345215e+00,1.019808530807495117e+00,1.019755363464355469e+00,1.019702196121215820e+00,1.019649028778076172e+00,1.019595861434936523e+00,1.019542813301086426e+00,1.019489765167236328e+00,1.019436597824096680e+00,1.019383430480957031e+00,1.019330382347106934e+00,1.019277215003967285e+00,1.019224166870117188e+00,1.019171118736267090e+00,1.019118070602416992e+00,1.019065022468566895e+00,1.019011855125427246e+00,1.018958806991577148e+00,1.018905758857727051e+00,1.018852710723876953e+00,1.018799662590026855e+00,1.018746614456176758e+00,1.018693566322326660e+00,1.018640637397766113e+00,1.018587589263916016e+00,1.018534541130065918e+00,1.018481492996215820e+00,1.018428444862365723e+00,1.018375515937805176e+00,1.018322467803955078e+00,1.018269538879394531e+00,1.018216490745544434e+00,1.018163561820983887e+00,1.018110632896423340e+00,1.018057584762573242e+00,1.018004655838012695e+00,1.017951726913452148e+00,1.017898678779602051e+00,1.017845749855041504e+00,1.017792820930480957e+00,1.017739892005920410e+00,1.017686963081359863e+00,1.017634034156799316e+00,1.017581105232238770e+00,1.017528295516967773e+00,1.017475247383117676e+00,1.017422437667846680e+00,1.017369508743286133e+00,1.017316579818725586e+00,1.017263770103454590e+00,1.017210841178894043e+00,1.017158031463623047e+00,1.017105102539062500e+00,1.017052292823791504e+00,1.016999363899230957e+00,1.016946554183959961e+00,1.016893744468688965e+00
9.625540971755981445e-01,9.625068306922912598e-01,9.624595046043395996e-01,9.624121189117431641e-01,9.623648524284362793e-01,9.623174667358398438e-01,9.622701406478881836e-01,9.622227549552917480e-01,9.621755480766296387e-01,9.621281623840332031e-01,9.620808362960815430e-01,9.620336294174194336e-01,9.619863033294677734e-01,9.619389772415161133e-01,9.618917703628540039e-01,9.618444442749023438e-01,9.617971181869506836e-01,9.617499709129333496e-01,9.617026448249816895e-01,9.616553783416748047e-01,9.616081714630126953e-01,9.615609049797058105e-01,9.615135788917541504e-01,9.614663124084472656e-01,9.614191651344299316e-01,9.613718986511230469e-01,9.613246321678161621e-01,9.612774848937988281e-01,9.612302184104919434e-01,9.611830115318298340e-01,9.611358642578125000e-01,9.610885977745056152e-01,9.610413908958435059e-01,9.609942436218261719e-01,9.609470367431640625e-01,9.608998298645019531e-01,9.608525633811950684e-01,9.608054757118225098e-01,9.607582688331604004e-01,9.607110619544982910e-01,9.606639742851257324e-01,9.606167674064636230e-01,9.605696201324462891e-01,9.605225324630737305e-01,9.604753255844116211e-01,9.604281783103942871e-01,9.603810906410217285e-01,9.603339433670043945e-01,9.602867960929870605e-01,9.602397084236145020e-01,9.601925611495971680e-01,9.601454138755798340e-01,9.600982666015625000e-01,9.600512385368347168e-01,9.600041508674621582e-01,9.599570035934448242e-01,9.599099755287170410e-01,9.598628878593444824e-01,9.598157405853271484e-01,9.597687125205993652e-01,9.597216248512268066e-01,9.596745371818542480e-01,9.596275687217712402e-01,9.595804810523986816e-01,9.595333337783813477e-01,9.594863057136535645e-01,9.594393372535705566e-01,9.593922495841979980e-01,9.593451619148254395e-01,9.592981934547424316e-01,9.592511653900146484e-01,9.592040777206420898e-01,9.591571688652038574e-01,9.591100811958312988e-01,9.590630531311035156e-01,9.590161442756652832e-01,9.589691162109375000e-01,9.589220881462097168e-01,9.588751792907714844e-01,9.588281512260437012e-01
9.103692173957824707e-01,9.103268384933471680e-01,9.102844595909118652e-01,9.102421998977661133e-01,9.101998209953308105e-01,9.101574420928955078e-01,9.101151823997497559e-01,9.100728034973144531e-01,9.100304841995239258e-01,9.099882245063781738e-01,9.099458456039428711e-01,9.099035263061523438e-01,9.098612666130065918e-01,9.098189473152160645e-01,9.097766280174255371e-01,9.097343683242797852e-01,9.096920490264892578e-01,9.096497297286987305e-01,9.096074104309082031e-01,9.095652103424072266e-01,9.095228910446166992e-01,9.094805717468261719e-01,9.094383716583251953e-01,9.093961119651794434e-01,9.093537926673889160e-01,9.093116521835327148e-01,9.092693328857421875e-01,9.092270731925964355e-01,9.091848731040954590e-01,9.091426134109497070e-01,9.091003537178039551e-01,9.090580940246582031e-01,9.090158939361572266e-01,9.089736938476562500e-01,9.089314341545104980e-01,9.088892936706542969e-01,9.088470339775085449e-01,9.088047742843627930e-01,9.087626338005065918e-01,9.087204337120056152e-01,9.086781740188598633e-01,9.086360335350036621e-01,9.085938334465026855e-01,9.085516333580017090e-01,9.085094928741455078e-01,9.084672927856445312e-01,9.084250926971435547e-01,9.083828926086425781e-01,9.083408117294311523e-01,9.082986116409301758e-01,9.082564115524291992e-01,9.082143306732177734e-01,9.081721305847167969e-01,9.081299901008605957e-01,9.080879092216491699e-01,9.080457091331481934e-01,9.080035686492919922e-01,9.079614877700805664e-01,9.079193472862243652e-01,9.078772068023681641e-01,9.078350067138671875e-01,9.077929854393005371e-01,9.077508449554443359e-01,9.077087044715881348e-01,9.076666831970214844e-01,9.076245427131652832e-01,9.075824022293090820e-01,9.075403809547424316e-01,9.074982404708862305e-01,9.074561595916748047e-01,9.074141383171081543e-01,9.073719978332519531e-01,9.073299169540405273e-01,9.072878956794738770e-01,9.072458148002624512e-01,9.072037339210510254e-01,9.071616530418395996e-01,9.071196913719177246e-01,9.070776104927062988e-01,9.070355296134948730e-01
8.635516166687011719e-01,8.635135889053344727e-01,8.634754419326782227e-01,8.634373545646667480e-01,8.633993268013000488e-01,8.633611798286437988e-01,8.633230328559875488e-01,8.632850050926208496e-01,8.632469177246093750e-01,8.632088303565979004e-01,8.631708025932312012e-01,8.631327152252197266e-01,8.630945682525634766e-01,8.630564808845520020e-01,8.630185127258300781e-01,8.629804253578186035e-01,8.629423379898071289e-01,8.629043102264404297e-01,8.628662824630737305e-01,8.628281950950622559e-01,8.627901673316955566e-01,8.627521395683288574e-01,8.627140522003173828e-01,8.626760840415954590e-01,8.626380562782287598e-01,8.625999689102172852e-01,8.625620007514953613e-01,8.625239729881286621e-01,8.624859452247619629e-01,8.624478578567504883e-01,8.624099493026733398e-01,8.623719215393066406e-01,8.623338937759399414e-01,8.622959256172180176e-01,8.622578978538513184e-01,8.622198700904846191e-01,8.621819615364074707e-01,8.621439337730407715e-01,8.621059060096740723e-01,8.620679974555969238e-01,8.620300292968750000e-01,8.619920015335083008e-01,8.619540333747863770e-01,8.619161248207092285e-01,8.618780970573425293e-01,8.618401288986206055e-01,8.618022203445434570e-01,8.617642521858215332e-01,8.617262840270996094e-01,8.616883754730224609e-01,8.616504073143005371e-01,8.616124391555786133e-01,8.615745902061462402e-01,8.615366220474243164e-01,8.614986538887023926e-01,8.614606857299804688e-01,8.614228367805480957e-01,8.613848686218261719e-01,8.613469600677490234e-01,8.613091111183166504e-01,8.612711429595947266e-01,8.612332344055175781e-01,8.611953854560852051e-01,8.611574769020080566e-01,8.611195087432861328e-01,8.610817193984985352e-01,8.610437512397766113e-01,8.610058426856994629e-01,8.609680533409118652e-01,8.609301447868347168e-01,8.608922362327575684e-01,8.608543276786804199e-01,8.608165383338928223e-01,8.607786297798156738e-01,8.607407212257385254e-01,8.607029318809509277e-01,8.606650829315185547e-01,8.606271743774414062e-01,8.605893850326538086e-01,8.605515360832214355e-01
