5.000000000000000000e+00,5.000000000000000000e+00,5.000000000000000000e+00,5.000000000000000000e+00,5.000000000000000000e+00,5.000000000000000000e+00,5.000000000000000000e+00,5.000000000000000000e+00,5.000000000000000000e+00,5.000000000000000000e+00,5.000000000000000000e+00,5.000000000000000000e+00,5.000000000000000000e+00,5.000000000000000000e+00,5.000000000000000000e+00,5.000000000000000000e+00,5.000000000000000000e+00,5.000000000000000000e+00,5.000000000000000000e+00,5.000000000000000000e+00,5.000000000000000000e+00,5.000000000000000000e+00,5.000000000000000000e+00,5.000000000000000000e+00,5.000000000000000000e+00,5.000000000000000000e+00,5.000000000000000000e+00,5.000000000000000000e+00,5.000000000000000000e+00,5.000000000000000000e+00,5.000000000000000000e+00,5.000000000000000000e+00,5.000000000000000000e+00,5.000000000000000000e+00,5.000000000000000000e+00,5.000000000000000000e+00,5.000000000000000000e+00,5.000000000000000000e+00,5.000000000000000000e+00,5.000000000000000000e+00,5.000000000000000000e+00,5.000000000000000000e+00,5.000000000000000000e+00,4.179552078247070312e+00,4.037644386291503906e+00,3.905057430267333984e+00,3.780901193618774414e+00,3.664396047592163086e+00,3.554856538772583008e+00,3.451675891876220703e+00,3.354315757751464844e+00,3.262297868728637695e+00,1.205599069595336914e+00,9.895359873771667480e-01,9.573101401329040527e-01,9.368450641632080078e-01,9.213855266571044922e-01,9.036791920661926270e-01,8.953110575675964355e-01,9.164551496505737305e-01,9.152239561080932617e-01,1.111320018768310547e+00,1.114928603172302246e+00,1.111805200576782227e+00,1.128177881240844727e+00,1.113789916038513184e+00,1.096129655838012695e+00,1.078265428543090820e+00,1.067174077033996582e+00,1.064378976821899414e+00,2.144522666931152344e+00,2.106534719467163086e+00,2.069869041442871094e+00,2.034458398818969727e+00,2.000238418579101562e+00,1.967150807380676270e+00,1.935140013694763184e+00,1.904154181480407715e+00,1.874145150184631348e+00,1.845067381858825684e+00
5.000000000000000000e+00,5.000000000000000000e+00,5.000000000000000000e+00,5.000000000000000000e+00,5.000000000000000000e+00,5.000000000000000000e+00,5.000000000000000000e+00,5.000000000000000000e+00,5.000000000000000000e+00,5.000000000000000000e+00,5.000000000000000000e+00,5.000000000000000000e+00,5.000000000000000000e+00,5.000000000000000000e+00,5.000000000000000000e+00,5.000000000000000000e+00,5.000000000000000000e+00,5.000000000000000000e+00,5.000000000000000000e+00,5.000000000000000000e+00,5.000000000000000000e+00,5.000000000000000000e+00,5.000000000000000000e+00,5.000000000000000000e+00,5.000000000000000000e+00,5.000000000000000000e+00,5.000000000000000000e+00,5.000000000000000000e+00,5.000000000000000000e+00,5.000000000000000000e+00,5.000000000000000000e+00,5.000000000000000000e+00,5.000000000000000000e+00,5.000000000000000000e+00,5.000000000000000000e+00,5.000000000000000000e+00,5.000000000000000000e+00,5.000000000000000000e+00,5.000000000000000000e+00,5.000000000000000000e+00,5.000000000000000000e+00,5.000000000000000000e+00,4.331907749176025391e+00,4.179655075073242188e+00,4.037740707397460938e+00,3.905147314071655273e+00,3.780985116958618164e+00,3.664475440979003906e+00,3.554930925369262695e+00,3.451745748519897461e+00,3.354382276535034180e+00,3.262360334396362305e+00,1.195123910903930664e+00,1.012313246726989746e+00,9.509874582290649414e-01,9.278708696365356445e-01,9.069257974624633789e-01,9.008748531341552734e-01,8.868072628974914551e-01,8.761288523674011230e-01,9.008921980857849121e-01,9.036056995391845703e-01,1.126491904258728027e+00,1.121621489524841309e+00,1.098155140876770020e+00,1.082947015762329102e+00,1.069930076599121094e+00,1.063340306282043457e+00,1.056831240653991699e+00,1.050401329994201660e+00,1.106647253036499023e+00,2.106560945510864258e+00,2.069894313812255859e+00,2.034482717514038086e+00,2.000262022018432617e+00,1.967173576354980469e+00,1.935162067413330078e+00,1.904175639152526855e+00,1.874165892601013184e+00,1.845087528228759766e+00
5.000000000000000000e+00,5.000000000000000000e+00,5.000000000000000000e+00,5.000000000000000000e+00,5.000000000000000000e+00,5.000000000000000000e+00,5.000000000000000000e+00,5.000000000000000000e+00,5.000000000000000000e+00,5.000000000000000000e+00,5.000000000000000000e+00,5.000000000000000000e+00,5.000000000000000000e+00,5.000000000000000000e+00,5.000000000000000000e+00,5.000000000000000000e+00,5.000000000000000000e+00,5.000000000000000000e+00,5.000000000000000000e+00,5.000000000000000000e+00,5.000000000000000000e+00,5.000000000000000000e+00,5.000000000000000000e+00,5.000000000000000000e+00,5.000000000000000000e+00,5.000000000000000000e+00,5.000000000000000000e+00,5.000000000000000000e+00,5.000000000000000000e+00,5.000000000000000000e+00,5.000000000000000000e+00,5.000000000000000000e+00,5.000000000000000000e+00,5.000000000000000000e+00,5.000000000000000000e+00,5.000000000000000000e+00,5.000000000000000000e+00,5.000000000000000000e+00,5.000000000000000000e+00,5.000000000000000000e+00,5.000000000000000000e+00,4.495791435241699219e+00,4.332018375396728516e+00,4.179757595062255859e+00,4.037836551666259766e+00,3.905236959457397461e+00,3.781069517135620117e+00,3.664554119110107422e+00,3.555005550384521484e+00,3.451816082000732422e+00,3.354448318481445312e+00,3.262423038482666016e+00,1.193652272224426270e+00,1.153476715087890625e+00,9.459388852119445801e-01,9.199289679527282715e-01,9.055175781250000000e-01,8.909019827842712402e-01,9.038246870040893555e-01,8.663265109062194824e-01,8.551284670829772949e-01,8.852357864379882812e-01,1.140327453613281250e+00,1.114851593971252441e+00,1.092427253723144531e+00,1.072323083877563477e+00,1.061119675636291504e+00,1.054841041564941406e+00,1.048642158508300781e+00,1.043368458747863770e+00,1.038147449493408203e+00,2.106587171554565430e+00,2.069919586181640625e+00,2.034506797790527344e+00,2.000285387039184570e+00,1.967196464538574219e+00,1.935184001922607422e+00,1.904196977615356445e+00,1.874186635017395020e+00,1.845107436180114746e+00
5.000000000000000000e+00,5.000000000000000000e+00,5.000000000000000000e+00,5.000000000000000000e+00,5.000000000000000000e+00,5.000000000000000000e+00,5.000000000000000000e+00,5.000000000000000000e+00,5.000000000000000000e+00,5.000000000000000000e+00,5.000000000000000000e+00,5.000000000000000000e+00,5.000000000000000000e+00,5.000000000000000000e+00,5.000000000000000000e+00,5.000000000000000000e+00,5.000000000000000000e+00,5.000000000000000000e+00,5.000000000000000000e+00,5.000000000000000000e+00,5.000000000000000000e+00,5.000000000000000000e+00,5.000000000000000000e+00,5.000000000000000000e+00,5.000000000000000000e+00,5.000000000000000000e+00,5.000000000000000000e+00,5.000000000000000000e+00,5.000000000000000000e+00,5.000000000000000000e+00,5.000000000000000000e+00,5.000000000000000000e+00,5.000000000000000000e+00,5.000000000000000000e+00,5.000000000000000000e+00,5.000000000000000000e+00,5.000000000000000000e+00,5.000000000000000000e+00,5.000000000000000000e+00,5.000000000000000000e+00,4.672563076019287109e+00,4.495910644531250000e+00,4.332129001617431641e+00,4.179860591888427734e+00,4.037932872772216797e+00,3.905326843261718750e+00,3.781153440475463867e+00,3.664633512496948242e+00,3.555079698562622070e+00,3.451886177062988281e+00,3.354514598846435547e+00,3.262485504150390625e+00,1.192853450775146484e+00,1.152384877204895020e+00,9.408345222473144531e-01,9.154459834098815918e-01,9.117454290390014648e-01,8.797968626022338867e-01,8.783860802650451660e-01,1.093948483467102051e+00,8.461654782295227051e-01,1.136178612709045410e+00,1.131858110427856445e+00,1.111758828163146973e+00,1.090054273605346680e+00,1.072264909744262695e+00,1.054737567901611328e+00,1.047740340232849121e+00,1.042475700378417969e+00,1.037263631820678711e+00,1.032103538513183594e+00,1.056746721267700195e+00,2.069944858551025391e+00,2.034531116485595703e+00,2.000308990478515625e+00,1.967219114303588867e+00,1.935206055641174316e+00,1.904218435287475586e+00,1.874207139015197754e+00,1.845127463340759277e+00
5.000000000000000000e+00,5.000000000000000000e+00,5.000000000000000000e+00,5.000000000000000000e+00,5.000000000000000000e+00,5.000000000000000000e+00,5.000000000000000000e+00,5.000000000000000000e+00,5.000000000000000000e+00,5.000000000000000000e+00,5.000000000000000000e+00,5.000000000000000000e+00,5.000000000000000000e+00,5.000000000000000000e+00,5.000000000000000000e+00,5.000000000000000000e+00,5.000000000000000000e+00,5.000000000000000000e+00,5.000000000000000000e+00,5.000000000000000000e+00,5.000000000000000000e+00,5.000000000000000000e+00,5.000000000000000000e+00,5.000000000000000000e+00,5.000000000000000000e+00,5.000000000000000000e+00,5.000000000000000000e+00,5.000000000000000000e+00,5.000000000000000000e+00,5.000000000000000000e+00,5.000000000000000000e+00,5.000000000000000000e+00,5.000000000000000000e+00,5.000000000000000000e+00,5.000000000000000000e+00,5.000000000000000000e+00,5.000000000000000000e+00,5.000000000000000000e+00,5.000000000000000000e+00,4.863804340362548828e+00,4.672691345214843750e+00,4.496029853820800781e+00,4.332239151000976562e+00,4.179963588714599609e+00,4.038028717041015625e+00,3.905416965484619141e+00,3.781237840652465820e+00,3.664712190628051758e+00,3.555154323577880859e+00,3.451956510543823242e+00,3.354580640792846680e+00,3.262548446655273438e+00,1.194533586502075195e+00,1.151870608329772949e+00,9.393807649612426758e-01,9.231541752815246582e-01,8.962696194648742676e-01,8.837196230888366699e-01,8.598540425300598145e-01,1.095812320709228516e+00,1.103256702423095703e+00,1.138052105903625488e+00,1.129212856292724609e+00,1.108451008796691895e+00,1.090235114097595215e+00,1.072206854820251465e+00,1.054323792457580566e+00,1.040364980697631836e+00,1.036280155181884766e+00,1.031229853630065918e+00,1.026129484176635742e+00,1.021079182624816895e+00,2.069969892501831055e+00,2.034555435180664062e+00,2.000332355499267578e+00,1.967241883277893066e+00,1.935228228569030762e+00,1.904239773750305176e+00,1.874227881431579590e+00,1.845147609710693359e+00
5.000000000000000000e+00,5.000000000000000000e+00,5.000000000000000000e+00,5.000000000000000000e+00,5.000000000000000000e+00,5.000000000000000000e+00,5.000000000000000000e+00,5.000000000000000000e+00,5.000000000000000000e+00,5.000000000000000000e+00,5.000000000000000000e+00,5.000000000000000000e+00,5.000000000000000000e+00,5.000000000000000000e+00,5.000000000000000000e+00,5.000000000000000000e+00,5.000000000000000000e+00,5.000000000000000000e+00,5.000000000000000000e+00,5.000000000000000000e+00,5.000000000000000000e+00,5.000000000000000000e+00,5.000000000000000000e+00,5.000000000000000000e+00,5.000000000000000000e+00,5.000000000000000000e+00,5.000000000000000000e+00,5.000000000000000000e+00,5.000000000000000000e+00,5.000000000000000000e+00,5.000000000000000000e+00,5.000000000000000000e+00,5.000000000000000000e+00,5.000000000000000000e+00,5.000000000000000000e+00,5.000000000000000000e+00,5.000000000000000000e+00,5.000000000000000000e+00,5.000000000000000000e+00,4.863943576812744141e+00,4.672820091247558594e+00,4.496149063110351562e+00,4.332349777221679688e+00,4.180066108703613281e+00,4.038124561309814453e+00,3.905506372451782227e+00,3.781321763992309570e+00,3.664791584014892578e+00,3.555228471755981445e+00,3.452026844024658203e+00,3.354647159576416016e+00,3.262610912322998047e+00,1.195487022399902344e+00,1.152387380599975586e+00,9.372007846832275391e-01,9.257993698120117188e-01,8.879821896553039551e-01,1.101938128471374512e+00,8.556384444236755371e-01,8.516917228698730469e-01,1.104595899581909180e+00,1.141759395599365234e+00,1.133377671241760254e+00,1.108442068099975586e+00,1.090264558792114258e+00,1.071806788444519043e+00,1.053806543350219727e+00,1.036191344261169434e+00,1.028058290481567383e+00,1.024069309234619141e+00,1.020111203193664551e+00,1.015231728553771973e+00,1.031252622604370117e+00,2.034579992294311523e+00,2.000355958938598633e+00,1.967264771461486816e+00,1.935250282287597656e+00,1.904260993003845215e+00,1.874248623847961426e+00,1.845167636871337891e+00
5.000000000000000000e+00,5.000000000000000000e+00,5.000000000000000000e+00,5.000000000000000000e+00,5.000000000000000000e+00,5.000000000000000000e+00,5.000000000000000000e+00,5.000000000000000000e+00,5.000000000000000000e+00,5.000000000000000000e+00,5.000000000000000000e+00,5.000000000000000000e+00,5.000000000000000000e+00,5.000000000000000000e+00,5.000000000000000000e+00,5.000000000000000000e+00,5.000000000000000000e+00,5.000000000000000000e+00,5.000000000000000000e+00,5.000000000000000000e+00,5.000000000000000000e+00,5.000000000000000000e+00,5.000000000000000000e+00,5.000000000000000000e+00,5.000000000000000000e+00,5.000000000000000000e+00,5.000000000000000000e+00,5.000000000000000000e+00,5.000000000000000000e+00,5.000000000000000000e+00,5.000000000000000000e+00,5.000000000000000000e+00,5.000000000000000000e+00,5.000000000000000000e+00,5.000000000000000000e+00,5.000000000000000000e+00,5.000000000000000000e+00,5.000000000000000000e+00,5.000000000000000000e+00,4.864082813262939453e+00,4.672948837280273438e+00,4.496267795562744141e+00,4.332460403442382812e+00,4.180169105529785156e+00,4.038220882415771484e+00,3.905596494674682617e+00,3.781406164169311523e+00,3.664870500564575195e+00,3.555303096771240234e+00,3.452096700668334961e+00,3.354713439941406250e+00,3.262673616409301758e+00,1.195354700088500977e+00,1.154946684837341309e+00,1.132737636566162109e+00,9.142002463340759277e-01,8.865985274314880371e-01,8.720903396606445312e-01,1.104462027549743652e+00,1.102531075477600098e+00,1.111666917800903320e+00,1.145490884780883789e+00,1.142205715179443359e+00,1.113760471343994141e+00,1.089879155158996582e+00,1.071277737617492676e+00,1.053273797035217285e+00,1.035676240921020508e+00,1.019965887069702148e+00,1.016039371490478516e+00,1.012143015861511230e+00,1.008276343345642090e+00,1.004439234733581543e+00,2.034604310989379883e+00,2.000379800796508789e+00,1.967287540435791016e+00,1.935272216796875000e+00,1.904282331466674805e+00,1.874269366264343262e+00,1.845187544822692871e+00
5.000000000000000000e+00,5.000000000000000000e+00,5.000000000000000000e+00,5.000000000000000000e+00,5.000000000000000000e+00,5.000000000000000000e+00,5.000000000000000000e+00,5.000000000000000000e+00,5.000000000000000000e+00,5.000000000000000000e+00,5.000000000000000000e+00,5.000000000000000000e+00,5.000000000000000000e+00,5.000000000000000000e+00,5.000000000000000000e+00,5.000000000000000000e+00,5.000000000000000000e+00,5.000000000000000000e+00,5.000000000000000000e+00,5.000000000000000000e+00,5.000000000000000000e+00,5.000000000000000000e+00,5.000000000000000000e+00,5.000000000000000000e+00,5.000000000000000000e+00,5.000000000000000000e+00,5.000000000000000000e+00,5.000000000000000000e+00,5.000000000000000000e+00,5.000000000000000000e+00,5.000000000000000000e+00,5.000000000000000000e+00,5.000000000000000000e+00,5.000000000000000000e+00,5.000000000000000000e+00,5.000000000000000000e+00,5.000000000000000000e+00,5.000000000000000000e+00,5.000000000000000000e+00,4.864222049713134766e+00,4.673077106475830078e+00,4.496387004852294922e+00,4.332571029663085938e+00,4.180272102355957031e+00,4.038316726684570312e+00,3.905685901641845703e+00,3.781490564346313477e+00,3.664949655532836914e+00,3.555377244949340820e+00,3.452167034149169922e+00,3.354779720306396484e+00,3.262736082077026367e+00,1.196276426315307617e+00,1.157005071640014648e+00,1.133714079856872559e+00,1.116168022155761719e+00,1.113719224929809570e+00,1.111307024955749512e+00,1.109148144721984863e+00,1.107004642486572266e+00,1.119325757026672363e+00,1.154631614685058594e+00,1.150048136711120605e+00,1.118802189826965332e+00,1.089332103729248047e+00,1.070749163627624512e+00,1.052741408348083496e+00,1.035161614418029785e+00,1.018159270286560059e+00,1.008134245872497559e+00,1.004298210144042969e+00,1.000750899314880371e+00,9.972386956214904785e-01,1.010393500328063965e+00,2.000403165817260742e+00,1.967310190200805664e+00,1.935294270515441895e+00,1.904303789138793945e+00,1.874290108680725098e+00,1.845207571983337402e+00
3.441784381866455078e+00,5.000000000000000000e+00,5.000000000000000000e+00,5.000000000000000000e+00,5.000000000000000000e+00,5.000000000000000000e+00,5.000000000000000000e+00,5.000000000000000000e+00,5.000000000000000000e+00,5.000000000000000000e+00,5.000000000000000000e+00,5.000000000000000000e+00,5.000000000000000000e+00,5.000000000000000000e+00,5.000000000000000000e+00,5.000000000000000000e+00,5.000000000000000000e+00,5.000000000000000000e+00,5.000000000000000000e+00,5.000000000000000000e+00,5.000000000000000000e+00,5.000000000000000000e+00,5.000000000000000000e+00,5.000000000000000000e+00,5.000000000000000000e+00,5.000000000000000000e+00,5.000000000000000000e+00,5.000000000000000000e+00,5.000000000000000000e+00,5.000000000000000000e+00,5.000000000000000000e+00,5.000000000000000000e+00,5.000000000000000000e+00,5.000000000000000000e+00,5.000000000000000000e+00,5.000000000000000000e+00,5.000000000000000000e+00,5.000000000000000000e+00,5.000000000000000000e+00,4.864361286163330078e+00,4.673205852508544922e+00,4.496505737304687500e+00,4.332681655883789062e+00,4.180374622344970703e+00,4.038412570953369141e+00,3.905776023864746094e+00,3.781574487686157227e+00,3.665028572082519531e+00,3.555451869964599609e+00,3.452237129211425781e+00,3.354846000671386719e+00,3.262799024581909180e+00,1.202166438102722168e+00,1.163995623588562012e+00,1.140425324440002441e+00,1.122481107711791992e+00,1.119616627693176270e+00,1.117152571678161621e+00,1.114699482917785645e+00,1.112257122993469238e+00,1.129713416099548340e+00,1.188707470893859863e+00,1.154825687408447266e+00,1.123028755187988281e+00,1.093068718910217285e+00,1.070221066474914551e+00,1.052209615707397461e+00,1.034647464752197266e+00,1.017661929130554199e+00,1.001390457153320312e+00,9.973248243331909180e-01,9.938364624977111816e-01,9.903724193572998047e-01,9.869322776794433594e-01,2.000426769256591797e+00,1.967333078384399414e+00,1.935316324234008789e+00,1.904325127601623535e+00,1.874310612678527832e+00,1.845227718353271484e+00
3.444804191589355469e+00,5.000000000000000000e+00,5.000000000000000000e+00,5.000000000000000000e+00,5.000000000000000000e+00,5.000000000000000000e+00,5.000000000000000000e+00,5.000000000000000000e+00,5.000000000000000000e+00,5.000000000000000000e+00,5.000000000000000000e+00,5.000000000000000000e+00,5.000000000000000000e+00,5.000000000000000000e+00,5.000000000000000000e+00,5.000000000000000000e+00,5.000000000000000000e+00,5.000000000000000000e+00,5.000000000000000000e+00,5.000000000000000000e+00,5.000000000000000000e+00,5.000000000000000000e+00,5.000000000000000000e+00,5.000000000000000000e+00,5.000000000000000000e+00,5.000000000000000000e+00,5.000000000000000000e+00,5.000000000000000000e+00,5.000000000000000000e+00,5.000000000000000000e+00,5.000000000000000000e+00,5.000000000000000000e+00,5.000000000000000000e+00,5.000000000000000000e+00,5.000000000000000000e+00,5.000000000000000000e+00,5.000000000000000000e+00,5.000000000000000000e+00,5.000000000000000000e+00,4.864500999450683594e+00,4.673334121704101562e+00,4.496624946594238281e+00,4.332792282104492188e+00,4.180478096008300781e+00,4.038508415222167969e+00,3.905865669250488281e+00,3.781658887863159180e+00,3.665107727050781250e+00,3.555526256561279297e+00,3.452307224273681641e+00,3.354912042617797852e+00,3.262861728668212891e+00,1.209848880767822266e+00,1.171071171760559082e+00,1.147216320037841797e+00,1.128895163536071777e+00,1.125576734542846680e+00,1.123086452484130859e+00,1.120607256889343262e+00,1.118138909339904785e+00,1.143399953842163086e+00,2.560361385345458984e+00,1.159270405769348145e+00,1.127287507057189941e+00,1.097102761268615723e+00,1.069693565368652344e+00,1.051678419113159180e+00,1.034102439880371094e+00,1.016195297241210938e+00,1.000050783157348633e+00,9.874328970909118652e-01,9.860807657241821289e-01,9.836000204086303711e-01,9.802066683769226074e-01,9.768368601799011230e-01,1.967355847358703613e+00,1.935338497161865234e+00,1.904346346855163574e+00,1.874331355094909668e+00,1.845247864723205566e+00
3.450225830078125000e+00,5.000000000000000000e+00,5.000000000000000000e+00,5.000000000000000000e+00,5.000000000000000000e+00,5.000000000000000000e+00,5.000000000000000000e+00,5.000000000000000000e+00,5.000000000000000000e+00,5.000000000000000000e+00,5.000000000000000000e+00,5.000000000000000000e+00,5.000000000000000000e+00,5.000000000000000000e+00,5.000000000000000000e+00,5.000000000000000000e+00,5.000000000000000000e+00,5.000000000000000000e+00,5.000000000000000000e+00,5.000000000000000000e+00,5.000000000000000000e+00,5.000000000000000000e+00,5.000000000000000000e+00,5.000000000000000000e+00,5.000000000000000000e+00,5.000000000000000000e+00,5.000000000000000000e+00,5.000000000000000000e+00,5.000000000000000000e+00,5.000000000000000000e+00,5.000000000000000000e+00,5.000000000000000000e+00,5.000000000000000000e+00,5.000000000000000000e+00,5.000000000000000000e+00,5.000000000000000000e+00,5.000000000000000000e+00,5.000000000000000000e+00,5.000000000000000000e+00,4.864640235900878906e+00,4.673462867736816406e+00,4.496743679046630859e+00,4.332902431488037109e+00,4.180580615997314453e+00,4.038604736328125000e+00,3.905955553054809570e+00,3.781742811203002930e+00,3.665187120437622070e+00,3.555600881576538086e+00,3.452377319335937500e+00,3.354978561401367188e+00,3.262924194335937500e+00,1.217630028724670410e+00,1.178233265876770020e+00,1.153573751449584961e+00,1.135382890701293945e+00,1.131885051727294922e+00,1.129083752632141113e+00,1.126577973365783691e+00,1.124083280563354492e+00,1.157683253288269043e+00,2.560400009155273438e+00,2.506435155868530273e+00,1.133697986602783203e+00,1.101972222328186035e+00,1.072346925735473633e+00,1.050962805747985840e+00,1.032472014427185059e+00,1.014620780944824219e+00,9.987148642539978027e-01,9.853361845016479492e-01,9.758106470108032227e-01,9.744901657104492188e-01,9.731733202934265137e-01,9.702476263046264648e-01,1.967378735542297363e+00,1.935360312461853027e+00,1.904367804527282715e+00,1.874352097511291504e+00,1.845267891883850098e+00
3.507421970367431641e+00,5.000000000000000000e+00,5.000000000000000000e+00,5.000000000000000000e+00,5.000000000000000000e+00,5.000000000000000000e+00,5.000000000000000000e+00,5.000000000000000000e+00,5.000000000000000000e+00,5.000000000000000000e+00,5.000000000000000000e+00,5.000000000000000000e+00,5.000000000000000000e+00,5.000000000000000000e+00,5.000000000000000000e+00,5.000000000000000000e+00,5.000000000000000000e+00,5.000000000000000000e+00,5.000000000000000000e+00,5.000000000000000000e+00,5.000000000000000000e+00,5.000000000000000000e+00,5.000000000000000000e+00,5.000000000000000000e+00,5.000000000000000000e+00,5.000000000000000000e+00,5.000000000000000000e+00,5.000000000000000000e+00,5.000000000000000000e+00,5.000000000000000000e+00,5.000000000000000000e+00,5.000000000000000000e+00,5.000000000000000000e+00,5.000000000000000000e+00,5.000000000000000000e+00,5.000000000000000000e+00,5.000000000000000000e+00,5.000000000000000000e+00,5.000000000000000000e+00,4.864779472351074219e+00,4.673591613769531250e+00,4.496862888336181641e+00,4.333013057708740234e+00,4.180683612823486328e+00,4.038701057434082031e+00,3.906045198440551758e+00,3.781827211380004883e+00,3.665265798568725586e+00,3.555675506591796875e+00,3.452447652816772461e+00,3.355044603347778320e+00,3.262987136840820312e+00,1.224898338317871094e+00,1.185483455657958984e+00,1.159951210021972656e+00,1.141945600509643555e+00,1.138407230377197266e+00,1.135145306587219238e+00,1.132612586021423340e+00,1.137346267700195312e+00,1.169708728790283203e+00,2.560438632965087891e+00,2.506472349166870117e+00,2.454733610153198242e+00,1.109229207038879395e+00,1.078839898109436035e+00,1.049278855323791504e+00,1.030846834182739258e+00,1.013051152229309082e+00,9.973821640014648438e-01,9.840391278266906738e-01,9.710482954978942871e-01,9.644587635993957520e-01,9.631687998771667480e-01,9.618824124336242676e-01,9.604889750480651855e-01,1.935382485389709473e+00,1.904389142990112305e+00,1.874372839927673340e+00,1.845287799835205078e+00
3.447521686553955078e+00,3.513429880142211914e+00,3.551079511642456055e+00,3.578399419784545898e+00,5.000000000000000000e+00,5.000000000000000000e+00,5.000000000000000000e+00,5.000000000000000000e+00,5.000000000000000000e+00,5.000000000000000000e+00,5.000000000000000000e+00,5.000000000000000000e+00,5.000000000000000000e+00,5.000000000000000000e+00,5.000000000000000000e+00,5.000000000000000000e+00,5.000000000000000000e+00,5.000000000000000000e+00,5.000000000000000000e+00,5.000000000000000000e+00,5.000000000000000000e+00,5.000000000000000000e+00,5.000000000000000000e+00,5.000000000000000000e+00,5.000000000000000000e+00,5.000000000000000000e+00,5.000000000000000000e+00,5.000000000000000000e+00,5.000000000000000000e+00,5.000000000000000000e+00,5.000000000000000000e+00,5.000000000000000000e+00,5.000000000000000000e+00,5.000000000000000000e+00,5.000000000000000000e+00,5.000000000000000000e+00,5.000000000000000000e+00,5.000000000000000000e+00,5.000000000000000000e+00,4.864918708801269531e+00,4.673720359802246094e+00,4.496982097625732422e+00,4.333123683929443359e+00,4.180786609649658203e+00,4.038796901702880859e+00,3.906135320663452148e+00,3.781911134719848633e+00,3.665345191955566406e+00,3.555749654769897461e+00,3.452517747879028320e+00,3.355111122131347656e+00,3.263049602508544922e+00,1.232089757919311523e+00,1.192823529243469238e+00,1.166399598121643066e+00,1.148584723472595215e+00,1.145005106925964355e+00,1.141447782516479492e+00,1.138712286949157715e+00,1.151477932929992676e+00,1.181173443794250488e+00,2.560477256774902344e+00,2.506509065628051758e+00,2.454769134521484375e+00,1.116582393646240234e+00,1.085407018661499023e+00,1.054720401763916016e+00,1.029226660728454590e+00,1.011486530303955078e+00,9.960531592369079590e-01,9.827454090118408203e-01,9.697883725166320801e-01,9.571686983108520508e-01,9.533680081367492676e-01,9.521074891090393066e-01,9.513603448867797852e-01,9.507991075515747070e-01,1.904410600662231445e+00,1.874393343925476074e+00,1.845307946205139160e+00
3.439641952514648438e+00,3.472458124160766602e+00,3.510967969894409180e+00,3.570994853973388672e+00,3.598193645477294922e+00,5.000000000000000000e+00,5.000000000000000000e+00,5.000000000000000000e+00,5.000000000000000000e+00,5.000000000000000000e+00,5.000000000000000000e+00,5.000000000000000000e+00,5.000000000000000000e+00,5.000000000000000000e+00,5.000000000000000000e+00,5.000000000000000000e+00,5.000000000000000000e+00,5.000000000000000000e+00,5.000000000000000000e+00,5.000000000000000000e+00,5.000000000000000000e+00,5.000000000000000000e+00,5.000000000000000000e+00,5.000000000000000000e+00,5.000000000000000000e+00,5.000000000000000000e+00,5.000000000000000000e+00,5.000000000000000000e+00,5.000000000000000000e+00,5.000000000000000000e+00,5.000000000000000000e+00,5.000000000000000000e+00,5.000000000000000000e+00,5.000000000000000000e+00,5.000000000000000000e+00,5.000000000000000000e+00,5.000000000000000000e+00,5.000000000000000000e+00,5.000000000000000000e+00,4.865057945251464844e+00,4.673848628997802734e+00,4.497100830078125000e+00,4.333234310150146484e+00,4.180889606475830078e+00,4.038892745971679688e+00,3.906224727630615234e+00,3.781995534896850586e+00,3.665424108505249023e+00,3.555824279785156250e+00,3.452588081359863281e+00,3.355177164077758789e+00,3.263112545013427734e+00,1.239366173744201660e+00,1.200026750564575195e+00,1.172920107841491699e+00,1.155301332473754883e+00,1.151679873466491699e+00,1.148080945014953613e+00,1.144877910614013672e+00,1.163656592369079590e+00,2.616860628128051758e+00,2.560515642166137695e+00,2.506546258926391602e+00,2.454804420471191406e+00,2.405155897140502930e+00,1.091754317283630371e+00,1.060712814331054688e+00,1.031387686729431152e+00,1.009926557540893555e+00,9.947276711463928223e-01,9.814549684524536133e-01,9.685318470001220703e-01,9.557911157608032227e-01,9.455901980400085449e-01,9.455062150955200195e-01,9.454221129417419434e-01,9.448715448379516602e-01,1.904431700706481934e+00,1.874414086341857910e+00,1.845327973365783691e+00
3.427259683609008789e+00,3.457111358642578125e+00,3.508734226226806641e+00,3.588861703872680664e+00,3.601431131362915039e+00,5.000000000000000000e+00,5.000000000000000000e+00,5.000000000000000000e+00,5.000000000000000000e+00,5.000000000000000000e+00,5.000000000000000000e+00,5.000000000000000000e+00,5.000000000000000000e+00,5.000000000000000000e+00,5.000000000000000000e+00,5.000000000000000000e+00,5.000000000000000000e+00,5.000000000000000000e+00,5.000000000000000000e+00,5.000000000000000000e+00,5.000000000000000000e+00,5.000000000000000000e+00,5.000000000000000000e+00,5.000000000000000000e+00,5.000000000000000000e+00,5.000000000000000000e+00,5.000000000000000000e+00,5.000000000000000000e+00,5.000000000000000000e+00,5.000000000000000000e+00,5.000000000000000000e+00,5.000000000000000000e+00,5.000000000000000000e+00,5.000000000000000000e+00,5.000000000000000000e+00,5.000000000000000000e+00,5.000000000000000000e+00,5.000000000000000000e+00,5.000000000000000000e+00,4.865197181701660156e+00,4.673977375030517578e+00,4.497220516204833984e+00,4.333344459533691406e+00,4.180992126464843750e+00,4.038989067077636719e+00,3.906314849853515625e+00,3.782079696655273438e+00,3.665503263473510742e+00,3.555898427963256836e+00,3.452658414840698242e+00,3.355243444442749023e+00,3.263175010681152344e+00,1.247867584228515625e+00,1.207440137863159180e+00,1.179954528808593750e+00,1.161212086677551270e+00,1.157921314239501953e+00,1.154649138450622559e+00,1.151173472404479980e+00,1.175002455711364746e+00,2.616901159286499023e+00,2.560554504394531250e+00,2.506582975387573242e+00,2.454839944839477539e+00,2.405189752578735352e+00,2.357508659362792969e+00,1.070918560028076172e+00,1.038148403167724609e+00,1.009065032005310059e+00,9.934056401252746582e-01,9.797914624214172363e-01,9.667435884475708008e-01,9.547107815742492676e-01,9.429736733436584473e-01,9.388282895088195801e-01,9.396616220474243164e-01,9.404964447021484375e-01,1.904453158378601074e+00,1.874434828758239746e+00,1.845348119735717773e+00
3.418834447860717773e+00,3.464912891387939453e+00,3.513164520263671875e+00,3.583141088485717773e+00,3.600769042968750000e+00,5.000000000000000000e+00,5.000000000000000000e+00,5.000000000000000000e+00,5.000000000000000000e+00,5.000000000000000000e+00,5.000000000000000000e+00,5.000000000000000000e+00,5.000000000000000000e+00,5.000000000000000000e+00,5.000000000000000000e+00,5.000000000000000000e+00,5.000000000000000000e+00,5.000000000000000000e+00,5.000000000000000000e+00,5.000000000000000000e+00,5.000000000000000000e+00,5.000000000000000000e+00,5.000000000000000000e+00,5.000000000000000000e+00,5.000000000000000000e+00,5.000000000000000000e+00,5.000000000000000000e+00,5.000000000000000000e+00,5.000000000000000000e+00,5.000000000000000000e+00,5.000000000000000000e+00,5.000000000000000000e+00,5.000000000000000000e+00,5.000000000000000000e+00,5.000000000000000000e+00,5.000000000000000000e+00,5.000000000000000000e+00,5.000000000000000000e+00,5.000000000000000000e+00,4.865336894989013672e+00,4.674106121063232422e+00,4.497339248657226562e+00,4.333455085754394531e+00,4.181095123291015625e+00,4.039084911346435547e+00,3.906404972076416016e+00,3.782163858413696289e+00,3.665582180023193359e+00,3.555973052978515625e+00,3.452728271484375000e+00,3.355309724807739258e+00,3.263237714767456055e+00,1.257174491882324219e+00,1.215251445770263672e+00,1.187413334846496582e+00,1.166742444038391113e+00,1.162805318832397461e+00,1.159505486488342285e+00,1.158017158508300781e+00,1.186850309371948242e+00,2.616941452026367188e+00,2.560593128204345703e+00,2.506619930267333984e+00,2.454875230789184570e+00,2.405224084854125977e+00,2.357541322708129883e+00,1.084553599357604980e+00,1.050956845283508301e+00,1.019379138946533203e+00,9.912322163581848145e-01,9.779499173164367676e-01,9.661585688591003418e-01,9.551799297332763672e-01,9.437266588211059570e-01,9.397674798965454102e-01,9.399926066398620605e-01,9.403064846992492676e-01,1.904474496841430664e+00,1.874455451965332031e+00,1.845368027687072754e+00
3.420482635498046875e+00,3.459463119506835938e+00,3.524177312850952148e+00,3.586774826049804688e+00,3.597885370254516602e+00,5.000000000000000000e+00,5.000000000000000000e+00,5.000000000000000000e+00,5.000000000000000000e+00,5.000000000000000000e+00,5.000000000000000000e+00,5.000000000000000000e+00,5.000000000000000000e+00,5.000000000000000000e+00,5.000000000000000000e+00,5.000000000000000000e+00,5.000000000000000000e+00,5.000000000000000000e+00,5.000000000000000000e+00,5.000000000000000000e+00,5.000000000000000000e+00,5.000000000000000000e+00,5.000000000000000000e+00,5.000000000000000000e+00,5.000000000000000000e+00,5.000000000000000000e+00,5.000000000000000000e+00,5.000000000000000000e+00,5.000000000000000000e+00,5.000000000000000000e+00,5.000000000000000000e+00,5.000000000000000000e+00,5.000000000000000000e+00,5.000000000000000000e+00,5.000000000000000000e+00,5.000000000000000000e+00,5.000000000000000000e+00,5.000000000000000000e+00,5.000000000000000000e+00,4.865476131439208984e+00,4.674234390258789062e+00,4.497458457946777344e+00,4.333566188812255859e+00,4.181198120117187500e+00,4.039180755615234375e+00,3.906494379043579102e+00,3.782248497009277344e+00,3.665661573410034180e+00,3.556047201156616211e+00,3.452798604965209961e+00,3.355376005172729492e+00,3.263300418853759766e+00,1.264204978942871094e+00,1.223197102546691895e+00,1.194966912269592285e+00,1.173538088798522949e+00,1.167730569839477539e+00,1.164402842521667480e+00,1.169656038284301758e+00,1.197985529899597168e+00,2.616981506347656250e+00,2.560631275177001953e+00,2.506657123565673828e+00,2.454910755157470703e+00,2.405257940292358398e+00,2.357573986053466797e+00,2.311743736267089844e+00,1.064085245132446289e+00,1.031607627868652344e+00,9.948056340217590332e-01,9.792566299438476562e-01,9.677451252937316895e-01,9.559797048568725586e-01,9.449496269226074219e-01,9.414831399917602539e-01,9.417924880981445312e-01,9.421020746231079102e-01,1.904495954513549805e+00,1.874476194381713867e+00,1.845388054847717285e+00
3.423122882843017578e+00,3.460457563400268555e+00,3.545674800872802734e+00,5.000000000000000000e+00,3.603923320770263672e+00,3.649386405944824219e+00,5.000000000000000000e+00,5.000000000000000000e+00,5.000000000000000000e+00,5.000000000000000000e+00,5.000000000000000000e+00,5.000000000000000000e+00,5.000000000000000000e+00,5.000000000000000000e+00,5.000000000000000000e+00,5.000000000000000000e+00,5.000000000000000000e+00,5.000000000000000000e+00,5.000000000000000000e+00,5.000000000000000000e+00,5.000000000000000000e+00,5.000000000000000000e+00,5.000000000000000000e+00,5.000000000000000000e+00,5.000000000000000000e+00,5.000000000000000000e+00,5.000000000000000000e+00,5.000000000000000000e+00,5.000000000000000000e+00,5.000000000000000000e+00,5.000000000000000000e+00,5.000000000000000000e+00,5.000000000000000000e+00,5.000000000000000000e+00,5.000000000000000000e+00,5.000000000000000000e+00,5.000000000000000000e+00,5.000000000000000000e+00,5.000000000000000000e+00,4.865615367889404297e+00,4.674363136291503906e+00,4.497577667236328125e+00,4.333676338195800781e+00,4.181301116943359375e+00,4.039277076721191406e+00,3.906584501266479492e+00,3.782332420349121094e+00,3.665740489959716797e+00,3.556121826171875000e+00,3.452868700027465820e+00,3.355442523956298828e+00,3.263363122940063477e+00,1.271314740180969238e+00,1.232289671897888184e+00,1.202348589897155762e+00,1.180413246154785156e+00,1.172697782516479492e+00,1.169341683387756348e+00,1.181531310081481934e+00,1.206173062324523926e+00,2.617021799087524414e+00,2.560670137405395508e+00,2.506693840026855469e+00,2.454946279525756836e+00,2.405292034149169922e+00,2.357606649398803711e+00,2.311775207519531250e+00,2.267691612243652344e+00,1.042867541313171387e+00,1.000031352043151855e+00,9.810303449630737305e-01,9.697965383529663086e-01,9.588171839714050293e-01,9.471893310546875000e-01,9.441269636154174805e-01,9.444380998611450195e-01,9.447495341300964355e-01,1.904517292976379395e+00,1.874496817588806152e+00,1.845408201217651367e+00
3.414919137954711914e+00,3.450140476226806641e+00,3.526990890502929688e+00,5.000000000000000000e+00,3.585121154785156250e+00,3.617801904678344727e+00,5.000000000000000000e+00,5.000000000000000000e+00,5.000000000000000000e+00,5.000000000000000000e+00,5.000000000000000000e+00,5.000000000000000000e+00,5.000000000000000000e+00,5.000000000000000000e+00,5.000000000000000000e+00,5.000000000000000000e+00,5.000000000000000000e+00,5.000000000000000000e+00,5.000000000000000000e+00,5.000000000000000000e+00,5.000000000000000000e+00,5.000000000000000000e+00,5.000000000000000000e+00,5.000000000000000000e+00,5.000000000000000000e+00,5.000000000000000000e+00,5.000000000000000000e+00,5.000000000000000000e+00,5.000000000000000000e+00,5.000000000000000000e+00,5.000000000000000000e+00,5.000000000000000000e+00,5.000000000000000000e+00,5.000000000000000000e+00,5.000000000000000000e+00,5.000000000000000000e+00,5.000000000000000000e+00,5.000000000000000000e+00,5.000000000000000000e+00,4.865755081176757812e+00,4.674491882324218750e+00,4.497696399688720703e+00,4.333786964416503906e+00,4.181404113769531250e+00,4.039372920989990234e+00,3.906674146652221680e+00,3.782416820526123047e+00,3.665819644927978516e+00,3.556196212768554688e+00,3.452939033508300781e+00,3.355508565902709961e+00,3.263426065444946289e+00,1.278504729270935059e+00,1.241518616676330566e+00,1.209460973739624023e+00,1.187369585037231445e+00,1.178190946578979492e+00,1.174322605133056641e+00,1.192922234535217285e+00,2.675951957702636719e+00,2.617062091827392578e+00,2.560708522796630859e+00,2.506731033325195312e+00,2.454981803894042969e+00,2.405326128005981445e+00,2.357639551162719727e+00,2.311806678771972656e+00,2.267722129821777344e+00,2.225287199020385742e+00,1.002423167228698730e+00,9.844085574150085449e-01,9.730976819992065430e-01,9.620239138603210449e-01,9.513126015663146973e-01,9.471275210380554199e-01,9.470987319946289062e-01,9.474118351936340332e-01,1.904538512229919434e+00,1.874517560005187988e+00,1.845428228378295898e+00
3.423774480819702148e+00,3.463783979415893555e+00,3.519939899444580078e+00,5.000000000000000000e+00,3.563341617584228516e+00,3.574012041091918945e+00,5.000000000000000000e+00,5.000000000000000000e+00,5.000000000000000000e+00,5.000000000000000000e+00,5.000000000000000000e+00,5.000000000000000000e+00,5.000000000000000000e+00,5.000000000000000000e+00,5.000000000000000000e+00,5.000000000000000000e+00,5.000000000000000000e+00,5.000000000000000000e+00,5.000000000000000000e+00,5.000000000000000000e+00,5.000000000000000000e+00,5.000000000000000000e+00,5.000000000000000000e+00,5.000000000000000000e+00,5.000000000000000000e+00,5.000000000000000000e+00,5.000000000000000000e+00,5.000000000000000000e+00,5.000000000000000000e+00,5.000000000000000000e+00,5.000000000000000000e+00,5.000000000000000000e+00,5.000000000000000000e+00,5.000000000000000000e+00,5.000000000000000000e+00,5.000000000000000000e+00,5.000000000000000000e+00,5.000000000000000000e+00,5.000000000000000000e+00,4.865894317626953125e+00,4.674620628356933594e+00,4.497815608978271484e+00,4.333897590637207031e+00,4.181507110595703125e+00,4.039469242095947266e+00,3.906764268875122070e+00,3.782500743865966797e+00,3.665899038314819336e+00,3.556270837783813477e+00,3.453008890151977539e+00,3.355575084686279297e+00,3.263488531112670898e+00,1.285776376724243164e+00,1.250327587127685547e+00,1.216657996177673340e+00,1.194408297538757324e+00,1.185120940208435059e+00,1.179346323013305664e+00,1.201040506362915039e+00,2.675993919372558594e+00,2.617102384567260742e+00,2.560747146606445312e+00,2.506767988204956055e+00,2.455017328262329102e+00,2.405360221862792969e+00,2.357672214508056641e+00,2.311838150024414062e+00,2.267752170562744141e+00,2.225316286087036133e+00,1.002679824829101562e+00,9.878101348876953125e-01,9.764214158058166504e-01,9.636183381080627441e-01,9.554719328880310059e-01,9.512502551078796387e-01,9.497742652893066406e-01,9.500892758369445801e-01,1.904559969902038574e+00,1.874538183212280273e+00,1.845448374748229980e+00
3.453311204910278320e+00,3.479007959365844727e+00,3.519850015640258789e+00,5.000000000000000000e+00,5.000000000000000000e+00,3.538153409957885742e+00,5.000000000000000000e+00,5.000000000000000000e+00,5.000000000000000000e+00,5.000000000000000000e+00,5.000000000000000000e+00,5.000000000000000000e+00,5.000000000000000000e+00,5.000000000000000000e+00,5.000000000000000000e+00,5.000000000000000000e+00,5.000000000000000000e+00,5.000000000000000000e+00,5.000000000000000000e+00,5.000000000000000000e+00,5.000000000000000000e+00,5.000000000000000000e+00,5.000000000000000000e+00,5.000000000000000000e+00,5.000000000000000000e+00,5.000000000000000000e+00,5.000000000000000000e+00,5.000000000000000000e+00,5.000000000000000000e+00,5.000000000000000000e+00,5.000000000000000000e+00,5.000000000000000000e+00,5.000000000000000000e+00,5.000000000000000000e+00,5.000000000000000000e+00,5.000000000000000000e+00,5.000000000000000000e+00,5.000000000000000000e+00,5.000000000000000000e+00,4.866034030914306641e+00,4.674748897552490234e+00,4.497934818267822266e+00,4.334008216857910156e+00,4.181610107421875000e+00,4.039565086364746094e+00,3.906853914260864258e+00,3.782585144042968750e+00,3.665977954864501953e+00,3.556344985961914062e+00,3.453079462051391602e+00,3.355641126632690430e+00,3.263551473617553711e+00,1.294440984725952148e+00,1.257517099380493164e+00,1.223974704742431641e+00,1.201516151428222656e+00,1.192132949829101562e+00,1.187901616096496582e+00,1.209269881248474121e+00,2.676036119461059570e+00,2.617142677307128906e+00,2.560785770416259766e+00,2.506804943084716797e+00,2.455052852630615234e+00,2.405394077301025391e+00,2.357704877853393555e+00,2.311869621276855469e+00,2.267782688140869141e+00,1.057093858718872070e+00,1.002974271774291992e+00,9.912352561950683594e-01,9.792678356170654297e-01,9.652181863784790039e-01,9.596678614616394043e-01,9.554090499877929688e-01,9.524651169776916504e-01,9.839168190956115723e-01,1.904581308364868164e+00,1.874558925628662109e+00,1.845468282699584961e+00
3.472228765487670898e+00,3.481982707977294922e+00,3.524883270263671875e+00,5.000000000000000000e+00,5.000000000000000000e+00,3.478888034820556641e+00,5.000000000000000000e+00,5.000000000000000000e+00,5.000000000000000000e+00,5.000000000000000000e+00,5.000000000000000000e+00,5.000000000000000000e+00,5.000000000000000000e+00,5.000000000000000000e+00,5.000000000000000000e+00,5.000000000000000000e+00,5.000000000000000000e+00,5.000000000000000000e+00,5.000000000000000000e+00,5.000000000000000000e+00,5.000000000000000000e+00,5.000000000000000000e+00,5.000000000000000000e+00,5.000000000000000000e+00,5.000000000000000000e+00,5.000000000000000000e+00,5.000000000000000000e+00,5.000000000000000000e+00,5.000000000000000000e+00,5.000000000000000000e+00,5.000000000000000000e+00,5.000000000000000000e+00,5.000000000000000000e+00,5.000000000000000000e+00,5.000000000000000000e+00,5.000000000000000000e+00,5.000000000000000000e+00,5.000000000000000000e+00,5.000000000000000000e+00,4.866173267364501953e+00,4.674878120422363281e+00,4.498053550720214844e+00,4.334118843078613281e+00,4.181713104248046875e+00,4.039661407470703125e+00,3.906943798065185547e+00,3.782669305801391602e+00,3.666057109832763672e+00,3.556419610977172852e+00,3.453149318695068359e+00,3.355707645416259766e+00,3.263613939285278320e+00,1.298421502113342285e+00,1.266279935836791992e+00,1.232475399971008301e+00,1.209597349166870117e+00,1.197780132293701172e+00,1.199836730957031250e+00,1.220395088195800781e+00,2.676078319549560547e+00,2.617183208465576172e+00,2.560824394226074219e+00,2.506841897964477539e+00,2.455088376998901367e+00,2.405428409576416016e+00,2.357737541198730469e+00,2.311901092529296875e+00,2.267812728881835938e+00,1.055988311767578125e+00,1.006505608558654785e+00,9.946842193603515625e-01,9.809200167655944824e-01,9.682357907295227051e-01,9.639006853103637695e-01,9.596043825149536133e-01,9.553460478782653809e-01,9.895220994949340820e-01,1.904602766036987305e+00,1.874579548835754395e+00,1.845488309860229492e+00
3.478093862533569336e+00,3.484977245330810547e+00,3.532015800476074219e+00,5.000000000000000000e+00,5.000000000000000000e+00,5.000000000000000000e+00,3.519289493560791016e+00,5.000000000000000000e+00,5.000000000000000000e+00,5.000000000000000000e+00,5.000000000000000000e+00,5.000000000000000000e+00,5.000000000000000000e+00,5.000000000000000000e+00,5.000000000000000000e+00,5.000000000000000000e+00,5.000000000000000000e+00,5.000000000000000000e+00,5.000000000000000000e+00,5.000000000000000000e+00,5.000000000000000000e+00,5.000000000000000000e+00,5.000000000000000000e+00,5.000000000000000000e+00,5.000000000000000000e+00,5.000000000000000000e+00,5.000000000000000000e+00,5.000000000000000000e+00,5.000000000000000000e+00,5.000000000000000000e+00,5.000000000000000000e+00,5.000000000000000000e+00,5.000000000000000000e+00,5.000000000000000000e+00,5.000000000000000000e+00,5.000000000000000000e+00,5.000000000000000000e+00,5.000000000000000000e+00,5.000000000000000000e+00,4.866312503814697266e+00,4.675006866455078125e+00,4.498172760009765625e+00,4.334229469299316406e+00,4.181815624237060547e+00,4.039757251739501953e+00,3.907033443450927734e+00,3.782753705978393555e+00,3.666136026382446289e+00,3.556494235992431641e+00,3.453219652175903320e+00,3.355773687362670898e+00,3.263676881790161133e+00,1.297283291816711426e+00,1.263671755790710449e+00,1.237761497497558594e+00,1.219337821006774902e+00,1.205818414688110352e+00,1.216120839118957520e+00,2.737729072570800781e+00,2.676120519638061523e+00,2.617223501205444336e+00,2.560863018035888672e+00,2.506878852844238281e+00,2.455123662948608398e+00,2.405462503433227539e+00,2.357770442962646484e+00,2.311932563781738281e+00,2.267843008041381836e+00,1.054885149002075195e+00,1.010061740875244141e+00,9.971411824226379395e-01,9.825778603553771973e-01,9.725447297096252441e-01,9.681710600852966309e-01,9.638366699218750000e-01,9.595408439636230469e-01,1.935625195503234863e+00,1.904623985290527344e+00,1.874600172042846680e+00,1.845508456230163574e+00
3.493545770645141602e+00,3.498814105987548828e+00,3.549144268035888672e+00,5.000000000000000000e+00,5.000000000000000000e+00,5.000000000000000000e+00,5.000000000000000000e+00,5.000000000000000000e+00,5.000000000000000000e+00,5.000000000000000000e+00,5.000000000000000000e+00,5.000000000000000000e+00,5.000000000000000000e+00,5.000000000000000000e+00,5.000000000000000000e+00,5.000000000000000000e+00,5.000000000000000000e+00,5.000000000000000000e+00,5.000000000000000000e+00,5.000000000000000000e+00,5.000000000000000000e+00,5.000000000000000000e+00,5.000000000000000000e+00,5.000000000000000000e+00,5.000000000000000000e+00,5.000000000000000000e+00,5.000000000000000000e+00,5.000000000000000000e+00,5.000000000000000000e+00,5.000000000000000000e+00,5.000000000000000000e+00,5.000000000000000000e+00,5.000000000000000000e+00,5.000000000000000000e+00,5.000000000000000000e+00,5.000000000000000000e+00,5.000000000000000000e+00,5.000000000000000000e+00,5.000000000000000000e+00,4.866451740264892578e+00,4.675135135650634766e+00,4.498292446136474609e+00,4.334340095520019531e+00,4.181918621063232422e+00,4.039853572845458984e+00,3.907123565673828125e+00,3.782837629318237305e+00,3.666215419769287109e+00,3.556568622589111328e+00,3.453289985656738281e+00,3.355840206146240234e+00,1.332515716552734375e+00,1.294509530067443848e+00,1.267626762390136719e+00,1.248308300971984863e+00,1.232397198677062988e+00,1.222513198852539062e+00,1.248383998870849609e+00,2.737773180007934570e+00,2.676162481307983398e+00,2.617263793945312500e+00,2.560901641845703125e+00,2.506915807723999023e+00,2.455159187316894531e+00,2.405496358871459961e+00,2.357803106307983398e+00,2.311964035034179688e+00,2.267873287200927734e+00,1.053784251213073730e+00,1.013643264770507812e+00,9.988543987274169922e-01,9.835559725761413574e-01,9.736096262931823730e-01,9.690844416618347168e-01,9.646010994911193848e-01,9.601590633392333984e-01,1.935647249221801758e+00,1.904645323753356934e+00,1.874620914459228516e+00,1.845528483390808105e+00
3.508825063705444336e+00,3.517538547515869141e+00,3.570758581161499023e+00,5.000000000000000000e+00,5.000000000000000000e+00,5.000000000000000000e+00,5.000000000000000000e+00,5.000000000000000000e+00,5.000000000000000000e+00,5.000000000000000000e+00,5.000000000000000000e+00,5.000000000000000000e+00,5.000000000000000000e+00,5.000000000000000000e+00,5.000000000000000000e+00,5.000000000000000000e+00,5.000000000000000000e+00,5.000000000000000000e+00,5.000000000000000000e+00,5.000000000000000000e+00,5.000000000000000000e+00,5.000000000000000000e+00,5.000000000000000000e+00,5.000000000000000000e+00,5.000000000000000000e+00,5.000000000000000000e+00,5.000000000000000000e+00,5.000000000000000000e+00,5.000000000000000000e+00,5.000000000000000000e+00,5.000000000000000000e+00,5.000000000000000000e+00,5.000000000000000000e+00,5.000000000000000000e+00,5.000000000000000000e+00,5.000000000000000000e+00,5.000000000000000000e+00,5.000000000000000000e+00,5.000000000000000000e+00,4.866591453552246094e+00,4.675263881683349609e+00,4.498411178588867188e+00,4.334450244903564453e+00,4.182021617889404297e+00,4.039949417114257812e+00,3.907213687896728516e+00,3.782922029495239258e+00,3.666294336318969727e+00,3.556643247604370117e+00,3.453360080718994141e+00,3.355906248092651367e+00,1.327792286872863770e+00,1.296447157859802246e+00,1.274846673011779785e+00,1.263604640960693359e+00,1.247904539108276367e+00,1.256644606590270996e+00,2.802334070205688477e+00,2.737817287445068359e+00,2.676204681396484375e+00,2.617304086685180664e+00,2.560940265655517578e+00,2.506953001022338867e+00,2.455194711685180664e+00,2.405530691146850586e+00,2.357835769653320312e+00,2.311995506286621094e+00,2.267903566360473633e+00,1.052685618400573730e+00,1.014623165130615234e+00,9.986332058906555176e-01,9.831393957138061523e-01,9.713132977485656738e-01,9.672543406486511230e-01,9.627878665924072266e-01,9.583623409271240234e-01,9.721358418464660645e-01,1.904666781425476074e+00,1.874641656875610352e+00,1.845548391342163086e+00
3.523736953735351562e+00,3.535508394241333008e+00,3.591394662857055664e+00,5.000000000000000000e+00,5.000000000000000000e+00,5.000000000000000000e+00,5.000000000000000000e+00,5.000000000000000000e+00,5.000000000000000000e+00,5.000000000000000000e+00,5.000000000000000000e+00,5.000000000000000000e+00,5.000000000000000000e+00,5.000000000000000000e+00,5.000000000000000000e+00,5.000000000000000000e+00,5.000000000000000000e+00,5.000000000000000000e+00,5.000000000000000000e+00,5.000000000000000000e+00,5.000000000000000000e+00,5.000000000000000000e+00,5.000000000000000000e+00,5.000000000000000000e+00,5.000000000000000000e+00,5.000000000000000000e+00,5.000000000000000000e+00,5.000000000000000000e+00,5.000000000000000000e+00,5.000000000000000000e+00,5.000000000000000000e+00,5.000000000000000000e+00,5.000000000000000000e+00,5.000000000000000000e+00,5.000000000000000000e+00,5.000000000000000000e+00,5.000000000000000000e+00,5.000000000000000000e+00,5.000000000000000000e+00,4.866730690002441406e+00,4.675392627716064453e+00,4.498530387878417969e+00,4.334560871124267578e+00,4.182124614715576172e+00,4.040045738220214844e+00,3.907303333282470703e+00,3.783006191253662109e+00,3.666373729705810547e+00,3.556717395782470703e+00,3.453430414199829102e+00,3.355972766876220703e+00,1.326608419418334961e+00,1.304911732673645020e+00,1.286273241043090820e+00,1.279280543327331543e+00,1.265015363693237305e+00,2.870012998580932617e+00,2.802380323410034180e+00,2.737861394882202148e+00,2.676246881484985352e+00,2.617344379425048828e+00,2.560978889465332031e+00,2.506989717483520508e+00,2.455230236053466797e+00,2.405564546585083008e+00,2.357868671417236328e+00,2.312026977539062500e+00,2.267933845520019531e+00,1.058320641517639160e+00,1.015464186668395996e+00,9.982037544250488281e-01,9.827231168746948242e-01,9.688871502876281738e-01,9.651872515678405762e-01,9.609813690185546875e-01,9.565724730491638184e-01,9.522039294242858887e-01,1.904688119888305664e+00,1.874662280082702637e+00,1.845568537712097168e+00
3.536644458770751953e+00,3.553252696990966797e+00,5.000000000000000000e+00,5.000000000000000000e+00,5.000000000000000000e+00,5.000000000000000000e+00,5.000000000000000000e+00,5.000000000000000000e+00,5.000000000000000000e+00,5.000000000000000000e+00,5.000000000000000000e+00,5.000000000000000000e+00,5.000000000000000000e+00,5.000000000000000000e+00,5.000000000000000000e+00,5.000000000000000000e+00,5.000000000000000000e+00,5.000000000000000000e+00,5.000000000000000000e+00,5.000000000000000000e+00,5.000000000000000000e+00,5.000000000000000000e+00,5.000000000000000000e+00,5.000000000000000000e+00,5.000000000000000000e+00,5.000000000000000000e+00,5.000000000000000000e+00,5.000000000000000000e+00,5.000000000000000000e+00,5.000000000000000000e+00,5.000000000000000000e+00,5.000000000000000000e+00,5.000000000000000000e+00,5.000000000000000000e+00,5.000000000000000000e+00,5.000000000000000000e+00,5.000000000000000000e+00,5.000000000000000000e+00,5.000000000000000000e+00,4.866870403289794922e+00,4.675521373748779297e+00,4.498649597167968750e+00,4.334671974182128906e+00,4.182227611541748047e+00,4.040141582489013672e+00,3.907393455505371094e+00,3.783090591430664062e+00,3.666452646255493164e+00,3.556792020797729492e+00,3.453500509262084961e+00,1.396417140960693359e+00,1.336268424987792969e+00,1.315184712409973145e+00,1.302520275115966797e+00,1.295350193977355957e+00,1.325336456298828125e+00,2.870061635971069336e+00,2.802426338195800781e+00,2.737905740737915039e+00,2.676289081573486328e+00,2.617384672164916992e+00,2.561017513275146484e+00,2.507026910781860352e+00,2.455265760421752930e+00,2.405598640441894531e+00,2.357901334762573242e+00,2.312058448791503906e+00,2.267964124679565430e+00,2.225520372390747070e+00,1.021391868591308594e+00,9.977746605873107910e-01,9.823176860809326172e-01,9.683457016944885254e-01,9.627915620803833008e-01,9.591380357742309570e-01,9.547893404960632324e-01,9.504368305206298828e-01,1.904709577560424805e+00,1.874683022499084473e+00,1.845588684082031250e+00
3.560600280761718750e+00,3.572165012359619141e+00,5.000000000000000000e+00,5.000000000000000000e+00,5.000000000000000000e+00,5.000000000000000000e+00,5.000000000000000000e+00,5.000000000000000000e+00,5.000000000000000000e+00,5.000000000000000000e+00,5.000000000000000000e+00,5.000000000000000000e+00,5.000000000000000000e+00,5.000000000000000000e+00,5.000000000000000000e+00,5.000000000000000000e+00,5.000000000000000000e+00,5.000000000000000000e+00,5.000000000000000000e+00,5.000000000000000000e+00,5.000000000000000000e+00,5.000000000000000000e+00,5.000000000000000000e+00,5.000000000000000000e+00,5.000000000000000000e+00,5.000000000000000000e+00,5.000000000000000000e+00,5.000000000000000000e+00,5.000000000000000000e+00,5.000000000000000000e+00,5.000000000000000000e+00,5.000000000000000000e+00,5.000000000000000000e+00,5.000000000000000000e+00,5.000000000000000000e+00,5.000000000000000000e+00,5.000000000000000000e+00,5.000000000000000000e+00,5.000000000000000000e+00,4.867009162902832031e+00,4.675650119781494141e+00,4.498768806457519531e+00,4.334782600402832031e+00,4.182330608367919922e+00,4.040237903594970703e+00,3.907483100891113281e+00,3.783174991607666016e+00,3.666531801223754883e+00,3.556866407394409180e+00,3.453570842742919922e+00,1.396460771560668945e+00,1.346201062202453613e+00,1.324955940246582031e+00,1.314423441886901855e+00,1.308198213577270508e+00,1.349287867546081543e+00,2.870110034942626953e+00,2.802472829818725586e+00,2.737949848175048828e+00,2.676331043243408203e+00,2.617425203323364258e+00,2.561056137084960938e+00,2.507064104080200195e+00,2.455301284790039062e+00,2.405632734298706055e+00,2.357933998107910156e+00,2.312089920043945312e+00,2.267994403839111328e+00,2.225549459457397461e+00,1.027389168739318848e+00,9.973459243774414062e-01,9.820361733436584473e-01,9.680722355842590332e-01,9.604077339172363281e-01,9.567722082138061523e-01,9.530127048492431641e-01,9.486764669418334961e-01,1.904730796813964844e+00,1.874703764915466309e+00,1.845608711242675781e+00
3.629799127578735352e+00,3.636491537094116211e+00,5.000000000000000000e+00,5.000000000000000000e+00,5.000000000000000000e+00,5.000000000000000000e+00,5.000000000000000000e+00,5.000000000000000000e+00,5.000000000000000000e+00,5.000000000000000000e+00,5.000000000000000000e+00,5.000000000000000000e+00,5.000000000000000000e+00,5.000000000000000000e+00,5.000000000000000000e+00,5.000000000000000000e+00,5.000000000000000000e+00,5.000000000000000000e+00,5.000000000000000000e+00,5.000000000000000000e+00,5.000000000000000000e+00,5.000000000000000000e+00,5.000000000000000000e+00,5.000000000000000000e+00,5.000000000000000000e+00,5.000000000000000000e+00,5.000000000000000000e+00,5.000000000000000000e+00,5.000000000000000000e+00,5.000000000000000000e+00,5.000000000000000000e+00,5.000000000000000000e+00,5.000000000000000000e+00,5.000000000000000000e+00,5.000000000000000000e+00,5.000000000000000000e+00,5.000000000000000000e+00,5.000000000000000000e+00,5.000000000000000000e+00,4.867148399353027344e+00,4.675778388977050781e+00,4.498888015747070312e+00,4.334893226623535156e+00,4.182433605194091797e+00,4.040333747863769531e+00,3.907573223114013672e+00,3.783259153366088867e+00,3.666611194610595703e+00,3.556941032409667969e+00,3.453640699386596680e+00,1.394445657730102539e+00,1.356282472610473633e+00,1.335004925727844238e+00,1.324425935745239258e+00,1.319784998893737793e+00,2.941143989562988281e+00,2.870158433914184570e+00,2.802518844604492188e+00,2.737994194030761719e+00,2.676373481750488281e+00,2.617465257644653320e+00,2.561094760894775391e+00,2.507100820541381836e+00,2.455336809158325195e+00,2.405666828155517578e+00,2.357966661453247070e+00,2.312121391296386719e+00,2.268024682998657227e+00,2.225578546524047852e+00,1.033557653427124023e+00,9.969176054000854492e-01,9.817549586296081543e-01,9.677989482879638672e-01,9.580356478691101074e-01,9.544180631637573242e-01,9.508276581764221191e-01,9.469224810600280762e-01,1.904752135276794434e+00,1.874724507331848145e+00,1.845628857612609863e+00
3.665562629699707031e+00,3.683773994445800781e+00,5.000000000000000000e+00,5.000000000000000000e+00,5.000000000000000000e+00,5.000000000000000000e+00,5.000000000000000000e+00,5.000000000000000000e+00,5.000000000000000000e+00,5.000000000000000000e+00,5.000000000000000000e+00,5.000000000000000000e+00,5.000000000000000000e+00,5.000000000000000000e+00,5.000000000000000000e+00,5.000000000000000000e+00,5.000000000000000000e+00,5.000000000000000000e+00,5.000000000000000000e+00,5.000000000000000000e+00,5.000000000000000000e+00,5.000000000000000000e+00,5.000000000000000000e+00,5.000000000000000000e+00,5.000000000000000000e+00,5.000000000000000000e+00,5.000000000000000000e+00,5.000000000000000000e+00,5.000000000000000000e+00,5.000000000000000000e+00,5.000000000000000000e+00,5.000000000000000000e+00,5.000000000000000000e+00,5.000000000000000000e+00,5.000000000000000000e+00,5.000000000000000000e+00,5.000000000000000000e+00,5.000000000000000000e+00,5.000000000000000000e+00,4.867287158966064453e+00,4.675906181335449219e+00,4.499006748199462891e+00,4.335003852844238281e+00,4.182536602020263672e+00,4.040430068969726562e+00,3.907662868499755859e+00,3.783343553543090820e+00,3.666690111160278320e+00,3.557015180587768555e+00,3.453711032867431641e+00,1.391536474227905273e+00,1.366633176803588867e+00,1.345207452774047852e+00,1.334581851959228516e+00,1.344325184822082520e+00,2.941194772720336914e+00,2.870206832885742188e+00,2.802565097808837891e+00,2.738038063049316406e+00,2.676415681838989258e+00,2.617505788803100586e+00,2.561133146286010742e+00,2.507138013839721680e+00,2.455372095108032227e+00,2.405700922012329102e+00,2.357999563217163086e+00,2.312152862548828125e+00,2.268055200576782227e+00,2.225607872009277344e+00,1.039829373359680176e+00,9.982153177261352539e-01,9.814738631248474121e-01,9.675257205963134766e-01,9.556752443313598633e-01,9.520754218101501465e-01,9.485026001930236816e-01,9.449564814567565918e-01,9.467877745628356934e-01,1.874745249748229980e+00,1.845648765563964844e+00
3.692735671997070312e+00,3.722114562988281250e+00,5.000000000000000000e+00,5.000000000000000000e+00,5.000000000000000000e+00,5.000000000000000000e+00,5.000000000000000000e+00,5.000000000000000000e+00,5.000000000000000000e+00,5.000000000000000000e+00,5.000000000000000000e+00,5.000000000000000000e+00,5.000000000000000000e+00,5.000000000000000000e+00,5.000000000000000000e+00,5.000000000000000000e+00,5.000000000000000000e+00,5.000000000000000000e+00,5.000000000000000000e+00,5.000000000000000000e+00,5.000000000000000000e+00,5.000000000000000000e+00,5.000000000000000000e+00,5.000000000000000000e+00,5.000000000000000000e+00,5.000000000000000000e+00,5.000000000000000000e+00,5.000000000000000000e+00,5.000000000000000000e+00,5.000000000000000000e+00,5.000000000000000000e+00,5.000000000000000000e+00,5.000000000000000000e+00,5.000000000000000000e+00,5.000000000000000000e+00,5.000000000000000000e+00,5.000000000000000000e+00,5.000000000000000000e+00,5.000000000000000000e+00,4.867425918579101562e+00,4.676034927368164062e+00,4.499125480651855469e+00,4.335114479064941406e+00,4.182639598846435547e+00,4.040525913238525391e+00,3.907752752304077148e+00,3.783427476882934570e+00,3.666769266128540039e+00,3.557089805603027344e+00,3.453781127929687500e+00,1.399937391281127930e+00,1.377326846122741699e+00,1.355576276779174805e+00,1.344894647598266602e+00,1.367414593696594238e+00,2.941245794296264648e+00,2.870255470275878906e+00,2.802611351013183594e+00,2.738082408905029297e+00,2.676457643508911133e+00,2.617546081542968750e+00,2.561172008514404297e+00,2.507174968719482422e+00,2.455407857894897461e+00,2.405735015869140625e+00,2.358032226562500000e+00,2.312184333801269531e+00,2.268085241317749023e+00,2.225636959075927734e+00,2.184748411178588867e+00,1.004010081291198730e+00,9.811929464340209961e-01,9.672527313232421875e-01,9.537032246589660645e-01,9.497442841529846191e-01,9.461888670921325684e-01,9.426600337028503418e-01,9.391574263572692871e-01,1.874765753746032715e+00,1.845668792724609375e+00
3.722513914108276367e+00,3.786823034286499023e+00,5.000000000000000000e+00,5.000000000000000000e+00,5.000000000000000000e+00,5.000000000000000000e+00,5.000000000000000000e+00,5.000000000000000000e+00,5.000000000000000000e+00,5.000000000000000000e+00,5.000000000000000000e+00,5.000000000000000000e+00,5.000000000000000000e+00,5.000000000000000000e+00,5.000000000000000000e+00,5.000000000000000000e+00,5.000000000000000000e+00,5.000000000000000000e+00,5.000000000000000000e+00,5.000000000000000000e+00,5.000000000000000000e+00,5.000000000000000000e+00,5.000000000000000000e+00,5.000000000000000000e+00,5.000000000000000000e+00,5.000000000000000000e+00,5.000000000000000000e+00,5.000000000000000000e+00,5.000000000000000000e+00,5.000000000000000000e+00,5.000000000000000000e+00,5.000000000000000000e+00,5.000000000000000000e+00,5.000000000000000000e+00,5.000000000000000000e+00,5.000000000000000000e+00,5.000000000000000000e+00,5.000000000000000000e+00,5.000000000000000000e+00,4.867564678192138672e+00,4.676162719726562500e+00,4.499244213104248047e+00,4.335224628448486328e+00,4.182742595672607422e+00,4.040622234344482422e+00,3.907842397689819336e+00,3.783511877059936523e+00,3.666848182678222656e+00,3.557164430618286133e+00,3.453851461410522461e+00,1.411206126213073730e+00,1.388189196586608887e+00,1.366932034492492676e+00,1.355522394180297852e+00,1.390488147735595703e+00,2.941296577453613281e+00,2.870304107666015625e+00,2.802657604217529297e+00,2.738126277923583984e+00,2.676500082015991211e+00,2.617586374282836914e+00,2.561210393905639648e+00,2.507211923599243164e+00,2.455443143844604492e+00,2.405769109725952148e+00,2.358064889907836914e+00,2.312215805053710938e+00,2.268115758895874023e+00,2.225666284561157227e+00,2.184776544570922852e+00,1.010023355484008789e+00,9.816634654998779297e-01,9.678391218185424805e-01,9.543961882591247559e-01,9.478189349174499512e-01,9.442610740661621094e-01,9.407298564910888672e-01,9.372248053550720215e-01,1.874786496162414551e+00,1.845688939094543457e+00
3.766985177993774414e+00,5.000000000000000000e+00,5.000000000000000000e+00,5.000000000000000000e+00,5.000000000000000000e+00,5.000000000000000000e+00,5.000000000000000000e+00,5.000000000000000000e+00,5.000000000000000000e+00,5.000000000000000000e+00,5.000000000000000000e+00,5.000000000000000000e+00,5.000000000000000000e+00,5.000000000000000000e+00,5.000000000000000000e+00,5.000000000000000000e+00,5.000000000000000000e+00,5.000000000000000000e+00,5.000000000000000000e+00,5.000000000000000000e+00,5.000000000000000000e+00,5.000000000000000000e+00,5.000000000000000000e+00,5.000000000000000000e+00,5.000000000000000000e+00,5.000000000000000000e+00,5.000000000000000000e+00,5.000000000000000000e+00,5.000000000000000000e+00,5.000000000000000000e+00,5.000000000000000000e+00,5.000000000000000000e+00,5.000000000000000000e+00,5.000000000000000000e+00,5.000000000000000000e+00,5.000000000000000000e+00,5.000000000000000000e+00,5.000000000000000000e+00,5.000000000000000000e+00,4.867703914642333984e+00,4.676290988922119141e+00,4.499362945556640625e+00,4.335334300994873047e+00,4.182845115661621094e+00,4.040718555450439453e+00,3.907932281494140625e+00,3.783595800399780273e+00,3.666927576065063477e+00,3.557238817214965820e+00,3.453921556472778320e+00,1.423759698867797852e+00,1.400255203247070312e+00,1.381981849670410156e+00,1.368997931480407715e+00,3.015943527221679688e+00,2.941347599029541016e+00,2.870352506637573242e+00,2.802703857421875000e+00,2.738170623779296875e+00,2.676542043685913086e+00,2.617626905441284180e+00,2.561249256134033203e+00,2.507248878479003906e+00,2.455478668212890625e+00,2.405803203582763672e+00,2.358097553253173828e+00,2.312247276306152344e+00,2.268145799636840820e+00,2.225695371627807617e+00,2.184804677963256836e+00,1.016496181488037109e+00,9.825142621994018555e-01,9.686661958694458008e-01,9.551807641983032227e-01,9.459598064422607422e-01,9.424158930778503418e-01,9.388983845710754395e-01,9.354069828987121582e-01,1.874807238578796387e+00,1.845709085464477539e+00
3.740077018737792969e+00,4.874413490295410156e+00,4.873203277587890625e+00,4.871993064880371094e+00,4.870783329010009766e+00,4.869574546813964844e+00,4.868366718292236328e+00,4.867158889770507812e+00,4.865952014923095703e+00,4.864745616912841797e+00,4.863539695739746094e+00,4.862334728240966797e+00,4.861129760742187500e+00,4.859925746917724609e+00,4.858722209930419922e+00,4.857519626617431641e+00,4.856317520141601562e+00,4.855115890502929688e+00,4.853915214538574219e+00,4.852714538574218750e+00,4.851514339447021484e+00,4.850315570831298828e+00,4.849116802215576172e+00,4.847918510437011719e+00,4.846721172332763672e+00,4.845524311065673828e+00,4.844328403472900391e+00,4.843132495880126953e+00,4.841937541961669922e+00,4.840742588043212891e+00,4.839548587799072266e+00,4.838355541229248047e+00,4.837162494659423828e+00,4.835970401763916016e+00,4.834778785705566406e+00,4.833588123321533203e+00,4.832397460937500000e+00,4.831207275390625000e+00,4.830018520355224609e+00,4.828829765319824219e+00,4.676419258117675781e+00,4.499481678009033203e+00,4.335444927215576172e+00,4.182948112487792969e+00,4.040814876556396484e+00,3.908022403717041016e+00,3.783680438995361328e+00,3.667006492614746094e+00,3.557313442230224609e+00,3.453991889953613281e+00,1.436538577079772949e+00,1.412724256515502930e+00,1.397252082824707031e+00,1.390353322029113770e+00,3.015997171401977539e+00,2.941398382186889648e+00,2.870401144027709961e+00,2.802750110626220703e+00,2.738214731216430664e+00,2.676584243774414062e+00,2.617667198181152344e+00,2.561287879943847656e+00,2.507286071777343750e+00,2.455514192581176758e+00,2.405837297439575195e+00,2.358130455017089844e+00,2.312278747558593750e+00,2.268176317214965820e+00,2.225724458694458008e+00,2.184832811355590820e+00,1.023052334785461426e+00,9.833666086196899414e-01,9.694945812225341797e-01,9.559664130210876465e-01,9.447270035743713379e-01,9.405777454376220703e-01,9.370740652084350586e-01,9.335961937904357910e-01,1.874827980995178223e+00,1.845728993415832520e+00
3.778411388397216797e+00,3.777683973312377930e+00,3.776956319808959961e+00,3.776229619979858398e+00,3.775502920150756836e+00,3.774776697158813477e+00,3.774050712585449219e+00,3.773324966430664062e+00,3.772599458694458008e+00,3.771874189376831055e+00,3.771149396896362305e+00,3.770424842834472656e+00,3.769700527191162109e+00,3.768976449966430664e+00,3.768252611160278320e+00,3.767529010772705078e+00,3.766805887222290039e+00,3.766083002090454102e+00,3.765359878540039062e+00,3.764637470245361328e+00,3.763915300369262695e+00,3.763193368911743164e+00,3.762471914291381836e+00,3.761750698089599609e+00,3.761029720306396484e+00,3.760308980941772461e+00,3.759588479995727539e+00,3.758868217468261719e+00,3.758148431777954102e+00,3.757428646087646484e+00,3.756709337234497070e+00,3.755990266799926758e+00,3.755271434783935547e+00,3.754552841186523438e+00,3.753834724426269531e+00,3.753116130828857422e+00,3.752398490905761719e+00,3.751681089401245117e+00,3.750963926315307617e+00,3.750247001647949219e+00,3.749530315399169922e+00,3.748814105987548828e+00,3.748098134994506836e+00,3.747382164001464844e+00,3.746666669845581055e+00,3.745951414108276367e+00,3.745236396789550781e+00,3.667085886001586914e+00,3.557387590408325195e+00,3.454062223434448242e+00,1.449548959732055664e+00,1.425660729408264160e+00,1.412582516670227051e+00,1.417172670364379883e+00,3.016050577163696289e+00,2.941449642181396484e+00,2.870449542999267578e+00,2.802796602249145508e+00,2.738258838653564453e+00,2.676626443862915039e+00,2.617707490921020508e+00,2.561326503753662109e+00,2.507322788238525391e+00,2.455549716949462891e+00,2.405871152877807617e+00,2.358163356781005859e+00,2.312310218811035156e+00,2.268206357955932617e+00,2.225753784179687500e+00,2.184860944747924805e+00,1.033472776412963867e+00,9.892421364784240723e-01,9.703244566917419434e-01,9.567535519599914551e-01,9.438774585723876953e-01,9.387469291687011719e-01,9.352567195892333984e-01,9.317924380302429199e-01,1.874848484992980957e+00,1.845749020576477051e+00
3.084315061569213867e+00,3.083830356597900391e+00,3.083345651626586914e+00,3.082861185073852539e+00,3.082376956939697266e+00,3.081892967224121094e+00,3.081408977508544922e+00,3.080925226211547852e+00,3.080441474914550781e+00,3.079957962036132812e+00,3.079474687576293945e+00,3.078991413116455078e+00,3.078508377075195312e+00,3.078025341033935547e+00,3.077542781829833984e+00,3.077059984207153320e+00,3.076577425003051758e+00,3.076095104217529297e+00,3.075612783432006836e+00,3.075130939483642578e+00,3.074649095535278320e+00,3.074167251586914062e+00,3.073685884475708008e+00,3.073204517364501953e+00,3.072723150253295898e+00,3.072242021560668945e+00,3.071761131286621094e+00,3.071280241012573242e+00,3.070799589157104492e+00,3.070319175720214844e+00,3.069839000701904297e+00,3.069358587265014648e+00,3.068878650665283203e+00,3.068398475646972656e+00,3.067918777465820312e+00,3.067439079284667969e+00,3.066959857940673828e+00,3.066480398178100586e+00,3.066001415252685547e+00,3.065522432327270508e+00,3.065043687820434570e+00,3.064564943313598633e+00,3.064086437225341797e+00,3.063607931137084961e+00,3.063129663467407227e+00,3.062651634216308594e+00,3.062173604965209961e+00,3.061695814132690430e+00,3.061218261718750000e+00,3.060740470886230469e+00,1.463078975677490234e+00,1.438836336135864258e+00,1.428253173828125000e+00,3.058831930160522461e+00,3.016104221343994141e+00,2.941500425338745117e+00,2.870498180389404297e+00,2.802842617034912109e+00,2.738302946090698242e+00,2.676668643951416016e+00,2.617747783660888672e+00,2.561365127563476562e+00,2.507359981536865234e+00,2.455585241317749023e+00,2.405905485153198242e+00,2.358195781707763672e+00,2.312341690063476562e+00,2.268236875534057617e+00,2.225782871246337891e+00,2.184889078140258789e+00,2.145470619201660156e+00,9.954504370689392090e-01,9.711558222770690918e-01,9.575418233871459961e-01,9.441263675689697266e-01,9.371098279953002930e-01,9.334465265274047852e-01,9.433810114860534668e-01,1.874869227409362793e+00,1.845769166946411133e+00
2.605654954910278320e+00,2.605308771133422852e+00,2.604963064193725586e+00,2.604617357254028320e+00,2.604271650314331055e+00,2.603925943374633789e+00,2.603580474853515625e+00,2.603235006332397461e+00,2.602889776229858398e+00,2.602544546127319336e+00,2.602199316024780273e+00,2.601854324340820312e+00,2.601509332656860352e+00,2.601164579391479492e+00,2.600819587707519531e+00,2.600474834442138672e+00,2.600130319595336914e+00,2.599785804748535156e+00,2.599441528320312500e+00,2.599097013473510742e+00,2.598752737045288086e+00,2.598408699035644531e+00,2.598064661026000977e+00,2.597720861434936523e+00,2.597376823425292969e+00,2.597033023834228516e+00,2.596689462661743164e+00,2.596345901489257812e+00,2.596002340316772461e+00,2.595659017562866211e+00,2.595315694808959961e+00,2.594972372055053711e+00,2.594629049301147461e+00,2.594286203384399414e+00,2.593943119049072266e+00,2.593600273132324219e+00,2.593257427215576172e+00,2.592914819717407227e+00,2.592572212219238281e+00,2.592229843139648438e+00,2.591887474060058594e+00,2.591545104980468750e+00,2.591202735900878906e+00,2.590860843658447266e+00,2.590518712997436523e+00,2.590176820755004883e+00,2.589834928512573242e+00,2.589492797851562500e+00,2.589151144027709961e+00,2.588809728622436523e+00,1.489903330802917480e+00,1.467024922370910645e+00,1.444275379180908203e+00,2.587444305419921875e+00,2.587103128433227539e+00,2.586761951446533203e+00,2.586421012878417969e+00,2.586080312728881836e+00,2.585739374160766602e+00,2.585398674011230469e+00,2.585058212280273438e+00,2.561403751373291016e+00,2.507397174835205078e+00,2.455620765686035156e+00,2.405939340591430664e+00,2.358228683471679688e+00,2.312373161315917969e+00,2.268266916275024414e+00,2.225811958312988281e+00,2.184916973114013672e+00,2.145497798919677734e+00,1.002715229988098145e+00,9.719884991645812988e-01,9.583315849304199219e-01,9.448941349983215332e-01,9.362739920616149902e-01,9.316433072090148926e-01,9.393392801284790039e-01,1.874889969825744629e+00,1.845789194107055664e+00
2.255613327026367188e+00,2.255353689193725586e+00,2.255094051361083984e+00,2.254834413528442383e+00,2.254574775695800781e+00,2.254315614700317383e+00,2.254056215286254883e+00,2.253796815872192383e+00,2.253537416458129883e+00,2.253278255462646484e+00,2.253019094467163086e+00,2.252759933471679688e+00,2.252501010894775391e+00,2.252242088317871094e+00,2.251983165740966797e+00,2.251724243164062500e+00,2.251465559005737305e+00,2.251206874847412109e+00,2.250948190689086914e+00,2.250689506530761719e+00,2.250431060791015625e+00,2.250172615051269531e+00,2.249914169311523438e+00,2.249655961990356445e+00,2.249397993087768555e+00,2.249140262603759766e+00,2.248882532119750977e+00,2.248624801635742188e+00,2.248367071151733398e+00,2.248109340667724609e+00,2.247851848602294922e+00,2.247594356536865234e+00,2.247336864471435547e+00,2.247079610824584961e+00,2.246822357177734375e+00,2.246565103530883789e+00,2.246307849884033203e+00,2.246050834655761719e+00,2.245793819427490234e+00,2.245536565780639648e+00,2.245279788970947266e+00,2.245022773742675781e+00,2.244765996932983398e+00,2.244509220123291016e+00,2.244252443313598633e+00,2.243995666503906250e+00,2.243739128112792969e+00,2.243482589721679688e+00,2.243226051330566406e+00,2.242969751358032227e+00,1.494574904441833496e+00,1.471763491630554199e+00,1.465738654136657715e+00,2.241944789886474609e+00,2.241688489913940430e+00,2.241432428359985352e+00,2.241176366806030273e+00,2.240920543670654297e+00,2.240664720535278320e+00,2.240408897399902344e+00,2.240153074264526367e+00,2.239897251129150391e+00,2.239641427993774414e+00,2.239385843276977539e+00,2.239130496978759766e+00,2.238874912261962891e+00,2.238619565963745117e+00,2.238364219665527344e+00,2.225841045379638672e+00,2.184945344924926758e+00,2.145524740219116211e+00,1.013099074363708496e+00,9.728226661682128906e-01,9.591224789619445801e-01,9.456629753112792969e-01,9.354396462440490723e-01,9.298470020294189453e-01,9.353321790695190430e-01,1.874910712242126465e+00,1.845809102058410645e+00
1.988500714302062988e+00,1.988299012184143066e+00,1.988097071647644043e+00,1.987895488739013672e+00,1.987693905830383301e+00,1.987492084503173828e+00,1.987290620803833008e+00,1.987088799476623535e+00,1.986887454986572266e+00,1.986685752868652344e+00,1.986484408378601074e+00,1.986283183097839355e+00,1.986081600189208984e+00,1.985880374908447266e+00,1.985679030418395996e+00,1.985477805137634277e+00,1.985276460647583008e+00,1.985075354576110840e+00,1.984874367713928223e+00,1.984673142433166504e+00,1.984472155570983887e+00,1.984271049499511719e+00,1.984070181846618652e+00,1.983869314193725586e+00,1.983668327331542969e+00,1.983467578887939453e+00,1.983266711235046387e+00,1.983065962791442871e+00,1.982865095138549805e+00,1.982664585113525391e+00,1.982463955879211426e+00,1.982263326644897461e+00,1.982062816619873047e+00,1.981862187385559082e+00,1.981661796569824219e+00,1.981461405754089355e+00,1.981260895729064941e+00,1.981060624122619629e+00,1.980860233306884766e+00,1.980659961700439453e+00,1.980459690093994141e+00,1.980259537696838379e+00,1.980059504508972168e+00,1.979859232902526855e+00,1.979659318923950195e+00,1.979459047317504883e+00,1.979259133338928223e+00,1.979059100151062012e+00,1.978859305381774902e+00,1.978659510612487793e+00,1.488966226577758789e+00,1.458786129951477051e+00,1.445450782775878906e+00,1.450106978416442871e+00,1.977660536766052246e+00,1.977460980415344238e+00,1.977261543273925781e+00,1.977061748504638672e+00,1.976862430572509766e+00,1.976662755012512207e+00,1.976463437080383301e+00,1.976264119148254395e+00,1.976064682006835938e+00,1.975865483283996582e+00,1.975666046142578125e+00,1.975466966629028320e+00,1.975267648696899414e+00,1.975068569183349609e+00,1.974869489669799805e+00,1.974670290946960449e+00,1.974471330642700195e+00,1.023699998855590820e+00,9.752584099769592285e-01,9.599148035049438477e-01,9.464332461357116699e-01,9.346068501472473145e-01,9.287920594215393066e-01,9.313591122627258301e-01,1.874931454658508301e+00,1.845829248428344727e+00
1.777953386306762695e+00,1.777792096138000488e+00,1.777630805969238281e+00,1.777469396591186523e+00,1.777308225631713867e+00,1.777146935462951660e+00,1.776985764503479004e+00,1.776824474334716797e+00,1.776663422584533691e+00,1.776502490043640137e+00,1.776341199874877930e+00,1.776180267333984375e+00,1.776019096374511719e+00,1.775858163833618164e+00,1.775697112083435059e+00,1.775536298751831055e+00,1.775375485420227051e+00,1.775214433670043945e+00,1.775053620338439941e+00,1.774892687797546387e+00,1.774731993675231934e+00,1.774571299552917480e+00,1.774410486221313477e+00,1.774249911308288574e+00,1.774089097976684570e+00,1.773928523063659668e+00,1.773767828941345215e+00,1.773607254028320312e+00,1.773446798324584961e+00,1.773286104202270508e+00,1.773125767707824707e+00,1.772965073585510254e+00,1.772804737091064453e+00,1.772644281387329102e+00,1.772483944892883301e+00,1.772323608398437500e+00,1.772163152694702148e+00,1.772002935409545898e+00,1.771842598915100098e+00,1.771682381629943848e+00,1.771522283554077148e+00,1.771361947059631348e+00,1.771201968193054199e+00,1.771041631698608398e+00,1.770881652832031250e+00,1.770721435546875000e+00,1.770561456680297852e+00,1.770401597023010254e+00,1.770241498947143555e+00,1.770081639289855957e+00,1.479809284210205078e+00,1.445319414138793945e+00,1.431785464286804199e+00,1.425780177116394043e+00,1.769282341003417969e+00,1.769122362136840820e+00,1.768962740898132324e+00,1.768802881240844727e+00,1.768643260002136230e+00,1.768483638763427734e+00,1.768323898315429688e+00,1.768164396286010742e+00,1.768004775047302246e+00,1.767845273017883301e+00,1.767685651779174805e+00,1.767526149749755859e+00,1.767366766929626465e+00,1.767207264900207520e+00,1.767048001289367676e+00,1.766888499259948730e+00,1.766729235649108887e+00,1.766569733619689941e+00,9.835247397422790527e-01,9.607083201408386230e-01,9.563252925872802734e-01,9.480512738227844238e-01,9.340698719024658203e-01,9.321404695510864258e-01,1.765455603599548340e+00,1.765296339988708496e+00
1.607723593711853027e+00,1.607591748237609863e+00,1.607459902763366699e+00,1.607327938079833984e+00,1.607196092605590820e+00,1.607064127922058105e+00,1.606932401657104492e+00,1.606800675392150879e+00,1.606668829917907715e+00,1.606537103652954102e+00,1.606405258178710938e+00,1.606273651123046875e+00,1.606141805648803711e+00,1.606010198593139648e+00,1.605878591537475586e+00,1.605746865272521973e+00,1.605615377426147461e+00,1.605483651161193848e+00,1.605352163314819336e+00,1.605220556259155273e+00,1.605089068412780762e+00,1.604957699775695801e+00,1.604826092720031738e+00,1.604694724082946777e+00,1.604563117027282715e+00,1.604431867599487305e+00,1.604300498962402344e+00,1.604169011116027832e+00,1.604037761688232422e+00,1.603906273841857910e+00,1.603775024414062500e+00,1.603643655776977539e+00,1.603512525558471680e+00,1.603381276130676270e+00,1.603250026702880859e+00,1.603118896484375000e+00,1.602987647056579590e+00,1.602856516838073730e+00,1.602725267410278320e+00,1.602594256401062012e+00,1.602463245391845703e+00,1.602332115173339844e+00,1.602201104164123535e+00,1.602069973945617676e+00,1.601938962936401367e+00,1.601808071136474609e+00,1.601677060127258301e+00,1.601546168327331543e+00,1.601415157318115234e+00,1.601284384727478027e+00,1.601153373718261719e+00,1.423032164573669434e+00,1.413636207580566406e+00,1.408202886581420898e+00,1.408917188644409180e+00,1.600499272346496582e+00,1.600368618965148926e+00,1.600237846374511719e+00,1.600107192993164062e+00,1.599976539611816406e+00,1.599845767021179199e+00,1.599715232849121094e+00,1.599584460258483887e+00,1.599453926086425781e+00,1.599323391914367676e+00,1.599192738533020020e+00,1.599062323570251465e+00,1.598931670188903809e+00,1.598801255226135254e+00,1.598670721054077148e+00,1.598540306091308594e+00,1.598410010337829590e+00,1.598279476165771484e+00,9.687414169311523438e-01,9.546103477478027344e-01,9.446325898170471191e-01,9.359338879585266113e-01,1.597627758979797363e+00,1.597497582435607910e+00,1.597367167472839355e+00
1.467242836952209473e+00,1.467132925987243652e+00,1.467023134231567383e+00,1.466913104057312012e+00,1.466803312301635742e+00,1.466693639755249023e+00,1.466583728790283203e+00,1.466473937034606934e+00,1.466364145278930664e+00,1.466254472732543945e+00,1.466144680976867676e+00,1.466035008430480957e+00,1.465925335884094238e+00,1.465815544128417969e+00,1.465705990791320801e+00,1.465596199035644531e+00,1.465486645698547363e+00,1.465376973152160645e+00,1.465267419815063477e+00,1.465157866477966309e+00,1.465048193931579590e+00,1.464938640594482422e+00,1.464829087257385254e+00,1.464719533920288086e+00,1.464609980583190918e+00,1.464500546455383301e+00,1.464391112327575684e+00,1.464281558990478516e+00,1.464172244071960449e+00,1.464062690734863281e+00,1.463953375816345215e+00,1.463844060897827148e+00,1.463734626770019531e+00,1.463625311851501465e+00,1.463515877723693848e+00,1.463406562805175781e+00,1.463297128677368164e+00,1.463187932968139648e+00,1.463078737258911133e+00,1.462969422340393066e+00,1.462860226631164551e+00,1.462750911712646484e+00,1.462641716003417969e+00,1.462532639503479004e+00,1.462423324584960938e+00,1.462314248085021973e+00,1.462205052375793457e+00,1.462095975875854492e+00,1.461986780166625977e+00,1.461877703666687012e+00,1.461768627166748047e+00,1.461659550666809082e+00,1.393085122108459473e+00,1.382575273513793945e+00,1.374373435974121094e+00,1.366814732551574707e+00,1.461114525794982910e+00,1.461005568504333496e+00,1.460896492004394531e+00,1.460787653923034668e+00,1.460678696632385254e+00,1.460569858551025391e+00,1.460460901260375977e+00,1.460352063179016113e+00,1.460243225097656250e+00,1.460134267807006836e+00,1.460025548934936523e+00,1.459916710853576660e+00,1.459807872772216797e+00,1.459699153900146484e+00,1.459590435028076172e+00,1.459481716156005859e+00,1.007848024368286133e+00,9.674253463745117188e-01,9.514173269271850586e-01,9.396771788597106934e-01,9.288701415061950684e-01,9.297043681144714355e-01,1.458720922470092773e+00,1.458612203598022461e+00
1.349339246749877930e+00,1.349246263504028320e+00,1.349153399467468262e+00,1.349060416221618652e+00,1.348967552185058594e+00,1.348874688148498535e+00,1.348781824111938477e+00,1.348688960075378418e+00,1.348596096038818359e+00,1.348503232002258301e+00,1.348410487174987793e+00,1.348317623138427734e+00,1.348224878311157227e+00,1.348132014274597168e+00,1.348039269447326660e+00,1.347946524620056152e+00,1.347853779792785645e+00,1.347761154174804688e+00,1.347668290138244629e+00,1.347575664520263672e+00,1.347482919692993164e+00,1.347390294075012207e+00,1.347297549247741699e+00,1.347204923629760742e+00,1.347112417221069336e+00,1.347019672393798828e+00,1.346927165985107422e+00,1.346834421157836914e+00,1.346741914749145508e+00,1.346649408340454102e+00,1.346556782722473145e+00,1.346464276313781738e+00,1.346371650695800781e+00,1.346279144287109375e+00,1.346186637878417969e+00,1.346094131469726562e+00,1.346001744270324707e+00,1.345909118652343750e+00,1.345816731452941895e+00,1.345724225044250488e+00,1.345631837844848633e+00,1.345539331436157227e+00,1.345446944236755371e+00,1.345354676246643066e+00,1.345262169837951660e+00,1.345169901847839355e+00,1.345077395439147949e+00,1.344985127449035645e+00,1.344892859458923340e+00,1.344800472259521484e+00,1.344708204269409180e+00,1.344615817070007324e+00,1.344523549079895020e+00,1.344431281089782715e+00,1.344339013099670410e+00,1.344246864318847656e+00,1.344154477119445801e+00,1.344062328338623047e+00,1.343970060348510742e+00,1.343877911567687988e+00,1.343785643577575684e+00,1.343693494796752930e+00,1.343601465225219727e+00,1.343509197235107422e+00,1.343417167663574219e+00,1.343324899673461914e+00,1.343232870101928711e+00,1.343140840530395508e+00,1.343048691749572754e+00,1.342956662178039551e+00,1.342864513397216797e+00,1.342772483825683594e+00,9.991771578788757324e-01,9.694769382476806641e-01,9.474983215332031250e-01,9.337972402572631836e-01,9.219084382057189941e-01,9.081379175186157227e-01,8.981190919876098633e-01,8.908026814460754395e-01
1.248975038528442383e+00,1.248895406723022461e+00,1.248815774917602539e+00,1.248736262321472168e+00,1.248656630516052246e+00,1.248577117919921875e+00,1.248497486114501953e+00,1.248417854309082031e+00,1.248338341712951660e+00,1.248258829116821289e+00,1.248179316520690918e+00,1.248099684715270996e+00,1.248020291328430176e+00,1.247940659523010254e+00,1.247861266136169434e+00,1.247781753540039062e+00,1.247702240943908691e+00,1.247622847557067871e+00,1.247543334960937500e+00,1.247463941574096680e+00,1.247384428977966309e+00,1.247305035591125488e+00,1.247225642204284668e+00,1.247146248817443848e+00,1.247066855430603027e+00,1.246987462043762207e+00,1.246908068656921387e+00,1.246828675270080566e+00,1.246749401092529297e+00,1.246670126914978027e+00,1.246590733528137207e+00,1.246511459350585938e+00,1.246432065963745117e+00,1.246352791786193848e+00,1.246273517608642578e+00,1.246194243431091309e+00,1.246114969253540039e+00,1.246035695075988770e+00,1.245956420898437500e+00,1.245877146720886230e+00,1.245797991752624512e+00,1.245718836784362793e+00,1.245639562606811523e+00,1.245560407638549805e+00,1.245481133460998535e+00,1.245401978492736816e+00,1.245322704315185547e+00,1.245243668556213379e+00,1.245164513587951660e+00,1.245085358619689941e+00,1.245006203651428223e+00,1.244927048683166504e+00,1.244848012924194336e+00,1.244768977165222168e+00,1.244689822196960449e+00,1.244610786437988281e+00,1.244531631469726562e+00,1.244452595710754395e+00,1.244373440742492676e+00,1.244294524192810059e+00,1.244215488433837891e+00,1.244136452674865723e+00,1.244057416915893555e+00,1.243978381156921387e+00,1.243899464607238770e+00,1.243820548057556152e+00,1.243741512298583984e+00,1.243662595748901367e+00,1.243583559989929199e+00,1.243504643440246582e+00,1.243425726890563965e+00,1.243346810340881348e+00,9.950008988380432129e-01,9.704124331474304199e-01,9.487242102622985840e-01,9.299440383911132812e-01,9.158836007118225098e-01,9.021530747413635254e-01,8.870604634284973145e-01,8.746793866157531738e-01
1.162507534027099609e+00,1.162438511848449707e+00,1.162369489669799805e+00,1.162300586700439453e+00,1.162231564521789551e+00,1.162162661552429199e+00,1.162093639373779297e+00,1.162024736404418945e+00,1.161955952644348145e+00,1.161886930465698242e+00,1.161818027496337891e+00,1.161749124526977539e+00,1.161680221557617188e+00,1.161611437797546387e+00,1.161542534828186035e+00,1.161473631858825684e+00,1.161404728889465332e+00,1.161335945129394531e+00,1.161267042160034180e+00,1.161198258399963379e+00,1.161129474639892578e+00,1.161060571670532227e+00,1.160991787910461426e+00,1.160923004150390625e+00,1.160854220390319824e+00,1.160785317420959473e+00,1.160716652870178223e+00,1.160647869110107422e+00,1.160579085350036621e+00,1.160510301589965820e+00,1.160441517829895020e+00,1.160372853279113770e+00,1.160304188728332520e+00,1.160235404968261719e+00,1.160166740417480469e+00,1.160097956657409668e+00,1.160029292106628418e+00,1.159960508346557617e+00,1.159891963005065918e+00,1.159823298454284668e+00,1.159754514694213867e+00,1.159685969352722168e+00,1.159617304801940918e+00,1.159548640251159668e+00,1.159479975700378418e+00,1.159411430358886719e+00,1.159342765808105469e+00,1.159274101257324219e+00,1.159205555915832520e+00,1.159136891365051270e+00,1.159068346023559570e+00,1.158999800682067871e+00,1.158931255340576172e+00,1.158862709999084473e+00,1.158794045448303223e+00,1.158725619316101074e+00,1.158656954765319824e+00,1.158588528633117676e+00,1.158519983291625977e+00,1.158451437950134277e+00,1.158383011817932129e+00,1.158314466476440430e+00,1.158246040344238281e+00,1.158177495002746582e+00,1.158109068870544434e+00,1.158040642738342285e+00,1.157972216606140137e+00,1.157903790473937988e+00,1.157835245132446289e+00,1.157766938209533691e+00,1.157698512077331543e+00,1.157630085945129395e+00,9.908435344696044922e-01,9.693460464477539062e-01,9.504796862602233887e-01,9.341626763343811035e-01,9.180886149406433105e-01,9.025584459304809570e-01,8.846437335014343262e-01,8.665245771408081055e-01
1.087237119674682617e+00,1.087176799774169922e+00,1.087116479873657227e+00,1.087056159973144531e+00,1.086995840072631836e+00,1.086935520172119141e+00,1.086875200271606445e+00,1.086814880371093750e+00,1.086754679679870605e+00,1.086694359779357910e+00,1.086634039878845215e+00,1.086573719978332520e+00,1.086513519287109375e+00,1.086453318595886230e+00,1.086392998695373535e+00,1.086332798004150391e+00,1.086272478103637695e+00,1.086212277412414551e+00,1.086152076721191406e+00,1.086091876029968262e+00,1.086031675338745117e+00,1.085971474647521973e+00,1.085911273956298828e+00,1.085851073265075684e+00,1.085790872573852539e+00,1.085730791091918945e+00,1.085670471191406250e+00,1.085610389709472656e+00,1.085550189018249512e+00,1.085490107536315918e+00,1.085429906845092773e+00,1.085369825363159180e+00,1.085309743881225586e+00,1.085249543190002441e+00,1.085189461708068848e+00,1.085129261016845703e+00,1.085069179534912109e+00,1.085009098052978516e+00,1.084949016571044922e+00,1.084888935089111328e+00,1.084828853607177734e+00,1.084768772125244141e+00,1.084708690643310547e+00,1.084648609161376953e+00,1.084588646888732910e+00,1.084528565406799316e+00,1.084468483924865723e+00,1.084408521652221680e+00,1.084348440170288086e+00,1.084288358688354492e+00,1.084228396415710449e+00,1.084168434143066406e+00,1.084108471870422363e+00,1.084048509597778320e+00,1.083988428115844727e+00,1.083928465843200684e+00,1.083868503570556641e+00,1.083808541297912598e+00,1.083748579025268555e+00,1.083688616752624512e+00,1.083628654479980469e+00,1.083568692207336426e+00,1.083508849143981934e+00,1.083448886871337891e+00,1.083388924598693848e+00,1.083329081535339355e+00,1.083269119262695312e+00,1.083209276199340820e+00,1.083149313926696777e+00,1.083089470863342285e+00,1.083029627799987793e+00,1.082969665527343750e+00,9.960156679153442383e-01,9.696082472801208496e-01,9.512707591056823730e-01,9.370990991592407227e-01,9.222102165222167969e-01,9.070947170257568359e-01,8.920729160308837891e-01,8.714869618415832520e-01
1.021121263504028320e+00,1.021068096160888672e+00,1.021014809608459473e+00,1.020961642265319824e+00,1.020908474922180176e+00,1.020855307579040527e+00,1.020802140235900879e+00,1.020748853683471680e+00,1.020695686340332031e+00,1.020642518997192383e+00,1.020589351654052734e+00,1.020536184310913086e+00,1.020483016967773438e+00,1.020429849624633789e+00,1.020376682281494141e+00,1.020323514938354492e+00,1.020270347595214844e+00,1.020217299461364746e+00,1.020164132118225098e+00,1.020110964775085449e+00,1.020057916641235352e+00,1.020004749298095703e+00,1.019951701164245605e+00,1.019898653030395508e+00,1.019845485687255859e+00,1.019792437553405762e+00,1.019739270210266113e+00,1.019686222076416016e+00,1.019633173942565918e+00,1.019580125808715820e+00,1.019527077674865723e+00,1.019474029541015625e+00,1.019420981407165527e+00,1.019367933273315430e+00,1.019314885139465332e+00,1.019261837005615234e+00,1.019208788871765137e+00,1.019155740737915039e+00,1.019102692604064941e+00,1.019049763679504395e+00,1.018996715545654297e+00,1.018943786621093750e+00,1.018890738487243652e+00,1.018837690353393555e+00,1.018784761428833008e+00,1.018731713294982910e+00,1.018678784370422363e+00,1.018625855445861816e+00,1.018572926521301270e+00,1.018519997596740723e+00,1.018466949462890625e+00,1.018414020538330078e+00,1.018361091613769531e+00,1.018308162689208984e+00,1.018255233764648438e+00,1.018202304840087891e+00,1.018149375915527344e+00,1.018096446990966797e+00,1.018043518066406250e+00,1.017990589141845703e+00,1.017937779426574707e+00,1.017884850502014160e+00,1.017831921577453613e+00,1.017779111862182617e+00,1.017726182937622070e+00,1.017673373222351074e+00,1.017620444297790527e+00,1.017567634582519531e+00,1.017514824867248535e+00,1.017461895942687988e+00,1.017409086227416992e+00,1.017356276512145996e+00,1.017303466796875000e+00,9.867821931838989258e-01,9.577773809432983398e-01,9.460102915763854980e-01,9.436818361282348633e-01,1.017039299011230469e+00,1.016986489295959473e+00,1.016933798789978027e+00
