5.000000000000000000e+00,5.000000000000000000e+00,5.000000000000000000e+00,5.000000000000000000e+00,5.000000000000000000e+00,5.000000000000000000e+00,5.000000000000000000e+00,5.000000000000000000e+00,5.000000000000000000e+00,5.000000000000000000e+00,5.000000000000000000e+00,5.000000000000000000e+00,5.000000000000000000e+00,5.000000000000000000e+00,5.000000000000000000e+00,5.000000000000000000e+00,5.000000000000000000e+00,5.000000000000000000e+00,5.000000000000000000e+00,5.000000000000000000e+00,5.000000000000000000e+00,5.000000000000000000e+00,5.000000000000000000e+00,5.000000000000000000e+00,5.000000000000000000e+00,5.000000000000000000e+00,5.000000000000000000e+00,5.000000000000000000e+00,5.000000000000000000e+00,5.000000000000000000e+00,5.000000000000000000e+00,5.000000000000000000e+00,2.621102571487426758e+00,2.570976018905639648e+00,2.587018251419067383e+00,5.000000000000000000e+00,5.000000000000000000e+00,5.000000000000000000e+00,5.000000000000000000e+00,4.848588943481445312e+00,4.658746719360351562e+00,4.483210563659667969e+00,4.320422172546386719e+00,4.169041633605957031e+00,4.027909755706787109e+00,3.896020650863647461e+00,3.772494792938232422e+00,3.656560897827148438e+00,3.547540426254272461e+00,3.444832801818847656e+00,3.347904682159423828e+00,3.256282091140747070e+00,3.169540405273437500e+00,3.087300300598144531e+00,3.009220123291015625e+00,2.934991836547851562e+00,2.864337682723999023e+00,2.797004938125610352e+00,2.732765197753906250e+00,2.671410083770751953e+00,2.612749338150024414e+00,2.556609630584716797e+00,2.502831697463989258e+00,2.451269626617431641e+00,2.401788949966430664e+00,2.354266643524169922e+00,2.308588266372680664e+00,2.264648675918579102e+00,2.222350597381591797e+00,2.181603670120239258e+00,2.142323732376098633e+00,2.104433298110961914e+00,2.067859888076782227e+00,2.032536268234252930e+00,1.998398900032043457e+00,1.965389609336853027e+00,1.933452844619750977e+00,1.902537465095520020e+00,1.872595071792602539e+00,1.843580603599548340e+00
5.000000000000000000e+00,5.000000000000000000e+00,5.000000000000000000e+00,5.000000000000000000e+00,5.000000000000000000e+00,5.000000000000000000e+00,5.000000000000000000e+00,5.000000000000000000e+00,5.000000000000000000e+00,5.000000000000000000e+00,5.000000000000000000e+00,5.000000000000000000e+00,5.000000000000000000e+00,5.000000000000000000e+00,5.000000000000000000e+00,5.000000000000000000e+00,5.000000000000000000e+00,5.000000000000000000e+00,5.000000000000000000e+00,5.000000000000000000e+00,5.000000000000000000e+00,5.000000000000000000e+00,5.000000000000000000e+00,5.000000000000000000e+00,5.000000000000000000e+00,5.000000000000000000e+00,5.000000000000000000e+00,5.000000000000000000e+00,5.000000000000000000e+00,5.000000000000000000e+00,5.000000000000000000e+00,2.563658714294433594e+00,2.628518819808959961e+00,2.627380847930908203e+00,5.000000000000000000e+00,5.000000000000000000e+00,5.000000000000000000e+00,5.000000000000000000e+00,5.000000000000000000e+00,4.848728179931640625e+00,4.658875465393066406e+00,4.483329772949218750e+00,4.320532798767089844e+00,4.169144153594970703e+00,4.028006076812744141e+00,3.896110773086547852e+00,3.772579193115234375e+00,3.656640291213989258e+00,3.547615051269531250e+00,3.444902896881103516e+00,3.347971200942993164e+00,3.256344795227050781e+00,3.169600009918212891e+00,3.087356805801391602e+00,3.009273767471313477e+00,2.935043096542358398e+00,2.864386320114135742e+00,2.797051191329956055e+00,2.732809543609619141e+00,2.671452283859252930e+00,2.612789869308471680e+00,2.556648492813110352e+00,2.502868652343750000e+00,2.451305150985717773e+00,2.401823282241821289e+00,2.354299545288085938e+00,2.308619737625122070e+00,2.264679193496704102e+00,2.222379684448242188e+00,2.181631803512573242e+00,2.142350912094116211e+00,2.104459762573242188e+00,2.067885398864746094e+00,2.032560825347900391e+00,1.998422622680664062e+00,1.965412378311157227e+00,1.933474898338317871e+00,1.902558803558349609e+00,1.872615694999694824e+00,1.843600630760192871e+00
5.000000000000000000e+00,5.000000000000000000e+00,5.000000000000000000e+00,5.000000000000000000e+00,5.000000000000000000e+00,5.000000000000000000e+00,5.000000000000000000e+00,5.000000000000000000e+00,5.000000000000000000e+00,5.000000000000000000e+00,5.000000000000000000e+00,5.000000000000000000e+00,5.000000000000000000e+00,5.000000000000000000e+00,5.000000000000000000e+00,5.000000000000000000e+00,5.000000000000000000e+00,5.000000000000000000e+00,5.000000000000000000e+00,5.000000000000000000e+00,5.000000000000000000e+00,5.000000000000000000e+00,5.000000000000000000e+00,5.000000000000000000e+00,5.000000000000000000e+00,5.000000000000000000e+00,5.000000000000000000e+00,5.000000000000000000e+00,2.501217126846313477e+00,2.508480787277221680e+00,2.531910181045532227e+00,2.533973217010498047e+00,2.552661657333374023e+00,2.594116210937500000e+00,2.602241039276123047e+00,2.675223827362060547e+00,2.699877977371215820e+00,5.000000000000000000e+00,5.000000000000000000e+00,4.848867416381835938e+00,4.659003734588623047e+00,4.483448982238769531e+00,4.320643424987792969e+00,4.169247150421142578e+00,4.028101921081542969e+00,3.896200895309448242e+00,3.772663593292236328e+00,3.656719684600830078e+00,3.547689676284790039e+00,3.444973230361938477e+00,3.348037719726562500e+00,3.256407737731933594e+00,3.169659614562988281e+00,3.087413311004638672e+00,3.009327650070190430e+00,2.935094118118286133e+00,2.864434719085693359e+00,2.797097682952880859e+00,2.732853651046752930e+00,2.671494722366333008e+00,2.612830400466918945e+00,2.556687116622924805e+00,2.502905845642089844e+00,2.451340913772583008e+00,2.401857376098632812e+00,2.354332447052001953e+00,2.308651447296142578e+00,2.264709472656250000e+00,2.222409009933471680e+00,2.181659936904907227e+00,2.142378091812133789e+00,2.104485988616943359e+00,2.067910671234130859e+00,2.032585144042968750e+00,1.998446226119995117e+00,1.965435266494750977e+00,1.933497190475463867e+00,1.902580380439758301e+00,1.872636675834655762e+00,1.843620896339416504e+00
5.000000000000000000e+00,5.000000000000000000e+00,5.000000000000000000e+00,5.000000000000000000e+00,5.000000000000000000e+00,5.000000000000000000e+00,5.000000000000000000e+00,5.000000000000000000e+00,5.000000000000000000e+00,5.000000000000000000e+00,5.000000000000000000e+00,5.000000000000000000e+00,5.000000000000000000e+00,5.000000000000000000e+00,5.000000000000000000e+00,5.000000000000000000e+00,5.000000000000000000e+00,5.000000000000000000e+00,5.000000000000000000e+00,5.000000000000000000e+00,5.000000000000000000e+00,5.000000000000000000e+00,5.000000000000000000e+00,5.000000000000000000e+00,5.000000000000000000e+00,5.000000000000000000e+00,5.000000000000000000e+00,2.570096254348754883e+00,2.505586147308349609e+00,2.518969535827636719e+00,2.516007900238037109e+00,2.508017063140869141e+00,2.518895864486694336e+00,2.541756153106689453e+00,2.569131374359130859e+00,2.605596065521240234e+00,2.652349472045898438e+00,2.702629089355468750e+00,5.000000000000000000e+00,4.849007129669189453e+00,4.659132480621337891e+00,4.483568191528320312e+00,4.320754051208496094e+00,4.169350624084472656e+00,4.028198242187500000e+00,3.896290779113769531e+00,3.772747993469238281e+00,3.656798839569091797e+00,3.547764301300048828e+00,3.445043563842773438e+00,3.348103761672973633e+00,3.256470680236816406e+00,3.169719219207763672e+00,3.087469816207885742e+00,3.009381294250488281e+00,2.935145139694213867e+00,2.864483356475830078e+00,2.797144174575805664e+00,2.732897996902465820e+00,2.671536922454833984e+00,2.612870931625366211e+00,2.556725978851318359e+00,2.502943038940429688e+00,2.451376438140869141e+00,2.401891708374023438e+00,2.354365348815917969e+00,2.308683156967163086e+00,2.264739990234375000e+00,2.222438335418701172e+00,2.181688070297241211e+00,2.142405509948730469e+00,2.104512214660644531e+00,2.067935943603515625e+00,2.032609701156616211e+00,1.998470067977905273e+00,1.965458273887634277e+00,1.933519244194030762e+00,1.902601718902587891e+00,1.872657299041748047e+00,1.843640923500061035e+00
5.000000000000000000e+00,5.000000000000000000e+00,5.000000000000000000e+00,5.000000000000000000e+00,5.000000000000000000e+00,5.000000000000000000e+00,5.000000000000000000e+00,5.000000000000000000e+00,5.000000000000000000e+00,5.000000000000000000e+00,5.000000000000000000e+00,5.000000000000000000e+00,5.000000000000000000e+00,5.000000000000000000e+00,5.000000000000000000e+00,5.000000000000000000e+00,5.000000000000000000e+00,5.000000000000000000e+00,5.000000000000000000e+00,5.000000000000000000e+00,5.000000000000000000e+00,5.000000000000000000e+00,5.000000000000000000e+00,5.000000000000000000e+00,5.000000000000000000e+00,5.000000000000000000e+00,5.000000000000000000e+00,5.000000000000000000e+00,2.522104978561401367e+00,2.535054206848144531e+00,2.519697666168212891e+00,2.505741119384765625e+00,2.507316350936889648e+00,2.521413087844848633e+00,2.544131040573120117e+00,2.570540666580200195e+00,2.626293897628784180e+00,2.720602273941040039e+00,5.000000000000000000e+00,4.849146366119384766e+00,4.659261226654052734e+00,4.483686923980712891e+00,4.320864677429199219e+00,4.169453620910644531e+00,4.028294563293457031e+00,3.896380901336669922e+00,3.772832393646240234e+00,3.656878232955932617e+00,3.547838926315307617e+00,3.445113897323608398e+00,3.348170280456542969e+00,3.256533622741699219e+00,3.169778823852539062e+00,3.087526559829711914e+00,3.009434938430786133e+00,2.935196161270141602e+00,2.864531993865966797e+00,2.797190189361572266e+00,2.732942342758178711e+00,2.671579360961914062e+00,2.612911462783813477e+00,2.556764602661132812e+00,2.502980232238769531e+00,2.451411962509155273e+00,2.401925802230834961e+00,2.354398250579833984e+00,2.308714628219604492e+00,2.264770507812500000e+00,2.222467660903930664e+00,2.181716442108154297e+00,2.142432451248168945e+00,2.104538440704345703e+00,2.067961454391479492e+00,2.032634258270263672e+00,1.998493552207946777e+00,1.965481042861938477e+00,1.933541297912597656e+00,1.902623295783996582e+00,1.872678279876708984e+00,1.843661189079284668e+00
5.000000000000000000e+00,5.000000000000000000e+00,5.000000000000000000e+00,5.000000000000000000e+00,5.000000000000000000e+00,5.000000000000000000e+00,5.000000000000000000e+00,5.000000000000000000e+00,5.000000000000000000e+00,5.000000000000000000e+00,5.000000000000000000e+00,5.000000000000000000e+00,5.000000000000000000e+00,5.000000000000000000e+00,5.000000000000000000e+00,5.000000000000000000e+00,5.000000000000000000e+00,5.000000000000000000e+00,5.000000000000000000e+00,5.000000000000000000e+00,5.000000000000000000e+00,5.000000000000000000e+00,5.000000000000000000e+00,5.000000000000000000e+00,5.000000000000000000e+00,5.000000000000000000e+00,5.000000000000000000e+00,5.000000000000000000e+00,2.546573162078857422e+00,2.543792963027954102e+00,2.536024093627929688e+00,2.510512351989746094e+00,2.516652345657348633e+00,2.515397310256958008e+00,2.543377161026000977e+00,2.568041563034057617e+00,2.625829458236694336e+00,2.719019174575805664e+00,5.000000000000000000e+00,4.849286079406738281e+00,4.659389972686767578e+00,4.483806133270263672e+00,4.320975303649902344e+00,4.169556617736816406e+00,4.028390407562255859e+00,3.896470546722412109e+00,3.772916793823242188e+00,3.656957387924194336e+00,3.547913551330566406e+00,3.445184469223022461e+00,3.348236799240112305e+00,3.256596088409423828e+00,3.169838428497314453e+00,3.087583065032958984e+00,3.009488582611083984e+00,2.935247421264648438e+00,2.864580631256103516e+00,2.797236680984497070e+00,2.732986688613891602e+00,2.671621561050415039e+00,2.612951755523681641e+00,2.556803464889526367e+00,2.503017425537109375e+00,2.451447725296020508e+00,2.401959896087646484e+00,2.354431152343750000e+00,2.308746337890625000e+00,2.264800786972045898e+00,2.222496986389160156e+00,2.181744575500488281e+00,2.142459630966186523e+00,2.104564666748046875e+00,2.067986726760864258e+00,2.032658815383911133e+00,1.998517394065856934e+00,1.965504050254821777e+00,1.933563590049743652e+00,1.902644634246826172e+00,1.872698903083801270e+00,1.843681335449218750e+00
5.000000000000000000e+00,5.000000000000000000e+00,5.000000000000000000e+00,5.000000000000000000e+00,5.000000000000000000e+00,5.000000000000000000e+00,5.000000000000000000e+00,5.000000000000000000e+00,5.000000000000000000e+00,5.000000000000000000e+00,5.000000000000000000e+00,5.000000000000000000e+00,5.000000000000000000e+00,5.000000000000000000e+00,5.000000000000000000e+00,5.000000000000000000e+00,5.000000000000000000e+00,5.000000000000000000e+00,5.000000000000000000e+00,5.000000000000000000e+00,5.000000000000000000e+00,5.000000000000000000e+00,5.000000000000000000e+00,5.000000000000000000e+00,5.000000000000000000e+00,5.000000000000000000e+00,5.000000000000000000e+00,5.000000000000000000e+00,2.558031320571899414e+00,2.552223443984985352e+00,2.551194190979003906e+00,2.517408370971679688e+00,2.513560533523559570e+00,2.519107341766357422e+00,2.537454128265380859e+00,2.575068235397338867e+00,2.642027854919433594e+00,2.713625907897949219e+00,2.765432596206665039e+00,4.849425315856933594e+00,4.659518718719482422e+00,4.483925819396972656e+00,4.321085929870605469e+00,4.169659614562988281e+00,4.028486728668212891e+00,3.896560430526733398e+00,3.773001194000244141e+00,3.657036781311035156e+00,3.547988414764404297e+00,3.445254802703857422e+00,3.348303318023681641e+00,3.256659030914306641e+00,3.169898033142089844e+00,3.087639570236206055e+00,3.009542465209960938e+00,2.935298442840576172e+00,2.864629268646240234e+00,2.797283172607421875e+00,2.733030796051025391e+00,2.671663999557495117e+00,2.612992286682128906e+00,2.556842327117919922e+00,2.503054618835449219e+00,2.451483249664306641e+00,2.401994228363037109e+00,2.354463815689086914e+00,2.308777809143066406e+00,2.264831304550170898e+00,2.222526311874389648e+00,2.181772708892822266e+00,2.142487049102783203e+00,2.104590892791748047e+00,2.068011999130249023e+00,2.032683134078979492e+00,1.998540997505187988e+00,1.965526819229125977e+00,1.933585643768310547e+00,1.902665972709655762e+00,1.872719883918762207e+00,1.843701601028442383e+00
5.000000000000000000e+00,5.000000000000000000e+00,5.000000000000000000e+00,5.000000000000000000e+00,5.000000000000000000e+00,5.000000000000000000e+00,5.000000000000000000e+00,5.000000000000000000e+00,5.000000000000000000e+00,5.000000000000000000e+00,5.000000000000000000e+00,5.000000000000000000e+00,5.000000000000000000e+00,5.000000000000000000e+00,5.000000000000000000e+00,5.000000000000000000e+00,5.000000000000000000e+00,5.000000000000000000e+00,5.000000000000000000e+00,5.000000000000000000e+00,5.000000000000000000e+00,5.000000000000000000e+00,5.000000000000000000e+00,5.000000000000000000e+00,5.000000000000000000e+00,5.000000000000000000e+00,5.000000000000000000e+00,5.000000000000000000e+00,2.566586732864379883e+00,2.556323766708374023e+00,2.562170743942260742e+00,2.525548458099365234e+00,2.512083530426025391e+00,2.517766714096069336e+00,2.536987543106079102e+00,2.570587158203125000e+00,2.660191059112548828e+00,2.704231262207031250e+00,2.750679016113281250e+00,4.849564552307128906e+00,4.659647464752197266e+00,4.484045028686523438e+00,4.321196556091308594e+00,4.169762611389160156e+00,4.028583049774169922e+00,3.896650552749633789e+00,3.773085117340087891e+00,3.657116174697875977e+00,3.548063039779663086e+00,3.445325136184692383e+00,3.348369836807250977e+00,3.256721973419189453e+00,3.169957160949707031e+00,3.087696075439453125e+00,3.009596109390258789e+00,2.935349464416503906e+00,2.864678144454956055e+00,2.797329425811767578e+00,2.733074903488159180e+00,2.671706199645996094e+00,2.613032817840576172e+00,2.556880950927734375e+00,2.503091573715209961e+00,2.451519012451171875e+00,2.402028322219848633e+00,2.354496717453002930e+00,2.308809518814086914e+00,2.264861583709716797e+00,2.222555637359619141e+00,2.181801080703735352e+00,2.142514228820800781e+00,2.104617118835449219e+00,2.068037509918212891e+00,2.032707691192626953e+00,1.998564720153808594e+00,1.965549945831298828e+00,1.933607935905456543e+00,1.902687549591064453e+00,1.872740507125854492e+00,1.843721628189086914e+00
5.000000000000000000e+00,5.000000000000000000e+00,5.000000000000000000e+00,5.000000000000000000e+00,5.000000000000000000e+00,5.000000000000000000e+00,5.000000000000000000e+00,5.000000000000000000e+00,5.000000000000000000e+00,5.000000000000000000e+00,5.000000000000000000e+00,5.000000000000000000e+00,5.000000000000000000e+00,5.000000000000000000e+00,5.000000000000000000e+00,5.000000000000000000e+00,5.000000000000000000e+00,5.000000000000000000e+00,5.000000000000000000e+00,5.000000000000000000e+00,5.000000000000000000e+00,5.000000000000000000e+00,5.000000000000000000e+00,5.000000000000000000e+00,5.000000000000000000e+00,5.000000000000000000e+00,5.000000000000000000e+00,5.000000000000000000e+00,2.576923131942749023e+00,2.563225030899047852e+00,2.565250396728515625e+00,2.519237995147705078e+00,2.505065679550170898e+00,2.515171289443969727e+00,2.540703773498535156e+00,2.576657056808471680e+00,5.000000000000000000e+00,2.717201232910156250e+00,2.743046760559082031e+00,4.849704265594482422e+00,4.659776210784912109e+00,4.484164237976074219e+00,4.321307182312011719e+00,4.169865608215332031e+00,4.028679370880126953e+00,3.896740674972534180e+00,3.773169517517089844e+00,3.657195568084716797e+00,3.548137664794921875e+00,3.445395469665527344e+00,3.348436117172241211e+00,3.256784915924072266e+00,3.170016765594482422e+00,3.087752580642700195e+00,3.009649753570556641e+00,2.935400724411010742e+00,2.864726781845092773e+00,2.797375917434692383e+00,2.733119249343872070e+00,2.671748399734497070e+00,2.613073348999023438e+00,2.556919813156127930e+00,2.503128767013549805e+00,2.451554536819458008e+00,2.402062654495239258e+00,2.354529619216918945e+00,2.308840990066528320e+00,2.264892101287841797e+00,2.222584962844848633e+00,2.181829214096069336e+00,2.142541408538818359e+00,2.104643344879150391e+00,2.068062782287597656e+00,2.032732248306274414e+00,1.998588323593139648e+00,1.965572714805603027e+00,1.933629989624023438e+00,1.902708888053894043e+00,1.872761249542236328e+00,1.843741893768310547e+00
5.000000000000000000e+00,5.000000000000000000e+00,5.000000000000000000e+00,5.000000000000000000e+00,5.000000000000000000e+00,5.000000000000000000e+00,5.000000000000000000e+00,5.000000000000000000e+00,5.000000000000000000e+00,5.000000000000000000e+00,5.000000000000000000e+00,5.000000000000000000e+00,5.000000000000000000e+00,5.000000000000000000e+00,5.000000000000000000e+00,5.000000000000000000e+00,5.000000000000000000e+00,5.000000000000000000e+00,5.000000000000000000e+00,5.000000000000000000e+00,5.000000000000000000e+00,5.000000000000000000e+00,5.000000000000000000e+00,5.000000000000000000e+00,5.000000000000000000e+00,5.000000000000000000e+00,5.000000000000000000e+00,5.000000000000000000e+00,2.589286804199218750e+00,2.574968099594116211e+00,2.540987730026245117e+00,2.511967897415161133e+00,2.498542547225952148e+00,2.507588148117065430e+00,2.536699295043945312e+00,2.562405586242675781e+00,5.000000000000000000e+00,2.731309175491333008e+00,2.740731716156005859e+00,4.849843502044677734e+00,4.659904956817626953e+00,4.484283447265625000e+00,4.321418285369873047e+00,4.169968605041503906e+00,4.028775691986083984e+00,3.896830558776855469e+00,3.773254156112670898e+00,3.657274484634399414e+00,3.548212289810180664e+00,3.445466041564941406e+00,3.348502635955810547e+00,3.256847858428955078e+00,3.170076370239257812e+00,3.087808847427368164e+00,3.009703636169433594e+00,2.935451745986938477e+00,2.864775419235229492e+00,2.797422170639038086e+00,2.733163595199584961e+00,2.671790838241577148e+00,2.613113880157470703e+00,2.556958436965942383e+00,2.503165960311889648e+00,2.451590299606323242e+00,2.402096748352050781e+00,2.354562282562255859e+00,2.308872461318969727e+00,2.264922618865966797e+00,2.222614049911499023e+00,2.181857585906982422e+00,2.142568588256835938e+00,2.104669570922851562e+00,2.068088054656982422e+00,2.032756805419921875e+00,1.998612165451049805e+00,1.965595722198486328e+00,1.933652281761169434e+00,1.902730584144592285e+00,1.872782111167907715e+00,1.843761920928955078e+00
5.000000000000000000e+00,5.000000000000000000e+00,5.000000000000000000e+00,5.000000000000000000e+00,5.000000000000000000e+00,5.000000000000000000e+00,5.000000000000000000e+00,5.000000000000000000e+00,5.000000000000000000e+00,5.000000000000000000e+00,5.000000000000000000e+00,5.000000000000000000e+00,5.000000000000000000e+00,5.000000000000000000e+00,5.000000000000000000e+00,5.000000000000000000e+00,5.000000000000000000e+00,5.000000000000000000e+00,5.000000000000000000e+00,5.000000000000000000e+00,5.000000000000000000e+00,5.000000000000000000e+00,5.000000000000000000e+00,5.000000000000000000e+00,5.000000000000000000e+00,5.000000000000000000e+00,5.000000000000000000e+00,5.000000000000000000e+00,2.597605466842651367e+00,2.584237098693847656e+00,2.543174743652343750e+00,2.516268730163574219e+00,2.513759613037109375e+00,2.519498586654663086e+00,2.534350633621215820e+00,2.576503515243530273e+00,2.623317003250122070e+00,2.732713699340820312e+00,2.722025871276855469e+00,4.849983215332031250e+00,4.660033702850341797e+00,4.484402179718017578e+00,4.321528911590576172e+00,4.170072078704833984e+00,4.028871536254882812e+00,3.896920680999755859e+00,3.773338556289672852e+00,3.657353878021240234e+00,3.548286914825439453e+00,3.445536375045776367e+00,3.348569154739379883e+00,3.256910562515258789e+00,3.170135974884033203e+00,3.087865352630615234e+00,3.009757280349731445e+00,2.935502767562866211e+00,2.864824056625366211e+00,2.797468662261962891e+00,2.733207941055297852e+00,2.671833038330078125e+00,2.613154172897338867e+00,2.556997299194335938e+00,2.503203153610229492e+00,2.451625823974609375e+00,2.402131080627441406e+00,2.354595184326171875e+00,2.308904170989990234e+00,2.264952898025512695e+00,2.222643375396728516e+00,2.181885719299316406e+00,2.142595767974853516e+00,2.104696035385131836e+00,2.068113327026367188e+00,2.032781124114990234e+00,1.998635768890380859e+00,1.965618491172790527e+00,1.933674335479736328e+00,1.902751922607421875e+00,1.872802853584289551e+00,1.843781948089599609e+00
5.000000000000000000e+00,5.000000000000000000e+00,5.000000000000000000e+00,5.000000000000000000e+00,5.000000000000000000e+00,5.000000000000000000e+00,5.000000000000000000e+00,5.000000000000000000e+00,5.000000000000000000e+00,5.000000000000000000e+00,5.000000000000000000e+00,5.000000000000000000e+00,5.000000000000000000e+00,5.000000000000000000e+00,5.000000000000000000e+00,5.000000000000000000e+00,5.000000000000000000e+00,5.000000000000000000e+00,5.000000000000000000e+00,5.000000000000000000e+00,5.000000000000000000e+00,5.000000000000000000e+00,5.000000000000000000e+00,5.000000000000000000e+00,5.000000000000000000e+00,5.000000000000000000e+00,5.000000000000000000e+00,5.000000000000000000e+00,2.584817409515380859e+00,2.566458463668823242e+00,2.554267883300781250e+00,2.522806406021118164e+00,2.518634319305419922e+00,2.526381969451904297e+00,2.535673856735229492e+00,2.574519395828247070e+00,2.642875432968139648e+00,2.731503725051879883e+00,2.699293851852416992e+00,2.713212966918945312e+00,4.660162448883056641e+00,4.484521389007568359e+00,4.321639537811279297e+00,4.170175075531005859e+00,4.028967857360839844e+00,3.897010803222656250e+00,3.773422956466674805e+00,3.657433032989501953e+00,3.548361301422119141e+00,3.445606708526611328e+00,3.348635673522949219e+00,3.256973505020141602e+00,3.170195579528808594e+00,3.087921857833862305e+00,3.009810686111450195e+00,2.935554027557373047e+00,2.864872694015502930e+00,2.797515153884887695e+00,2.733252286911010742e+00,2.671875476837158203e+00,2.613194704055786133e+00,2.557036161422729492e+00,2.503240346908569336e+00,2.451661586761474609e+00,2.402165174484252930e+00,2.354628086090087891e+00,2.308935880661010742e+00,2.264983177185058594e+00,2.222672700881958008e+00,2.181913852691650391e+00,2.142623186111450195e+00,2.104722261428833008e+00,2.068138837814331055e+00,2.032805681228637695e+00,1.998659491539001465e+00,1.965641498565673828e+00,1.933696627616882324e+00,1.902773499488830566e+00,1.872823715209960938e+00,1.843802213668823242e+00
5.000000000000000000e+00,5.000000000000000000e+00,5.000000000000000000e+00,5.000000000000000000e+00,5.000000000000000000e+00,5.000000000000000000e+00,5.000000000000000000e+00,5.000000000000000000e+00,5.000000000000000000e+00,5.000000000000000000e+00,5.000000000000000000e+00,5.000000000000000000e+00,5.000000000000000000e+00,5.000000000000000000e+00,5.000000000000000000e+00,5.000000000000000000e+00,5.000000000000000000e+00,5.000000000000000000e+00,5.000000000000000000e+00,5.000000000000000000e+00,5.000000000000000000e+00,5.000000000000000000e+00,5.000000000000000000e+00,5.000000000000000000e+00,5.000000000000000000e+00,5.000000000000000000e+00,5.000000000000000000e+00,5.000000000000000000e+00,5.000000000000000000e+00,2.556213617324829102e+00,2.545323371887207031e+00,2.478387832641601562e+00,2.476837158203125000e+00,2.547091960906982422e+00,2.548972845077514648e+00,2.589821338653564453e+00,2.635670900344848633e+00,5.000000000000000000e+00,2.695589303970336914e+00,2.673223495483398438e+00,4.660291194915771484e+00,4.484641075134277344e+00,4.321750164031982422e+00,4.170278072357177734e+00,4.029064178466796875e+00,3.897100925445556641e+00,3.773507356643676758e+00,3.657512426376342773e+00,3.548435926437377930e+00,3.445677280426025391e+00,3.348702192306518555e+00,3.257036447525024414e+00,3.170255184173583984e+00,3.087978601455688477e+00,3.009864330291748047e+00,2.935605049133300781e+00,2.864921331405639648e+00,2.797561407089233398e+00,2.733296394348144531e+00,2.671917676925659180e+00,2.613234996795654297e+00,2.557074785232543945e+00,2.503277540206909180e+00,2.451697111129760742e+00,2.402199506759643555e+00,2.354660987854003906e+00,2.308967351913452148e+00,2.265013694763183594e+00,2.222702026367187500e+00,2.181942224502563477e+00,2.142650365829467773e+00,2.104748487472534180e+00,2.068164110183715820e+00,2.032830238342285156e+00,1.998683094978332520e+00,1.965664386749267578e+00,1.933718681335449219e+00,1.902794837951660156e+00,1.872844457626342773e+00,1.843822360038757324e+00
5.000000000000000000e+00,5.000000000000000000e+00,5.000000000000000000e+00,5.000000000000000000e+00,5.000000000000000000e+00,5.000000000000000000e+00,5.000000000000000000e+00,5.000000000000000000e+00,5.000000000000000000e+00,5.000000000000000000e+00,5.000000000000000000e+00,5.000000000000000000e+00,5.000000000000000000e+00,5.000000000000000000e+00,5.000000000000000000e+00,5.000000000000000000e+00,5.000000000000000000e+00,5.000000000000000000e+00,5.000000000000000000e+00,5.000000000000000000e+00,5.000000000000000000e+00,5.000000000000000000e+00,5.000000000000000000e+00,5.000000000000000000e+00,5.000000000000000000e+00,5.000000000000000000e+00,5.000000000000000000e+00,5.000000000000000000e+00,5.000000000000000000e+00,2.541511297225952148e+00,2.517879724502563477e+00,2.448517084121704102e+00,2.445475578308105469e+00,2.446889638900756836e+00,2.596359968185424805e+00,2.601494550704956055e+00,2.632683992385864258e+00,5.000000000000000000e+00,5.000000000000000000e+00,2.667325258255004883e+00,4.660419940948486328e+00,4.484760284423828125e+00,4.321860790252685547e+00,4.170381546020507812e+00,4.029160499572753906e+00,3.897191047668457031e+00,3.773591756820678711e+00,3.657591819763183594e+00,3.548510551452636719e+00,3.445747137069702148e+00,3.348768711090087891e+00,3.257099390029907227e+00,3.170314788818359375e+00,3.088035106658935547e+00,3.009918212890625000e+00,2.935655832290649414e+00,2.864969968795776367e+00,2.797607898712158203e+00,2.733340740203857422e+00,2.671960115432739258e+00,2.613275527954101562e+00,2.557113409042358398e+00,2.503314733505249023e+00,2.451732873916625977e+00,2.402233600616455078e+00,2.354693889617919922e+00,2.308999061584472656e+00,2.265043973922729492e+00,2.222731113433837891e+00,2.181970357894897461e+00,2.142677545547485352e+00,2.104774713516235352e+00,2.068189620971679688e+00,2.032854557037353516e+00,1.998706698417663574e+00,1.965687394142150879e+00,1.933740973472595215e+00,1.902816414833068848e+00,1.872865319252014160e+00,1.843842625617980957e+00
5.000000000000000000e+00,5.000000000000000000e+00,5.000000000000000000e+00,5.000000000000000000e+00,5.000000000000000000e+00,5.000000000000000000e+00,5.000000000000000000e+00,5.000000000000000000e+00,5.000000000000000000e+00,5.000000000000000000e+00,5.000000000000000000e+00,5.000000000000000000e+00,5.000000000000000000e+00,5.000000000000000000e+00,5.000000000000000000e+00,5.000000000000000000e+00,5.000000000000000000e+00,5.000000000000000000e+00,5.000000000000000000e+00,5.000000000000000000e+00,5.000000000000000000e+00,5.000000000000000000e+00,5.000000000000000000e+00,5.000000000000000000e+00,5.000000000000000000e+00,5.000000000000000000e+00,5.000000000000000000e+00,5.000000000000000000e+00,5.000000000000000000e+00,2.528948545455932617e+00,2.528323173522949219e+00,2.432850360870361328e+00,2.427027463912963867e+00,2.424353122711181641e+00,2.482420921325683594e+00,2.595637321472167969e+00,2.625598192214965820e+00,5.000000000000000000e+00,5.000000000000000000e+00,2.637611389160156250e+00,2.627229928970336914e+00,4.484879493713378906e+00,4.321971893310546875e+00,4.170484066009521484e+00,4.029256820678710938e+00,3.897280931472778320e+00,3.773676395416259766e+00,3.657671213150024414e+00,3.548585414886474609e+00,3.445817708969116211e+00,3.348835229873657227e+00,3.257162332534790039e+00,3.170374393463134766e+00,3.088091611862182617e+00,3.009971857070922852e+00,2.935707092285156250e+00,2.865018844604492188e+00,2.797654390335083008e+00,2.733385086059570312e+00,2.672002553939819336e+00,2.613316059112548828e+00,2.557152271270751953e+00,2.503351688385009766e+00,2.451768398284912109e+00,2.402267932891845703e+00,2.354726791381835938e+00,2.309030771255493164e+00,2.265074491500854492e+00,2.222760438919067383e+00,2.181998729705810547e+00,2.142704725265502930e+00,2.104800939559936523e+00,2.068214893341064453e+00,2.032879114151000977e+00,1.998730540275573730e+00,1.965710163116455078e+00,1.933763027191162109e+00,1.902837753295898438e+00,1.872886061668395996e+00,1.843862652778625488e+00
5.000000000000000000e+00,5.000000000000000000e+00,5.000000000000000000e+00,5.000000000000000000e+00,5.000000000000000000e+00,5.000000000000000000e+00,5.000000000000000000e+00,5.000000000000000000e+00,5.000000000000000000e+00,5.000000000000000000e+00,5.000000000000000000e+00,5.000000000000000000e+00,5.000000000000000000e+00,5.000000000000000000e+00,5.000000000000000000e+00,5.000000000000000000e+00,5.000000000000000000e+00,5.000000000000000000e+00,5.000000000000000000e+00,5.000000000000000000e+00,5.000000000000000000e+00,5.000000000000000000e+00,5.000000000000000000e+00,5.000000000000000000e+00,5.000000000000000000e+00,5.000000000000000000e+00,5.000000000000000000e+00,5.000000000000000000e+00,5.000000000000000000e+00,2.531515598297119141e+00,2.544130325317382812e+00,2.440537929534912109e+00,2.411065816879272461e+00,2.406971454620361328e+00,2.451236248016357422e+00,2.593439340591430664e+00,2.627379417419433594e+00,5.000000000000000000e+00,5.000000000000000000e+00,4.850680351257324219e+00,2.589665889739990234e+00,4.484998703002929688e+00,4.322082519531250000e+00,4.170587539672851562e+00,4.029353141784667969e+00,3.897371053695678711e+00,3.773760795593261719e+00,3.657750368118286133e+00,3.548660039901733398e+00,3.445888042449951172e+00,3.348901510238647461e+00,3.257225275039672852e+00,3.170433998107910156e+00,3.088148117065429688e+00,3.010025739669799805e+00,2.935758113861083984e+00,2.865067243576049805e+00,2.797700881958007812e+00,2.733429431915283203e+00,2.672044754028320312e+00,2.613356590270996094e+00,2.557191133499145508e+00,2.503388881683349609e+00,2.451804161071777344e+00,2.402302265167236328e+00,2.354759693145751953e+00,2.309062242507934570e+00,2.265105009078979492e+00,2.222789764404296875e+00,2.182026863098144531e+00,2.142731904983520508e+00,2.104827404022216797e+00,2.068240165710449219e+00,2.032903671264648438e+00,1.998754024505615234e+00,1.965732932090759277e+00,1.933785319328308105e+00,1.902859330177307129e+00,1.872906923294067383e+00,1.843882918357849121e+00
5.000000000000000000e+00,5.000000000000000000e+00,5.000000000000000000e+00,5.000000000000000000e+00,5.000000000000000000e+00,5.000000000000000000e+00,5.000000000000000000e+00,5.000000000000000000e+00,5.000000000000000000e+00,5.000000000000000000e+00,5.000000000000000000e+00,5.000000000000000000e+00,5.000000000000000000e+00,5.000000000000000000e+00,5.000000000000000000e+00,5.000000000000000000e+00,5.000000000000000000e+00,5.000000000000000000e+00,5.000000000000000000e+00,5.000000000000000000e+00,5.000000000000000000e+00,5.000000000000000000e+00,5.000000000000000000e+00,5.000000000000000000e+00,5.000000000000000000e+00,5.000000000000000000e+00,5.000000000000000000e+00,5.000000000000000000e+00,5.000000000000000000e+00,2.507083892822265625e+00,2.515689611434936523e+00,2.447554111480712891e+00,2.394736289978027344e+00,2.389186620712280273e+00,2.420272827148437500e+00,2.598793268203735352e+00,2.639867544174194336e+00,5.000000000000000000e+00,5.000000000000000000e+00,4.850820064544677734e+00,4.660806179046630859e+00,2.620404481887817383e+00,4.322193145751953125e+00,4.170690536499023438e+00,4.029448986053466797e+00,3.897461175918579102e+00,3.773845195770263672e+00,3.657829761505126953e+00,3.548734664916992188e+00,3.445958614349365234e+00,3.348968029022216797e+00,3.257288217544555664e+00,3.170493602752685547e+00,3.088204860687255859e+00,3.010079383850097656e+00,2.935809373855590820e+00,2.865115880966186523e+00,2.797747135162353516e+00,2.733473777770996094e+00,2.672087192535400391e+00,2.613397121429443359e+00,2.557229757308959961e+00,2.503426074981689453e+00,2.451839685440063477e+00,2.402336359024047852e+00,2.354792594909667969e+00,2.309093952178955078e+00,2.265135288238525391e+00,2.222819089889526367e+00,2.182054996490478516e+00,2.142759323120117188e+00,2.104853630065917969e+00,2.068265676498413086e+00,2.032928228378295898e+00,1.998777866363525391e+00,1.965756058692932129e+00,1.933807373046875000e+00,1.902880787849426270e+00,1.872927665710449219e+00,1.843902945518493652e+00
5.000000000000000000e+00,5.000000000000000000e+00,5.000000000000000000e+00,5.000000000000000000e+00,5.000000000000000000e+00,5.000000000000000000e+00,5.000000000000000000e+00,5.000000000000000000e+00,5.000000000000000000e+00,5.000000000000000000e+00,5.000000000000000000e+00,5.000000000000000000e+00,5.000000000000000000e+00,5.000000000000000000e+00,5.000000000000000000e+00,5.000000000000000000e+00,5.000000000000000000e+00,5.000000000000000000e+00,5.000000000000000000e+00,5.000000000000000000e+00,5.000000000000000000e+00,5.000000000000000000e+00,5.000000000000000000e+00,5.000000000000000000e+00,5.000000000000000000e+00,5.000000000000000000e+00,5.000000000000000000e+00,5.000000000000000000e+00,5.000000000000000000e+00,2.515625715255737305e+00,2.505217552185058594e+00,2.468531608581542969e+00,2.389890432357788086e+00,2.368426561355590820e+00,2.390700101852416992e+00,2.606729507446289062e+00,2.656972169876098633e+00,5.000000000000000000e+00,5.000000000000000000e+00,4.850959300994873047e+00,4.660934925079345703e+00,4.485237121582031250e+00,4.322304248809814453e+00,4.170793533325195312e+00,4.029545307159423828e+00,3.897551298141479492e+00,3.773929595947265625e+00,3.657909154891967773e+00,3.548809289932250977e+00,3.446028947830200195e+00,3.349034547805786133e+00,3.257350683212280273e+00,3.170553207397460938e+00,3.088261365890502930e+00,3.010133028030395508e+00,2.935860395431518555e+00,2.865164518356323242e+00,2.797793388366699219e+00,2.733518123626708984e+00,2.672129392623901367e+00,2.613437652587890625e+00,2.557268619537353516e+00,2.503463029861450195e+00,2.451875209808349609e+00,2.402370691299438477e+00,2.354825496673583984e+00,2.309125423431396484e+00,2.265165805816650391e+00,2.222848415374755859e+00,2.182083129882812500e+00,2.142786264419555664e+00,2.104879856109619141e+00,2.068290948867797852e+00,2.032952785491943359e+00,1.998801469802856445e+00,1.965778827667236328e+00,1.933829426765441895e+00,1.902902364730834961e+00,1.872948527336120605e+00,1.843923211097717285e+00
5.000000000000000000e+00,5.000000000000000000e+00,5.000000000000000000e+00,5.000000000000000000e+00,5.000000000000000000e+00,5.000000000000000000e+00,5.000000000000000000e+00,5.000000000000000000e+00,5.000000000000000000e+00,5.000000000000000000e+00,5.000000000000000000e+00,5.000000000000000000e+00,5.000000000000000000e+00,5.000000000000000000e+00,5.000000000000000000e+00,5.000000000000000000e+00,5.000000000000000000e+00,5.000000000000000000e+00,5.000000000000000000e+00,5.000000000000000000e+00,5.000000000000000000e+00,5.000000000000000000e+00,5.000000000000000000e+00,5.000000000000000000e+00,5.000000000000000000e+00,5.000000000000000000e+00,5.000000000000000000e+00,5.000000000000000000e+00,5.000000000000000000e+00,2.502629995346069336e+00,5.000000000000000000e+00,5.000000000000000000e+00,2.399837255477905273e+00,2.354683637619018555e+00,2.359290122985839844e+00,2.614068269729614258e+00,2.678470134735107422e+00,5.000000000000000000e+00,5.000000000000000000e+00,4.851099014282226562e+00,4.661063671112060547e+00,4.485356330871582031e+00,4.322414875030517578e+00,4.170897006988525391e+00,4.029641628265380859e+00,3.897640943527221680e+00,3.774014234542846680e+00,3.657988548278808594e+00,3.548884153366088867e+00,3.446099281311035156e+00,3.349101066589355469e+00,3.257413625717163086e+00,3.170613050460815430e+00,3.088317871093750000e+00,3.010186910629272461e+00,2.935911417007446289e+00,2.865213155746459961e+00,2.797839879989624023e+00,2.733562469482421875e+00,2.672171831130981445e+00,2.613478183746337891e+00,2.557307481765747070e+00,2.503500223159790039e+00,2.451910972595214844e+00,2.402404785156250000e+00,2.354858398437500000e+00,2.309157133102416992e+00,2.265196323394775391e+00,2.222877740859985352e+00,2.182111501693725586e+00,2.142813444137573242e+00,2.104906082153320312e+00,2.068316459655761719e+00,2.032977104187011719e+00,1.998825311660766602e+00,1.965801835060119629e+00,1.933851718902587891e+00,1.902923703193664551e+00,1.872969269752502441e+00,1.843943238258361816e+00
5.000000000000000000e+00,5.000000000000000000e+00,5.000000000000000000e+00,5.000000000000000000e+00,5.000000000000000000e+00,5.000000000000000000e+00,5.000000000000000000e+00,5.000000000000000000e+00,5.000000000000000000e+00,5.000000000000000000e+00,5.000000000000000000e+00,5.000000000000000000e+00,5.000000000000000000e+00,5.000000000000000000e+00,5.000000000000000000e+00,5.000000000000000000e+00,5.000000000000000000e+00,5.000000000000000000e+00,5.000000000000000000e+00,5.000000000000000000e+00,5.000000000000000000e+00,5.000000000000000000e+00,5.000000000000000000e+00,5.000000000000000000e+00,5.000000000000000000e+00,5.000000000000000000e+00,5.000000000000000000e+00,5.000000000000000000e+00,5.000000000000000000e+00,5.000000000000000000e+00,5.000000000000000000e+00,5.000000000000000000e+00,2.414747238159179688e+00,2.347144126892089844e+00,2.337729454040527344e+00,2.621120452880859375e+00,5.000000000000000000e+00,5.000000000000000000e+00,5.000000000000000000e+00,4.851238250732421875e+00,4.661192417144775391e+00,4.485475540161132812e+00,4.322525501251220703e+00,4.171000003814697266e+00,4.029737949371337891e+00,3.897731065750122070e+00,3.774098634719848633e+00,3.658067941665649414e+00,3.548958778381347656e+00,3.446169853210449219e+00,3.349167585372924805e+00,3.257476568222045898e+00,3.170672178268432617e+00,3.088374376296997070e+00,3.010240554809570312e+00,2.935962677001953125e+00,2.865262031555175781e+00,2.797886371612548828e+00,2.733606576919555664e+00,2.672214269638061523e+00,2.613518714904785156e+00,2.557346105575561523e+00,2.503537416458129883e+00,2.451946496963500977e+00,2.402438879013061523e+00,2.354891300201416016e+00,2.309188842773437500e+00,2.265226602554321289e+00,2.222907066345214844e+00,2.182139635086059570e+00,2.142840862274169922e+00,2.104932308197021484e+00,2.068341732025146484e+00,2.033001661300659180e+00,1.998848795890808105e+00,1.965824604034423828e+00,1.933873891830444336e+00,1.902945041656494141e+00,1.872990131378173828e+00,1.843963503837585449e+00
5.000000000000000000e+00,5.000000000000000000e+00,5.000000000000000000e+00,5.000000000000000000e+00,5.000000000000000000e+00,5.000000000000000000e+00,5.000000000000000000e+00,5.000000000000000000e+00,5.000000000000000000e+00,5.000000000000000000e+00,5.000000000000000000e+00,5.000000000000000000e+00,5.000000000000000000e+00,5.000000000000000000e+00,5.000000000000000000e+00,5.000000000000000000e+00,5.000000000000000000e+00,5.000000000000000000e+00,5.000000000000000000e+00,5.000000000000000000e+00,5.000000000000000000e+00,5.000000000000000000e+00,5.000000000000000000e+00,5.000000000000000000e+00,5.000000000000000000e+00,5.000000000000000000e+00,5.000000000000000000e+00,5.000000000000000000e+00,5.000000000000000000e+00,5.000000000000000000e+00,5.000000000000000000e+00,5.000000000000000000e+00,2.428130388259887695e+00,2.350302219390869141e+00,2.340740442276000977e+00,2.628563642501831055e+00,5.000000000000000000e+00,5.000000000000000000e+00,5.000000000000000000e+00,4.851377964019775391e+00,4.661321640014648438e+00,4.485594749450683594e+00,4.322636127471923828e+00,4.171103477478027344e+00,4.029834270477294922e+00,3.897821187973022461e+00,3.774182796478271484e+00,3.658147335052490234e+00,3.549033403396606445e+00,3.446240186691284180e+00,3.349234104156494141e+00,3.257539510726928711e+00,3.170731782913208008e+00,3.088431119918823242e+00,3.010294437408447266e+00,2.936013698577880859e+00,2.865310668945312500e+00,2.797932863235473633e+00,2.733650684356689453e+00,2.672256469726562500e+00,2.613559246063232422e+00,2.557384967803955078e+00,2.503574609756469727e+00,2.451982259750366211e+00,2.402473211288452148e+00,2.354923963546752930e+00,2.309220314025878906e+00,2.265257120132446289e+00,2.222936391830444336e+00,2.182168006896972656e+00,2.142868041992187500e+00,2.104958534240722656e+00,2.068367004394531250e+00,2.033026218414306641e+00,1.998872637748718262e+00,1.965847730636596680e+00,1.933896183967590332e+00,1.902966618537902832e+00,1.873010873794555664e+00,1.843983650207519531e+00
5.000000000000000000e+00,5.000000000000000000e+00,5.000000000000000000e+00,5.000000000000000000e+00,5.000000000000000000e+00,5.000000000000000000e+00,5.000000000000000000e+00,5.000000000000000000e+00,5.000000000000000000e+00,5.000000000000000000e+00,5.000000000000000000e+00,5.000000000000000000e+00,5.000000000000000000e+00,5.000000000000000000e+00,5.000000000000000000e+00,5.000000000000000000e+00,5.000000000000000000e+00,5.000000000000000000e+00,5.000000000000000000e+00,5.000000000000000000e+00,5.000000000000000000e+00,5.000000000000000000e+00,5.000000000000000000e+00,5.000000000000000000e+00,5.000000000000000000e+00,5.000000000000000000e+00,5.000000000000000000e+00,5.000000000000000000e+00,5.000000000000000000e+00,5.000000000000000000e+00,5.000000000000000000e+00,5.000000000000000000e+00,5.000000000000000000e+00,2.355200290679931641e+00,2.349000930786132812e+00,2.634989261627197266e+00,5.000000000000000000e+00,5.000000000000000000e+00,5.000000000000000000e+00,4.851517200469970703e+00,4.661449909210205078e+00,4.485714435577392578e+00,4.322747230529785156e+00,4.171205997467041016e+00,4.029930591583251953e+00,3.897911310195922852e+00,3.774267196655273438e+00,3.658226728439331055e+00,3.549108028411865234e+00,3.446310758590698242e+00,3.349300622940063477e+00,3.257602453231811523e+00,3.170791625976562500e+00,3.088487386703491211e+00,3.010348081588745117e+00,2.936064958572387695e+00,2.865359306335449219e+00,2.797979116439819336e+00,2.733695030212402344e+00,2.672298669815063477e+00,2.613599777221679688e+00,2.557423830032348633e+00,2.503611803054809570e+00,2.452017784118652344e+00,2.402507305145263672e+00,2.354956865310668945e+00,2.309252023696899414e+00,2.265287399291992188e+00,2.222965717315673828e+00,2.182196140289306641e+00,2.142895221710205078e+00,2.104984760284423828e+00,2.068392276763916016e+00,2.033050775527954102e+00,1.998896241188049316e+00,1.965870499610900879e+00,1.933918237686157227e+00,1.902987957000732422e+00,1.873031616210937500e+00,1.844003915786743164e+00
5.000000000000000000e+00,5.000000000000000000e+00,5.000000000000000000e+00,5.000000000000000000e+00,5.000000000000000000e+00,5.000000000000000000e+00,5.000000000000000000e+00,5.000000000000000000e+00,5.000000000000000000e+00,5.000000000000000000e+00,5.000000000000000000e+00,5.000000000000000000e+00,5.000000000000000000e+00,5.000000000000000000e+00,5.000000000000000000e+00,5.000000000000000000e+00,5.000000000000000000e+00,5.000000000000000000e+00,5.000000000000000000e+00,5.000000000000000000e+00,5.000000000000000000e+00,5.000000000000000000e+00,5.000000000000000000e+00,5.000000000000000000e+00,5.000000000000000000e+00,5.000000000000000000e+00,5.000000000000000000e+00,5.000000000000000000e+00,5.000000000000000000e+00,5.000000000000000000e+00,5.000000000000000000e+00,5.000000000000000000e+00,2.407480239868164062e+00,2.359889745712280273e+00,2.357320070266723633e+00,5.000000000000000000e+00,5.000000000000000000e+00,5.000000000000000000e+00,5.000000000000000000e+00,4.851656913757324219e+00,4.661579132080078125e+00,4.485833644866943359e+00,4.322857856750488281e+00,4.171309471130371094e+00,4.030026912689208984e+00,3.898001432418823242e+00,3.774351596832275391e+00,3.658305644989013672e+00,3.549182891845703125e+00,3.446381092071533203e+00,3.349367141723632812e+00,3.257665395736694336e+00,3.170851230621337891e+00,3.088543891906738281e+00,3.010401725769042969e+00,2.936115980148315430e+00,2.865407943725585938e+00,2.798025608062744141e+00,2.733739376068115234e+00,2.672341108322143555e+00,2.613640069961547852e+00,2.557462453842163086e+00,2.503648996353149414e+00,2.452053546905517578e+00,2.402541637420654297e+00,2.354989767074584961e+00,2.309283494949340820e+00,2.265317916870117188e+00,2.222995042800903320e+00,2.182224512100219727e+00,2.142922401428222656e+00,2.105011224746704102e+00,2.068417787551879883e+00,2.033075332641601562e+00,1.998920083045959473e+00,1.965893507003784180e+00,1.933940529823303223e+00,1.903009533882141113e+00,1.873052477836608887e+00,1.844023942947387695e+00
5.000000000000000000e+00,5.000000000000000000e+00,5.000000000000000000e+00,5.000000000000000000e+00,5.000000000000000000e+00,5.000000000000000000e+00,5.000000000000000000e+00,5.000000000000000000e+00,5.000000000000000000e+00,5.000000000000000000e+00,5.000000000000000000e+00,5.000000000000000000e+00,5.000000000000000000e+00,5.000000000000000000e+00,5.000000000000000000e+00,5.000000000000000000e+00,5.000000000000000000e+00,5.000000000000000000e+00,5.000000000000000000e+00,5.000000000000000000e+00,5.000000000000000000e+00,5.000000000000000000e+00,5.000000000000000000e+00,5.000000000000000000e+00,5.000000000000000000e+00,5.000000000000000000e+00,5.000000000000000000e+00,5.000000000000000000e+00,5.000000000000000000e+00,5.000000000000000000e+00,5.000000000000000000e+00,5.000000000000000000e+00,2.393293857574462891e+00,2.360791444778442383e+00,2.357848405838012695e+00,5.000000000000000000e+00,5.000000000000000000e+00,5.000000000000000000e+00,5.000000000000000000e+00,4.851795673370361328e+00,4.661707878112792969e+00,4.485952854156494141e+00,4.322968482971191406e+00,4.171412467956542969e+00,4.030122756958007812e+00,3.898091554641723633e+00,3.774436235427856445e+00,3.658385038375854492e+00,3.549257516860961914e+00,3.446451663970947266e+00,3.349433660507202148e+00,3.257728338241577148e+00,3.170910835266113281e+00,3.088600397109985352e+00,3.010455369949340820e+00,2.936167240142822266e+00,2.865456819534301758e+00,2.798072099685668945e+00,2.733783721923828125e+00,2.672383308410644531e+00,2.613680601119995117e+00,2.557501316070556641e+00,2.503686189651489258e+00,2.452089071273803711e+00,2.402575731277465820e+00,2.355022668838500977e+00,2.309315204620361328e+00,2.265348434448242188e+00,2.223024129867553711e+00,2.182252645492553711e+00,2.142949819564819336e+00,2.105037450790405273e+00,2.068443059921264648e+00,2.033099651336669922e+00,1.998943567276000977e+00,1.965916275978088379e+00,1.933962583541870117e+00,1.903030991554260254e+00,1.873073220252990723e+00,1.844043970108032227e+00
5.000000000000000000e+00,5.000000000000000000e+00,5.000000000000000000e+00,5.000000000000000000e+00,5.000000000000000000e+00,5.000000000000000000e+00,5.000000000000000000e+00,5.000000000000000000e+00,5.000000000000000000e+00,5.000000000000000000e+00,5.000000000000000000e+00,5.000000000000000000e+00,5.000000000000000000e+00,5.000000000000000000e+00,5.000000000000000000e+00,5.000000000000000000e+00,5.000000000000000000e+00,5.000000000000000000e+00,5.000000000000000000e+00,5.000000000000000000e+00,5.000000000000000000e+00,5.000000000000000000e+00,5.000000000000000000e+00,5.000000000000000000e+00,5.000000000000000000e+00,5.000000000000000000e+00,5.000000000000000000e+00,5.000000000000000000e+00,5.000000000000000000e+00,5.000000000000000000e+00,5.000000000000000000e+00,5.000000000000000000e+00,2.727429866790771484e+00,2.361651420593261719e+00,2.350191116333007812e+00,5.000000000000000000e+00,5.000000000000000000e+00,5.000000000000000000e+00,5.000000000000000000e+00,4.851933479309082031e+00,4.661836624145507812e+00,4.486072063446044922e+00,4.323079586029052734e+00,4.171515941619873047e+00,4.030219078063964844e+00,3.898181676864624023e+00,3.774520635604858398e+00,3.658464431762695312e+00,3.549331903457641602e+00,3.446521997451782227e+00,3.349500179290771484e+00,3.257791280746459961e+00,3.170970439910888672e+00,3.088657140731811523e+00,3.010509014129638672e+00,2.936218261718750000e+00,2.865505456924438477e+00,2.798118591308593750e+00,2.733828067779541016e+00,2.672425746917724609e+00,2.613720893859863281e+00,2.557540178298950195e+00,2.503723382949829102e+00,2.452124834060668945e+00,2.402610063552856445e+00,2.355055570602416992e+00,2.309346675872802734e+00,2.265378713607788086e+00,2.223053455352783203e+00,2.182281017303466797e+00,2.142976999282836914e+00,2.105063676834106445e+00,2.068468570709228516e+00,2.033124208450317383e+00,1.998967409133911133e+00,1.965939402580261230e+00,1.933984875679016113e+00,1.903052568435668945e+00,1.873094081878662109e+00,1.844064235687255859e+00
5.000000000000000000e+00,5.000000000000000000e+00,5.000000000000000000e+00,5.000000000000000000e+00,5.000000000000000000e+00,5.000000000000000000e+00,5.000000000000000000e+00,5.000000000000000000e+00,5.000000000000000000e+00,5.000000000000000000e+00,5.000000000000000000e+00,5.000000000000000000e+00,5.000000000000000000e+00,5.000000000000000000e+00,5.000000000000000000e+00,5.000000000000000000e+00,5.000000000000000000e+00,5.000000000000000000e+00,5.000000000000000000e+00,5.000000000000000000e+00,5.000000000000000000e+00,5.000000000000000000e+00,5.000000000000000000e+00,5.000000000000000000e+00,5.000000000000000000e+00,5.000000000000000000e+00,5.000000000000000000e+00,5.000000000000000000e+00,5.000000000000000000e+00,5.000000000000000000e+00,5.000000000000000000e+00,5.000000000000000000e+00,2.730847120285034180e+00,2.363924264907836914e+00,2.345232963562011719e+00,5.000000000000000000e+00,5.000000000000000000e+00,5.000000000000000000e+00,5.000000000000000000e+00,4.852071762084960938e+00,4.661963462829589844e+00,4.486191272735595703e+00,4.323190212249755859e+00,4.171618938446044922e+00,4.030315399169921875e+00,3.898271799087524414e+00,3.774605035781860352e+00,3.658543586730957031e+00,3.549406528472900391e+00,3.446592330932617188e+00,3.349566698074340820e+00,3.257854223251342773e+00,3.171030044555664062e+00,3.088713645935058594e+00,3.010562896728515625e+00,2.936269044876098633e+00,2.865554094314575195e+00,2.798164844512939453e+00,2.733872413635253906e+00,2.672468185424804688e+00,2.613761425018310547e+00,2.557578802108764648e+00,2.503760576248168945e+00,2.452160596847534180e+00,2.402644395828247070e+00,2.355088472366333008e+00,2.309378385543823242e+00,2.265408992767333984e+00,2.223082780838012695e+00,2.182309150695800781e+00,2.143004179000854492e+00,2.105089902877807617e+00,2.068493843078613281e+00,2.033148765563964844e+00,1.998991012573242188e+00,1.965962171554565430e+00,1.934006929397583008e+00,1.903073906898498535e+00,1.873114824295043945e+00,1.844084382057189941e+00
5.000000000000000000e+00,5.000000000000000000e+00,5.000000000000000000e+00,5.000000000000000000e+00,5.000000000000000000e+00,5.000000000000000000e+00,5.000000000000000000e+00,5.000000000000000000e+00,5.000000000000000000e+00,5.000000000000000000e+00,5.000000000000000000e+00,5.000000000000000000e+00,5.000000000000000000e+00,5.000000000000000000e+00,5.000000000000000000e+00,5.000000000000000000e+00,5.000000000000000000e+00,5.000000000000000000e+00,5.000000000000000000e+00,5.000000000000000000e+00,5.000000000000000000e+00,5.000000000000000000e+00,5.000000000000000000e+00,5.000000000000000000e+00,5.000000000000000000e+00,5.000000000000000000e+00,5.000000000000000000e+00,5.000000000000000000e+00,5.000000000000000000e+00,5.000000000000000000e+00,5.000000000000000000e+00,5.000000000000000000e+00,2.737774133682250977e+00,2.366201400756835938e+00,2.344807147979736328e+00,2.385382413864135742e+00,5.000000000000000000e+00,5.000000000000000000e+00,5.000000000000000000e+00,4.852210044860839844e+00,4.662091255187988281e+00,4.486309528350830078e+00,4.323300838470458984e+00,4.171722412109375000e+00,4.030412197113037109e+00,3.898361921310424805e+00,3.774689674377441406e+00,3.658622980117797852e+00,3.549481391906738281e+00,3.446662664413452148e+00,3.349633216857910156e+00,3.257917165756225586e+00,3.171089649200439453e+00,3.088770151138305664e+00,3.010616540908813477e+00,2.936320304870605469e+00,2.865602731704711914e+00,2.798211336135864258e+00,2.733916759490966797e+00,2.672510385513305664e+00,2.613801956176757812e+00,2.557617425918579102e+00,2.503797769546508789e+00,2.452196121215820312e+00,2.402678489685058594e+00,2.355121374130249023e+00,2.309410095214843750e+00,2.265439510345458984e+00,2.223112106323242188e+00,2.182337522506713867e+00,2.143031358718872070e+00,2.105116128921508789e+00,2.068519115447998047e+00,2.033173084259033203e+00,1.999014616012573242e+00,1.965985178947448730e+00,1.934029221534729004e+00,1.903095483779907227e+00,1.873135685920715332e+00,1.844104647636413574e+00
5.000000000000000000e+00,5.000000000000000000e+00,5.000000000000000000e+00,5.000000000000000000e+00,5.000000000000000000e+00,5.000000000000000000e+00,5.000000000000000000e+00,5.000000000000000000e+00,5.000000000000000000e+00,5.000000000000000000e+00,5.000000000000000000e+00,5.000000000000000000e+00,5.000000000000000000e+00,5.000000000000000000e+00,5.000000000000000000e+00,5.000000000000000000e+00,5.000000000000000000e+00,5.000000000000000000e+00,5.000000000000000000e+00,5.000000000000000000e+00,5.000000000000000000e+00,5.000000000000000000e+00,5.000000000000000000e+00,5.000000000000000000e+00,5.000000000000000000e+00,5.000000000000000000e+00,5.000000000000000000e+00,5.000000000000000000e+00,5.000000000000000000e+00,5.000000000000000000e+00,5.000000000000000000e+00,2.834123849868774414e+00,2.753962039947509766e+00,2.370008468627929688e+00,2.349499225616455078e+00,2.377488851547241211e+00,5.000000000000000000e+00,5.000000000000000000e+00,5.000000000000000000e+00,4.852348327636718750e+00,4.662219047546386719e+00,4.486427783966064453e+00,4.323410987854003906e+00,4.171824932098388672e+00,4.030508518218994141e+00,3.898452043533325195e+00,3.774774074554443359e+00,3.658702373504638672e+00,3.549556016921997070e+00,3.446732997894287109e+00,3.349699735641479492e+00,3.257980108261108398e+00,3.171149253845214844e+00,3.088826656341552734e+00,3.010670185089111328e+00,2.936371326446533203e+00,2.865651369094848633e+00,2.798257827758789062e+00,2.733961105346679688e+00,2.672552824020385742e+00,2.613842487335205078e+00,2.557656288146972656e+00,2.503834724426269531e+00,2.452231884002685547e+00,2.402712821960449219e+00,2.355154275894165039e+00,2.309441566467285156e+00,2.265470027923583984e+00,2.223141431808471680e+00,2.182365655899047852e+00,2.143058538436889648e+00,2.105142593383789062e+00,2.068544626235961914e+00,2.033197641372680664e+00,1.999038457870483398e+00,1.966008067131042480e+00,1.934051275253295898e+00,1.903116822242736816e+00,1.873156428337097168e+00,1.844124674797058105e+00
5.000000000000000000e+00,5.000000000000000000e+00,5.000000000000000000e+00,5.000000000000000000e+00,5.000000000000000000e+00,5.000000000000000000e+00,5.000000000000000000e+00,5.000000000000000000e+00,5.000000000000000000e+00,5.000000000000000000e+00,5.000000000000000000e+00,5.000000000000000000e+00,5.000000000000000000e+00,5.000000000000000000e+00,5.000000000000000000e+00,5.000000000000000000e+00,5.000000000000000000e+00,5.000000000000000000e+00,5.000000000000000000e+00,5.000000000000000000e+00,5.000000000000000000e+00,5.000000000000000000e+00,5.000000000000000000e+00,5.000000000000000000e+00,5.000000000000000000e+00,5.000000000000000000e+00,5.000000000000000000e+00,5.000000000000000000e+00,5.000000000000000000e+00,5.000000000000000000e+00,5.000000000000000000e+00,2.798213481903076172e+00,2.770648479461669922e+00,2.373845577239990234e+00,2.345512390136718750e+00,2.369647026062011719e+00,5.000000000000000000e+00,5.000000000000000000e+00,5.000000000000000000e+00,4.852486610412597656e+00,4.662346363067626953e+00,4.486546039581298828e+00,4.323520660400390625e+00,4.171928405761718750e+00,4.030604839324951172e+00,3.898542165756225586e+00,3.774858713150024414e+00,3.658781766891479492e+00,3.549630880355834961e+00,3.446803569793701172e+00,3.349766016006469727e+00,3.258043050765991211e+00,3.171208858489990234e+00,3.088883399963378906e+00,3.010724067687988281e+00,2.936422586441040039e+00,2.865700006484985352e+00,2.798304319381713867e+00,2.734005451202392578e+00,2.672595262527465820e+00,2.613883018493652344e+00,2.557695150375366211e+00,2.503871917724609375e+00,2.452267408370971680e+00,2.402746915817260742e+00,2.355187177658081055e+00,2.309473276138305664e+00,2.265500307083129883e+00,2.223170757293701172e+00,2.182393789291381836e+00,2.143085956573486328e+00,2.105168819427490234e+00,2.068569898605346680e+00,2.033222198486328125e+00,1.999061942100524902e+00,1.966030836105346680e+00,1.934073567390441895e+00,1.903138518333435059e+00,1.873177289962768555e+00,1.844144940376281738e+00
4.871299743652343750e+00,4.870079040527343750e+00,4.868858337402343750e+00,4.867638111114501953e+00,4.866419315338134766e+00,4.865200042724609375e+00,4.863982200622558594e+00,4.862764358520507812e+00,4.861547946929931641e+00,4.860331058502197266e+00,4.859115600585937500e+00,4.857900619506835938e+00,4.856686115264892578e+00,4.855472087860107422e+00,4.854259014129638672e+00,4.853046417236328125e+00,4.851834297180175781e+00,4.850622653961181641e+00,4.849411964416503906e+00,4.848202228546142578e+00,4.846992015838623047e+00,4.845783233642578125e+00,4.844574928283691406e+00,4.843367099761962891e+00,4.842159748077392578e+00,4.840953350067138672e+00,4.839746952056884766e+00,4.838541507720947266e+00,4.837336540222167969e+00,4.836132526397705078e+00,4.834928989410400391e+00,2.818006515502929688e+00,2.795107603073120117e+00,2.385266065597534180e+00,2.347239971160888672e+00,2.361856698989868164e+00,4.827719688415527344e+00,4.826520442962646484e+00,4.825321674346923828e+00,4.824123382568359375e+00,4.662474155426025391e+00,4.486664295196533203e+00,4.323630332946777344e+00,4.172030448913574219e+00,4.030700683593750000e+00,3.898632287979125977e+00,3.774943113327026367e+00,3.658861160278320312e+00,3.549705505371093750e+00,3.446873903274536133e+00,3.349832534790039062e+00,3.258105993270874023e+00,3.171268701553344727e+00,3.088939905166625977e+00,3.010777711868286133e+00,2.936473608016967773e+00,2.865748643875122070e+00,2.798350334167480469e+00,2.734049797058105469e+00,2.672637462615966797e+00,2.613923549652099609e+00,2.557733774185180664e+00,2.503909111022949219e+00,2.452302932739257812e+00,2.402781248092651367e+00,2.355220079421997070e+00,2.309504985809326172e+00,2.265530824661254883e+00,2.223199844360351562e+00,2.182421922683715820e+00,2.143113136291503906e+00,2.105195045471191406e+00,2.068595409393310547e+00,2.033246755599975586e+00,1.999085783958435059e+00,1.966053843498229980e+00,1.934095621109008789e+00,1.903159856796264648e+00,1.873198032379150391e+00,1.844164967536926270e+00
3.776144981384277344e+00,3.775411128997802734e+00,3.774677753448486328e+00,3.773944616317749023e+00,3.773211240768432617e+00,3.772478580474853516e+00,3.771746158599853516e+00,3.771014213562011719e+00,3.770282030105590820e+00,3.769550561904907227e+00,3.768819332122802734e+00,3.768088340759277344e+00,3.767357826232910156e+00,3.766627073287963867e+00,3.765897035598754883e+00,3.765167236328125000e+00,3.764437675476074219e+00,3.763707876205444336e+00,3.762979030609130859e+00,3.762250423431396484e+00,3.761522054672241211e+00,3.760793447494506836e+00,3.760065793991088867e+00,3.759338140487670898e+00,3.758610963821411133e+00,3.757884025573730469e+00,3.757156848907470703e+00,3.756430387496948242e+00,3.755704402923583984e+00,3.754978418350219727e+00,3.754252672195434570e+00,2.795405626296997070e+00,2.800584554672241211e+00,3.752077579498291016e+00,2.358922481536865234e+00,2.351471424102783203e+00,3.749904632568359375e+00,3.749181032180786133e+00,3.748457193374633789e+00,3.747734308242797852e+00,3.747011423110961914e+00,3.746289014816284180e+00,3.745566844940185547e+00,3.744844436645507812e+00,3.744122743606567383e+00,3.743401527404785156e+00,3.742680311203002930e+00,3.658940553665161133e+00,3.549780130386352539e+00,3.446944475173950195e+00,3.349899053573608398e+00,3.258168697357177734e+00,3.171328306198120117e+00,3.088996410369873047e+00,3.010831594467163086e+00,2.936524868011474609e+00,2.865797281265258789e+00,2.798396825790405273e+00,2.734094142913818359e+00,2.672679901123046875e+00,2.613964080810546875e+00,2.557772636413574219e+00,2.503946304321289062e+00,2.452338695526123047e+00,2.402815580368041992e+00,2.355252981185913086e+00,2.309536457061767578e+00,2.265561103820800781e+00,2.223229169845581055e+00,2.182450294494628906e+00,2.143140316009521484e+00,2.105221271514892578e+00,2.068620681762695312e+00,2.033271312713623047e+00,1.999109387397766113e+00,1.966076612472534180e+00,1.934117674827575684e+00,1.903181433677673340e+00,1.873218894004821777e+00,1.844185352325439453e+00
3.083026170730590820e+00,3.082536697387695312e+00,3.082047700881958008e+00,3.081558942794799805e+00,3.081070184707641602e+00,3.080581665039062500e+00,3.080093145370483398e+00,3.079604864120483398e+00,3.079116821289062500e+00,3.078629016876220703e+00,3.078140974044799805e+00,3.077653408050537109e+00,3.077165842056274414e+00,3.076678514480590820e+00,3.076191186904907227e+00,3.075704336166381836e+00,3.075217485427856445e+00,3.074730873107910156e+00,3.074244260787963867e+00,3.073757648468017578e+00,3.073271512985229492e+00,3.072785377502441406e+00,3.072299480438232422e+00,3.071813344955444336e+00,3.071327924728393555e+00,3.070842504501342773e+00,3.070357084274291992e+00,3.069871664047241211e+00,3.069386720657348633e+00,3.068902015686035156e+00,3.068417310714721680e+00,2.747939109802246094e+00,2.724525451660156250e+00,3.066963911056518555e+00,2.319544076919555664e+00,2.272670030593872070e+00,2.246868371963500977e+00,3.065028429031372070e+00,3.064544916152954102e+00,3.064061641693115234e+00,3.063578367233276367e+00,3.063095331192016602e+00,3.062612533569335938e+00,3.062129735946655273e+00,3.061646938323974609e+00,3.061164617538452148e+00,3.060682535171508789e+00,3.060200452804565430e+00,3.059718370437622070e+00,3.059236288070678711e+00,3.058754682540893555e+00,3.058273315429687500e+00,3.057791948318481445e+00,3.057310581207275391e+00,3.010885238647460938e+00,2.936575889587402344e+00,2.865846157073974609e+00,2.798443317413330078e+00,2.734138250350952148e+00,2.672722339630126953e+00,2.614004611968994141e+00,2.557811498641967773e+00,2.503983497619628906e+00,2.452374219894409180e+00,2.402849674224853516e+00,2.355285882949829102e+00,2.309568166732788086e+00,2.265591621398925781e+00,2.223258495330810547e+00,2.182478427886962891e+00,2.143167495727539062e+00,2.105247735977172852e+00,2.068646192550659180e+00,2.033295869827270508e+00,1.999133229255676270e+00,1.966099739074707031e+00,1.934139966964721680e+00,1.903202772140502930e+00,1.873239636421203613e+00,1.844205379486083984e+00
2.604892730712890625e+00,2.604543447494506836e+00,2.604194402694702148e+00,2.603845119476318359e+00,2.603496313095092773e+00,2.603147506713867188e+00,2.602798700332641602e+00,2.602449893951416016e+00,2.602101325988769531e+00,2.601752758026123047e+00,2.601404428482055664e+00,2.601056337356567383e+00,2.600708007812500000e+00,2.600359916687011719e+00,2.600011825561523438e+00,2.599663972854614258e+00,2.599315881729125977e+00,2.598968267440795898e+00,2.598620653152465820e+00,2.598273038864135742e+00,2.597925424575805664e+00,2.597578287124633789e+00,2.597230911254882812e+00,2.596883773803710938e+00,2.596536636352539062e+00,2.596189498901367188e+00,2.595842838287353516e+00,2.595495939254760742e+00,2.595149278640747070e+00,2.594802618026733398e+00,2.594455957412719727e+00,2.594109535217285156e+00,2.593763351440429688e+00,2.593416929244995117e+00,2.593070745468139648e+00,2.592724800109863281e+00,2.592378854751586914e+00,2.592032670974731445e+00,2.591686964035034180e+00,2.591341257095336914e+00,2.590995788574218750e+00,2.590650320053100586e+00,2.590304613113403320e+00,2.589959383010864258e+00,2.589614152908325195e+00,2.589269161224365234e+00,2.588923931121826172e+00,2.588578939437866211e+00,2.588234186172485352e+00,2.587889432907104492e+00,2.587544441223144531e+00,2.587199926376342773e+00,2.586855649948120117e+00,2.586511135101318359e+00,2.586166620254516602e+00,2.585822582244873047e+00,2.585478544235229492e+00,2.585134506225585938e+00,2.584790468215942383e+00,2.584446430206298828e+00,2.584102869033813477e+00,2.557850360870361328e+00,2.504020690917968750e+00,2.452409982681274414e+00,2.402883768081665039e+00,2.355318784713745117e+00,2.309599876403808594e+00,2.265622138977050781e+00,2.223287820816040039e+00,2.182506799697875977e+00,2.143194675445556641e+00,2.105273723602294922e+00,2.068671464920043945e+00,2.033320188522338867e+00,1.999156832695007324e+00,1.966122508049011230e+00,1.934162139892578125e+00,1.903224229812622070e+00,1.873260617256164551e+00,1.844225645065307617e+00
2.255125522613525391e+00,2.254864931106567383e+00,2.254604339599609375e+00,2.254343748092651367e+00,2.254083156585693359e+00,2.253822803497314453e+00,2.253562450408935547e+00,2.253302097320556641e+00,2.253041744232177734e+00,2.252781629562377930e+00,2.252521514892578125e+00,2.252261400222778320e+00,2.252001523971557617e+00,2.251741647720336914e+00,2.251481771469116211e+00,2.251221895217895508e+00,2.250962018966674805e+00,2.250702381134033203e+00,2.250442743301391602e+00,2.250183105468750000e+00,2.249923706054687500e+00,2.249664306640625000e+00,2.249404907226562500e+00,2.249145507812500000e+00,2.248885393142700195e+00,2.248625278472900391e+00,2.248364925384521484e+00,2.248104810714721680e+00,2.247844696044921875e+00,2.247584581375122070e+00,2.247324466705322266e+00,2.247064590454101562e+00,2.246804714202880859e+00,2.246544837951660156e+00,2.246285200119018555e+00,2.246025323867797852e+00,2.245765686035156250e+00,2.245506048202514648e+00,2.245246648788452148e+00,2.244987010955810547e+00,2.244727849960327148e+00,2.244468450546264648e+00,2.244209289550781250e+00,2.243949890136718750e+00,2.243690729141235352e+00,2.243431568145751953e+00,2.243172645568847656e+00,2.242913722991943359e+00,2.242654561996459961e+00,2.242395877838134766e+00,2.242136955261230469e+00,2.241878271102905273e+00,2.241619586944580078e+00,2.241360902786254883e+00,2.241102457046508789e+00,2.240844011306762695e+00,2.240585327148437500e+00,2.240326881408691406e+00,2.240068674087524414e+00,2.239810466766357422e+00,2.239552021026611328e+00,2.239294052124023438e+00,2.239035844802856445e+00,2.238777875900268555e+00,2.238520145416259766e+00,2.238261938095092773e+00,2.238004207611083984e+00,2.237746477127075195e+00,2.223317146301269531e+00,2.182534933090209961e+00,2.143221855163574219e+00,2.105300188064575195e+00,2.068696975708007812e+00,2.033344745635986328e+00,1.999180555343627930e+00,1.966145515441894531e+00,1.934184432029724121e+00,1.903245806694030762e+00,1.873281240463256836e+00,1.844245672225952148e+00
1.988120198249816895e+00,1.987917661666870117e+00,1.987715125083923340e+00,1.987512588500976562e+00,1.987310051918029785e+00,1.987107634544372559e+00,1.986905336380004883e+00,1.986702919006347656e+00,1.986500620841979980e+00,1.986298441886901855e+00,1.986096143722534180e+00,1.985894083976745605e+00,1.985691905021667480e+00,1.985489845275878906e+00,1.985287785530090332e+00,1.985085725784301758e+00,1.984883785247802734e+00,1.984681844711303711e+00,1.984479904174804688e+00,1.984278082847595215e+00,1.984076261520385742e+00,1.983874559402465820e+00,1.983672738075256348e+00,1.983471155166625977e+00,1.983269453048706055e+00,1.983067870140075684e+00,1.982866287231445312e+00,1.982664823532104492e+00,1.982463359832763672e+00,1.982261896133422852e+00,1.982060432434082031e+00,1.981859087944030762e+00,1.981657743453979492e+00,1.981456518173217773e+00,1.981255292892456055e+00,1.981054067611694336e+00,1.980852961540222168e+00,1.980651855468750000e+00,1.980450510978698730e+00,1.980249524116516113e+00,1.980048537254333496e+00,1.979847550392150879e+00,1.979646682739257812e+00,1.979445815086364746e+00,1.979244947433471680e+00,1.979044198989868164e+00,1.978843450546264648e+00,1.978642702102661133e+00,1.978442072868347168e+00,1.978241443634033203e+00,1.978040814399719238e+00,1.977840304374694824e+00,1.977639794349670410e+00,1.977439284324645996e+00,1.977238893508911133e+00,1.977038502693176270e+00,1.976838111877441406e+00,1.976637840270996094e+00,1.976437568664550781e+00,1.976237416267395020e+00,1.976037144660949707e+00,1.975837111473083496e+00,1.975636959075927734e+00,1.975436925888061523e+00,1.975236892700195312e+00,1.975036859512329102e+00,1.974836945533752441e+00,1.974637031555175781e+00,1.974437236785888672e+00,1.974237442016601562e+00,1.974037647247314453e+00,1.973837971687316895e+00,1.973638176918029785e+00,1.973438620567321777e+00,1.973238945007324219e+00,1.966168403625488281e+00,1.934206485748291016e+00,1.903267145156860352e+00,1.873301982879638672e+00,1.844265937805175781e+00
1.777647972106933594e+00,1.777485966682434082e+00,1.777324080467224121e+00,1.777162194252014160e+00,1.777000308036804199e+00,1.776838421821594238e+00,1.776676654815673828e+00,1.776514887809753418e+00,1.776353120803833008e+00,1.776191353797912598e+00,1.776029706001281738e+00,1.775867938995361328e+00,1.775706291198730469e+00,1.775544762611389160e+00,1.775383114814758301e+00,1.775221586227416992e+00,1.775060057640075684e+00,1.774898529052734375e+00,1.774737119674682617e+00,1.774575710296630859e+00,1.774414300918579102e+00,1.774252891540527344e+00,1.774091482162475586e+00,1.773930191993713379e+00,1.773768901824951172e+00,1.773607611656188965e+00,1.773446440696716309e+00,1.773285150527954102e+00,1.773123979568481445e+00,1.772962927818298340e+00,1.772801756858825684e+00,1.772640705108642578e+00,1.772479653358459473e+00,1.772318601608276367e+00,1.772157549858093262e+00,1.771996617317199707e+00,1.771835684776306152e+00,1.771674752235412598e+00,1.771513819694519043e+00,1.771353006362915039e+00,1.771192193031311035e+00,1.771031379699707031e+00,1.770870566368103027e+00,1.770709872245788574e+00,1.770549178123474121e+00,1.770388364791870117e+00,1.770227670669555664e+00,1.770067095756530762e+00,1.769906401634216309e+00,1.769745826721191406e+00,1.769585371017456055e+00,1.769424796104431152e+00,1.769264340400695801e+00,1.769103884696960449e+00,1.768943548202514648e+00,1.768783092498779297e+00,1.768622756004333496e+00,1.768462419509887695e+00,1.768302083015441895e+00,1.768141865730285645e+00,1.767981648445129395e+00,1.767821431159973145e+00,1.767661213874816895e+00,1.767501115798950195e+00,1.767340898513793945e+00,1.767180800437927246e+00,1.767020821571350098e+00,1.766860723495483398e+00,1.766700744628906250e+00,1.766540765762329102e+00,1.766380786895751953e+00,1.766220927238464355e+00,1.766060948371887207e+00,1.765901088714599609e+00,1.765741348266601562e+00,1.765581488609313965e+00,1.765421748161315918e+00,1.765262007713317871e+00,1.765102267265319824e+00,1.764942646026611328e+00
1.607473015785217285e+00,1.607340574264526367e+00,1.607208132743835449e+00,1.607075691223144531e+00,1.606943368911743164e+00,1.606810927391052246e+00,1.606678605079650879e+00,1.606546282768249512e+00,1.606414079666137695e+00,1.606281757354736328e+00,1.606149554252624512e+00,1.606017351150512695e+00,1.605885028839111328e+00,1.605752944946289062e+00,1.605620741844177246e+00,1.605488657951354980e+00,1.605356454849243164e+00,1.605224370956420898e+00,1.605092287063598633e+00,1.604960322380065918e+00,1.604828238487243652e+00,1.604696273803710938e+00,1.604564189910888672e+00,1.604432225227355957e+00,1.604300379753112793e+00,1.604168415069580078e+00,1.604036569595336914e+00,1.603904604911804199e+00,1.603772759437561035e+00,1.603640913963317871e+00,1.603509187698364258e+00,1.603377342224121094e+00,1.603245615959167480e+00,1.603113889694213867e+00,1.602982044219970703e+00,1.602850437164306641e+00,1.602718710899353027e+00,1.602587103843688965e+00,1.602455377578735352e+00,1.602323770523071289e+00,1.602192163467407227e+00,1.602060675621032715e+00,1.601929068565368652e+00,1.601797580718994141e+00,1.601666092872619629e+00,1.601534605026245117e+00,1.601403117179870605e+00,1.601271629333496094e+00,1.601140260696411133e+00,1.601008772850036621e+00,1.600877404212951660e+00,1.600746035575866699e+00,1.600614547729492188e+00,1.600483298301696777e+00,1.600351929664611816e+00,1.600220680236816406e+00,1.600089430809020996e+00,1.599958181381225586e+00,1.599826931953430176e+00,1.599695801734924316e+00,1.599564671516418457e+00,1.599433541297912598e+00,1.599302411079406738e+00,1.599171280860900879e+00,1.599040150642395020e+00,1.598909139633178711e+00,1.598778128623962402e+00,1.598647117614746094e+00,1.598516106605529785e+00,1.598385095596313477e+00,1.598254203796386719e+00,1.598123311996459961e+00,1.597992300987243652e+00,1.597861528396606445e+00,1.597730636596679688e+00,1.597599744796752930e+00,1.597468972206115723e+00,1.597338199615478516e+00,1.597207307815551758e+00,1.597076654434204102e+00
1.467033386230468750e+00,1.466922998428344727e+00,1.466812729835510254e+00,1.466702461242675781e+00,1.466592073440551758e+00,1.466481804847717285e+00,1.466371536254882812e+00,1.466261386871337891e+00,1.466151118278503418e+00,1.466040968894958496e+00,1.465930819511413574e+00,1.465820670127868652e+00,1.465710520744323730e+00,1.465600371360778809e+00,1.465490341186523438e+00,1.465380191802978516e+00,1.465270161628723145e+00,1.465160131454467773e+00,1.465050101280212402e+00,1.464940071105957031e+00,1.464830040931701660e+00,1.464720129966735840e+00,1.464610099792480469e+00,1.464500188827514648e+00,1.464390277862548828e+00,1.464280366897583008e+00,1.464170455932617188e+00,1.464060544967651367e+00,1.463950634002685547e+00,1.463840842247009277e+00,1.463731050491333008e+00,1.463621139526367188e+00,1.463511347770690918e+00,1.463401556015014648e+00,1.463291883468627930e+00,1.463182091712951660e+00,1.463072299957275391e+00,1.462962627410888672e+00,1.462852954864501953e+00,1.462743282318115234e+00,1.462633609771728516e+00,1.462523937225341797e+00,1.462414264678955078e+00,1.462304711341857910e+00,1.462195038795471191e+00,1.462085485458374023e+00,1.461975932121276855e+00,1.461866378784179688e+00,1.461756825447082520e+00,1.461647272109985352e+00,1.461537837982177734e+00,1.461428284645080566e+00,1.461318850517272949e+00,1.461209416389465332e+00,1.461099982261657715e+00,1.460990548133850098e+00,1.460881114006042480e+00,1.460771799087524414e+00,1.460662364959716797e+00,1.460552930831909180e+00,1.460443496704101562e+00,1.460334181785583496e+00,1.460224866867065430e+00,1.460115671157836914e+00,1.460006356239318848e+00,1.459897041320800781e+00,1.459787845611572266e+00,1.459678649902343750e+00,1.459569454193115234e+00,1.459460258483886719e+00,1.459351062774658203e+00,1.459241867065429688e+00,1.459132790565490723e+00,1.459023594856262207e+00,1.458914518356323242e+00,1.458805441856384277e+00,1.458696365356445312e+00,1.458587288856506348e+00,1.458478212356567383e+00,1.458369135856628418e+00
1.349161386489868164e+00,1.349068045616149902e+00,1.348974823951721191e+00,1.348881483078002930e+00,1.348788261413574219e+00,1.348695039749145508e+00,1.348601818084716797e+00,1.348508596420288086e+00,1.348415374755859375e+00,1.348322153091430664e+00,1.348228931427001953e+00,1.348135709762573242e+00,1.348042607307434082e+00,1.347949385643005371e+00,1.347856283187866211e+00,1.347763180732727051e+00,1.347670078277587891e+00,1.347576975822448730e+00,1.347483873367309570e+00,1.347390770912170410e+00,1.347297787666320801e+00,1.347204804420471191e+00,1.347111701965332031e+00,1.347018718719482422e+00,1.346925735473632812e+00,1.346832752227783203e+00,1.346739768981933594e+00,1.346646785736083984e+00,1.346553802490234375e+00,1.346460938453674316e+00,1.346367955207824707e+00,1.346275091171264648e+00,1.346182107925415039e+00,1.346089243888854980e+00,1.345996379852294922e+00,1.345903515815734863e+00,1.345810651779174805e+00,1.345717906951904297e+00,1.345625042915344238e+00,1.345532178878784180e+00,1.345439434051513672e+00,1.345346689224243164e+00,1.345253825187683105e+00,1.345161080360412598e+00,1.345068335533142090e+00,1.344975590705871582e+00,1.344882845878601074e+00,1.344790220260620117e+00,1.344697475433349609e+00,1.344604849815368652e+00,1.344512104988098145e+00,1.344419479370117188e+00,1.344326853752136230e+00,1.344234228134155273e+00,1.344141602516174316e+00,1.344048976898193359e+00,1.343956351280212402e+00,1.343863844871520996e+00,1.343771219253540039e+00,1.343678712844848633e+00,1.343586087226867676e+00,1.343493580818176270e+00,1.343401074409484863e+00,1.343308568000793457e+00,1.343216061592102051e+00,1.343123555183410645e+00,1.343031048774719238e+00,1.342938542366027832e+00,1.342846155166625977e+00,1.342753767967224121e+00,1.342661261558532715e+00,1.342568874359130859e+00,1.342476487159729004e+00,1.342384099960327148e+00,1.342291712760925293e+00,1.342199444770812988e+00,1.342107057571411133e+00,1.342014789581298828e+00,1.341922402381896973e+00,1.341830134391784668e+00
1.248822093009948730e+00,1.248742222785949707e+00,1.248662233352661133e+00,1.248582363128662109e+00,1.248502492904663086e+00,1.248422503471374512e+00,1.248342633247375488e+00,1.248262763023376465e+00,1.248182892799377441e+00,1.248103022575378418e+00,1.248023271560668945e+00,1.247943401336669922e+00,1.247863531112670898e+00,1.247783780097961426e+00,1.247703909873962402e+00,1.247624158859252930e+00,1.247544407844543457e+00,1.247464537620544434e+00,1.247384786605834961e+00,1.247304916381835938e+00,1.247225284576416016e+00,1.247145533561706543e+00,1.247065782546997070e+00,1.246986031532287598e+00,1.246906399726867676e+00,1.246826648712158203e+00,1.246747016906738281e+00,1.246667265892028809e+00,1.246587634086608887e+00,1.246508002281188965e+00,1.246428370475769043e+00,1.246348738670349121e+00,1.246269106864929199e+00,1.246189475059509277e+00,1.246109843254089355e+00,1.246030330657958984e+00,1.245950698852539062e+00,1.245871186256408691e+00,1.245791554450988770e+00,1.245712041854858398e+00,1.245632529258728027e+00,1.245552897453308105e+00,1.245473384857177734e+00,1.245393872261047363e+00,1.245314478874206543e+00,1.245234966278076172e+00,1.245155453681945801e+00,1.245075941085815430e+00,1.244996547698974609e+00,1.244917035102844238e+00,1.244837641716003418e+00,1.244758248329162598e+00,1.244678735733032227e+00,1.244599342346191406e+00,1.244519948959350586e+00,1.244440555572509766e+00,1.244361281394958496e+00,1.244281888008117676e+00,1.244202494621276855e+00,1.244123101234436035e+00,1.244043827056884766e+00,1.243964433670043945e+00,1.243885159492492676e+00,1.243805885314941406e+00,1.243726611137390137e+00,1.243647336959838867e+00,1.243568062782287598e+00,1.243488788604736328e+00,1.243409514427185059e+00,1.243330240249633789e+00,1.243250966072082520e+00,1.243171811103820801e+00,1.243092536926269531e+00,1.243013262748718262e+00,1.242934107780456543e+00,1.242854952812194824e+00,1.242775678634643555e+00,1.242696523666381836e+00,1.242617368698120117e+00,1.242538213729858398e+00
1.162374496459960938e+00,1.162305235862731934e+00,1.162235975265502930e+00,1.162166833877563477e+00,1.162097573280334473e+00,1.162028312683105469e+00,1.161959171295166016e+00,1.161889910697937012e+00,1.161820769309997559e+00,1.161751508712768555e+00,1.161682367324829102e+00,1.161613225936889648e+00,1.161543965339660645e+00,1.161474823951721191e+00,1.161405682563781738e+00,1.161336541175842285e+00,1.161267399787902832e+00,1.161198377609252930e+00,1.161129236221313477e+00,1.161060094833374023e+00,1.160990953445434570e+00,1.160921931266784668e+00,1.160852789878845215e+00,1.160783767700195312e+00,1.160714626312255859e+00,1.160645604133605957e+00,1.160576462745666504e+00,1.160507440567016602e+00,1.160438418388366699e+00,1.160369396209716797e+00,1.160300374031066895e+00,1.160231351852416992e+00,1.160162329673767090e+00,1.160093426704406738e+00,1.160024404525756836e+00,1.159955382347106934e+00,1.159886479377746582e+00,1.159817457199096680e+00,1.159748554229736328e+00,1.159679651260375977e+00,1.159610629081726074e+00,1.159541726112365723e+00,1.159472823143005371e+00,1.159403920173645020e+00,1.159335017204284668e+00,1.159266114234924316e+00,1.159197211265563965e+00,1.159128308296203613e+00,1.159059524536132812e+00,1.158990621566772461e+00,1.158921718597412109e+00,1.158852934837341309e+00,1.158784151077270508e+00,1.158715248107910156e+00,1.158646464347839355e+00,1.158577680587768555e+00,1.158508777618408203e+00,1.158439993858337402e+00,1.158371210098266602e+00,1.158302545547485352e+00,1.158233761787414551e+00,1.158164978027343750e+00,1.158096194267272949e+00,1.158027529716491699e+00,1.157958745956420898e+00,1.157889962196350098e+00,1.157821297645568848e+00,1.157752633094787598e+00,1.157683849334716797e+00,1.157615184783935547e+00,1.157546520233154297e+00,1.157477855682373047e+00,1.157409191131591797e+00,1.157340526580810547e+00,1.157271862030029297e+00,1.157203197479248047e+00,1.157134532928466797e+00,1.157065868377685547e+00,1.156997323036193848e+00,1.156928658485412598e+00
1.087120413780212402e+00,1.087059855461120605e+00,1.086999297142028809e+00,1.086938738822937012e+00,1.086878180503845215e+00,1.086817622184753418e+00,1.086757063865661621e+00,1.086696505546569824e+00,1.086635947227478027e+00,1.086575508117675781e+00,1.086514949798583984e+00,1.086454391479492188e+00,1.086393952369689941e+00,1.086333394050598145e+00,1.086272954940795898e+00,1.086212396621704102e+00,1.086151957511901855e+00,1.086091518402099609e+00,1.086031079292297363e+00,1.085970640182495117e+00,1.085910201072692871e+00,1.085849761962890625e+00,1.085789322853088379e+00,1.085728883743286133e+00,1.085668444633483887e+00,1.085608005523681641e+00,1.085547566413879395e+00,1.085487246513366699e+00,1.085426807403564453e+00,1.085366368293762207e+00,1.085306048393249512e+00,1.085245609283447266e+00,1.085185170173645020e+00,1.085124850273132324e+00,1.085064530372619629e+00,1.085004210472106934e+00,1.084943771362304688e+00,1.084883451461791992e+00,1.084823131561279297e+00,1.084762811660766602e+00,1.084702491760253906e+00,1.084642171859741211e+00,1.084581851959228516e+00,1.084521651268005371e+00,1.084461331367492676e+00,1.084401011466979980e+00,1.084340810775756836e+00,1.084280490875244141e+00,1.084220290184020996e+00,1.084159970283508301e+00,1.084099769592285156e+00,1.084039449691772461e+00,1.083979249000549316e+00,1.083919048309326172e+00,1.083858847618103027e+00,1.083798646926879883e+00,1.083738446235656738e+00,1.083678245544433594e+00,1.083618044853210449e+00,1.083557844161987305e+00,1.083497643470764160e+00,1.083437442779541016e+00,1.083377242088317871e+00,1.083317160606384277e+00,1.083256959915161133e+00,1.083196878433227539e+00,1.083136677742004395e+00,1.083076596260070801e+00,1.083016395568847656e+00,1.082956314086914062e+00,1.082896232604980469e+00,1.082836031913757324e+00,1.082775950431823730e+00,1.082715868949890137e+00,1.082655787467956543e+00,1.082595705986022949e+00,1.082535624504089355e+00,1.082475543022155762e+00,1.082415461540222168e+00,1.082355499267578125e+00
1.021017909049987793e+00,1.020964503288269043e+00,1.020911097526550293e+00,1.020857691764831543e+00,1.020804286003112793e+00,1.020750880241394043e+00,1.020697474479675293e+00,1.020644068717956543e+00,1.020590662956237793e+00,1.020537257194519043e+00,1.020483851432800293e+00,1.020430445671081543e+00,1.020377159118652344e+00,1.020323753356933594e+00,1.020270347595214844e+00,1.020217061042785645e+00,1.020163655281066895e+00,1.020110368728637695e+00,1.020056962966918945e+00,1.020003676414489746e+00,1.019950389862060547e+00,1.019896984100341797e+00,1.019843697547912598e+00,1.019790410995483398e+00,1.019737124443054199e+00,1.019683837890625000e+00,1.019630432128906250e+00,1.019577145576477051e+00,1.019523859024047852e+00,1.019470691680908203e+00,1.019417405128479004e+00,1.019364118576049805e+00,1.019310832023620605e+00,1.019257545471191406e+00,1.019204378128051758e+00,1.019151091575622559e+00,1.019097805023193359e+00,1.019044637680053711e+00,1.018991351127624512e+00,1.018938064575195312e+00,1.018884897232055664e+00,1.018831729888916016e+00,1.018778443336486816e+00,1.018725275993347168e+00,1.018672108650207520e+00,1.018618941307067871e+00,1.018565654754638672e+00,1.018512487411499023e+00,1.018459320068359375e+00,1.018406152725219727e+00,1.018352985382080078e+00,1.018299818038940430e+00,1.018246769905090332e+00,1.018193602561950684e+00,1.018140435218811035e+00,1.018087267875671387e+00,1.018034219741821289e+00,1.017981052398681641e+00,1.017927885055541992e+00,1.017874836921691895e+00,1.017821669578552246e+00,1.017768621444702148e+00,1.017715573310852051e+00,1.017662405967712402e+00,1.017609357833862305e+00,1.017556309700012207e+00,1.017503142356872559e+00,1.017450094223022461e+00,1.017397046089172363e+00,1.017343997955322266e+00,1.017290949821472168e+00,1.017237901687622070e+00,1.017184853553771973e+00,1.017131805419921875e+00,1.017078757286071777e+00,1.017025828361511230e+00,1.016972780227661133e+00,1.016919732093811035e+00,1.016866803169250488e+00,1.016813755035400391e+00
9.624934792518615723e-01,9.624460339546203613e-01,9.623985290527343750e-01,9.623510241508483887e-01,9.623035788536071777e-01,9.622560739517211914e-01,9.622086286544799805e-01,9.621611833572387695e-01,9.621137380599975586e-01,9.620662927627563477e-01,9.620188474655151367e-01,9.619714021682739258e-01,9.619239568710327148e-01,9.618765711784362793e-01,9.618291258811950684e-01,9.617816805839538574e-01,9.617342948913574219e-01,9.616869091987609863e-01,9.616394639015197754e-01,9.615920782089233398e-01,9.615446925163269043e-01,9.614973068237304688e-01,9.614499211311340332e-01,9.614025354385375977e-01,9.613551497459411621e-01,9.613077640533447266e-01,9.612604379653930664e-01,9.612130522727966309e-01,9.611656665802001953e-01,9.611183404922485352e-01,9.610710144042968750e-01,9.610236287117004395e-01,9.609763026237487793e-01,9.609289765357971191e-01,9.608816504478454590e-01,9.608343243598937988e-01,9.607869982719421387e-01,9.607396721839904785e-01,9.606923460960388184e-01,9.606450796127319336e-01,9.605977535247802734e-01,9.605504870414733887e-01,9.605031609535217285e-01,9.604558944702148438e-01,9.604085683822631836e-01,9.603613018989562988e-01,9.603140354156494141e-01,9.602667689323425293e-01,9.602195024490356445e-01,9.601722359657287598e-01,9.601249694824218750e-01,9.600777626037597656e-01,9.600304961204528809e-01,9.599832296371459961e-01,9.599360227584838867e-01,9.598887562751770020e-01,9.598415493965148926e-01,9.597943425178527832e-01,9.597471356391906738e-01,9.596998691558837891e-01,9.596526622772216797e-01,9.596054553985595703e-01,9.595583081245422363e-01,9.595111012458801270e-01,9.594638943672180176e-01,9.594166874885559082e-01,9.593695402145385742e-01,9.593223333358764648e-01,9.592751860618591309e-01,9.592279791831970215e-01,9.591808319091796875e-01,9.591336846351623535e-01,9.590865373611450195e-01,9.590393900871276855e-01,9.589922428131103516e-01,9.589450955390930176e-01,9.588979482650756836e-01,9.588508009910583496e-01,9.588037133216857910e-01,9.587565660476684570e-01
9.103145003318786621e-01,9.102720022201538086e-01,9.102295041084289551e-01,9.101870656013488770e-01,9.101446270942687988e-01,9.101021289825439453e-01,9.100596904754638672e-01,9.100172519683837891e-01,9.099747538566589355e-01,9.099323153495788574e-01,9.098898768424987793e-01,9.098474383354187012e-01,9.098050594329833984e-01,9.097626209259033203e-01,9.097201824188232422e-01,9.096777439117431641e-01,9.096353650093078613e-01,9.095929265022277832e-01,9.095505475997924805e-01,9.095081090927124023e-01,9.094657301902770996e-01,9.094232916831970215e-01,9.093809127807617188e-01,9.093385338783264160e-01,9.092961549758911133e-01,9.092537760734558105e-01,9.092113971710205078e-01,9.091690182685852051e-01,9.091266393661499023e-01,9.090842604637145996e-01,9.090419411659240723e-01,9.089995622634887695e-01,9.089572429656982422e-01,9.089148640632629395e-01,9.088725447654724121e-01,9.088301658630371094e-01,9.087878465652465820e-01,9.087455272674560547e-01,9.087032079696655273e-01,9.086608290672302246e-01,9.086185097694396973e-01,9.085762500762939453e-01,9.085339307785034180e-01,9.084916114807128906e-01,9.084492921829223633e-01,9.084069728851318359e-01,9.083647131919860840e-01,9.083223938941955566e-01,9.082801342010498047e-01,9.082378149032592773e-01,9.081955552101135254e-01,9.081532955169677734e-01,9.081109762191772461e-01,9.080687165260314941e-01,9.080264568328857422e-01,9.079841971397399902e-01,9.079419374465942383e-01,9.078996777534484863e-01,9.078574180603027344e-01,9.078151583671569824e-01,9.077729582786560059e-01,9.077306985855102539e-01,9.076884388923645020e-01,9.076462388038635254e-01,9.076039791107177734e-01,9.075617790222167969e-01,9.075195789337158203e-01,9.074773788452148438e-01,9.074351191520690918e-01,9.073929190635681152e-01,9.073507189750671387e-01,9.073085188865661621e-01,9.072663187980651855e-01,9.072241187095642090e-01,9.071819782257080078e-01,9.071397781372070312e-01,9.070975780487060547e-01,9.070554375648498535e-01,9.070132374763488770e-01,9.069710969924926758e-01
8.635021448135375977e-01,8.634638786315917969e-01,8.634256720542907715e-01,8.633874654769897461e-01,8.633491992950439453e-01,8.633109927177429199e-01,8.632727861404418945e-01,8.632345795631408691e-01,8.631963729858398438e-01,8.631581664085388184e-01,8.631200194358825684e-01,8.630818128585815430e-01,8.630436062812805176e-01,8.630054593086242676e-01,8.629672527313232422e-01,8.629291057586669922e-01,8.628909587860107422e-01,8.628527522087097168e-01,8.628146052360534668e-01,8.627764582633972168e-01,8.627383112907409668e-01,8.627001643180847168e-01,8.626620173454284668e-01,8.626238703727722168e-01,8.625857234001159668e-01,8.625475764274597168e-01,8.625094294548034668e-01,8.624712824821472168e-01,8.624331951141357422e-01,8.623950481414794922e-01,8.623569011688232422e-01,8.623188138008117676e-01,8.622806668281555176e-01,8.622425794601440430e-01,8.622044920921325684e-01,8.621663451194763184e-01,8.621282577514648438e-01,8.620901703834533691e-01,8.620520830154418945e-01,8.620139956474304199e-01,8.619759082794189453e-01,8.619378209114074707e-01,8.618997335433959961e-01,8.618616461753845215e-01,8.618235588073730469e-01,8.617854714393615723e-01,8.617474436759948730e-01,8.617093563079833984e-01,8.616713285446166992e-01,8.616332411766052246e-01,8.615952134132385254e-01,8.615571260452270508e-01,8.615190982818603516e-01,8.614810705184936523e-01,8.614429831504821777e-01,8.614049553871154785e-01,8.613669276237487793e-01,8.613288998603820801e-01,8.612908720970153809e-01,8.612528443336486816e-01,8.612148165702819824e-01,8.611767888069152832e-01,8.611388206481933594e-01,8.611007928848266602e-01,8.610627651214599609e-01,8.610247969627380371e-01,8.609867691993713379e-01,8.609488010406494141e-01,8.609107732772827148e-01,8.608728051185607910e-01,8.608348369598388672e-01,8.607968091964721680e-01,8.607588410377502441e-01,8.607208728790283203e-01,8.606829047203063965e-01,8.606449365615844727e-01,8.606069684028625488e-01,8.605690002441406250e-01,8.605310320854187012e-01,8.604930639266967773e-01
8.212687969207763672e-01,8.212342262268066406e-01,8.211996555328369141e-01,8.211650848388671875e-01,8.211305141448974609e-01,8.210959434509277344e-01,8.210614323616027832e-01,8.210268616676330566e-01,8.209922909736633301e-01,8.209577798843383789e-01,8.209231495857238770e-01,8.208885788917541504e-01,8.208540678024291992e-01,8.208194971084594727e-01,8.207849860191345215e-01,8.207504749298095703e-01,8.207159042358398438e-01,8.206813931465148926e-01,8.206468820571899414e-01,8.206123709678649902e-01,8.205778598785400391e-01,8.205433487892150879e-01,8.205088376998901367e-01,8.204743266105651855e-01,8.204398155212402344e-01,8.204053044319152832e-01,8.203707933425903320e-01,8.203362822532653809e-01,8.203018307685852051e-01,8.202673196792602539e-01,8.202328085899353027e-01,8.201983571052551270e-01,8.201638460159301758e-01,8.201293945312500000e-01,8.200949430465698242e-01,8.200604319572448730e-01,8.200259804725646973e-01,8.199915289878845215e-01,8.199570178985595703e-01,8.199225664138793945e-01,8.198881149291992188e-01,8.198536634445190430e-01,8.198192119598388672e-01,8.197847604751586914e-01,8.197503089904785156e-01,8.197158575057983398e-01,8.196814060211181641e-01,8.196469545364379883e-01,8.196125626564025879e-01,8.195781111717224121e-01,8.195436596870422363e-01,8.195092678070068359e-01,8.194748163223266602e-01,8.194404244422912598e-01,8.194059729576110840e-01,8.193715810775756836e-01,8.193371295928955078e-01,8.193027377128601074e-01,8.192683458328247070e-01,8.192339539527893066e-01,8.191995620727539062e-01,8.191651105880737305e-01,8.191307187080383301e-01,8.190963268280029297e-01,8.190619349479675293e-01,8.190275430679321289e-01,8.189932107925415039e-01,8.189588189125061035e-01,8.189244270324707031e-01,8.188900351524353027e-01,8.188557028770446777e-01,8.188213109970092773e-01,8.187869191169738770e-01,8.187525868415832520e-01,8.187181949615478516e-01,8.186838626861572266e-01,8.186494708061218262e-01,8.186151385307312012e-01,8.185808062553405762e-01,8.185464739799499512e-01
